# .PCD v0.7 - Point Cloud Data file format
VERSION 0.7
FIELDS x y z rgb
SIZE 4 4 4 4
TYPE F F F F
COUNT 1 1 1 1
WIDTH 943
HEIGHT 1
VIEWPOINT 0 0 0 1 0 0 0
POINTS 943
DATA ascii
-0.073076516 -0.12821732 -0.029558003 2.3509886e-38
-0.070955098 -0.12744872 -0.026524365 2.3509886e-38
-0.068781435 -0.12645011 -0.022582829 2.3509886e-38
-0.066685498 -0.12569134 -0.019587934 2.3509886e-38
-0.064533621 -0.12467657 -0.015582621 2.3509883e-38
-0.062652126 -0.12467657 -0.015582621 2.3509883e-38
-0.060770627 -0.12467657 -0.015582621 2.3509883e-38
-0.058889132 -0.12467657 -0.015582621 2.350988e-38
-0.057007622 -0.12467657 -0.015582621 2.350988e-38
-0.054783728 -0.12315418 -0.0095737576 2.3509883e-38
-0.052912761 -0.12315418 -0.0095737576 2.3509886e-38
-0.051041793 -0.12315418 -0.0095737576 2.3509527e-38
-0.049170833 -0.12315418 -0.0095737576 2.3509527e-38
-0.046648782 -0.11985306 0.0034558177 2.3509527e-38
-0.044800665 -0.11985306 0.0034558177 2.3509527e-38
-0.042764161 -0.11882581 0.0075103641 2.3509886e-38
-0.040923152 -0.11882581 0.0075103641 2.3509527e-38
-0.04127517 -0.13176022 -0.043541849 2.3509886e-38
-0.03934465 -0.13176022 -0.043541849 2.3509886e-38
-0.03741413 -0.13176022 -0.043541849 2.3509886e-38
-0.035483614 -0.13176022 -0.043541849 2.3509886e-38
-0.033411231 -0.13076027 -0.039595068 2.3509886e-38
-0.03124474 -0.12896039 -0.032490909 2.3509886e-38
-0.029333595 -0.12896039 -0.032490909 2.3509886e-38
-0.027239379 -0.12744872 -0.026524365 2.3509883e-38
-0.025224667 -0.12645011 -0.022582829 2.3509883e-38
-0.023330893 -0.12645011 -0.022582829 2.3509886e-38
-0.02143712 -0.12645011 -0.022582829 2.3509886e-38
-0.019472461 -0.12569134 -0.019587934 2.3509886e-38
-0.01758394 -0.12569134 -0.019587934 2.3509886e-38
-0.015695415 -0.12569134 -0.019587934 2.3509886e-38
-0.013806894 -0.12569134 -0.019587934 2.3509886e-38
-0.011918373 -0.12569134 -0.019587934 2.3509886e-38
-0.0099701621 -0.12467657 -0.015582621 2.3509886e-38
-0.008048296 -0.12389888 -0.012513101 2.3509886e-38
-0.0061386786 -0.12315418 -0.0095737576 2.3509886e-38
-0.0041707903 -0.12060766 0.0004773736 2.3509886e-38
-0.0022939518 -0.11985306 0.0034558177 2.3509886e-38
-0.00044583343 -0.11985306 0.0034558177 2.3509886e-38
0.0014200583 -0.11882581 0.0075103641 2.3509886e-38
0.003261067 -0.11882581 0.0075103641 2.3509886e-38
0.0051046517 -0.11808117 0.010449469 2.3509886e-38
0.0069405083 -0.11808117 0.010449469 2.3509886e-38
0.0087683927 -0.11731337 0.013480008 2.3509886e-38
0.010598935 -0.11731337 0.013480008 2.3509886e-38
0.012410987 -0.11654995 0.016493142 2.3509886e-38
0.014236246 -0.11654995 0.016493142 2.3509886e-38
0.016032618 -0.11579098 0.019488871 2.3509886e-38
0.017852623 -0.11579098 0.019488871 2.341805e-38
0.01967263 -0.11579098 0.019488871 2.341805e-38
0.021492638 -0.11579098 0.019488871 2.341805e-38
0.023312643 -0.11579098 0.019488871 2.341805e-38
0.025187802 -0.11654995 0.016493142 2.341805e-38
0.027013062 -0.11654995 0.016493142 2.3509886e-38
0.029189333 -0.12060766 0.0004773736 2.3509886e-38
0.031042673 -0.12060766 0.0004773736 2.341769e-38
0.032896012 -0.12060766 0.0004773736 2.3325494e-38
0.034749351 -0.12060766 0.0004773736 2.3233299e-38
0.036602695 -0.12060766 0.0004773736 2.3233296e-38
0.038547941 -0.12136655 -0.0025179982 2.3325492e-38
0.040504247 -0.12212978 -0.005530417 2.3509883e-38
0.042368121 -0.12212978 -0.005530417 2.3509883e-38
0.044231996 -0.12212978 -0.005530417 2.3509883e-38
0.046095867 -0.12212978 -0.005530417 2.3509886e-38
0.047959741 -0.12212978 -0.005530417 2.3509886e-38
0.049823616 -0.12212978 -0.005530417 2.341769e-38
0.051861178 -0.12315418 -0.0095737576 2.3509886e-38
0.053551365 -0.12212978 -0.005530417 2.3509886e-38
0.055415239 -0.12212978 -0.005530417 2.3509886e-38
0.057474069 -0.12315418 -0.0095737576 2.3509886e-38
0.059142984 -0.12212978 -0.005530417 2.3509527e-38
0.061006859 -0.12212978 -0.005530417 2.3509886e-38
0.063086957 -0.12315418 -0.0095737576 2.3509527e-38
0.064957917 -0.12315418 -0.0095737576 2.3509886e-38
0.066996381 -0.12389888 -0.012513101 2.3509886e-38
0.068872496 -0.12389888 -0.012513101 2.3418047e-38
0.070934288 -0.12467657 -0.015582621 2.3418047e-38
0.072815783 -0.12467657 -0.015582621 2.3234376e-38
0.074697286 -0.12467657 -0.015582621 2.3142544e-38
0.076578781 -0.12467657 -0.015582621 2.2867037e-38
0.078460284 -0.12467657 -0.015582621 2.2591531e-38
0.080341779 -0.12467657 -0.015582621 2.2499695e-38
0.090111941 -0.11985306 0.0034558177 5.537144e-39
0.091960058 -0.11985306 0.0034558177 2.7712667e-39
0.093808189 -0.11985306 0.0034558177 8.3336341e-40
0.095311522 -0.11882581 0.0075103641 1.3840275e-39
0.097152531 -0.11882581 0.0075103641 4.602761e-40
-0.11427546 -0.14211179 -0.076551378 1.9829246e-38
-0.11186348 -0.14107598 -0.072491109 1.9737055e-38
-0.10988221 -0.14107598 -0.072491109 1.982925e-38
-0.10720418 -0.13931294 -0.065580189 2.0289873e-38
-0.10484055 -0.13829704 -0.061598003 2.0750851e-38
-0.10287836 -0.13829704 -0.061598003 2.1025999e-38
-0.10052659 -0.13725694 -0.057520926 2.1671365e-38
-0.098295152 -0.13650523 -0.054574311 2.2130904e-38
-0.095974669 -0.13547809 -0.050548017 2.1669923e-38
-0.09403187 -0.13547809 -0.050548017 2.2037267e-38
-0.091820702 -0.1347049 -0.04751724 2.2867026e-38
-0.089538187 -0.13369073 -0.043541849 2.3418043e-38
-0.087607667 -0.13369073 -0.043541849 2.3418043e-38
-0.085091129 -0.13189565 -0.036505282 2.3509876e-38
-0.083172947 -0.13189565 -0.036505282 2.3509876e-38
-0.08093451 -0.13087155 -0.032490909 2.3509879e-38
-0.079023361 -0.13087155 -0.032490909 2.350988e-38
-0.077112213 -0.13087155 -0.032490909 2.3509883e-38
-0.074982524 -0.13012333 -0.029558003 2.3509883e-38
-0.073076516 -0.13012333 -0.029558003 2.3509886e-38
-0.070955098 -0.12934943 -0.026524365 2.3509886e-38
-0.068781435 -0.1283439 -0.022582829 2.3509886e-38
-0.066685498 -0.12757985 -0.019587934 2.3509886e-38
-0.064533621 -0.12655805 -0.015582621 2.3509886e-38
-0.062652126 -0.12655805 -0.015582621 2.3509883e-38
-0.060579564 -0.12577499 -0.012513101 2.3509883e-38
-0.058703449 -0.12577499 -0.012513101 2.350988e-38
-0.056654688 -0.12502514 -0.0095737576 2.350988e-38
-0.054783728 -0.12502514 -0.0095737576 2.3509883e-38
-0.052689444 -0.12399365 -0.005530417 2.3509527e-38
-0.050825577 -0.12399365 -0.005530417 2.3509527e-38
-0.048805889 -0.12322514 -0.0025179982 2.3509527e-38
-0.046648782 -0.12170117 0.0034558177 2.3509527e-38
-0.044800665 -0.12170117 0.0034558177 2.3509527e-38
-0.042627599 -0.11991702 0.010449469 2.3509527e-38
-0.040791746 -0.11991702 0.010449469 2.3509527e-38
-0.04127517 -0.13369073 -0.043541849 2.3509527e-38
-0.036747579 -0.11761098 0.019488871 2.3509886e-38
-0.034927573 -0.11761098 0.019488871 2.3509886e-38
-0.035483614 -0.13369073 -0.043541849 2.3509886e-38
-0.033155885 -0.13087155 -0.032490909 2.3509886e-38
-0.03124474 -0.13087155 -0.032490909 2.3509886e-38
-0.029238462 -0.13012333 -0.029558003 2.3509886e-38
-0.027239379 -0.12934943 -0.026524365 2.3509883e-38
-0.025224667 -0.1283439 -0.022582829 2.3509883e-38
-0.023330893 -0.1283439 -0.022582829 2.3509886e-38
-0.02143712 -0.1283439 -0.022582829 2.3509886e-38
-0.019472461 -0.12757985 -0.019587934 2.3509886e-38
-0.01758394 -0.12757985 -0.019587934 2.3509886e-38
-0.015695415 -0.12757985 -0.019587934 2.3509886e-38
-0.013806894 -0.12757985 -0.019587934 2.3509886e-38
-0.011918373 -0.12757985 -0.019587934 2.3509886e-38
-0.0099244155 -0.12577499 -0.012513101 2.3509886e-38
-0.0080096461 -0.12502514 -0.0095737576 2.3509886e-38
-0.0060926005 -0.12399365 -0.005530417 2.3509886e-38
-0.0041420683 -0.12170117 0.0034558177 2.3509886e-38
-0.0022939518 -0.12170117 0.0034558177 2.3509886e-38
-0.00044583343 -0.12170117 0.0034558177 2.3509886e-38
0.0014200583 -0.12066682 0.0075103641 2.3509886e-38
0.003261067 -0.12066682 0.0075103641 2.3509886e-38
0.0051046517 -0.11991702 0.010449469 2.3509886e-38
0.0069405083 -0.11991702 0.010449469 2.3509886e-38
0.0087683927 -0.11914389 0.013480008 2.3509886e-38
0.010598935 -0.11914389 0.013480008 2.3509886e-38
0.012410987 -0.11837523 0.016493142 2.3509886e-38
0.014236246 -0.11837523 0.016493142 2.3509886e-38
0.016032618 -0.11761098 0.019488871 2.3509886e-38
0.017852623 -0.11761098 0.019488871 2.3509886e-38
0.01967263 -0.11761098 0.019488871 2.3509886e-38
0.021492638 -0.11761098 0.019488871 2.3509886e-38
0.023362543 -0.11837523 0.016493142 2.3509886e-38
0.025243273 -0.11914389 0.013480008 2.3509886e-38
0.027134921 -0.11991702 0.010449469 2.3509886e-38
0.029035194 -0.12066682 0.0075103641 2.3509886e-38
0.030972173 -0.12170117 0.0034558177 2.341769e-38
0.032820292 -0.12170117 0.0034558177 2.3325494e-38
0.034749351 -0.12246101 0.0004773736 2.3233299e-38
0.036602695 -0.12246101 0.0004773736 2.2126951e-38
0.038456034 -0.12246101 0.0004773736 2.2311342e-38
0.040504247 -0.12399365 -0.005530417 2.2680125e-38
0.042265125 -0.12322514 -0.0025179982 2.3141103e-38
0.044123717 -0.12322514 -0.0025179982 2.341769e-38
0.046095867 -0.12399365 -0.005530417 2.3509886e-38
0.047959741 -0.12399365 -0.005530417 2.3509886e-38
0.049990214 -0.12502514 -0.0095737576 2.3509886e-38
0.051861178 -0.12502514 -0.0095737576 2.3509886e-38
0.053551365 -0.12399365 -0.005530417 2.3509886e-38
0.055415239 -0.12399365 -0.005530417 2.3509886e-38
0.057474069 -0.12502514 -0.0095737576 2.3509886e-38
0.059142984 -0.12399365 -0.005530417 2.3509886e-38
0.061006859 -0.12399365 -0.005530417 2.3509886e-38
0.063086957 -0.12502514 -0.0095737576 2.3509886e-38
0.064957917 -0.12502514 -0.0095737576 2.3509886e-38
0.066996381 -0.12577499 -0.012513101 2.341805e-38
0.068872496 -0.12577499 -0.012513101 2.341805e-38
0.070748612 -0.12577499 -0.012513101 2.341805e-38
0.072624728 -0.12577499 -0.012513101 2.341805e-38
0.074697286 -0.12655805 -0.015582621 2.341805e-38
0.076578781 -0.12655805 -0.015582621 2.3234379e-38
0.078460284 -0.12655805 -0.015582621 2.3234379e-38
0.078120321 -0.11837523 0.016493142 2.3142544e-38
0.090111941 -0.12170117 0.0034558177 2.2407857e-38
0.091960058 -0.12170117 0.0034558177 2.1670292e-38
0.093808189 -0.12170117 0.0034558177 2.0655424e-38
0.095311522 -0.12066682 0.0075103641 1.9270343e-38
0.097152531 -0.12066682 0.0075103641 7.3763889e-39
0.099352539 -0.12170117 0.0034558177 1.7517338e-39
0.10120066 -0.12170117 0.0034558177 1.4744252e-39
0.10304877 -0.12170117 0.0034558177 2.2116301e-39
-0.11427546 -0.1441002 -0.076551378 1.9737051e-38
-0.11186348 -0.14305727 -0.072491109 1.9737055e-38
-0.10988221 -0.14305727 -0.072491109 1.982925e-38
-0.10720418 -0.1412821 -0.065580189 2.0105837e-38
-0.10484055 -0.14025922 -0.061598003 2.047462e-38
-0.10287836 -0.14025922 -0.061598003 2.09338e-38
-0.10052659 -0.13921197 -0.057520926 2.1302583e-38
-0.098295152 -0.13845511 -0.054574311 2.1485535e-38
-0.095974669 -0.13742088 -0.050548017 2.1301141e-38
-0.09403187 -0.13742088 -0.050548017 2.2037267e-38
-0.091820702 -0.13664238 -0.04751724 2.2958863e-38
-0.089538187 -0.13562126 -0.043541849 2.3418043e-38
-0.087607667 -0.13562126 -0.043541849 2.3326203e-38
-0.085091129 -0.13381381 -0.036505282 2.3509876e-38
-0.083172947 -0.13381381 -0.036505282 2.3509876e-38
-0.08093451 -0.13278268 -0.032490909 2.3509879e-38
-0.079023361 -0.13278268 -0.032490909 2.350988e-38
-0.076888517 -0.13202934 -0.029558003 2.3509883e-38
-0.074982524 -0.13202934 -0.029558003 2.3509883e-38
-0.072855785 -0.1312501 -0.026524365 2.3509886e-38
-0.070675209 -0.13023765 -0.022582829 2.3509886e-38
-0.068574026 -0.1294684 -0.019587934 2.3509886e-38
-0.066685498 -0.1294684 -0.019587934 2.3509886e-38
-0.064533621 -0.12843956 -0.015582621 2.3509886e-38
-0.062652126 -0.12843956 -0.015582621 2.3509883e-38
-0.060579564 -0.12765111 -0.012513101 2.3509883e-38
-0.058703449 -0.12765111 -0.012513101 2.350988e-38
-0.056654688 -0.1268961 -0.0095737576 2.350988e-38
-0.054783728 -0.1268961 -0.0095737576 2.3509883e-38
-0.052689444 -0.12585752 -0.005530417 2.3509527e-38
-0.050664481 -0.12508373 -0.0025179982 2.3509527e-38
-0.048805889 -0.12508373 -0.0025179982 2.3509527e-38
-0.046648782 -0.1235493 0.0034558177 2.3509527e-38
-0.044800665 -0.1235493 0.0034558177 2.3509527e-38
-0.042627599 -0.12175287 0.010449469 2.3509527e-38
-0.040791746 -0.12175287 0.010449469 2.3509886e-38
-0.03869627 -0.12020047 0.016493142 2.3509886e-38
-0.036747579 -0.11943097 0.019488871 2.3509886e-38
-0.034927573 -0.11943097 0.019488871 2.3509886e-38
-0.033107564 -0.11943097 0.019488871 2.3509886e-38
-0.031287558 -0.11943097 0.019488871 2.3509886e-38
-0.03124474 -0.13278268 -0.032490909 2.3509886e-38
-0.029238462 -0.13202934 -0.029558003 2.3509886e-38
-0.027332459 -0.13202934 -0.029558003 2.3509883e-38
-0.025338694 -0.1312501 -0.026524365 2.3509883e-38
-0.02343801 -0.1312501 -0.026524365 2.3509886e-38
-0.02143712 -0.13023765 -0.022582829 2.3509886e-38
-0.019472461 -0.1294684 -0.019587934 2.3509886e-38
-0.01758394 -0.1294684 -0.019587934 2.3509886e-38
-0.015695415 -0.1294684 -0.019587934 2.3509886e-38
-0.013806894 -0.1294684 -0.019587934 2.3509886e-38
-0.011918373 -0.1294684 -0.019587934 2.3509886e-38
-0.0098203458 -0.12585752 -0.005530417 2.3509886e-38
-0.007956475 -0.12585752 -0.005530417 2.3509886e-38
-0.0059901886 -0.1235493 0.0034558177 2.3509886e-38
-0.0041029695 -0.12250783 0.0075103641 2.3509886e-38
-0.0022619609 -0.12250783 0.0075103641 2.3509886e-38
-0.00042095222 -0.12250783 0.0075103641 2.3509886e-38
0.0014200583 -0.12250783 0.0075103641 2.3509886e-38
0.003268797 -0.12175287 0.010449469 2.3509886e-38
0.0051073097 -0.12097444 0.013480008 2.3509886e-38
0.0069378503 -0.12097444 0.013480008 2.3509886e-38
0.008760469 -0.12020047 0.016493142 2.3509886e-38
0.010585729 -0.12020047 0.016493142 2.3509886e-38
0.012410987 -0.12020047 0.016493142 2.3509886e-38
0.01421261 -0.11943097 0.019488871 2.3509886e-38
0.016032618 -0.11943097 0.019488871 2.3509886e-38
0.017852623 -0.11943097 0.019488871 2.3509886e-38
0.01967263 -0.11943097 0.019488871 2.3509886e-38
0.021537283 -0.12020047 0.016493142 2.3509886e-38
0.023412732 -0.12097444 0.013480008 2.3509886e-38
0.025299067 -0.12175287 0.010449469 2.3509886e-38
0.027134921 -0.12175287 0.010449469 2.3509886e-38
0.029035194 -0.12250783 0.0075103641 2.3509886e-38
0.030972173 -0.1235493 0.0034558177 2.341769e-38
0.032820292 -0.1235493 0.0034558177 2.3325494e-38
0.034749351 -0.12431435 0.0004773736 2.3325494e-38
0.036602695 -0.12431435 0.0004773736 2.2864516e-38
0.038456034 -0.12431435 0.0004773736 2.3048907e-38
0.040504247 -0.12585752 -0.005530417 2.3233299e-38
0.042265125 -0.12508373 -0.0025179982 2.341769e-38
0.044123717 -0.12508373 -0.0025179982 2.3509886e-38
0.045982309 -0.12508373 -0.0025179982 2.3509886e-38
0.047959741 -0.12585752 -0.005530417 2.3509886e-38
0.049823616 -0.12585752 -0.005530417 2.3509886e-38
0.051861178 -0.1268961 -0.0095737576 2.3509886e-38
0.053551365 -0.12585752 -0.005530417 2.3509886e-38
0.055415239 -0.12585752 -0.005530417 2.3509886e-38
0.057474069 -0.1268961 -0.0095737576 2.3509886e-38
0.059345033 -0.1268961 -0.0095737576 2.3509886e-38
0.061215993 -0.1268961 -0.0095737576 2.3509886e-38
0.063086957 -0.1268961 -0.0095737576 2.3509886e-38
0.064957917 -0.1268961 -0.0095737576 2.3509886e-38
0.066996381 -0.12765111 -0.012513101 2.3509886e-38
0.068872496 -0.12765111 -0.012513101 2.3509886e-38
0.070748612 -0.12765111 -0.012513101 2.3509886e-38
0.072624728 -0.12765111 -0.012513101 2.341805e-38
0.074500844 -0.12765111 -0.012513101 2.341805e-38
0.073812999 -0.11763458 0.026482522 2.3234379e-38
0.076092839 -0.11943097 0.019488871 2.3234379e-38
0.078120321 -0.12020047 0.016493142 2.3142544e-38
0.079945579 -0.12020047 0.016493142 2.2497894e-38
0.081770837 -0.12020047 0.016493142 2.2775202e-38
0.083820626 -0.12097444 0.013480008 2.2958873e-38
0.088263832 -0.1235493 0.0034558177 2.2867037e-38
0.090111941 -0.1235493 0.0034558177 2.2867037e-38
0.091960058 -0.1235493 0.0034558177 2.2867037e-38
0.093808189 -0.1235493 0.0034558177 2.2683366e-38
0.095311522 -0.12250783 0.0075103641 2.3142544e-38
0.097152531 -0.12250783 0.0075103641 1.0050062e-38
0.09899354 -0.12250783 0.0075103641 1.5673425e-39
0.10120066 -0.1235493 0.0034558177 1.8432077e-39
0.10304877 -0.1235493 0.0034558177 2.8569995e-39
0.10489689 -0.1235493 0.0034558177 2.9491896e-39
0.106745 -0.1235493 0.0034558177 1.8421217e-39
-0.11427546 -0.14608859 -0.076551378 2.0013639e-38
-0.11228706 -0.14608859 -0.076551378 2.0013642e-38
-0.10988221 -0.14503856 -0.072491109 1.9921446e-38
-0.10720418 -0.14325126 -0.065580189 1.9921446e-38
-0.10484055 -0.14222141 -0.061598003 2.028915e-38
-0.10287836 -0.14222141 -0.061598003 2.1118191e-38
-0.10052659 -0.141167 -0.057520926 2.1118547e-38
-0.098295152 -0.14040495 -0.054574311 2.1208945e-38
-0.095974669 -0.13936369 -0.050548017 2.1300779e-38
-0.09403187 -0.13936369 -0.050548017 2.2129461e-38
-0.091820702 -0.13857989 -0.04751724 2.3050696e-38
-0.089538187 -0.1375518 -0.043541849 2.341804e-38
-0.087607667 -0.1375518 -0.043541849 2.3234367e-38
-0.085091129 -0.13573201 -0.036505282 2.3509876e-38
-0.083172947 -0.13573201 -0.036505282 2.3509876e-38
-0.08093451 -0.13469382 -0.032490909 2.3509879e-38
-0.079023361 -0.13469382 -0.032490909 2.350988e-38
-0.076888517 -0.13393532 -0.029558003 2.3509883e-38
-0.074756458 -0.13315077 -0.026524365 2.3509883e-38
-0.072855785 -0.13315077 -0.026524365 2.3509886e-38
-0.07046254 -0.13135691 -0.019587934 2.3509886e-38
-0.068574026 -0.13135691 -0.019587934 2.3509886e-38
-0.066685498 -0.13135691 -0.019587934 2.3509886e-38
-0.064533621 -0.13032107 -0.015582621 2.3509886e-38
-0.06245568 -0.12952723 -0.012513101 2.3509886e-38
-0.060579564 -0.12952723 -0.012513101 2.3509886e-38
-0.058703449 -0.12952723 -0.012513101 2.3509883e-38
-0.056654688 -0.12876706 -0.0095737576 2.3509883e-38
-0.054783728 -0.12876706 -0.0095737576 2.3509883e-38
-0.052689444 -0.12772138 -0.005530417 2.3509527e-38
-0.050664481 -0.12694232 -0.0025179982 2.3509527e-38
-0.048805889 -0.12694232 -0.0025179982 2.3509527e-38
-0.046947297 -0.12694232 -0.0025179982 2.3509527e-38
-0.044944275 -0.12616767 0.0004773736 2.3509527e-38
-0.042952549 -0.1253974 0.0034558177 2.3509527e-38
-0.040521529 -0.12202574 0.016493142 2.3509886e-38
-0.03869627 -0.12202574 0.016493142 2.3509886e-38
-0.036871012 -0.12202574 0.016493142 2.3509886e-38
-0.035045754 -0.12202574 0.016493142 2.3509886e-38
-0.033107564 -0.121251 0.019488871 2.3509886e-38
-0.031287558 -0.121251 0.019488871 2.3509886e-38
-0.029467553 -0.121251 0.019488871 2.3509886e-38
-0.027647544 -0.121251 0.019488871 2.3509886e-38
-0.025919456 -0.12202574 0.016493142 2.3509883e-38
-0.024094198 -0.12202574 0.016493142 2.3509883e-38
-0.022350825 -0.12280498 0.013480008 2.3509886e-38
-0.020520281 -0.12280498 0.013480008 2.3509886e-38
-0.01868974 -0.12280498 0.013480008 2.3509886e-38
-0.016641323 -0.12023406 0.023421109 2.3509886e-38
-0.014525261 -0.1163484 0.03844589 2.3509886e-38
-0.013548095 -0.12772138 -0.005530417 2.3509886e-38
-0.01168422 -0.12772138 -0.005530417 2.3509886e-38
-0.0098203458 -0.12772138 -0.005530417 2.3509886e-38
-0.007956475 -0.12772138 -0.005530417 2.3509886e-38
-0.0059901886 -0.1253974 0.0034558177 2.3509886e-38
-0.0040454026 -0.12280498 0.013480008 2.3509886e-38
-0.0021910854 -0.12202574 0.016493142 2.3509886e-38
-0.00036582723 -0.12202574 0.016493142 2.3509886e-38
0.0014594309 -0.12202574 0.016493142 2.3509886e-38
0.0032767672 -0.12280498 0.013480008 2.3509886e-38
0.0051099509 -0.12202574 0.016493142 2.3509886e-38
0.006935209 -0.12202574 0.016493142 2.3509886e-38
0.008760469 -0.12202574 0.016493142 2.3509886e-38
0.010572597 -0.121251 0.019488871 2.3509886e-38
0.012392603 -0.121251 0.019488871 2.3509886e-38
0.01421261 -0.121251 0.019488871 2.3509886e-38
0.016032618 -0.121251 0.019488871 2.3509886e-38
0.01780781 -0.12023406 0.023421109 2.3509886e-38
0.019620921 -0.12023406 0.023421109 2.3509886e-38
0.021492638 -0.121251 0.019488871 2.3509886e-38
0.023412732 -0.12280498 0.013480008 2.3509886e-38
0.025299067 -0.12358873 0.010449469 2.3509886e-38
0.027194183 -0.12434883 0.0075103641 2.3509886e-38
0.029035194 -0.12434883 0.0075103641 2.3509886e-38
0.030972173 -0.1253974 0.0034558177 2.341769e-38
0.032820292 -0.1253974 0.0034558177 2.341769e-38
0.034749351 -0.12616767 0.0004773736 2.3325494e-38
0.036602695 -0.12616767 0.0004773736 2.3509886e-38
0.038456034 -0.12616767 0.0004773736 2.3509886e-38
0.040504247 -0.12772138 -0.005530417 2.3509886e-38
0.042265125 -0.12694232 -0.0025179982 2.3509886e-38
0.044123717 -0.12694232 -0.0025179982 2.3509886e-38
0.045982309 -0.12694232 -0.0025179982 2.341769e-38
0.047959741 -0.12772138 -0.005530417 2.3325494e-38
0.047763165 -0.11478879 0.044476449 2.3233299e-38
0.049408812 -0.11400281 0.047515571 2.3509886e-38
0.051179677 -0.11400281 0.047515571 2.3509886e-38
0.052950546 -0.11400281 0.047515571 2.3509886e-38
0.054867949 -0.11478879 0.044476449 2.3509886e-38
0.056796923 -0.1155795 0.04141897 2.3509886e-38
0.059712779 -0.121251 0.019488871 2.3509886e-38
0.061158787 -0.11944233 0.026482522 2.3509886e-38
0.062966533 -0.11944233 0.026482522 2.3509886e-38
0.064774275 -0.11944233 0.026482522 2.3509886e-38
0.066582024 -0.11944233 0.026482522 2.3509886e-38
0.06821201 -0.11868234 0.029421151 2.3509886e-38
0.070197508 -0.11944233 0.026482522 2.3509886e-38
0.072005257 -0.11944233 0.026482522 2.3509886e-38
0.073812999 -0.11944233 0.026482522 2.341805e-38
0.076092839 -0.121251 0.019488871 2.341805e-38
0.077912845 -0.121251 0.019488871 2.3234379e-38
0.07973285 -0.121251 0.019488871 2.3234379e-38
0.081552863 -0.121251 0.019488871 2.3142544e-38
0.083820626 -0.12280498 0.013480008 2.3142544e-38
0.085882306 -0.12358873 0.010449469 2.2591169e-38
0.08794748 -0.12434883 0.0075103641 2.2498973e-38
0.089788482 -0.12434883 0.0075103641 2.2683366e-38
0.09162949 -0.12434883 0.0075103641 2.2591169e-38
0.093470499 -0.12434883 0.0075103641 2.2129835e-38
0.095311522 -0.12434883 0.0075103641 2.1944013e-38
0.097152531 -0.12434883 0.0075103641 1.1617386e-38
0.09899354 -0.12434883 0.0075103641 1.9368453e-39
0.10120066 -0.1253974 0.0034558177 6.4538342e-40
0.10304877 -0.1253974 0.0034558177 9.2160738e-40
0.10489689 -0.1253974 0.0034558177 2.8569939e-39
0.106745 -0.1253974 0.0034558177 1.935395e-39
0.10859312 -0.1253974 0.0034558177 1.9343132e-39
-0.11427546 -0.148077 -0.076551378 2.0196951e-38
-0.11228706 -0.148077 -0.076551378 2.0105837e-38
-0.10988221 -0.14701982 -0.072491109 2.0013642e-38
-0.10720418 -0.14522041 -0.065580189 2.0196954e-38
-0.10484055 -0.14418359 -0.061598003 2.0196954e-38
-0.10248162 -0.14312203 -0.057520926 2.1302939e-38
-0.10052659 -0.14312203 -0.057520926 2.1118547e-38
-0.098295152 -0.14235483 -0.054574311 2.1116749e-38
-0.096345291 -0.14235483 -0.054574311 2.1392975e-38
-0.09403187 -0.1413065 -0.050548017 2.2314208e-38
-0.091820702 -0.14051737 -0.04751724 2.3050693e-38
-0.089538187 -0.1394823 -0.043541849 2.3418038e-38
-0.087272048 -0.13845469 -0.039595068 2.3142168e-38
-0.085091129 -0.13765021 -0.036505282 2.3509876e-38
-0.083172947 -0.13765021 -0.036505282 2.3509876e-38
-0.08093451 -0.13660498 -0.032490909 2.3509879e-38
-0.079023361 -0.13660498 -0.032490909 2.350988e-38
-0.076888517 -0.13584132 -0.029558003 2.3509883e-38
-0.074756458 -0.13505147 -0.026524365 2.3509883e-38
-0.072855785 -0.13505147 -0.026524365 2.3509886e-38
-0.07046254 -0.13324542 -0.019587934 2.3509886e-38
-0.068574026 -0.13324542 -0.019587934 2.3509886e-38
-0.066685498 -0.13324542 -0.019587934 2.3509886e-38
-0.064533621 -0.13220255 -0.015582621 2.3509886e-38
-0.06245568 -0.13140334 -0.012513101 2.3509886e-38
-0.060579564 -0.13140334 -0.012513101 2.3509886e-38
-0.058525648 -0.13063805 -0.0095737576 2.3509883e-38
-0.056654688 -0.13063805 -0.0095737576 2.3509883e-38
-0.054553326 -0.12958528 -0.005530417 2.3509886e-38
-0.052689444 -0.12958528 -0.005530417 2.3509886e-38
-0.050664481 -0.12880091 -0.0025179982 2.3509527e-38
-0.048805889 -0.12880091 -0.0025179982 2.3509527e-38
-0.046797615 -0.12802102 0.0004773736 2.3509527e-38
-0.044944275 -0.12802102 0.0004773736 2.3509886e-38
-0.042627599 -0.12542458 0.010449469 2.3509886e-38
-0.040521529 -0.12385099 0.016493142 2.3509886e-38
-0.03869627 -0.12385099 0.016493142 2.3509886e-38
-0.036747579 -0.123071 0.019488871 2.3509886e-38
-0.034927573 -0.123071 0.019488871 2.3509886e-38
-0.032959331 -0.12204717 0.023421109 2.3509886e-38
-0.031146221 -0.12204717 0.023421109 2.3509886e-38
-0.029333107 -0.12204717 0.023421109 2.3509886e-38
-0.027519997 -0.12204717 0.023421109 2.3509886e-38
-0.02561295 -0.12125005 0.026482522 2.3509886e-38
-0.023805205 -0.12125005 0.026482522 2.3509886e-38
-0.021997463 -0.12125005 0.026482522 2.3509886e-38
-0.02026755 -0.12204717 0.023421109 2.3509886e-38
-0.018454436 -0.12204717 0.023421109 2.3509886e-38
-0.016641323 -0.12204717 0.023421109 2.3509886e-38
-0.014525261 -0.11813517 0.03844589 2.3509886e-38
-0.01268376 -0.11736105 0.04141897 2.3509886e-38
-0.01175157 -0.13063805 -0.0095737576 2.3509886e-38
-0.0098806061 -0.13063805 -0.0095737576 2.3509886e-38
-0.0080096461 -0.13063805 -0.0095737576 2.3509886e-38
-0.0061386786 -0.13063805 -0.0095737576 2.3509886e-38
-0.0040454026 -0.12463553 0.013480008 2.3509886e-38
-0.0021674503 -0.123071 0.019488871 2.3509886e-38
-0.00034744292 -0.123071 0.019488871 2.3509886e-38
0.0014725626 -0.123071 0.019488871 2.3509886e-38
0.0032846909 -0.12385099 0.016493142 2.3509886e-38
0.0051099509 -0.12385099 0.016493142 2.3509886e-38
0.0069325827 -0.123071 0.019488871 2.3509886e-38
0.00875259 -0.123071 0.019488871 2.3509886e-38
0.010572597 -0.123071 0.019488871 2.3509886e-38
0.012392603 -0.123071 0.019488871 2.3509886e-38
0.014181585 -0.12204717 0.023421109 2.3509886e-38
0.015994698 -0.12204717 0.023421109 2.3509886e-38
0.01777292 -0.12125005 0.026482522 2.3509886e-38
0.019580664 -0.12125005 0.026482522 2.3509886e-38
0.021434035 -0.12204717 0.023421109 2.3509886e-38
0.023412732 -0.12463553 0.013480008 2.3509886e-38
0.025353175 -0.12618984 0.0075103641 2.3509886e-38
0.027194183 -0.12618984 0.0075103641 2.3509886e-38
0.029124055 -0.12724553 0.0034558177 2.3509886e-38
0.030972173 -0.12724553 0.0034558177 2.3509886e-38
0.032820292 -0.12724553 0.0034558177 2.341769e-38
0.034749351 -0.12802102 0.0004773736 2.341769e-38
0.036602695 -0.12802102 0.0004773736 2.3233299e-38
0.038547941 -0.12880091 -0.0025179982 2.3233299e-38
0.040504247 -0.12958528 -0.005530417 2.3325494e-38
0.042265125 -0.12880091 -0.0025179982 2.341769e-38
0.044123717 -0.12880091 -0.0025179982 2.341769e-38
0.045982309 -0.12880091 -0.0025179982 2.341769e-38
0.045986973 -0.11656497 0.044476449 2.341769e-38
0.047763165 -0.11656497 0.044476449 2.341769e-38
0.049408812 -0.11577369 0.047515571 2.3509886e-38
0.051179677 -0.11577369 0.047515571 2.3509886e-38
0.052950546 -0.11577369 0.047515571 2.3509886e-38
0.054867949 -0.11656497 0.044476449 2.3509886e-38
0.056796923 -0.11736105 0.04141897 2.3509886e-38
0.05857848 -0.11736105 0.04141897 2.3509886e-38
0.060839824 -0.11969708 0.03244704 2.3509886e-38
0.062637113 -0.11969708 0.03244704 2.3509886e-38
0.064434394 -0.11969708 0.03244704 2.3509527e-38
0.066409416 -0.12048493 0.029421151 2.3509527e-38
0.06821201 -0.12048493 0.029421151 2.3509527e-38
0.070014603 -0.12048493 0.029421151 2.3509886e-38
0.071817189 -0.12048493 0.029421151 2.3509886e-38
0.073812999 -0.12125005 0.026482522 2.3509886e-38
0.075620748 -0.12125005 0.026482522 2.3509886e-38
0.077640511 -0.12204717 0.023421109 2.341805e-38
0.07973285 -0.123071 0.019488871 2.3325856e-38
0.081552863 -0.123071 0.019488871 2.3142544e-38
0.083596095 -0.12385099 0.016493142 2.3050349e-38
0.085651167 -0.12463553 0.013480008 2.2866677e-38
0.087718166 -0.12542458 0.010449469 2.3050708e-38
0.089788482 -0.12618984 0.0075103641 2.2958873e-38
0.09162949 -0.12618984 0.0075103641 2.3142544e-38
0.093470499 -0.12618984 0.0075103641 2.2958873e-38
0.095311522 -0.12618984 0.0075103641 2.3142544e-38
0.097152531 -0.12618984 0.0075103641 1.2540059e-38
0.09899354 -0.12618984 0.0075103641 1.3840275e-39
0.10120066 -0.12724553 0.0034558177 7.3757905e-40
0.10304877 -0.12724553 0.0034558177 1.29075e-39
0.10489689 -0.12724553 0.0034558177 2.1201478e-39
0.106745 -0.12724553 0.0034558177 1.3822212e-39
0.10859312 -0.12724553 0.0034558177 1.9353922e-39
-0.11186348 -0.14900111 -0.072491109 1.9921446e-38
-0.10917336 -0.1471896 -0.065580189 2.0013642e-38
-0.10680272 -0.14614578 -0.061598003 2.0196954e-38
-0.10484055 -0.14614578 -0.061598003 2.0196951e-38
-0.10248162 -0.14507706 -0.057520926 2.1210743e-38
-0.10052659 -0.14507706 -0.057520926 2.1209663e-38
-0.098295152 -0.14430468 -0.054574311 2.1209302e-38
-0.096345291 -0.14430468 -0.054574311 2.1669559e-38
-0.09403187 -0.14324932 -0.050548017 2.2498597e-38
-0.091820702 -0.14245488 -0.04751724 2.305069e-38
-0.089883223 -0.14245488 -0.04751724 2.3326198e-38
-0.087272048 -0.14037828 -0.039595068 2.3142524e-38
-0.085091129 -0.13956837 -0.036505282 2.3509873e-38
-0.083172947 -0.13956837 -0.036505282 2.3509876e-38
-0.08093451 -0.13851611 -0.032490909 2.3509879e-38
-0.079023361 -0.13851611 -0.032490909 2.3509879e-38
-0.076888517 -0.13774733 -0.029558003 2.350988e-38
-0.074756458 -0.13695215 -0.026524365 2.3509883e-38
-0.072855785 -0.13695215 -0.026524365 2.3509886e-38
-0.070675209 -0.13591899 -0.022582829 2.3509886e-38
-0.068574026 -0.13513394 -0.019587934 2.3509886e-38
-0.066685498 -0.13513394 -0.019587934 2.3509886e-38
-0.064533621 -0.13408406 -0.015582621 2.3509886e-38
-0.062652126 -0.13408406 -0.015582621 2.3509886e-38
-0.060579564 -0.13327946 -0.012513101 2.3509886e-38
-0.058525648 -0.13250901 -0.0095737576 2.3509886e-38
-0.056417193 -0.13144915 -0.005530417 2.3509883e-38
-0.054553326 -0.13144915 -0.005530417 2.3509886e-38
-0.052523073 -0.13065951 -0.0025179982 2.3509886e-38
-0.050664481 -0.13065951 -0.0025179982 2.3509527e-38
-0.048805889 -0.13065951 -0.0025179982 2.3509527e-38
-0.046797615 -0.12987436 0.0004773736 2.3509886e-38
-0.044800665 -0.12909363 0.0034558177 2.3509886e-38
-0.042627599 -0.12726043 0.010449469 2.3509886e-38
-0.040521529 -0.12567626 0.016493142 2.3509886e-38
-0.03869627 -0.12567626 0.016493142 2.3509886e-38
-0.036747579 -0.124891 0.019488871 2.3509886e-38
-0.034927573 -0.124891 0.019488871 2.3509886e-38
-0.032959331 -0.12386028 0.023421109 2.3509886e-38
-0.031146221 -0.12386028 0.023421109 2.3509886e-38
-0.029333107 -0.12386028 0.023421109 2.3509886e-38
-0.027519997 -0.12386028 0.023421109 2.3509886e-38
-0.02561295 -0.1230578 0.026482522 2.3509886e-38
-0.02372019 -0.12228753 0.029421151 2.3509886e-38
-0.0219176 -0.12228753 0.029421151 2.3509886e-38
-0.020115007 -0.12228753 0.029421151 2.3509886e-38
-0.018240791 -0.12149437 0.03244704 2.3509886e-38
-0.016312029 -0.11992194 0.03844589 2.3509886e-38
-0.014525261 -0.11992194 0.03844589 2.3509886e-38
-0.01268376 -0.11914261 0.04141897 2.3509886e-38
-0.0109022 -0.11914261 0.04141897 2.3509886e-38
-0.0091206469 -0.11914261 0.04141897 2.3509886e-38
-0.0072589181 -0.11754455 0.047515571 2.3509886e-38
-0.005522687 -0.11834116 0.044476449 2.3509886e-38
-0.0039495379 -0.12386028 0.023421109 2.3509886e-38
-0.0021364242 -0.12386028 0.023421109 2.3509886e-38
-0.00032331236 -0.12386028 0.023421109 2.3509886e-38
0.0014897995 -0.12386028 0.023421109 2.3509886e-38
0.0032925699 -0.124891 0.019488871 2.3509886e-38
0.0051125772 -0.124891 0.019488871 2.3509886e-38
0.0069325827 -0.124891 0.019488871 2.3509886e-38
0.0087422486 -0.12386028 0.023421109 2.3509886e-38
0.01055536 -0.12386028 0.023421109 2.3509886e-38
0.012368472 -0.12386028 0.023421109 2.3509886e-38
0.014181585 -0.12386028 0.023421109 2.3509886e-38
0.015994698 -0.12386028 0.023421109 2.3509886e-38
0.01777292 -0.1230578 0.026482522 2.3509886e-38
0.019580664 -0.1230578 0.026482522 2.3509886e-38
0.021388408 -0.1230578 0.026482522 2.341769e-38
0.02346321 -0.12726043 0.010449469 2.341769e-38
0.025353175 -0.12803085 0.0075103641 2.3509886e-38
0.027194183 -0.12803085 0.0075103641 2.3509886e-38
0.029124055 -0.12909363 0.0034558177 2.3509886e-38
0.030972173 -0.12909363 0.0034558177 2.3509886e-38
0.032820292 -0.12909363 0.0034558177 2.341769e-38
0.034749351 -0.12987436 0.0004773736 2.341769e-38
0.036516525 -0.12909363 0.0034558177 2.3233299e-38
0.038364645 -0.12909363 0.0034558177 2.3233299e-38
0.040504247 -0.13144915 -0.005530417 2.3233299e-38
0.042368121 -0.13144915 -0.005530417 2.3325494e-38
0.044231996 -0.13144915 -0.005530417 2.341769e-38
0.044210777 -0.11834116 0.044476449 2.341769e-38
0.045867078 -0.11754455 0.047515571 2.3509886e-38
0.047637943 -0.11754455 0.047515571 2.3509886e-38
0.049539361 -0.11834116 0.044476449 2.3509886e-38
0.051315557 -0.11834116 0.044476449 2.3509886e-38
0.053091753 -0.11834116 0.044476449 2.3509886e-38
0.05501537 -0.11914261 0.04141897 2.3509886e-38
0.056796923 -0.11914261 0.04141897 2.3509886e-38
0.05857848 -0.11914261 0.04141897 2.3509886e-38
0.060839824 -0.12149437 0.03244704 2.3509886e-38
0.062637113 -0.12149437 0.03244704 2.3509886e-38
0.064434394 -0.12149437 0.03244704 2.3509527e-38
0.066409416 -0.12228753 0.029421151 2.3509527e-38
0.06821201 -0.12228753 0.029421151 2.3509527e-38
0.070014603 -0.12228753 0.029421151 2.3509527e-38
0.071817189 -0.12228753 0.029421151 2.3509527e-38
0.073619783 -0.12228753 0.029421151 2.3509886e-38
0.075620748 -0.1230578 0.026482522 2.3509886e-38
0.077640511 -0.12386028 0.023421109 2.3509886e-38
0.07973285 -0.124891 0.019488871 2.3325497e-38
0.081552863 -0.124891 0.019488871 2.341805e-38
0.083596095 -0.12567626 0.016493142 2.341805e-38
0.085421361 -0.12567626 0.016493142 2.3234379e-38
0.087481715 -0.12646608 0.013480008 2.3234379e-38
0.089554012 -0.12726043 0.010449469 2.3142544e-38
0.091389865 -0.12726043 0.010449469 2.3142544e-38
0.093225732 -0.12726043 0.010449469 2.286632e-38
0.095311522 -0.12803085 0.0075103641 2.2958873e-38
0.097152531 -0.12803085 0.0075103641 1.290992e-38
0.09899354 -0.12803085 0.0075103641 2.3063439e-39
0.10083455 -0.12803085 0.0075103641 8.3085088e-40
0.10267556 -0.12803085 0.0075103641 1.9364754e-39
0.10489689 -0.12909363 0.0034558177 1.8442797e-39
0.106745 -0.12909363 0.0034558177 1.8435595e-39
0.10859312 -0.12909363 0.0034558177 2.1205023e-39
-0.10917336 -0.14915876 -0.065580189 2.0104756e-38
-0.10680272 -0.14810793 -0.061598003 2.0104756e-38
-0.10443665 -0.1470321 -0.057520926 2.0104756e-38
-0.10248162 -0.1470321 -0.057520926 2.084196e-38
-0.10052659 -0.1470321 -0.057520926 2.0933076e-38
-0.098295152 -0.14625455 -0.054574311 2.12093e-38
-0.096345291 -0.14625455 -0.054574311 2.1762111e-38
-0.09403187 -0.1451921 -0.050548017 2.2590789e-38
-0.091820702 -0.14439236 -0.04751724 2.3050689e-38
-0.089883223 -0.14439236 -0.04751724 2.3326196e-38
-0.087272048 -0.14230187 -0.039595068 2.3418032e-38
-0.085091129 -0.14148657 -0.036505282 2.3509873e-38
-0.083172947 -0.14148657 -0.036505282 2.3509873e-38
-0.08093451 -0.14042725 -0.032490909 2.3509876e-38
-0.079023361 -0.14042725 -0.032490909 2.3509879e-38
-0.076888517 -0.13965334 -0.029558003 2.350988e-38
-0.074982524 -0.13965334 -0.029558003 2.3509883e-38
-0.072855785 -0.13885282 -0.026524365 2.3509886e-38
-0.070675209 -0.13781275 -0.022582829 2.3509886e-38
-0.068574026 -0.13702248 -0.019587934 2.3509886e-38
-0.066685498 -0.13702248 -0.019587934 2.3509886e-38
-0.064533621 -0.13596557 -0.015582621 2.3509886e-38
-0.062652126 -0.13596557 -0.015582621 2.3509886e-38
-0.060579564 -0.13515557 -0.012513101 2.3509886e-38
-0.058525648 -0.13437997 -0.0095737576 2.3509886e-38
-0.056417193 -0.13331302 -0.005530417 2.3509883e-38
-0.054553326 -0.13331302 -0.005530417 2.3509886e-38
-0.052523073 -0.1325181 -0.0025179982 2.3509886e-38
-0.050504293 -0.13172771 0.0004773736 2.3509886e-38
-0.048650961 -0.13172771 0.0004773736 2.3509886e-38
-0.046648782 -0.13094176 0.0034558177 2.3509886e-38
-0.044463452 -0.12909628 0.010449469 2.3509886e-38
-0.042486791 -0.1282966 0.013480008 2.3509886e-38
-0.040521529 -0.1275015 0.016493142 2.3509886e-38
-0.03869627 -0.1275015 0.016493142 2.3509886e-38
-0.036747579 -0.126711 0.019488871 2.3509886e-38
-0.034927573 -0.126711 0.019488871 2.3509886e-38
-0.032959331 -0.1256734 0.023421109 2.3509886e-38
-0.031146221 -0.1256734 0.023421109 2.3509886e-38
-0.029228438 -0.12486555 0.026482522 2.3509886e-38
-0.027420692 -0.12486555 0.026482522 2.3509886e-38
-0.025522783 -0.12409012 0.029421151 2.3509886e-38
-0.02372019 -0.12409012 0.029421151 2.3509886e-38
-0.0219176 -0.12409012 0.029421151 2.3509886e-38
-0.020038079 -0.12329166 0.03244704 2.3509886e-38
-0.018240791 -0.12329166 0.03244704 2.3509886e-38
-0.016312029 -0.12170871 0.03844589 2.3509886e-38
-0.014525261 -0.12170871 0.03844589 2.3509886e-38
-0.01268376 -0.12092416 0.04141897 2.3509886e-38
-0.010800652 -0.11931543 0.047515571 2.3509886e-38
-0.009029787 -0.11931543 0.047515571 2.3509886e-38
-0.0072589181 -0.11931543 0.047515571 2.3509886e-38
-0.005522687 -0.12011738 0.044476449 2.3509886e-38
-0.0037759766 -0.12092416 0.04141897 2.3509886e-38
-0.0019944217 -0.12092416 0.04141897 2.3509886e-38
-0.00028649345 -0.12409012 0.029421151 2.3509886e-38
0.0014897995 -0.1256734 0.023421109 2.3509886e-38
0.0033029113 -0.1256734 0.023421109 2.3509886e-38
0.0051160231 -0.1256734 0.023421109 2.3509886e-38
0.0069291368 -0.1256734 0.023421109 2.3509886e-38
0.0087341964 -0.12486555 0.026482522 2.3509886e-38
0.010541942 -0.12486555 0.026482522 2.3509886e-38
0.012349686 -0.12486555 0.026482522 2.3509886e-38
0.01415743 -0.12486555 0.026482522 2.3509886e-38
0.015965175 -0.12486555 0.026482522 2.3509886e-38
0.01777292 -0.12486555 0.026482522 2.3509886e-38
0.01954202 -0.12409012 0.029421151 2.3509886e-38
0.021344613 -0.12409012 0.029421151 2.341769e-38
0.023147205 -0.12409012 0.029421151 2.341769e-38
0.025353175 -0.12987186 0.0075103641 2.3509886e-38
0.027194183 -0.12987186 0.0075103641 2.3509886e-38
0.029124055 -0.13094176 0.0034558177 2.3509886e-38
0.030972173 -0.13094176 0.0034558177 2.3509886e-38
0.032820292 -0.13094176 0.0034558177 2.3509886e-38
0.034749351 -0.13172771 0.0004773736 2.341769e-38
0.036516525 -0.13094176 0.0034558177 2.3509886e-38
0.038364645 -0.13094176 0.0034558177 2.3509886e-38
0.040212762 -0.13094176 0.0034558177 2.3509886e-38
0.040454626 -0.11854477 0.05043608 2.3509886e-38
0.042220373 -0.11854477 0.05043608 2.3509886e-38
0.043986119 -0.11854477 0.05043608 2.341769e-38
0.045867078 -0.11931543 0.047515571 2.341769e-38
0.047637943 -0.11931543 0.047515571 2.341769e-38
0.049539361 -0.12011738 0.044476449 2.3509886e-38
0.051315557 -0.12011738 0.044476449 2.3509886e-38
0.053091753 -0.12011738 0.044476449 2.3509886e-38
0.05501537 -0.12092416 0.04141897 2.3509886e-38
0.056796923 -0.12092416 0.04141897 2.3509886e-38
0.05857848 -0.12092416 0.04141897 2.3509886e-38
0.060519028 -0.12170871 0.03844589 2.3509886e-38
0.062470969 -0.12249784 0.035455287 2.3509886e-38
0.064262979 -0.12249784 0.035455287 2.3509527e-38
0.066231683 -0.12329166 0.03244704 2.3509527e-38
0.068028972 -0.12329166 0.03244704 2.3509527e-38
0.070014603 -0.12409012 0.029421151 2.3509527e-38
0.071817189 -0.12409012 0.029421151 2.3509527e-38
0.073619783 -0.12409012 0.029421151 2.3509527e-38
0.075620748 -0.12486555 0.026482522 2.3509527e-38
0.07742849 -0.12486555 0.026482522 2.3509886e-38
0.079453625 -0.1256734 0.023421109 2.3233299e-38
0.081552863 -0.126711 0.019488871 2.3325494e-38
0.083596095 -0.1275015 0.016493142 2.3509886e-38
0.085421361 -0.1275015 0.016493142 2.341805e-38
0.087246619 -0.1275015 0.016493142 2.341805e-38
0.089312255 -0.1282966 0.013480008 2.3142542e-38
0.091142789 -0.1282966 0.013480008 2.3234018e-38
0.093225732 -0.12909628 0.010449469 2.3050349e-38
0.095311522 -0.12987186 0.0075103641 2.3142544e-38
0.097152531 -0.12987186 0.0075103641 1.5122613e-38
0.09899354 -0.12987186 0.0075103641 4.4271993e-39
0.10056914 -0.12909628 0.010449469 3.685415e-43
0.10240501 -0.12909628 0.010449469 9.3283037e-41
0.10424086 -0.12909628 0.010449469 5.5354092e-40
0.106745 -0.13094176 0.0034558177 2.2130609e-39
0.10859312 -0.13094176 0.0034558177 1.9364712e-39
-0.10443665 -0.14898713 -0.057520926 1.9920004e-38
-0.10248162 -0.14898713 -0.057520926 2.0564293e-38
-0.10052659 -0.14898713 -0.057520926 2.0656845e-38
-0.098295152 -0.14820443 -0.054574311 2.1208937e-38
-0.096345291 -0.14820443 -0.054574311 2.2037616e-38
-0.09403187 -0.14713491 -0.050548017 2.2682623e-38
-0.091820702 -0.14632986 -0.04751724 2.314252e-38
-0.089883223 -0.14632986 -0.04751724 2.3418029e-38
-0.087272048 -0.14422549 -0.039595068 2.3509866e-38
-0.085091129 -0.14340474 -0.036505282 2.350987e-38
-0.082845643 -0.14233841 -0.032490909 2.3509873e-38
-0.08093451 -0.14233841 -0.032490909 2.3509873e-38
-0.078794524 -0.14155935 -0.029558003 2.3509876e-38
-0.076888517 -0.14155935 -0.029558003 2.3509879e-38
-0.074756458 -0.14075352 -0.026524365 2.350988e-38
-0.072855785 -0.14075352 -0.026524365 2.3509883e-38
-0.070675209 -0.13970654 -0.022582829 2.3509886e-38
-0.068574026 -0.13891099 -0.019587934 2.3509886e-38
-0.066685498 -0.13891099 -0.019587934 2.3509886e-38
-0.064533621 -0.13784705 -0.015582621 2.3509886e-38
-0.062652126 -0.13784705 -0.015582621 2.3509886e-38
-0.060579564 -0.13703169 -0.012513101 2.3509886e-38
-0.058525648 -0.13625093 -0.0095737576 2.3509886e-38
-0.056417193 -0.13517688 -0.005530417 2.3509883e-38
-0.054381665 -0.13437669 -0.0025179982 2.3509883e-38
-0.052523073 -0.13437669 -0.0025179982 2.3509886e-38
-0.050504293 -0.13358103 0.0004773736 2.3509886e-38
-0.048650961 -0.13358103 0.0004773736 2.3509886e-38
-0.046648782 -0.13278987 0.0034558177 2.3509886e-38
-0.044463452 -0.13093217 0.010449469 2.3509886e-38
-0.042486791 -0.13012715 0.013480008 2.3509886e-38
-0.040521529 -0.12932678 0.016493142 2.3509886e-38
-0.038567584 -0.12853102 0.019488871 2.3509886e-38
-0.036747579 -0.12853102 0.019488871 2.3509886e-38
-0.034772445 -0.12748651 0.023421109 2.3509886e-38
-0.032843929 -0.1266733 0.026482522 2.3509886e-38
-0.031036183 -0.1266733 0.026482522 2.3509886e-38
-0.029228438 -0.1266733 0.026482522 2.3509886e-38
-0.027325373 -0.12589271 0.029421151 2.3509886e-38
-0.025429938 -0.12508895 0.03244704 2.3509886e-38
-0.023632649 -0.12508895 0.03244704 2.3509886e-38
-0.021835364 -0.12508895 0.03244704 2.3509886e-38
-0.020038079 -0.12508895 0.03244704 2.3509886e-38
-0.018169586 -0.12428986 0.035455287 2.3509886e-38
-0.016377572 -0.12428986 0.035455287 2.3509886e-38
-0.014525261 -0.12349547 0.03844589 2.3509886e-38
-0.012627471 -0.12189357 0.044476449 2.3509886e-38
-0.010800652 -0.12108628 0.047515571 2.3509886e-38
-0.0089862607 -0.1203105 0.05043608 2.3509886e-38
-0.0072205141 -0.1203105 0.05043608 2.3509886e-38
-0.0054547675 -0.1203105 0.05043608 2.3509886e-38
-0.0036890227 -0.1203105 0.05043608 2.3509886e-38
-0.001923278 -0.1203105 0.05043608 2.3509886e-38
-0.00015753135 -0.1203105 0.05043608 2.3509886e-38
0.0014725626 -0.12853102 0.019488871 2.3509886e-38
0.0033029113 -0.12748651 0.023421109 2.3509886e-38
0.0051239356 -0.12508895 0.03244704 2.3509886e-38
0.0069212243 -0.12508895 0.03244704 2.3509886e-38
0.0087185092 -0.12508895 0.03244704 2.3509886e-38
0.01052906 -0.12589271 0.029421151 2.3509886e-38
0.012331652 -0.12589271 0.029421151 2.3509886e-38
0.014134245 -0.12589271 0.029421151 2.3509886e-38
0.015965175 -0.1266733 0.026482522 2.3509886e-38
0.01780781 -0.12748651 0.023421109 2.3509886e-38
0.01954202 -0.12589271 0.029421151 2.3509886e-38
0.021344613 -0.12589271 0.029421151 2.341769e-38
0.023147205 -0.12589271 0.029421151 2.341769e-38
0.024507619 -0.11951269 0.053439558 2.3509886e-38
0.027275937 -0.13278987 0.0034558177 2.3509886e-38
0.029124055 -0.13278987 0.0034558177 2.3509886e-38
0.030972173 -0.13278987 0.0034558177 2.3509886e-38
0.032820292 -0.13278987 0.0034558177 2.3509886e-38
0.034668408 -0.13278987 0.0034558177 2.3509886e-38
0.035070498 -0.11951269 0.053439558 2.3509886e-38
0.036923133 -0.1203105 0.05043608 2.3509886e-38
0.038688879 -0.1203105 0.05043608 2.341769e-38
0.040454626 -0.1203105 0.05043608 2.341769e-38
0.042220373 -0.1203105 0.05043608 2.341769e-38
0.043986119 -0.1203105 0.05043608 2.3509886e-38
0.045867078 -0.12108628 0.047515571 2.3509886e-38
0.047637943 -0.12108628 0.047515571 2.3509886e-38
0.049408812 -0.12108628 0.047515571 2.3509886e-38
0.051315557 -0.12189357 0.044476449 2.3509886e-38
0.053091753 -0.12189357 0.044476449 2.3509886e-38
0.05501537 -0.12270571 0.04141897 2.3509886e-38
0.056796923 -0.12270571 0.04141897 2.3509886e-38
0.05857848 -0.12270571 0.04141897 2.3509886e-38
0.060519028 -0.12349547 0.03844589 2.3509886e-38
0.062470969 -0.12428986 0.035455287 2.3509886e-38
0.064262979 -0.12428986 0.035455287 2.3509527e-38
0.066231683 -0.12508895 0.03244704 2.3509527e-38
0.068028972 -0.12508895 0.03244704 2.3509527e-38
0.070014603 -0.12589271 0.029421151 2.3509527e-38
0.071817189 -0.12589271 0.029421151 2.3509527e-38
0.073619783 -0.12589271 0.029421151 2.3509527e-38
0.075620748 -0.1266733 0.026482522 2.3509527e-38
0.07742849 -0.1266733 0.026482522 2.3509527e-38
0.079453625 -0.12748651 0.023421109 2.3509886e-38
0.081266738 -0.12748651 0.023421109 2.3509886e-38
0.083372869 -0.12853102 0.019488871 2.3509886e-38
0.085421361 -0.12932678 0.016493142 2.3509886e-38
0.087246619 -0.12932678 0.016493142 2.341769e-38
0.08907187 -0.12932678 0.016493142 2.3326213e-38
0.090897128 -0.12932678 0.016493142 2.341805e-38
0.092973337 -0.13012715 0.013480008 2.3234379e-38
0.095061585 -0.13093217 0.010449469 2.2958514e-38
0.096897438 -0.13093217 0.010449469 1.4569439e-38
0.098464966 -0.13012715 0.013480008 4.6115906e-39
0.1002955 -0.13012715 0.013480008 6.4717568e-40
0.10212605 -0.13012715 0.013480008 2.4903694e-39
0.10424086 -0.13093217 0.010449469 1.4765748e-39
0.10607672 -0.13093217 0.010449469 2.674039e-39
-0.09403187 -0.14907773 -0.050548017 2.2958849e-38
-0.091820702 -0.14826734 -0.04751724 2.305068e-38
-0.089883223 -0.14826734 -0.04751724 2.323435e-38
-0.087272048 -0.14614908 -0.039595068 2.3509863e-38
-0.085091129 -0.14532293 -0.036505282 2.3418032e-38
-0.082845643 -0.14424954 -0.032490909 2.3418033e-38
-0.08093451 -0.14424954 -0.032490909 2.3418033e-38
-0.078794524 -0.14346536 -0.029558003 2.3418036e-38
-0.076888517 -0.14346536 -0.029558003 2.3418039e-38
-0.074756458 -0.1426542 -0.026524365 2.3418042e-38
-0.072855785 -0.1426542 -0.026524365 2.3418043e-38
-0.070675209 -0.1416003 -0.022582829 2.3417687e-38
-0.068574026 -0.14079951 -0.019587934 2.341769e-38
-0.066685498 -0.14079951 -0.019587934 2.341769e-38
-0.064533621 -0.13972856 -0.015582621 2.341769e-38
-0.062652126 -0.13972856 -0.015582621 2.341769e-38
-0.060579564 -0.13890781 -0.012513101 2.341769e-38
-0.058525648 -0.13812189 -0.0095737576 2.3417687e-38
-0.056417193 -0.13704078 -0.005530417 2.3417687e-38
-0.054381665 -0.13623528 -0.0025179982 2.3417687e-38
-0.05235764 -0.13543437 0.0004773736 2.3509883e-38
-0.050504293 -0.13543437 0.0004773736 2.3509883e-38
-0.048496898 -0.134638 0.0034558177 2.3509886e-38
-0.046446178 -0.13355388 0.0075103641 2.3509886e-38
-0.044317331 -0.13195769 0.013480008 2.3509886e-38
-0.042346787 -0.13115202 0.016493142 2.3509886e-38
-0.040521529 -0.13115202 0.016493142 2.3509886e-38
-0.038567584 -0.13035102 0.019488871 2.3509886e-38
-0.036747579 -0.13035102 0.019488871 2.3509886e-38
-0.034772445 -0.1292996 0.023421109 2.3509886e-38
-0.032843929 -0.12848105 0.026482522 2.3509886e-38
-0.031036183 -0.12848105 0.026482522 2.3509886e-38
-0.029228438 -0.12848105 0.026482522 2.3509886e-38
-0.027325373 -0.12769531 0.029421151 2.3509886e-38
-0.025429938 -0.12688623 0.03244704 2.3509886e-38
-0.023632649 -0.12688623 0.03244704 2.3509886e-38
-0.021835364 -0.12688623 0.03244704 2.3509886e-38
-0.019961599 -0.12608187 0.035455287 2.3509886e-38
-0.018169586 -0.12608187 0.035455287 2.3509886e-38
-0.016312029 -0.12528224 0.03844589 2.3509886e-38
-0.014465313 -0.1244873 0.04141897 2.3509886e-38
-0.012627471 -0.12366976 0.044476449 2.3509886e-38
-0.010800652 -0.12285714 0.047515571 2.3509886e-38
-0.0089862607 -0.12207626 0.05043608 2.3509886e-38
-0.0072205141 -0.12207626 0.05043608 2.3509886e-38
-0.0054547675 -0.12207626 0.05043608 2.3509886e-38
-0.0036600605 -0.12127317 0.053439558 2.3509886e-38
-0.0018995795 -0.12127317 0.053439558 2.3509886e-38
-0.00012077764 -0.12047486 0.056425273 2.3509886e-38
0.0016344674 -0.12047486 0.056425273 2.3509886e-38
0.0033977777 -0.11965488 0.059491873 2.3509886e-38
0.0051476452 -0.11965488 0.059491873 2.3509886e-38
0.0068975147 -0.11965488 0.059491873 2.3509886e-38
0.0087185092 -0.12688623 0.03244704 2.3509886e-38
0.010515798 -0.12688623 0.03244704 2.3509886e-38
