# .PCD v0.7 - Point Cloud Data file format
VERSION 0.7
FIELDS x y z rgb
SIZE 4 4 4 4
TYPE F F F F
COUNT 1 1 1 1
WIDTH 937
HEIGHT 1
VIEWPOINT 0 0 0 1 0 0 0
POINTS 937
DATA ascii
0.04392039 -0.11079563 -0.045217235 2.2404243e-38
0.045838576 -0.11079563 -0.045217235 2.1942909e-38
0.047756758 -0.11079563 -0.045217235 2.2127303e-38
0.049439151 -0.10984896 -0.041202862 2.22195e-38
0.051350292 -0.10984896 -0.041202862 2.2035109e-38
0.05326144 -0.10984896 -0.041202862 2.1666326e-38
0.055172581 -0.10984896 -0.041202862 2.1481935e-38
0.05708373 -0.10984896 -0.041202862 2.1389739e-38
0.058994871 -0.10984896 -0.041202862 2.1020957e-38
0.060906019 -0.10984896 -0.041202862 2.0559979e-38
0.062817156 -0.10984896 -0.041202862 2.0467783e-38
0.064728305 -0.10984896 -0.041202862 2.0559979e-38
0.066639453 -0.10984896 -0.041202862 2.0467783e-38
0.068550602 -0.10984896 -0.041202862 1.9638022e-38
0.070232898 -0.10915731 -0.038269956 1.9545827e-38
0.072138906 -0.10915731 -0.038269956 2.0191196e-38
0.074044913 -0.10915731 -0.038269956 2.0836565e-38
0.075950906 -0.10915731 -0.038269956 1.3554553e-38
0.077856913 -0.10915731 -0.038269956 7.1026662e-39
0.080017462 -0.10984896 -0.041202862 2.8866748e-42
0.081928611 -0.10984896 -0.041202862 2.5265411e-42
-0.085302606 -0.11533 -0.056229193 4.4358313e-39
-0.083117679 -0.11438553 -0.052253801 3.6064308e-39
-0.081187159 -0.11438553 -0.052253801 6.5652655e-40
-0.079256639 -0.11438553 -0.052253801 3.6993425e-39
-0.077552646 -0.11533 -0.056229193 2.0476428e-38
-0.075395599 -0.11438553 -0.052253801 2.2958873e-38
-0.073465072 -0.11438553 -0.052253801 2.3509883e-38
-0.071534552 -0.11438553 -0.052253801 2.3509883e-38
-0.069604032 -0.11438553 -0.052253801 2.3509883e-38
-0.067483209 -0.11344786 -0.04830702 2.3509883e-38
-0.065559611 -0.11344786 -0.04830702 2.3509883e-38
-0.063636005 -0.11344786 -0.04830702 2.3509883e-38
-0.061712414 -0.11344786 -0.04830702 2.3509883e-38
-0.059788808 -0.11344786 -0.04830702 2.3509883e-38
-0.057865202 -0.11344786 -0.04830702 2.3509883e-38
-0.055941608 -0.11344786 -0.04830702 2.3509883e-38
-0.054018006 -0.11344786 -0.04830702 2.3509883e-38
-0.052094407 -0.11344786 -0.04830702 2.3509883e-38
-0.050170805 -0.11344786 -0.04830702 2.3509883e-38
-0.048247203 -0.11344786 -0.04830702 2.3509883e-38
-0.046323605 -0.11344786 -0.04830702 2.3509883e-38
-0.044400007 -0.11344786 -0.04830702 2.3509886e-38
-0.042677812 -0.11533 -0.056229193 2.3509886e-38
-0.040646225 -0.11438553 -0.052253801 2.3509886e-38
-0.038715702 -0.11438553 -0.052253801 2.3509886e-38
-0.036785182 -0.11438553 -0.052253801 2.3509886e-38
-0.034854662 -0.11438553 -0.052253801 2.3509886e-38
-0.032924138 -0.11438553 -0.052253801 2.3509886e-38
-0.030934799 -0.11344786 -0.04830702 2.3509886e-38
-0.029011197 -0.11344786 -0.04830702 2.3509886e-38
-0.027087599 -0.11344786 -0.04830702 2.3509886e-38
-0.025163997 -0.11344786 -0.04830702 2.3509886e-38
-0.023240399 -0.11344786 -0.04830702 2.3509886e-38
-0.021316797 -0.11344786 -0.04830702 2.3509886e-38
-0.019393196 -0.11344786 -0.04830702 2.3509886e-38
-0.017479975 -0.11438553 -0.052253801 2.3509886e-38
-0.015545996 -0.11344786 -0.04830702 2.3509886e-38
-0.013622394 -0.11344786 -0.04830702 2.3509886e-38
-0.011698794 -0.11344786 -0.04830702 2.3509886e-38
-0.0097751934 -0.11344786 -0.04830702 2.3509886e-38
-0.0078515932 -0.11344786 -0.04830702 2.3509886e-38
-0.0059523704 -0.1127138 -0.045217235 2.3509886e-38
-0.0040341876 -0.1127138 -0.045217235 2.3509886e-38
-0.002116004 -0.1127138 -0.045217235 2.3509886e-38
-0.0001978213 -0.1127138 -0.045217235 2.3509886e-38
0.0017203614 -0.1127138 -0.045217235 2.3509886e-38
0.0036385451 -0.1127138 -0.045217235 2.3509886e-38
0.0055567287 -0.1127138 -0.045217235 2.3509886e-38
0.0074749105 -0.1127138 -0.045217235 2.341769e-38
0.0093930941 -0.1127138 -0.045217235 2.3325494e-38
0.011311278 -0.1127138 -0.045217235 2.3325494e-38
0.013229461 -0.1127138 -0.045217235 2.3233299e-38
0.015147643 -0.1127138 -0.045217235 2.3233296e-38
0.017065827 -0.1127138 -0.045217235 2.2956709e-38
0.018984009 -0.1127138 -0.045217235 2.3049261e-38
0.020902194 -0.1127138 -0.045217235 2.3141455e-38
0.022820376 -0.1127138 -0.045217235 2.3141455e-38
0.024738561 -0.1127138 -0.045217235 2.3141455e-38
0.026656743 -0.1127138 -0.045217235 2.2957064e-38
0.028574925 -0.1127138 -0.045217235 2.2772672e-38
0.03049311 -0.1127138 -0.045217235 2.2588281e-38
0.032411292 -0.1127138 -0.045217235 2.2403887e-38
0.034329474 -0.1127138 -0.045217235 2.2588278e-38
0.036247659 -0.1127138 -0.045217235 2.2680474e-38
0.038165841 -0.1127138 -0.045217235 2.2588278e-38
0.040084023 -0.1127138 -0.045217235 2.2588634e-38
0.042002209 -0.1127138 -0.045217235 2.268083e-38
0.04392039 -0.1127138 -0.045217235 2.2312047e-38
0.045838576 -0.1127138 -0.045217235 2.1758518e-38
0.047756758 -0.1127138 -0.045217235 2.1666326e-38
0.049674939 -0.1127138 -0.045217235 2.1758522e-38
0.051350292 -0.11176009 -0.041202862 2.1758522e-38
0.05326144 -0.11176009 -0.041202862 2.1481935e-38
0.055172581 -0.11176009 -0.041202862 2.1481935e-38
0.05708373 -0.11176009 -0.041202862 2.1481935e-38
0.058994871 -0.11176009 -0.041202862 2.1205348e-38
0.060906019 -0.11176009 -0.041202862 2.0836565e-38
0.062817156 -0.11176009 -0.041202862 2.0099e-38
0.064728305 -0.11176009 -0.041202862 2.0099e-38
0.066639453 -0.11176009 -0.041202862 1.9822414e-38
0.068550602 -0.11176009 -0.041202862 1.8808262e-38
0.070461735 -0.11176009 -0.041202862 1.862387e-38
0.072138906 -0.11106332 -0.038269956 1.926924e-38
0.074044913 -0.11106332 -0.038269956 2.0099e-38
0.075950906 -0.11106332 -0.038269956 1.2816632e-38
0.077856913 -0.11106332 -0.038269956 6.918275e-39
0.079762921 -0.11106332 -0.038269956 2.8163297e-40
-0.083117679 -0.11631607 -0.052253801 1.5684058e-38
-0.081187159 -0.11631607 -0.052253801 1.1166472e-38
-0.07949014 -0.11726747 -0.056229193 1.2365734e-38
-0.077552646 -0.11726747 -0.056229193 2.1029601e-38
-0.075615153 -0.11726747 -0.056229193 2.2958873e-38
-0.073465072 -0.11631607 -0.052253801 2.3509883e-38
-0.071534552 -0.11631607 -0.052253801 2.3509883e-38
-0.069604032 -0.11631607 -0.052253801 2.3509883e-38
-0.067483209 -0.11537148 -0.04830702 2.3509883e-38
-0.065559611 -0.11537148 -0.04830702 2.3417687e-38
-0.063636005 -0.11537148 -0.04830702 2.3325492e-38
-0.061712414 -0.11537148 -0.04830702 2.3233296e-38
-0.059788808 -0.11537148 -0.04830702 2.3048905e-38
-0.057865202 -0.11537148 -0.04830702 2.31411e-38
-0.055941608 -0.11537148 -0.04830702 2.3417687e-38
-0.054159869 -0.11631607 -0.052253801 2.3509883e-38
-0.052229345 -0.11631607 -0.052253801 2.3509883e-38
-0.050298825 -0.11631607 -0.052253801 2.3509883e-38
-0.048368305 -0.11631607 -0.052253801 2.3509883e-38
-0.046437785 -0.11631607 -0.052253801 2.3417687e-38
-0.044507265 -0.11631607 -0.052253801 2.3509886e-38
-0.042677812 -0.11726747 -0.056229193 2.3509886e-38
-0.040740319 -0.11726747 -0.056229193 2.3509886e-38
-0.038715702 -0.11631607 -0.052253801 2.3509886e-38
-0.036785182 -0.11631607 -0.052253801 2.3509886e-38
-0.034854662 -0.11631607 -0.052253801 2.3509886e-38
-0.032924138 -0.11631607 -0.052253801 2.3509886e-38
-0.030934799 -0.11537148 -0.04830702 2.3509886e-38
-0.029011197 -0.11537148 -0.04830702 2.3509886e-38
-0.027087599 -0.11537148 -0.04830702 2.3509886e-38
-0.025163997 -0.11537148 -0.04830702 2.3509886e-38
-0.023240399 -0.11537148 -0.04830702 2.3509886e-38
-0.021316797 -0.11537148 -0.04830702 2.3509886e-38
-0.019393196 -0.11537148 -0.04830702 2.3509886e-38
-0.017469596 -0.11537148 -0.04830702 2.3509886e-38
-0.015545996 -0.11537148 -0.04830702 2.3509886e-38
-0.013622394 -0.11537148 -0.04830702 2.3509886e-38
-0.011688415 -0.11631607 -0.052253801 2.3509886e-38
-0.0097578932 -0.11631607 -0.052253801 2.3509886e-38
-0.0078273732 -0.11631607 -0.052253801 2.3509886e-38
-0.0059279921 -0.11537148 -0.04830702 2.3509886e-38
-0.0040043918 -0.11537148 -0.04830702 2.3509886e-38
-0.0020807907 -0.11537148 -0.04830702 2.3509886e-38
-0.00015719049 -0.11537148 -0.04830702 2.3509886e-38
0.0017664097 -0.11537148 -0.04830702 2.3509886e-38
0.0036900099 -0.11537148 -0.04830702 2.3509886e-38
0.0055567287 -0.114632 -0.045217235 2.3509886e-38
0.0074749105 -0.114632 -0.045217235 2.3509886e-38
0.0093930941 -0.114632 -0.045217235 2.3509886e-38
0.011384413 -0.11537148 -0.04830702 2.3509886e-38
0.013229461 -0.114632 -0.045217235 2.3509886e-38
0.015147643 -0.114632 -0.045217235 2.3509883e-38
0.017065827 -0.114632 -0.045217235 2.3509883e-38
0.018984009 -0.114632 -0.045217235 2.3418043e-38
0.020902194 -0.114632 -0.045217235 2.3325847e-38
0.022820376 -0.114632 -0.045217235 2.3141456e-38
0.024738561 -0.114632 -0.045217235 2.3049261e-38
0.026656743 -0.114632 -0.045217235 2.2957065e-38
0.028574925 -0.114632 -0.045217235 2.2957064e-38
0.03049311 -0.114632 -0.045217235 2.2957064e-38
0.032411292 -0.114632 -0.045217235 2.2496085e-38
0.034329474 -0.114632 -0.045217235 2.2311694e-38
0.036247659 -0.114632 -0.045217235 2.2311691e-38
0.038165841 -0.114632 -0.045217235 2.2680474e-38
0.040084023 -0.114632 -0.045217235 2.2864865e-38
0.042002209 -0.114632 -0.045217235 2.2496083e-38
0.04392039 -0.114632 -0.045217235 2.2311691e-38
0.045838576 -0.114632 -0.045217235 2.2311691e-38
0.047756758 -0.114632 -0.045217235 2.2403891e-38
0.049674939 -0.114632 -0.045217235 2.231134e-38
0.051350292 -0.11367123 -0.041202862 2.2219144e-38
0.05326144 -0.11367123 -0.041202862 2.1942557e-38
0.055172581 -0.11367123 -0.041202862 2.166597e-38
0.05708373 -0.11367123 -0.041202862 2.1204992e-38
0.058994871 -0.11367123 -0.041202862 2.083621e-38
0.060906019 -0.11367123 -0.041202862 2.0651818e-38
0.062817156 -0.11367123 -0.041202862 1.9914253e-38
0.064728305 -0.11367123 -0.041202862 2.0467427e-38
0.066639453 -0.11367123 -0.041202862 1.9729862e-38
0.068550602 -0.11367123 -0.041202862 1.8346928e-38
0.070461735 -0.11367123 -0.041202862 1.8900101e-38
0.072138906 -0.11296929 -0.038269956 2.0098645e-38
0.074044913 -0.11296929 -0.038269956 1.8623514e-38
0.075950906 -0.11296929 -0.038269956 1.5213718e-38
0.077856913 -0.11296929 -0.038269956 1.3648556e-38
0.079762921 -0.11296929 -0.038269956 1.0884128e-38
0.078386769 -0.10409774 -0.0012015887 9.5011931e-39
0.080227777 -0.10409774 -0.0012015887 1.0607541e-38
0.081519276 -0.10266902 0.0047680549 1.1160714e-38
0.083349824 -0.10266902 0.0047680549 9.9621713e-39
0.085180357 -0.10266902 0.0047680549 8.8558237e-39
-0.084084451 -0.10763429 -0.0082345791 2.1765011e-38
-0.082231119 -0.10763429 -0.0082345791 2.1765011e-38
-0.080377772 -0.10763429 -0.0082345791 2.2132353e-38
-0.078705624 -0.1083564 -0.011229951 2.158134e-38
-0.079668149 -0.11993565 -0.05925997 2.075266e-38
-0.077725351 -0.11993565 -0.05925997 2.2316024e-38
-0.075615153 -0.11920498 -0.056229193 2.3142544e-38
-0.073677659 -0.11920498 -0.056229193 2.3509883e-38
-0.071534552 -0.11824657 -0.052253801 2.3417687e-38
-0.069604032 -0.11824657 -0.052253801 2.3233296e-38
-0.067673512 -0.11824657 -0.052253801 2.3048905e-38
-0.065559611 -0.11729507 -0.04830702 2.2864513e-38
-0.063636005 -0.11729507 -0.04830702 2.2680122e-38
-0.061881945 -0.11824657 -0.052253801 2.2587927e-38
-0.059951425 -0.11824657 -0.052253801 2.3048905e-38
-0.058020905 -0.11824657 -0.052253801 2.3233296e-38
-0.056090388 -0.11824657 -0.052253801 2.3417687e-38
-0.054159869 -0.11824657 -0.052253801 2.3509883e-38
-0.052229345 -0.11824657 -0.052253801 2.3509883e-38
-0.050298825 -0.11824657 -0.052253801 2.3509883e-38
-0.048368305 -0.11824657 -0.052253801 2.3509883e-38
-0.046437785 -0.11824657 -0.052253801 2.3417687e-38
-0.044507265 -0.11824657 -0.052253801 2.3509886e-38
-0.042677812 -0.11920498 -0.056229193 2.3509886e-38
-0.040740319 -0.11920498 -0.056229193 2.3509886e-38
-0.038715702 -0.11824657 -0.052253801 2.3509886e-38
-0.036785182 -0.11824657 -0.052253801 2.3509886e-38
-0.034854662 -0.11824657 -0.052253801 2.3509886e-38
-0.032924138 -0.11824657 -0.052253801 2.3509886e-38
-0.030934799 -0.11729507 -0.04830702 2.3509886e-38
-0.029011197 -0.11729507 -0.04830702 2.3509886e-38
-0.027087599 -0.11729507 -0.04830702 2.3509886e-38
-0.025163997 -0.11729507 -0.04830702 2.3509886e-38
-0.023240399 -0.11729507 -0.04830702 2.3509886e-38
-0.021316797 -0.11729507 -0.04830702 2.3509886e-38
-0.019393196 -0.11729507 -0.04830702 2.3509886e-38
-0.017469596 -0.11729507 -0.04830702 2.3509886e-38
-0.015545996 -0.11729507 -0.04830702 2.3509886e-38
-0.013622394 -0.11729507 -0.04830702 2.3509886e-38
-0.011688415 -0.11824657 -0.052253801 2.3509886e-38
-0.0097578932 -0.11824657 -0.052253801 2.3509886e-38
-0.0078273732 -0.11824657 -0.052253801 2.3509886e-38
-0.0058968524 -0.11824657 -0.052253801 2.3509886e-38
-0.0039663315 -0.11824657 -0.052253801 2.3509886e-38
-0.0020358106 -0.11824657 -0.052253801 2.3509886e-38
-0.00015719049 -0.11729507 -0.04830702 2.3509886e-38
0.0017664097 -0.11729507 -0.04830702 2.3509886e-38
0.0036900099 -0.11729507 -0.04830702 2.3509886e-38
0.005613612 -0.11729507 -0.04830702 2.3509886e-38
0.0075372122 -0.11729507 -0.04830702 2.3509886e-38
0.0094608124 -0.11729507 -0.04830702 2.3509886e-38
0.011384413 -0.11729507 -0.04830702 2.3509886e-38
0.013308013 -0.11729507 -0.04830702 2.3509886e-38
0.015147643 -0.11655019 -0.045217235 2.3509886e-38
0.017065827 -0.11655019 -0.045217235 2.3509883e-38
0.018984009 -0.11655019 -0.045217235 2.3418043e-38
0.020902194 -0.11655019 -0.045217235 2.3325847e-38
0.022820376 -0.11655019 -0.045217235 2.3233652e-38
0.024738561 -0.11655019 -0.045217235 2.3141456e-38
0.026656743 -0.11655019 -0.045217235 2.3141456e-38
0.028574925 -0.11655019 -0.045217235 2.3141456e-38
0.03049311 -0.11655019 -0.045217235 2.3141455e-38
0.032411292 -0.11655019 -0.045217235 2.2864868e-38
0.034329474 -0.11655019 -0.045217235 2.2588281e-38
0.036247659 -0.11655019 -0.045217235 2.2496085e-38
0.038165841 -0.11655019 -0.045217235 2.2680474e-38
0.040084023 -0.11655019 -0.045217235 2.2680474e-38
0.042002209 -0.11655019 -0.045217235 2.2311691e-38
0.04392039 -0.11655019 -0.045217235 2.1942909e-38
0.045838576 -0.11655019 -0.045217235 2.1942912e-38
0.047756758 -0.11655019 -0.045217235 2.1850361e-38
0.049674939 -0.11655019 -0.045217235 2.166597e-38
0.051593121 -0.11655019 -0.045217235 2.1481579e-38
0.05351131 -0.11655019 -0.045217235 2.1389383e-38
0.055172581 -0.11558239 -0.041202862 2.166597e-38
0.05708373 -0.11558239 -0.041202862 2.2126948e-38
0.058994871 -0.11558239 -0.041202862 2.2772318e-38
0.060906019 -0.11558239 -0.041202862 2.31411e-38
0.062817156 -0.11558239 -0.041202862 2.3233296e-38
0.064728305 -0.11558239 -0.041202862 2.3417687e-38
0.066639453 -0.11558239 -0.041202862 2.31411e-38
0.068550602 -0.11558239 -0.041202862 2.2864513e-38
0.070461735 -0.11558239 -0.041202862 2.3417687e-38
0.072138906 -0.1148753 -0.038269956 2.3509883e-38
0.073797584 -0.11414395 -0.035236318 2.3509883e-38
0.07428655 -0.11005743 -0.01828571 2.2036195e-38
0.076157525 -0.11005743 -0.01828571 2.2591531e-38
0.078028485 -0.11005743 -0.01828571 2.2775202e-38
0.078386769 -0.10593875 -0.0012015887 2.2775202e-38
0.080227777 -0.10593875 -0.0012015887 2.2499695e-38
0.081519276 -0.10449956 0.0047680549 2.2775202e-38
0.083349824 -0.10449956 0.0047680549 2.2591531e-38
0.085180357 -0.10449956 0.0047680549 2.0656864e-38
0.087010905 -0.10449956 0.0047680549 1.8075385e-38
-0.085736737 -0.10876434 -0.005256135 2.2958873e-38
-0.08388862 -0.10876434 -0.005256135 2.2774843e-38
-0.082040504 -0.10876434 -0.005256135 2.2221676e-38
-0.080192387 -0.10876434 -0.005256135 2.2958873e-38
-0.078524426 -0.10948761 -0.0082345791 2.2867037e-38
-0.076671094 -0.10948761 -0.0082345791 2.2591531e-38
-0.07498844 -0.11021499 -0.011229951 2.2498618e-38
-0.075615153 -0.12114246 -0.056229193 2.341805e-38
-0.073677659 -0.12114246 -0.056229193 2.3509883e-38
-0.071534552 -0.12017711 -0.052253801 2.3509883e-38
-0.069604032 -0.12017711 -0.052253801 2.3417687e-38
-0.067483209 -0.11921866 -0.04830702 2.3325492e-38
-0.065559611 -0.11921866 -0.04830702 2.31411e-38
-0.063636005 -0.11921866 -0.04830702 2.2956709e-38
-0.061881945 -0.12017711 -0.052253801 2.2864513e-38
-0.059951425 -0.12017711 -0.052253801 2.31411e-38
-0.058020905 -0.12017711 -0.052253801 2.3233296e-38
-0.056090388 -0.12017711 -0.052253801 2.3417687e-38
-0.054159869 -0.12017711 -0.052253801 2.3509883e-38
-0.052229345 -0.12017711 -0.052253801 2.3509883e-38
-0.050298825 -0.12017711 -0.052253801 2.3509883e-38
-0.048368305 -0.12017711 -0.052253801 2.3509883e-38
-0.044700973 -0.10559841 0.0077811889 2.3417687e-38
-0.042875715 -0.10559841 0.0077811889 2.3509886e-38
-0.042677812 -0.12114246 -0.056229193 2.3509886e-38
-0.040740319 -0.12114246 -0.056229193 2.3509886e-38
-0.038715702 -0.12017711 -0.052253801 2.3509886e-38
-0.036785182 -0.12017711 -0.052253801 2.3509886e-38
-0.034854662 -0.12017711 -0.052253801 2.3509886e-38
-0.032924138 -0.12017711 -0.052253801 2.3509886e-38
-0.030993618 -0.12017711 -0.052253801 2.3509886e-38
-0.029011197 -0.11921866 -0.04830702 2.3509886e-38
-0.027087599 -0.11921866 -0.04830702 2.3509886e-38
-0.025163997 -0.11921866 -0.04830702 2.3509886e-38
-0.023240399 -0.11921866 -0.04830702 2.3509886e-38
-0.021297835 -0.11846836 -0.045217235 2.3509886e-38
-0.019379653 -0.11846836 -0.045217235 2.3509886e-38
-0.017469596 -0.11921866 -0.04830702 2.3509886e-38
-0.015549455 -0.12017711 -0.052253801 2.3509886e-38
-0.013618935 -0.12017711 -0.052253801 2.3509886e-38
-0.011688415 -0.12017711 -0.052253801 2.3509886e-38
-0.0097578932 -0.12017711 -0.052253801 2.3509886e-38
-0.0078029772 -0.12114246 -0.056229193 2.3509886e-38
-0.0058968524 -0.12017711 -0.052253801 2.3509886e-38
-0.0039663315 -0.12017711 -0.052253801 2.3509886e-38
-0.0020358106 -0.12017711 -0.052253801 2.3509886e-38
-0.00010529067 -0.12017711 -0.052253801 2.3509886e-38
0.0018252302 -0.12017711 -0.052253801 2.3509886e-38
0.0037557501 -0.12017711 -0.052253801 2.3509886e-38
0.0056862719 -0.12017711 -0.052253801 2.3509886e-38
0.0076167919 -0.12017711 -0.052253801 2.3509886e-38
0.0095473118 -0.12017711 -0.052253801 2.3509886e-38
0.011477834 -0.12017711 -0.052253801 2.3509886e-38
0.013308013 -0.11921866 -0.04830702 2.3509886e-38
0.015147643 -0.11846836 -0.045217235 2.3509886e-38
0.017065827 -0.11846836 -0.045217235 2.3509883e-38
0.018984009 -0.11846836 -0.045217235 2.3417687e-38
0.020902194 -0.11846836 -0.045217235 2.3417687e-38
0.022820376 -0.11846836 -0.045217235 2.3325492e-38
0.024738561 -0.11846836 -0.045217235 2.3325492e-38
0.026656743 -0.11846836 -0.045217235 2.3325847e-38
0.028574925 -0.11846836 -0.045217235 2.3325847e-38
0.03049311 -0.11846836 -0.045217235 2.3325847e-38
0.032411292 -0.11846836 -0.045217235 2.3325847e-38
0.034329474 -0.11846836 -0.045217235 2.2680478e-38
0.036247659 -0.11846836 -0.045217235 2.2127304e-38
0.038165841 -0.11846836 -0.045217235 2.2035107e-38
0.040238421 -0.11921866 -0.04830702 2.2035107e-38
0.042162023 -0.11921866 -0.04830702 2.1942912e-38
0.044085622 -0.11921866 -0.04830702 2.2035107e-38
0.046009224 -0.11921866 -0.04830702 2.240389e-38
0.047932822 -0.11921866 -0.04830702 2.2587927e-38
0.049674939 -0.11846836 -0.045217235 2.2403538e-38
0.051593121 -0.11846836 -0.045217235 2.2034756e-38
0.05351131 -0.11846836 -0.045217235 2.194256e-38
0.055172581 -0.11749353 -0.041202862 2.2219147e-38
0.05708373 -0.11749353 -0.041202862 2.2864516e-38
0.058994871 -0.11749353 -0.041202862 2.3509886e-38
0.060906019 -0.11749353 -0.041202862 2.3509886e-38
0.062817156 -0.11749353 -0.041202862 2.3509886e-38
0.064514905 -0.11678131 -0.038269956 2.341769e-38
0.066420898 -0.11678131 -0.038269956 2.341769e-38
0.068550602 -0.11749353 -0.041202862 2.3509886e-38
0.070232898 -0.11678131 -0.038269956 2.3509886e-38
0.071896896 -0.11604463 -0.035236318 2.3509886e-38
0.072655246 -0.11264218 -0.021225054 2.3509886e-38
0.073949814 -0.11094652 -0.01424237 2.341805e-38
0.075813696 -0.11094652 -0.01424237 2.2498618e-38
0.07654576 -0.10777976 -0.0012015887 2.2867037e-38
0.078386769 -0.10777976 -0.0012015887 2.2867037e-38
0.080227777 -0.10777976 -0.0012015887 2.2591531e-38
0.081519276 -0.10633011 0.0047680549 2.2867037e-38
0.083349824 -0.10633011 0.0047680549 2.2775202e-38
0.085180357 -0.10633011 0.0047680549 2.2775202e-38
0.087010905 -0.10633011 0.0047680549 2.0748336e-38
-0.095808238 -0.10742365 0.0077811889 2.3509168e-38
-0.09398298 -0.10742365 0.0077811889 2.3507733e-38
-0.092157707 -0.10742365 0.0077811889 2.3509168e-38
-0.090332448 -0.10742365 0.0077811889 2.3323703e-38
-0.08850719 -0.10742365 0.0077811889 2.3508809e-38
-0.086890608 -0.10816063 0.0047680549 2.3508809e-38
-0.085264638 -0.10890187 0.0017375164 2.3324421e-38
-0.083622038 -0.10962076 -0.0012015887 2.3509527e-38
-0.08178103 -0.10962076 -0.0012015887 2.3509527e-38
-0.079940021 -0.10962076 -0.0012015887 2.3509527e-38
-0.078344271 -0.11061247 -0.005256135 2.2956359e-38
-0.076671094 -0.11134095 -0.0082345791 2.3509527e-38
-0.07498844 -0.11207359 -0.011229951 2.3509886e-38
-0.073129848 -0.11207359 -0.011229951 2.3509886e-38
-0.071648568 -0.11379938 -0.01828571 2.3509883e-38
-0.071330413 -0.12114228 -0.04830702 2.3509883e-38
-0.069406807 -0.12114228 -0.04830702 2.3509883e-38
-0.067483209 -0.12114228 -0.04830702 2.3509883e-38
-0.065559611 -0.12114228 -0.04830702 2.3509883e-38
-0.063636005 -0.12114228 -0.04830702 2.3509883e-38
-0.061712414 -0.12114228 -0.04830702 2.3509883e-38
-0.059951425 -0.12210761 -0.052253801 2.3325492e-38
-0.058020905 -0.12210761 -0.052253801 2.3325492e-38
-0.056090388 -0.12210761 -0.052253801 2.3417687e-38
-0.054159869 -0.12210761 -0.052253801 2.3509883e-38
-0.052229345 -0.12210761 -0.052253801 2.3509883e-38
-0.050427776 -0.12307997 -0.056229193 2.3509883e-38
-0.048490282 -0.12307997 -0.056229193 2.3509883e-38
-0.044614308 -0.10669093 0.010776918 2.3509883e-38
-0.042794298 -0.10669093 0.010776918 2.3509886e-38
-0.040974293 -0.10669093 0.010776918 2.3509886e-38
-0.039154284 -0.10669093 0.010776918 2.3509886e-38
-0.037334278 -0.10669093 0.010776918 2.3509886e-38
-0.036865339 -0.12307997 -0.056229193 2.3509886e-38
-0.034854662 -0.12210761 -0.052253801 2.3509886e-38
-0.032924138 -0.12210761 -0.052253801 2.3509886e-38
-0.030993618 -0.12210761 -0.052253801 2.3509886e-38
-0.029011197 -0.12114228 -0.04830702 2.3509886e-38
-0.027087599 -0.12114228 -0.04830702 2.3509886e-38
-0.024835501 -0.11281042 -0.01424237 2.3509886e-38
-0.022971626 -0.11281042 -0.01424237 2.3509886e-38
-0.021297835 -0.12038656 -0.045217235 2.3509886e-38
-0.019379653 -0.12038656 -0.045217235 2.3509886e-38
-0.017469596 -0.12114228 -0.04830702 2.3509886e-38
-0.015549455 -0.12210761 -0.052253801 2.3509886e-38
-0.013618935 -0.12210761 -0.052253801 2.3509886e-38
-0.011677958 -0.12307997 -0.056229193 2.3509886e-38
-0.0097404681 -0.12307997 -0.056229193 2.3509886e-38
-0.0078029772 -0.12307997 -0.056229193 2.3509886e-38
-0.0058968524 -0.12210761 -0.052253801 2.3509886e-38
-0.0039663315 -0.12210761 -0.052253801 2.3509886e-38
-0.0020358106 -0.12210761 -0.052253801 2.3509886e-38
-0.00010529067 -0.12210761 -0.052253801 2.3509886e-38
0.0018252302 -0.12210761 -0.052253801 2.3509886e-38
0.0037557501 -0.12210761 -0.052253801 2.3509886e-38
0.0056862719 -0.12210761 -0.052253801 2.3509886e-38
0.0076167919 -0.12210761 -0.052253801 2.3509886e-38
0.0095473118 -0.12210761 -0.052253801 2.3509886e-38
0.011477834 -0.12210761 -0.052253801 2.3509886e-38
0.013308013 -0.12114228 -0.04830702 2.3509886e-38
0.015231615 -0.12114228 -0.04830702 2.3509886e-38
0.017065827 -0.12038656 -0.045217235 2.3509886e-38
0.018984009 -0.12038656 -0.045217235 2.3509883e-38
0.021002416 -0.12114228 -0.04830702 2.341769e-38
0.022926018 -0.12114228 -0.04830702 2.3417687e-38
0.024738561 -0.12038656 -0.045217235 2.341769e-38
0.026656743 -0.12038656 -0.045217235 2.3417687e-38
0.028574925 -0.12038656 -0.045217235 2.3509883e-38
0.03049311 -0.12038656 -0.045217235 2.350988e-38
0.032411292 -0.12038656 -0.045217235 2.3509883e-38
0.034329474 -0.12038656 -0.045217235 2.2588282e-38
0.036247659 -0.12038656 -0.045217235 2.1666326e-38
0.038314819 -0.12114228 -0.04830702 2.1389739e-38
0.040238421 -0.12114228 -0.04830702 2.1481935e-38
0.042162023 -0.12114228 -0.04830702 2.1942912e-38
0.044085622 -0.12114228 -0.04830702 2.2772674e-38
0.046009224 -0.12114228 -0.04830702 2.350988e-38
0.047932822 -0.12114228 -0.04830702 2.3509883e-38
0.049856421 -0.12114228 -0.04830702 2.3509886e-38
0.051593121 -0.12038656 -0.045217235 2.341769e-38
0.05351131 -0.12038656 -0.045217235 2.341769e-38
0.055172581 -0.11940466 -0.041202862 2.3325494e-38
0.05708373 -0.11940466 -0.041202862 2.3325494e-38
0.058796894 -0.11868732 -0.038269956 2.3325494e-38
0.060702894 -0.11868732 -0.038269956 2.3325494e-38
0.062817156 -0.11940466 -0.041202862 2.3509886e-38
0.064007357 -0.11698125 -0.031294782 2.3141103e-38
0.06590113 -0.11698125 -0.031294782 2.3048907e-38
0.067794904 -0.11698125 -0.031294782 2.3509886e-38
0.069142506 -0.11526908 -0.024294574 2.3325494e-38
0.070779115 -0.1145183 -0.021225054 2.2772321e-38
0.07241559 -0.11379938 -0.01828571 2.2956712e-38
0.073698938 -0.11207359 -0.011229951 2.341805e-38
0.075302809 -0.11134095 -0.0082345791 2.3234379e-38
0.07654576 -0.10962076 -0.0012015887 2.2958873e-38
0.078386769 -0.10962076 -0.0012015887 2.2497539e-38
0.080227777 -0.10962076 -0.0012015887 2.2682286e-38
0.081798241 -0.10890187 0.0017375164 2.2867037e-38
0.083349824 -0.10816063 0.0047680549 2.2958873e-38
0.085180357 -0.10816063 0.0047680549 2.2867037e-38
0.087010905 -0.10816063 0.0047680549 2.2775202e-38
-0.09398298 -0.10924892 0.0077811889 2.3321904e-38
-0.092157707 -0.10924892 0.0077811889 2.3508451e-38
-0.090332448 -0.10924892 0.0077811889 2.3508451e-38
-0.08850719 -0.10924892 0.0077811889 2.3508092e-38
-0.086890608 -0.10999118 0.0047680549 2.3508809e-38
-0.085264638 -0.11073773 0.0017375164 2.3230788e-38
-0.083622038 -0.11146177 -0.0012015887 2.3322983e-38
-0.08178103 -0.11146177 -0.0012015887 2.3509168e-38
-0.079940021 -0.11146177 -0.0012015887 2.3509168e-38
-0.078344271 -0.11246057 -0.005256135 2.3323336e-38
-0.076671094 -0.1131943 -0.0082345791 2.3507728e-38
-0.074817747 -0.1131943 -0.0082345791 2.3416251e-38
-0.073129848 -0.11393218 -0.011229951 2.3325131e-38
-0.071432352 -0.11467429 -0.01424237 2.3325492e-38
-0.069929644 -0.11639442 -0.021225054 2.3325492e-38
-0.068206906 -0.11715056 -0.024294574 2.3417687e-38
-0.06651853 -0.11813726 -0.028299887 2.3417687e-38
-0.064952299 -0.119846 -0.035236318 2.3417687e-38
-0.063051619 -0.119846 -0.035236318 2.3417687e-38
-0.061712414 -0.12306587 -0.04830702 2.3417687e-38
-0.059788808 -0.12306587 -0.04830702 2.3417687e-38
-0.058020905 -0.12403814 -0.052253801 2.3417687e-38
-0.056090388 -0.12403814 -0.052253801 2.3509883e-38
-0.054159869 -0.12403814 -0.052253801 2.3509883e-38
-0.052365266 -0.12501745 -0.056229193 2.3509883e-38
-0.048126772 -0.10754226 0.014709156 2.3509883e-38
-0.046313658 -0.10754226 0.014709156 2.3509883e-38
-0.044500545 -0.10754226 0.014709156 2.3509883e-38
-0.042794298 -0.10851096 0.010776918 2.3509886e-38
-0.040974293 -0.10851096 0.010776918 2.3509886e-38
-0.039154284 -0.10851096 0.010776918 2.3509886e-38
-0.037248097 -0.10754226 0.014709156 2.3509886e-38
-0.035434984 -0.10754226 0.014709156 2.3509886e-38
-0.033694267 -0.10851096 0.010776918 2.3509886e-38
-0.031924158 -0.10924892 0.0077811889 2.3509886e-38
-0.030143805 -0.10999118 0.0047680549 2.3509886e-38
-0.028391764 -0.11146177 -0.0012015887 2.3509886e-38
-0.026550755 -0.11146177 -0.0012015887 2.3509886e-38
-0.024777565 -0.1131943 -0.0082345791 2.3509886e-38
-0.022924226 -0.1131943 -0.0082345791 2.3509886e-38
-0.021297835 -0.12230472 -0.045217235 2.3509886e-38
-0.019379653 -0.12230472 -0.045217235 2.3509886e-38
-0.017479975 -0.12403814 -0.052253801 2.3509886e-38
-0.015549455 -0.12403814 -0.052253801 2.3509886e-38
-0.013618935 -0.12403814 -0.052253801 2.3509886e-38
-0.011677958 -0.12501745 -0.056229193 2.3509886e-38
-0.0097404681 -0.12501745 -0.056229193 2.3509886e-38
-0.0078029772 -0.12501745 -0.056229193 2.3509886e-38
-0.0058654863 -0.12501745 -0.056229193 2.3509886e-38
-0.0039279955 -0.12501745 -0.056229193 2.3509886e-38
-0.0019905046 -0.12501745 -0.056229193 2.3509886e-38
-5.3013675e-05 -0.12501745 -0.056229193 2.3509886e-38
0.0018252302 -0.12403814 -0.052253801 2.3509886e-38
0.0037557501 -0.12403814 -0.052253801 2.3509886e-38
0.0056862719 -0.12403814 -0.052253801 2.3509886e-38
0.0076167919 -0.12403814 -0.052253801 2.3509886e-38
0.0095473118 -0.12403814 -0.052253801 2.3509886e-38
0.011477834 -0.12403814 -0.052253801 2.3509886e-38
0.013408354 -0.12403814 -0.052253801 2.3509886e-38
0.015231615 -0.12306587 -0.04830702 2.3509886e-38
0.017155215 -0.12306587 -0.04830702 2.3509886e-38
0.019078813 -0.12306587 -0.04830702 2.3509886e-38
0.021002416 -0.12306587 -0.04830702 2.3509886e-38
0.022926018 -0.12306587 -0.04830702 2.3509886e-38
0.024738561 -0.12230472 -0.045217235 2.3509886e-38
0.026656743 -0.12230472 -0.045217235 2.3509886e-38
0.028574925 -0.12230472 -0.045217235 2.3509886e-38
0.030620418 -0.12306587 -0.04830702 2.3509883e-38
0.032411292 -0.12230472 -0.045217235 2.3509886e-38
0.034329474 -0.12230472 -0.045217235 2.2772318e-38
0.036247659 -0.12230472 -0.045217235 2.2126948e-38
0.038314819 -0.12306587 -0.04830702 2.2034753e-38
0.040238421 -0.12306587 -0.04830702 2.2219144e-38
0.042162023 -0.12306587 -0.04830702 2.2680478e-38
0.044085622 -0.12306587 -0.04830702 2.3325492e-38
0.046227206 -0.12403814 -0.052253801 2.3509883e-38
0.047932822 -0.12306587 -0.04830702 2.3325494e-38
0.049856421 -0.12306587 -0.04830702 2.3509886e-38
0.051593121 -0.12230472 -0.045217235 2.3509886e-38
0.052017953 -0.11639442 -0.021225054 2.3509886e-38
0.053894069 -0.11639442 -0.021225054 2.3509886e-38
0.055576924 -0.11567034 -0.01828571 2.3509886e-38
0.057447892 -0.11567034 -0.01828571 2.3509886e-38
0.059318852 -0.11567034 -0.01828571 2.3509886e-38
0.061189812 -0.11567034 -0.01828571 2.3509886e-38
0.063060775 -0.11567034 -0.01828571 2.3509886e-38
0.065150768 -0.11639442 -0.021225054 2.3509886e-38
0.067026883 -0.11639442 -0.021225054 2.3509886e-38
0.068902999 -0.11639442 -0.021225054 2.3509886e-38
0.07054463 -0.11567034 -0.01828571 2.3509886e-38
0.072085947 -0.11467429 -0.01424237 2.3509886e-38
0.073698938 -0.11393218 -0.011229951 2.3509886e-38
0.075302809 -0.1131943 -0.0082345791 2.3509886e-38
0.076897651 -0.11246057 -0.005256135 2.3141103e-38
0.078386769 -0.11146177 -0.0012015887 2.3141466e-38
0.080227777 -0.11146177 -0.0012015887 2.341805e-38
0.082068786 -0.11146177 -0.0012015887 2.3234379e-38
0.083634093 -0.11073773 0.0017375164 2.2681564e-38
0.085180357 -0.10999118 0.0047680549 2.2497892e-38
0.087010905 -0.10999118 0.0047680549 2.295887e-38
-0.095574498 -0.11033095 0.010776918 2.3323336e-38
-0.093754485 -0.11033095 0.010776918 2.3509168e-38
-0.091934487 -0.11033095 0.010776918 2.3415179e-38
-0.090332448 -0.11107419 0.0077811889 2.3509168e-38
-0.08850719 -0.11107419 0.0077811889 2.3323702e-38
-0.086890608 -0.11182173 0.0047680549 2.3509168e-38
-0.085264638 -0.11257361 0.0017375164 2.3509168e-38
-0.083622038 -0.11330278 -0.0012015887 2.3509168e-38
-0.08178103 -0.11330278 -0.0012015887 2.3509527e-38
-0.079940021 -0.11330278 -0.0012015887 2.3508808e-38
-0.078344271 -0.1143087 -0.005256135 2.3509524e-38
-0.076496154 -0.1143087 -0.005256135 2.3509165e-38
-0.074817747 -0.11504765 -0.0082345791 2.332405e-38
-0.073129848 -0.11579077 -0.011229951 2.3509523e-38
-0.071271256 -0.11579077 -0.011229951 2.3417687e-38
-0.069777608 -0.1175413 -0.01828571 2.3417687e-38
-0.067906648 -0.1175413 -0.01828571 2.3417687e-38
-0.06651853 -0.12002577 -0.028299887 2.3417687e-38
-0.064630017 -0.12002577 -0.028299887 2.3325492e-38
-0.062741488 -0.12002577 -0.028299887 2.3233296e-38
-0.061712414 -0.12498946 -0.04830702 2.31411e-38
-0.059788808 -0.12498946 -0.04830702 2.3509883e-38
-0.058020905 -0.12596865 -0.052253801 2.3509883e-38
-0.053714339 -0.11033095 0.010776918 2.3509883e-38
-0.051894333 -0.11033095 0.010776918 2.3509883e-38
-0.050074328 -0.11033095 0.010776918 2.3509883e-38
-0.048126772 -0.10935538 0.014709156 2.3509883e-38
-0.046219725 -0.10859586 0.01777057 2.3509883e-38
-0.04441198 -0.10859586 0.01777057 2.3509883e-38
-0.042604238 -0.10859586 0.01777057 2.3509886e-38
-0.040874325 -0.10935538 0.014709156 2.3509886e-38
-0.039061211 -0.10935538 0.014709156 2.3509886e-38
-0.037248097 -0.10935538 0.014709156 2.3509886e-38
-0.035434984 -0.10935538 0.014709156 2.3509886e-38
-0.033694267 -0.11033095 0.010776918 2.3509886e-38
-0.031874258 -0.11033095 0.010776918 2.3509886e-38
-0.0300989 -0.11107419 0.0077811889 2.3509886e-38
-0.028391764 -0.11330278 -0.0012015887 2.3509886e-38
-0.026550755 -0.11330278 -0.0012015887 2.3509886e-38
-0.024709744 -0.11330278 -0.0012015887 2.3509886e-38
-0.022900727 -0.1143087 -0.005256135 2.3509886e-38
-0.021052608 -0.1143087 -0.005256135 2.3509886e-38
-0.01920449 -0.1143087 -0.005256135 2.3509886e-38
-0.017356372 -0.1143087 -0.005256135 2.3509886e-38
-0.015496824 -0.11107419 0.0077811889 2.3509886e-38
-0.013671566 -0.11107419 0.0077811889 2.3509886e-38
-0.011854185 -0.11033095 0.010776918 2.3509886e-38
-0.010034177 -0.11033095 0.010776918 2.3509886e-38
-0.0082383025 -0.10935538 0.014709156 2.3509886e-38
-0.0064493446 -0.10859586 0.01777057 2.3509886e-38
-0.0046699382 -0.10786678 0.020709198 2.3509886e-38
-0.0028673457 -0.10786678 0.020709198 2.3509886e-38
-0.0010647541 -0.10786678 0.020709198 2.3509886e-38
0.00069274288 -0.10711606 0.023735087 2.3509886e-38
0.0024900287 -0.10711606 0.023735087 2.3509886e-38
0.0042873155 -0.10711606 0.023735087 2.3509886e-38
0.0060846023 -0.10711606 0.023735087 2.3509886e-38
0.0078818891 -0.10711606 0.023735087 2.3509886e-38
0.0096079707 -0.10636975 0.026743334 2.3509886e-38
0.011399982 -0.10636975 0.026743334 2.3509886e-38
0.015338873 -0.12596865 -0.052253801 2.3509886e-38
0.017269395 -0.12596865 -0.052253801 2.3509886e-38
0.019199915 -0.12596865 -0.052253801 2.3509886e-38
0.021130435 -0.12596865 -0.052253801 2.3509886e-38
0.022926018 -0.12498946 -0.04830702 2.3509886e-38
0.024849616 -0.12498946 -0.04830702 2.3509886e-38
0.026773218 -0.12498946 -0.04830702 2.3509886e-38
0.028696816 -0.12498946 -0.04830702 2.3509886e-38
0.030620418 -0.12498946 -0.04830702 2.3509886e-38
0.032544021 -0.12498946 -0.04830702 2.3509886e-38
0.034329474 -0.12422292 -0.045217235 2.3233299e-38
0.036247659 -0.12422292 -0.045217235 2.3141103e-38
0.038165841 -0.12422292 -0.045217235 2.3417687e-38
0.040084023 -0.12422292 -0.045217235 2.3509883e-38
0.042162023 -0.12498946 -0.04830702 2.3417687e-38
0.044085622 -0.12498946 -0.04830702 2.3417687e-38
0.046009224 -0.12498946 -0.04830702 2.3509883e-38
0.047932822 -0.12498946 -0.04830702 2.341769e-38
0.049856421 -0.12498946 -0.04830702 2.341769e-38
0.049964037 -0.1175413 -0.01828571 2.3325494e-38
0.051834997 -0.1175413 -0.01828571 2.341769e-38
0.053705964 -0.1175413 -0.01828571 2.341769e-38
0.055576924 -0.1175413 -0.01828571 2.3509886e-38
0.057447892 -0.1175413 -0.01828571 2.3509886e-38
0.059038822 -0.11653815 -0.01424237 2.3509886e-38
0.060902696 -0.11653815 -0.01424237 2.3141103e-38
0.063060775 -0.1175413 -0.01828571 2.3509886e-38
0.064931735 -0.1175413 -0.01828571 2.3509886e-38
0.06680271 -0.1175413 -0.01828571 2.3141103e-38
0.068358198 -0.11653815 -0.01424237 2.341769e-38
0.070222065 -0.11653815 -0.01424237 2.3509886e-38
0.072085947 -0.11653815 -0.01424237 2.3509886e-38
0.073698938 -0.11579077 -0.011229951 2.2956712e-38
0.075302809 -0.11504765 -0.0082345791 2.3509527e-38
0.077156141 -0.11504765 -0.0082345791 2.3509527e-38
0.078745767 -0.1143087 -0.005256135 2.3509527e-38
0.080593884 -0.1143087 -0.005256135 2.3509886e-38
0.082068786 -0.11330278 -0.0012015887 2.3509886e-38
0.083634093 -0.11257361 0.0017375164 2.3418047e-38
0.085469946 -0.11257361 0.0017375164 2.3234376e-38
0.087305799 -0.11257361 0.0017375164 2.3142541e-38
-0.095574498 -0.11215095 0.010776918 2.3050347e-38
-0.093754485 -0.11215095 0.010776918 2.341805e-38
-0.091934487 -0.11215095 0.010776918 2.2772684e-38
-0.090114474 -0.11215095 0.010776918 2.341805e-38
-0.08850719 -0.11289944 0.0077811889 2.341805e-38
-0.086890608 -0.11365227 0.0047680549 2.2496097e-38
-0.085264638 -0.11440946 0.0017375164 2.341805e-38
-0.083428785 -0.11440946 0.0017375164 2.341805e-38
-0.08178103 -0.11514379 -0.0012015887 2.3141819e-38
-0.079940021 -0.11514379 -0.0012015887 2.2957065e-38
-0.078099012 -0.11514379 -0.0012015887 2.3418043e-38
-0.076496154 -0.1161568 -0.005256135 2.3509879e-38
-0.07464803 -0.1161568 -0.005256135 2.3509879e-38
-0.072964415 -0.11690097 -0.0082345791 2.350988e-38
-0.071271256 -0.11764936 -0.011229951 2.3509883e-38
-0.06956847 -0.11840202 -0.01424237 2.3509883e-38
-0.067704603 -0.11840202 -0.01424237 2.3509883e-38
-0.06651853 -0.12191428 -0.028299887 2.3509883e-38
-0.064630017 -0.12191428 -0.028299887 2.3509883e-38
-0.060994372 -0.11215095 0.010776918 2.3509883e-38
-0.059174359 -0.11215095 0.010776918 2.3417687e-38
-0.057192333 -0.11116849 0.014709156 2.3509883e-38
-0.055379219 -0.11116849 0.014709156 2.3509883e-38
-0.053714339 -0.11215095 0.010776918 2.3509883e-38
-0.051894333 -0.11215095 0.010776918 2.3509883e-38
-0.049939882 -0.11116849 0.014709156 2.3509883e-38
-0.048027467 -0.11040358 0.01777057 2.3509883e-38
-0.046129558 -0.10966937 0.020709198 2.3509883e-38
-0.044326965 -0.10966937 0.020709198 2.3509883e-38
-0.042604238 -0.11040358 0.01777057 2.3509886e-38
-0.040796489 -0.11040358 0.01777057 2.3509886e-38
-0.039061211 -0.11116849 0.014709156 2.3509886e-38
-0.037248097 -0.11116849 0.014709156 2.3509886e-38
-0.035434984 -0.11116849 0.014709156 2.3509886e-38
-0.033621874 -0.11116849 0.014709156 2.3509886e-38
-0.031874258 -0.11215095 0.010776918 2.3509886e-38
-0.030054253 -0.11215095 0.010776918 2.3509886e-38
-0.028273638 -0.11289944 0.0077811889 2.3509886e-38
-0.02648272 -0.11365227 0.0047680549 2.3509886e-38
-0.024709744 -0.11514379 -0.0012015887 2.3509886e-38
-0.022868736 -0.11514379 -0.0012015887 2.3509886e-38
-0.021027727 -0.11514379 -0.0012015887 2.3509886e-38
-0.019186717 -0.11514379 -0.0012015887 2.3509886e-38
-0.017345708 -0.11514379 -0.0012015887 2.3509886e-38
-0.015494198 -0.11215095 0.010776918 2.3509886e-38
-0.013674192 -0.11215095 0.010776918 2.3509886e-38
-0.011854185 -0.11215095 0.010776918 2.3509886e-38
-0.010051414 -0.11116849 0.014709156 2.3509886e-38
-0.0082570892 -0.11040358 0.01777057 2.3509886e-38
-0.0064725298 -0.10966937 0.020709198 2.3509886e-38
-0.0046699382 -0.10966937 0.020709198 2.3509886e-38
-0.0028673457 -0.10966937 0.020709198 2.3509886e-38
-0.0011045439 -0.10891335 0.023735087 2.3509886e-38
0.00069274288 -0.10891335 0.023735087 2.3509886e-38
0.0024900287 -0.10891335 0.023735087 2.3509886e-38
0.0042873155 -0.10891335 0.023735087 2.3509886e-38
0.0060239471 -0.10816176 0.026743334 2.3509886e-38
0.0078159589 -0.10816176 0.026743334 2.3509886e-38
0.0096079707 -0.10816176 0.026743334 2.3509886e-38
0.011323953 -0.10741456 0.029733937 2.3509886e-38
0.013110721 -0.10741456 0.029733937 2.3509886e-38
0.014984008 -0.10816176 0.026743334 2.3509886e-38
0.016776022 -0.10816176 0.026743334 2.3509527e-38
0.018568031 -0.10816176 0.026743334 2.3509527e-38
0.023060955 -0.12789918 -0.052253801 2.3417333e-38
0.024849616 -0.12691309 -0.04830702 2.3417333e-38
0.026656743 -0.12614109 -0.045217235 2.3509886e-38
0.028574925 -0.12614109 -0.045217235 2.3509886e-38
0.030620418 -0.12691309 -0.04830702 2.3509886e-38
0.032411292 -0.12614109 -0.045217235 2.3509886e-38
0.034329474 -0.12614109 -0.045217235 2.3509886e-38
0.036247659 -0.12614109 -0.045217235 2.3509886e-38
0.038165841 -0.12614109 -0.045217235 2.3509886e-38
0.040084023 -0.12614109 -0.045217235 2.3509886e-38
0.038280167 -0.10816176 0.026743334 2.3509886e-38
0.04007218 -0.10816176 0.026743334 2.3325494e-38
0.046009224 -0.12691309 -0.04830702 2.3325494e-38
0.048157725 -0.12789918 -0.052253801 2.3509886e-38
0.048093069 -0.11941226 -0.01828571 2.3509886e-38
0.049964037 -0.11941226 -0.01828571 2.3417691e-38
0.051834997 -0.11941226 -0.01828571 2.3233302e-38
0.053705964 -0.11941226 -0.01828571 2.3233302e-38
0.055576924 -0.11941226 -0.01828571 2.3325497e-38
0.057447892 -0.11941226 -0.01828571 2.3417691e-38
0.059038822 -0.11840202 -0.01424237 2.3509886e-38
0.060902696 -0.11840202 -0.01424237 2.3509886e-38
0.063060775 -0.11941226 -0.01828571 2.3509886e-38
0.064630449 -0.11840202 -0.01424237 2.3509886e-38
0.066494316 -0.11840202 -0.01424237 2.3417691e-38
0.068358198 -0.11840202 -0.01424237 2.3417691e-38
0.070222065 -0.11840202 -0.01424237 2.3509886e-38
0.071840346 -0.11764936 -0.011229951 2.3509886e-38
0.073449463 -0.11690097 -0.0082345791 2.3140384e-38
0.075302809 -0.11690097 -0.0082345791 2.3508446e-38
0.076897651 -0.1161568 -0.005256135 2.3509165e-38
0.078745767 -0.1161568 -0.005256135 2.3509165e-38
0.080593884 -0.1161568 -0.005256135 2.3324052e-38
0.082068786 -0.11514379 -0.0012015887 2.3232936e-38
0.083634093 -0.11440946 0.0017375164 2.3509883e-38
0.085469946 -0.11440946 0.0017375164 2.3234376e-38
0.087010905 -0.11365227 0.0047680549 2.3142538e-38
0.088841438 -0.11365227 0.0047680549 2.2958867e-38
-0.095574498 -0.11397095 0.010776918 2.3142544e-38
-0.093754485 -0.11397095 0.010776918 2.2865958e-38
-0.091934487 -0.11397095 0.010776918 2.3234379e-38
-0.090114474 -0.11397095 0.010776918 2.3234379e-38
-0.088294461 -0.11397095 0.010776918 2.3234379e-38
-0.086890608 -0.11548282 0.0047680549 2.3234379e-38
-0.085060075 -0.11548282 0.0047680549 2.3234379e-38
-0.083428785 -0.11624531 0.0017375164 2.332621e-38
-0.081592932 -0.11624531 0.0017375164 2.3234015e-38
-0.079757079 -0.11624531 0.0017375164 2.3418045e-38
-0.077921227 -0.11624531 0.0017375164 2.3418045e-38
-0.076257996 -0.1169848 -0.0012015887 2.3049978e-38
-0.074416988 -0.1169848 -0.0012015887 2.3326208e-38
-0.072799914 -0.11800493 -0.005256135 2.3233296e-38
-0.071111068 -0.11875431 -0.0082345791 2.3233296e-38
-0.069412664 -0.11950795 -0.011229951 2.3509523e-38
-0.067554072 -0.11950795 -0.011229951 2.3509883e-38
-0.064297169 -0.11221133 0.01777057 2.3509883e-38
-0.06248942 -0.11221133 0.01777057 2.3509883e-38
-0.060681686 -0.11221133 0.01777057 2.3509883e-38
-0.059005439 -0.1129816 0.014709156 2.3509883e-38
-0.057192333 -0.1129816 0.014709156 2.3509883e-38
-0.055379219 -0.1129816 0.014709156 2.3509883e-38
-0.053566106 -0.1129816 0.014709156 2.3509883e-38
-0.051894333 -0.11397095 0.010776918 2.3509883e-38
-0.049939882 -0.1129816 0.014709156 2.3509883e-38
-0.047932148 -0.11147197 0.020709198 2.3509883e-38
-0.046036713 -0.11071064 0.023735087 2.3509883e-38
-0.044239424 -0.11071064 0.023735087 2.3509883e-38
-0.042524375 -0.11147197 0.020709198 2.3509886e-38
-0.040796489 -0.11221133 0.01777057 2.3509886e-38
-0.038988747 -0.11221133 0.01777057 2.3509886e-38
-0.037181001 -0.11221133 0.01777057 2.3509886e-38
-0.035373256 -0.11221133 0.01777057 2.3509886e-38
-0.033621874 -0.1129816 0.014709156 2.3509886e-38
-0.03180876 -0.1129816 0.014709156 2.3509886e-38
-0.030054253 -0.11397095 0.010776918 2.3509886e-38
-0.028234243 -0.11397095 0.010776918 2.3509886e-38
-0.02644838 -0.11472471 0.0077811889 2.3509886e-38
-0.024652177 -0.11548282 0.0047680549 2.3509886e-38
-0.022821635 -0.11548282 0.0047680549 2.3509886e-38
-0.020991093 -0.11548282 0.0047680549 2.3509886e-38
-0.01916055 -0.11548282 0.0047680549 2.3509886e-38
-0.017322084 -0.11472471 0.0077811889 2.3509886e-38
-0.015494198 -0.11397095 0.010776918 2.3509886e-38
-0.013677638 -0.1129816 0.014709156 2.3509886e-38
-0.011864526 -0.1129816 0.014709156 2.3509886e-38
-0.010077715 -0.11147197 0.020709198 2.3509886e-38
-0.0082751224 -0.11147197 0.020709198 2.3509886e-38
-0.0064725298 -0.11147197 0.020709198 2.3509886e-38
-0.0046699382 -0.11147197 0.020709198 2.3509886e-38
-0.0029018307 -0.11071064 0.023735087 2.3509886e-38
-0.0011045439 -0.11071064 0.023735087 2.3509886e-38
0.00069274288 -0.11071064 0.023735087 2.3509886e-38
0.0024900287 -0.11071064 0.023735087 2.3509886e-38
0.0042873155 -0.11071064 0.023735087 2.3509886e-38
0.0060239471 -0.10995375 0.026743334 2.3509886e-38
0.0078159589 -0.10995375 0.026743334 2.3509886e-38
0.0096079707 -0.10995375 0.026743334 2.3509886e-38
0.011323953 -0.10920133 0.029733937 2.3509886e-38
0.013110721 -0.10920133 0.029733937 2.3509886e-38
0.014984008 -0.10995375 0.026743334 2.3509886e-38
0.016776022 -0.10995375 0.026743334 2.3509886e-38
0.018568031 -0.10995375 0.026743334 2.3509527e-38
0.020462897 -0.11071064 0.023735087 2.3417691e-38
0.022260185 -0.11071064 0.023735087 2.3417333e-38
0.026656743 -0.12805928 -0.045217235 2.3417691e-38
0.028574925 -0.12805928 -0.045217235 2.3509886e-38
0.030620418 -0.12883668 -0.04830702 2.3509886e-38
0.032411292 -0.12805928 -0.045217235 2.3509886e-38
0.034329474 -0.12805928 -0.045217235 2.3417691e-38
0.036247659 -0.12805928 -0.045217235 2.3233299e-38
0.038165841 -0.12805928 -0.045217235 2.3325494e-38
0.040084023 -0.12805928 -0.045217235 2.341769e-38
0.038280167 -0.10995375 0.026743334 2.3325494e-38
0.04007218 -0.10995375 0.026743334 2.3325494e-38
0.042030338 -0.11071064 0.023735087 2.3509886e-38
0.045991708 -0.12026589 -0.01424237 2.3509886e-38
0.047855582 -0.12026589 -0.01424237 2.3509886e-38
0.049719457 -0.12026589 -0.01424237 2.3509886e-38
0.051583331 -0.12026589 -0.01424237 2.3509886e-38
0.053447206 -0.12026589 -0.01424237 2.3509886e-38
0.055311073 -0.12026589 -0.01424237 2.3509886e-38
0.057447892 -0.12128322 -0.01828571 2.3509886e-38
0.059038822 -0.12026589 -0.01424237 2.3509886e-38
0.060902696 -0.12026589 -0.01424237 2.3417691e-38
0.062766567 -0.12026589 -0.01424237 2.3417691e-38
0.064630449 -0.12026589 -0.01424237 2.3509886e-38
0.066494316 -0.12026589 -0.01424237 2.3509886e-38
0.068358198 -0.12026589 -0.01424237 2.3417691e-38
0.069981739 -0.11950795 -0.011229951 2.3325497e-38
0.071840346 -0.11950795 -0.011229951 2.3509886e-38
0.073201418 -0.11800493 -0.005256135 2.3509527e-38
0.075049534 -0.11800493 -0.005256135 2.3508807e-38
0.076897651 -0.11800493 -0.005256135 2.3509164e-38
0.078386769 -0.1169848 -0.0012015887 2.3509524e-38
0.080227777 -0.1169848 -0.0012015887 2.3509883e-38
0.081798241 -0.11624531 0.0017375164 2.3509883e-38
0.083349824 -0.11548282 0.0047680549 2.3325492e-38
0.085180357 -0.11548282 0.0047680549 2.3049624e-38
0.086717695 -0.11472471 0.0077811889 2.2774113e-38
0.088542953 -0.11472471 0.0077811889 2.268228e-38
0.090368211 -0.11472471 0.0077811889 2.2958867e-38
0.092193469 -0.11472471 0.0077811889 2.2683358e-38
0.100797 -0.12202276 -0.021225054 2.0196951e-38
0.10267311 -0.12202276 -0.021225054 1.9274995e-38
0.10454923 -0.12202276 -0.021225054 1.8814743e-38
-0.095574498 -0.11579098 0.010776918 2.341805e-38
-0.09345457 -0.11479472 0.014709156 2.341805e-38
-0.091641471 -0.11479472 0.014709156 2.341805e-38
-0.089828357 -0.11479472 0.014709156 2.3509886e-38
-0.088294461 -0.11579098 0.010776918 2.3509886e-38
-0.086681932 -0.11654995 0.0077811889 2.3325494e-38
-0.085060075 -0.11731337 0.0047680549 2.3509886e-38
-0.083229527 -0.11731337 0.0047680549 2.3509886e-38
-0.081398994 -0.11731337 0.0047680549 2.3509886e-38
-0.079757079 -0.11808117 0.0017375164 2.3509523e-38
-0.077921227 -0.11808117 0.0017375164 2.3417327e-38
-0.076085366 -0.11808117 0.0017375164 2.3509523e-38
-0.074249506 -0.11808117 0.0017375164 2.3509883e-38
-0.072575979 -0.11882581 -0.0012015887 2.3509527e-38
-0.07095179 -0.11985306 -0.005256135 2.3509527e-38
-0.069412664 -0.12136655 -0.011229951 2.3509527e-38
-0.065958068 -0.11327456 0.020709198 2.3509527e-38
-0.064155474 -0.11327456 0.020709198 2.3509527e-38
-0.062352888 -0.11327456 0.020709198 2.3509527e-38
-0.060550295 -0.11327456 0.020709198 2.3509527e-38
-0.058873937 -0.11401908 0.01777057 2.3509527e-38
-0.057066187 -0.11401908 0.01777057 2.3509527e-38
-0.055258445 -0.11401908 0.01777057 2.3509527e-38
-0.053450704 -0.11401908 0.01777057 2.3509886e-38
-0.051642958 -0.11401908 0.01777057 2.3509886e-38
-0.049835213 -0.11401908 0.01777057 2.3509886e-38
-0.047834001 -0.11250792 0.023735087 2.3509886e-38
-0.046036713 -0.11250792 0.023735087 2.3509886e-38
-0.044239424 -0.11250792 0.023735087 2.3509886e-38
-0.042524375 -0.11327456 0.020709198 2.3509886e-38
-0.040721782 -0.11327456 0.020709198 2.3509886e-38
-0.038919188 -0.11327456 0.020709198 2.3509886e-38
-0.037181001 -0.11401908 0.01777057 2.3509886e-38
-0.035373256 -0.11401908 0.01777057 2.3509886e-38
-0.033565514 -0.11401908 0.01777057 2.3509886e-38
-0.03180876 -0.11479472 0.014709156 2.3509886e-38
-0.02999565 -0.11479472 0.014709156 2.3509886e-38
-0.028182536 -0.11479472 0.014709156 2.3509886e-38
