# .PCD v0.7 - Point Cloud Data file format
VERSION 0.7
FIELDS x y z rgb
SIZE 4 4 4 4
TYPE F F F F
COUNT 1 1 1 1
WIDTH 929
HEIGHT 1
VIEWPOINT 0 0 0 1 0 0 0
POINTS 929
DATA ascii
-0.036053561 -0.11216442 -0.081841648 2.3417691e-38
-0.034110758 -0.11216442 -0.081841648 2.3232944e-38
-0.032167953 -0.11216442 -0.081841648 2.3048554e-38
-0.030225147 -0.11216442 -0.081841648 2.3509527e-38
-0.028282344 -0.11216442 -0.081841648 2.341805e-38
-0.026339538 -0.11216442 -0.081841648 2.3234379e-38
-0.090772025 -0.12376876 -0.12281102 1.0780392e-38
-0.088757388 -0.12376876 -0.12281102 2.3506626e-38
-0.086742751 -0.12376876 -0.12281102 2.3508071e-38
-0.084728114 -0.12376876 -0.12281102 2.3508434e-38
-0.082713477 -0.12376876 -0.12281102 2.3322609e-38
-0.080517247 -0.1228471 -0.11890274 2.3416248e-38
-0.078330152 -0.12190129 -0.11489207 2.3047112e-38
-0.075384326 -0.11671309 -0.092891634 2.3508451e-38
-0.073422149 -0.11671309 -0.092891634 2.3509168e-38
-0.071459971 -0.11671309 -0.092891634 2.3508451e-38
-0.069497786 -0.11671309 -0.092891634 2.3507733e-38
-0.067535609 -0.11671309 -0.092891634 2.3508809e-38
-0.065573432 -0.11671309 -0.092891634 2.3509527e-38
-0.063479006 -0.11575161 -0.088814557 2.3509883e-38
-0.061523978 -0.11575161 -0.088814557 2.3234374e-38
-0.059568945 -0.11575161 -0.088814557 2.3142537e-38
-0.057613917 -0.11575161 -0.088814557 2.3418047e-38
-0.055658884 -0.11575161 -0.088814557 2.3509886e-38
-0.053703852 -0.11575161 -0.088814557 2.3509886e-38
-0.051748823 -0.11575161 -0.088814557 2.3509886e-38
-0.04973438 -0.11505674 -0.085867941 2.3509886e-38
-0.047784515 -0.11505674 -0.085867941 2.3509886e-38
-0.045834653 -0.11505674 -0.085867941 2.3509886e-38
-0.043884788 -0.11505674 -0.085867941 2.3509886e-38
-0.041934922 -0.11505674 -0.085867941 2.341769e-38
-0.039985061 -0.11505674 -0.085867941 2.3233299e-38
-0.037996367 -0.11410724 -0.081841648 2.3509886e-38
-0.036053561 -0.11410724 -0.081841648 2.3509886e-38
-0.034092158 -0.11339252 -0.078810871 2.3509886e-38
-0.032154668 -0.11339252 -0.078810871 2.3141106e-38
-0.030217178 -0.11339252 -0.078810871 2.2864519e-38
-0.028270032 -0.11079563 -0.067798913 2.3141106e-38
-0.02635185 -0.11079563 -0.067798913 2.3418047e-38
-0.090556182 -0.12485488 -0.11890274 7.4606279e-39
-0.088548385 -0.12485488 -0.11890274 2.3505184e-38
-0.086540602 -0.12485488 -0.11890274 2.3508428e-38
-0.08453282 -0.12485488 -0.11890274 2.3508793e-38
-0.082525037 -0.12485488 -0.11890274 2.3509158e-38
-0.080330901 -0.12390204 -0.11489207 2.3509521e-38
-0.078015074 -0.12222783 -0.10784501 2.3508809e-38
-0.075384326 -0.11867525 -0.092891634 2.3509168e-38
-0.073422149 -0.11867525 -0.092891634 2.3508809e-38
-0.071459971 -0.11867525 -0.092891634 2.3508809e-38
-0.069497786 -0.11867525 -0.092891634 2.3508092e-38
-0.067535609 -0.11867525 -0.092891634 2.3509168e-38
-0.065434039 -0.11770664 -0.088814557 2.3509527e-38
-0.063479006 -0.11770664 -0.088814557 2.3509883e-38
-0.061523978 -0.11770664 -0.088814557 2.3234374e-38
-0.059568945 -0.11770664 -0.088814557 2.30507e-38
-0.057613917 -0.11770664 -0.088814557 2.3418047e-38
-0.055658884 -0.11770664 -0.088814557 2.3509886e-38
-0.053634107 -0.11700659 -0.085867941 2.3509886e-38
-0.051684245 -0.11700659 -0.085867941 2.3509886e-38
-0.04973438 -0.11700659 -0.085867941 2.3509886e-38
-0.047784515 -0.11700659 -0.085867941 2.3509886e-38
-0.045834653 -0.11700659 -0.085867941 2.3509886e-38
-0.043824784 -0.11605005 -0.081841648 2.3509886e-38
-0.041881979 -0.11605005 -0.081841648 2.3509886e-38
-0.039939173 -0.11605005 -0.081841648 2.3509886e-38
-0.037996367 -0.11605005 -0.081841648 2.3509886e-38
-0.036029648 -0.11533 -0.078810871 2.3048907e-38
-0.034067761 -0.11438553 -0.074835479 2.3141103e-38
-0.032119941 -0.11344786 -0.070888698 2.3509886e-38
-0.030196343 -0.11344786 -0.070888698 2.3509886e-38
-0.028266512 -0.11176009 -0.06378454 2.3509883e-38
-0.026355367 -0.11176009 -0.06378454 2.350988e-38
-0.024444222 -0.11176009 -0.06378454 2.3049978e-38
-0.022533078 -0.11176009 -0.06378454 2.350988e-38
-0.088333912 -0.12590279 -0.11489207 2.3505544e-38
-0.086333163 -0.12590279 -0.11489207 2.3506625e-38
-0.084332407 -0.12590279 -0.11489207 2.3505191e-38
-0.08233165 -0.12590279 -0.11489207 2.3509156e-38
-0.080187522 -0.12516426 -0.11180621 2.350952e-38
-0.07752455 -0.12159048 -0.09687382 2.3508807e-38
-0.075384326 -0.12063743 -0.092891634 2.3508451e-38
-0.073422149 -0.12063743 -0.092891634 2.3508809e-38
-0.071299128 -0.11966167 -0.088814557 2.3508809e-38
-0.069344096 -0.11966167 -0.088814557 2.3508451e-38
-0.067389064 -0.11966167 -0.088814557 2.3509168e-38
-0.065434039 -0.11966167 -0.088814557 2.3509167e-38
-0.06338343 -0.11895646 -0.085867941 2.3233296e-38
-0.061433565 -0.11895646 -0.085867941 2.3142537e-38
-0.0594837 -0.11895646 -0.085867941 2.3234374e-38
-0.057533838 -0.11895646 -0.085867941 2.3418047e-38
-0.055658884 -0.11966167 -0.088814557 2.3509886e-38
-0.053634107 -0.11895646 -0.085867941 2.3509886e-38
-0.051684245 -0.11895646 -0.085867941 2.3509886e-38
-0.049653195 -0.11799283 -0.081841648 2.3509886e-38
-0.047710389 -0.11799283 -0.081841648 2.3509886e-38
-0.045767587 -0.11799283 -0.081841648 2.3509886e-38
-0.043824784 -0.11799283 -0.081841648 2.3509886e-38
-0.041881979 -0.11799283 -0.081841648 2.3509886e-38
-0.039904632 -0.11726747 -0.078810871 2.3509886e-38
-0.037967142 -0.11726747 -0.078810871 2.3509886e-38
-0.036029648 -0.11726747 -0.078810871 2.3509886e-38
-0.033999946 -0.11367123 -0.06378454 2.3509886e-38
-0.032075945 -0.11296929 -0.06085163 2.3509883e-38
-0.030161966 -0.11224325 -0.057817992 2.3509886e-38
-0.028255202 -0.11058317 -0.050881561 2.350988e-38
-0.026366681 -0.11058317 -0.050881561 2.3509879e-38
-0.024470281 -0.11129995 -0.053876456 2.3509876e-38
-0.022576511 -0.11129995 -0.053876456 2.3509879e-38
-0.0074263299 -0.11129995 -0.053876456 1.8901546e-38
-0.0055325581 -0.11129995 -0.053876456 1.6688848e-38
-0.0036387844 -0.11129995 -0.053876456 1.5951636e-38
-0.087957062 -0.12620462 -0.10784501 1.1977489e-38
-0.085968666 -0.12620462 -0.10784501 1.4100151e-38
-0.08398027 -0.12620462 -0.10784501 1.6406484e-38
-0.081991866 -0.12620462 -0.10784501 1.5855113e-38
-0.079814814 -0.12522577 -0.10378474 1.9913166e-38
-0.077346511 -0.12259962 -0.092891634 2.3139658e-38
-0.075384326 -0.12259962 -0.092891634 2.3509524e-38
-0.073254161 -0.12161671 -0.088814557 2.3509168e-38
-0.071182884 -0.12090631 -0.085867941 2.3509168e-38
-0.069233023 -0.12090631 -0.085867941 2.3508809e-38
-0.067283154 -0.12090631 -0.085867941 2.3509168e-38
-0.065333292 -0.12090631 -0.085867941 2.3509167e-38
-0.063252829 -0.11993565 -0.081841648 2.3325492e-38
-0.061310023 -0.11993565 -0.081841648 2.3234376e-38
-0.059367221 -0.11993565 -0.081841648 2.3234376e-38
-0.057424415 -0.11993565 -0.081841648 2.341805e-38
-0.055583972 -0.12090631 -0.085867941 2.3509886e-38
-0.053634107 -0.12090631 -0.085867941 2.3509886e-38
-0.051596001 -0.11993565 -0.081841648 2.3509886e-38
-0.049653195 -0.11993565 -0.081841648 2.3509886e-38
-0.047710389 -0.11993565 -0.081841648 2.3509886e-38
-0.045767587 -0.11993565 -0.081841648 2.3509886e-38
-0.043779612 -0.11920498 -0.078810871 2.3509886e-38
-0.041842122 -0.11920498 -0.078810871 2.3509886e-38
-0.039904632 -0.11920498 -0.078810871 2.3509886e-38
-0.037928805 -0.11824657 -0.074835479 2.3509886e-38
-0.035998285 -0.11824657 -0.074835479 2.3509883e-38
-0.033920765 -0.11247168 -0.050881561 2.3509883e-38
-0.032032244 -0.11247168 -0.050881561 2.3509883e-38
-0.030143723 -0.11247168 -0.050881561 2.3509883e-38
-0.028251689 -0.11150609 -0.046876248 2.350988e-38
-0.02637019 -0.11150609 -0.046876248 2.3509879e-38
-0.02447816 -0.11247168 -0.050881561 2.3509876e-38
-0.022589639 -0.11247168 -0.050881561 2.3509879e-38
-0.020701114 -0.11247168 -0.050881561 2.350988e-38
-0.013107647 -0.11319371 -0.053876456 2.3509527e-38
-0.011213875 -0.11319371 -0.053876456 2.2957079e-38
-0.0093201017 -0.11319371 -0.053876456 2.341805e-38
-0.0074263299 -0.11319371 -0.053876456 2.3234379e-38
-0.0055325581 -0.11319371 -0.053876456 2.1390825e-38
-0.0036387844 -0.11319371 -0.053876456 1.8533117e-38
-0.089945458 -0.12819304 -0.10784501 1.1938615e-39
-0.087957062 -0.12819304 -0.10784501 1.2856969e-39
-0.085968666 -0.12819304 -0.10784501 3.683484e-39
-0.083777376 -0.12720706 -0.10378474 7.2805555e-39
-0.081796095 -0.12720706 -0.10378474 6.6373483e-39
-0.079633348 -0.1262586 -0.099879086 1.318468e-38
-0.077346511 -0.1245618 -0.092891634 1.7886301e-38
-0.075209193 -0.12357174 -0.088814557 2.3141455e-38
-0.073132746 -0.12285618 -0.085867941 2.3509524e-38
-0.071024053 -0.12187846 -0.081841648 2.3509524e-38
-0.069081239 -0.12187846 -0.081841648 2.3509168e-38
-0.067138433 -0.12187846 -0.081841648 2.3508808e-38
-0.065092012 -0.12114246 -0.078810871 2.3509167e-38
-0.063154519 -0.12114246 -0.078810871 2.3509886e-38
-0.061217029 -0.12114246 -0.078810871 2.341805e-38
-0.059279539 -0.12114246 -0.078810871 2.3234379e-38
-0.057342049 -0.12114246 -0.078810871 2.341805e-38
-0.055481613 -0.12187846 -0.081841648 2.3509886e-38
-0.053538807 -0.12187846 -0.081841648 2.3509886e-38
-0.051596001 -0.12187846 -0.081841648 2.3509886e-38
-0.049653195 -0.12187846 -0.081841648 2.3509886e-38
-0.047710389 -0.12187846 -0.081841648 2.3509886e-38
-0.045717105 -0.12114246 -0.078810871 2.3509886e-38
-0.043779612 -0.12114246 -0.078810871 2.3509886e-38
-0.041842122 -0.12114246 -0.078810871 2.3509883e-38
-0.039859325 -0.12017711 -0.074835479 2.3509883e-38
-0.037928805 -0.12017711 -0.074835479 2.3509883e-38
-0.035753466 -0.11264218 -0.043806728 2.3509883e-38
-0.03387735 -0.11264218 -0.043806728 2.3509883e-38
-0.032001235 -0.11264218 -0.043806728 2.350988e-38
-0.030125115 -0.11264218 -0.043806728 2.350988e-38
-0.028248999 -0.11264218 -0.043806728 2.350988e-38
-0.026372883 -0.11264218 -0.043806728 2.350988e-38
-0.024488691 -0.11338757 -0.046876248 2.3509521e-38
-0.022607192 -0.11338757 -0.046876248 2.350988e-38
-0.020725694 -0.11338757 -0.046876248 2.3509883e-38
-0.013107647 -0.11508749 -0.053876456 2.3509527e-38
-0.011213875 -0.11508749 -0.053876456 2.3141467e-38
-0.0093699871 -0.1143602 -0.050881561 2.341805e-38
-0.007481466 -0.1143602 -0.050881561 2.341805e-38
-0.005592945 -0.1143602 -0.050881561 2.341805e-38
-0.0037044222 -0.1143602 -0.050881561 2.2312782e-38
-0.0018159011 -0.1143602 -0.050881561 2.0561421e-38
7.2619878e-05 -0.1143602 -0.050881561 1.9178486e-38
-0.085758649 -0.12918831 -0.10378474 4.6068822e-39
-0.083777376 -0.12918831 -0.10378474 6.5451512e-39
-0.081796095 -0.12918831 -0.10378474 7.2841554e-39
-0.079308681 -0.12652399 -0.092891634 1.2908809e-38
-0.077164225 -0.12552677 -0.088814557 1.5675398e-38
-0.075209193 -0.12552677 -0.088814557 2.3418038e-38
-0.073132746 -0.12480606 -0.085867941 2.3509876e-38
-0.071024053 -0.12382124 -0.081841648 2.3509879e-38
-0.069081239 -0.12382124 -0.081841648 2.3509521e-38
-0.067029499 -0.12307997 -0.078810871 2.3509521e-38
-0.065092012 -0.12307997 -0.078810871 2.3509527e-38
-0.063154519 -0.12307997 -0.078810871 2.3509886e-38
-0.061095051 -0.12210761 -0.074835479 2.341805e-38
-0.059164532 -0.12210761 -0.074835479 2.3326213e-38
-0.057234012 -0.12210761 -0.074835479 2.3509886e-38
-0.055404559 -0.12307997 -0.078810871 2.3509886e-38
-0.053538807 -0.12382124 -0.081841648 2.3509886e-38
-0.051596001 -0.12382124 -0.081841648 2.3509886e-38
-0.049653195 -0.12382124 -0.081841648 2.3509886e-38
-0.047710389 -0.12382124 -0.081841648 2.3509886e-38
-0.045717105 -0.12307997 -0.078810871 2.3509886e-38
-0.043779612 -0.12307997 -0.078810871 2.3509886e-38
-0.041171826 -0.11061247 -0.027837809 2.3509883e-38
-0.03932371 -0.11061247 -0.027837809 2.3509883e-38
-0.037533198 -0.11207359 -0.033811625 2.3509883e-38
-0.035674606 -0.11207359 -0.033811625 2.3509883e-38
-0.033859313 -0.11379938 -0.040867385 2.350988e-38
-0.031988349 -0.11379938 -0.040867385 2.350988e-38
-0.030117385 -0.11379938 -0.040867385 2.350988e-38
-0.028246421 -0.11379938 -0.040867385 2.350988e-38
-0.026375458 -0.11379938 -0.040867385 2.3509883e-38
-0.024496764 -0.1145183 -0.043806728 2.3509524e-38
-0.022620648 -0.1145183 -0.043806728 2.3509883e-38
-0.020744532 -0.1145183 -0.043806728 2.3509527e-38
-0.018868415 -0.1145183 -0.043806728 2.3509527e-38
-0.016962698 -0.11526908 -0.046876248 2.3509527e-38
-0.015081199 -0.11526908 -0.046876248 2.3509886e-38
-0.01314703 -0.11624874 -0.050881561 2.3509886e-38
-0.011213875 -0.11698125 -0.053876456 2.341805e-38
-0.0093699871 -0.11624874 -0.050881561 2.304927e-38
-0.007481466 -0.11624874 -0.050881561 2.2588292e-38
-0.005592945 -0.11624874 -0.050881561 2.3141822e-38
-0.0037044222 -0.11624874 -0.050881561 2.341805e-38
-0.0018159011 -0.11624874 -0.050881561 2.3234379e-38
7.2619878e-05 -0.11624874 -0.050881561 2.2497173e-38
-0.081074283 -0.1274818 -0.088814557 8.2086284e-39
-0.07911925 -0.1274818 -0.088814557 1.2911682e-38
-0.077032477 -0.12675591 -0.085867941 1.466232e-38
-0.074909657 -0.12576406 -0.081841648 1.9916755e-38
-0.07284198 -0.12501745 -0.078810871 2.2865217e-38
-0.070904486 -0.12501745 -0.078810871 2.350987e-38
-0.068966992 -0.12501745 -0.078810871 2.3509873e-38
-0.067029499 -0.12501745 -0.078810871 2.3509879e-38
-0.065092012 -0.12501745 -0.078810871 2.3509524e-38
-0.063025571 -0.12403814 -0.074835479 2.3509886e-38
-0.061095051 -0.12403814 -0.074835479 2.341805e-38
-0.059164532 -0.12403814 -0.074835479 2.3233662e-38
-0.057234012 -0.12403814 -0.074835479 2.3509886e-38
-0.055404559 -0.12501745 -0.078810871 2.3509886e-38
-0.053538807 -0.12576406 -0.081841648 2.3509886e-38
-0.051596001 -0.12576406 -0.081841648 2.3509886e-38
-0.049653195 -0.12576406 -0.081841648 2.3509886e-38
-0.047654595 -0.12501745 -0.078810871 2.3509886e-38
-0.044868063 -0.11246057 -0.027837809 2.3509883e-38
-0.043019943 -0.11246057 -0.027837809 2.3509883e-38
-0.041171826 -0.11246057 -0.027837809 2.3509883e-38
-0.03932371 -0.11246057 -0.027837809 2.3509883e-38
-0.03747559 -0.11246057 -0.027837809 2.350988e-38
-0.035650972 -0.1131943 -0.030816253 2.350988e-38
-0.033834498 -0.11467429 -0.036824044 2.350988e-38
-0.031970624 -0.11467429 -0.036824044 2.350988e-38
-0.030106753 -0.11467429 -0.036824044 2.3509879e-38
-0.028242879 -0.11467429 -0.036824044 2.350988e-38
-0.026379004 -0.11467429 -0.036824044 2.3509527e-38
-0.024504494 -0.11567034 -0.040867385 2.3509527e-38
-0.022633534 -0.11567034 -0.040867385 2.3509527e-38
-0.02076257 -0.11567034 -0.040867385 2.3509527e-38
-0.018891606 -0.11567034 -0.040867385 2.3509527e-38
-0.017020643 -0.11567034 -0.040867385 2.3509527e-38
-0.015116181 -0.11639442 -0.043806728 2.3509883e-38
-0.0131997 -0.11715056 -0.046876248 2.3509883e-38
-0.011258508 -0.11813726 -0.050881561 2.3509883e-38
-0.0093699871 -0.11813726 -0.050881561 2.3509883e-38
-0.007481466 -0.11813726 -0.050881561 2.3325492e-38
-0.005592945 -0.11813726 -0.050881561 2.3141822e-38
-0.0037044222 -0.11813726 -0.050881561 2.3234018e-38
-0.0018159011 -0.11813726 -0.050881561 2.3325856e-38
7.2619878e-05 -0.11813726 -0.050881561 2.341805e-38
0.0019611409 -0.11813726 -0.050881561 2.3234379e-38
0.0038496619 -0.11813726 -0.050881561 2.2312784e-38
-0.080591939 -0.12695493 -0.078810871 8.2100648e-39
-0.078654446 -0.12695493 -0.078810871 1.4019106e-38
-0.076716952 -0.12695493 -0.078810871 1.6047049e-38
-0.074779466 -0.12695493 -0.078810871 1.6230719e-38
-0.072678171 -0.12596865 -0.074835479 2.1300042e-38
-0.070591949 -0.12498946 -0.070888698 2.2773377e-38
-0.068668351 -0.12498946 -0.070888698 2.350987e-38
-0.066744752 -0.12498946 -0.070888698 2.3509876e-38
-0.064956091 -0.12596865 -0.074835479 2.3509524e-38
-0.062897548 -0.12498946 -0.070888698 2.3509527e-38
-0.06097395 -0.12498946 -0.070888698 2.3509527e-38
-0.059050351 -0.12498946 -0.070888698 2.3233662e-38
-0.057126753 -0.12498946 -0.070888698 2.3509886e-38
-0.055303492 -0.12596865 -0.074835479 2.3509886e-38
-0.053372972 -0.12596865 -0.074835479 2.3509886e-38
-0.051529579 -0.12695493 -0.078810871 2.3509886e-38
-0.049592085 -0.12695493 -0.078810871 2.3509886e-38
-0.046641536 -0.11330278 -0.023783263 2.3509886e-38
-0.044800527 -0.11330278 -0.023783263 2.3509883e-38
-0.042959519 -0.11330278 -0.023783263 2.3509883e-38
-0.04111851 -0.11330278 -0.023783263 2.3509883e-38
-0.039277501 -0.11330278 -0.023783263 2.3509883e-38
-0.037436489 -0.11330278 -0.023783263 2.350988e-38
-0.035627473 -0.1143087 -0.027837809 2.350988e-38
-0.033816013 -0.11579077 -0.033811625 2.350988e-38
-0.031957421 -0.11579077 -0.033811625 2.350988e-38
-0.030106753 -0.11653815 -0.036824044 2.3509879e-38
-0.028242879 -0.11653815 -0.036824044 2.350988e-38
-0.026379004 -0.11653815 -0.036824044 2.3509527e-38
-0.02451513 -0.11653815 -0.036824044 2.3509527e-38
-0.022651255 -0.11653815 -0.036824044 2.3509527e-38
-0.020787381 -0.11653815 -0.036824044 2.3509527e-38
-0.018923508 -0.11653815 -0.036824044 2.3509527e-38
-0.017020643 -0.1175413 -0.040867385 2.3509883e-38
-0.01514968 -0.1175413 -0.040867385 2.350988e-38
-0.013240064 -0.11827053 -0.043806728 2.3509879e-38
-0.0113182 -0.11903207 -0.046876248 2.3325847e-38
-0.0094367014 -0.11903207 -0.046876248 2.350988e-38
-0.007481466 -0.12002577 -0.050881561 2.350988e-38
-0.005592945 -0.12002577 -0.050881561 2.3509883e-38
-0.0037044222 -0.12002577 -0.050881561 2.3326213e-38
-0.0018159011 -0.12002577 -0.050881561 2.304927e-38
-2.920907e-05 -0.11903207 -0.046876248 2.3233662e-38
0.0018522898 -0.11903207 -0.046876248 2.341805e-38
0.0037337886 -0.11903207 -0.046876248 2.3142544e-38
-0.080591939 -0.12889244 -0.078810871 7.5654142e-39
-0.078654446 -0.12889244 -0.078810871 1.3835793e-38
-0.076716952 -0.12889244 -0.078810871 1.6047764e-38
-0.074779466 -0.12889244 -0.078810871 1.6139241e-38
-0.072678171 -0.12789918 -0.074835479 1.9456844e-38
-0.070591949 -0.12691309 -0.070888698 2.1667743e-38
-0.068668351 -0.12691309 -0.070888698 2.3509866e-38
-0.066744752 -0.12691309 -0.070888698 2.3509873e-38
-0.064956091 -0.12789918 -0.074835479 2.3509161e-38
-0.062897548 -0.12691309 -0.070888698 2.3509527e-38
-0.06097395 -0.12691309 -0.070888698 2.3509527e-38
-0.059050351 -0.12691309 -0.070888698 2.3417333e-38
-0.057126753 -0.12691309 -0.070888698 2.3509527e-38
-0.055303492 -0.12789918 -0.074835479 2.3509886e-38
-0.053279549 -0.12691309 -0.070888698 2.3509886e-38
-0.051355951 -0.12691309 -0.070888698 2.3509886e-38
-0.048482545 -0.11514379 -0.023783263 2.3509886e-38
-0.046641536 -0.11514379 -0.023783263 2.3509886e-38
-0.044800527 -0.11514379 -0.023783263 2.3509883e-38
-0.042959519 -0.11514379 -0.023783263 2.3509883e-38
-0.04111851 -0.11514379 -0.023783263 2.350988e-38
-0.039277501 -0.11514379 -0.023783263 2.350988e-38
-0.037436489 -0.11514379 -0.023783263 2.350988e-38
-0.035627473 -0.1161568 -0.027837809 2.350988e-38
-0.033797633 -0.11690097 -0.030816253 2.3509879e-38
-0.031957421 -0.11764936 -0.033811625 2.3509879e-38
-0.030098829 -0.11764936 -0.033811625 2.3509879e-38
-0.028240237 -0.11764936 -0.033811625 2.3509883e-38
-0.026381645 -0.11764936 -0.033811625 2.3509527e-38
-0.024523053 -0.11764936 -0.033811625 2.3509168e-38
-0.022651255 -0.11840202 -0.036824044 2.3509168e-38
-0.020805869 -0.11764936 -0.033811625 2.3509527e-38
-0.018947277 -0.11764936 -0.033811625 2.3509527e-38
-0.017059635 -0.11840202 -0.036824044 2.3509883e-38
-0.01514968 -0.11941226 -0.040867385 2.3509879e-38
-0.013278716 -0.11941226 -0.040867385 2.3509876e-38
-0.011363947 -0.12014665 -0.043806728 2.3509879e-38
-0.009487831 -0.12014665 -0.043806728 2.3418042e-38
-0.0075552044 -0.12091358 -0.046876248 2.3418043e-38
-0.0056737056 -0.12091358 -0.046876248 2.3509883e-38
-0.0037922068 -0.12091358 -0.046876248 2.3509886e-38
-0.0019107079 -0.12091358 -0.046876248 2.3509527e-38
-0.00010724645 -0.12014665 -0.043806728 2.3417333e-38
0.0017688712 -0.12014665 -0.043806728 2.3049273e-38
0.0035599517 -0.11941226 -0.040867385 2.3142544e-38
0.0054309154 -0.11941226 -0.040867385 2.3142544e-38
-0.083486773 -0.1459357 -0.13884896 8.1193125e-39
-0.078654446 -0.13082992 -0.078810871 1.4112746e-38
-0.076716952 -0.13082992 -0.078810871 1.5219091e-38
-0.074779466 -0.13082992 -0.078810871 1.9366452e-38
-0.072678171 -0.12982969 -0.074835479 1.7982439e-38
-0.070591949 -0.12883668 -0.070888698 2.0654317e-38
-0.068668351 -0.12883668 -0.070888698 2.3141804e-38
-0.066744752 -0.12883668 -0.070888698 2.3509873e-38
-0.064956091 -0.12982969 -0.074835479 2.3417324e-38
-0.062897548 -0.12883668 -0.070888698 2.3509167e-38
-0.06097395 -0.12883668 -0.070888698 2.3509527e-38
-0.059050351 -0.12883668 -0.070888698 2.3509886e-38
-0.057126753 -0.12883668 -0.070888698 2.3509883e-38
-0.055303492 -0.12982969 -0.074835479 2.3509879e-38
-0.053279549 -0.12883668 -0.070888698 2.3509879e-38
-0.050543346 -0.11950795 -0.033811625 2.350988e-38
-0.048482545 -0.1169848 -0.023783263 2.350988e-38
-0.046641536 -0.1169848 -0.023783263 2.3509883e-38
-0.044800527 -0.1169848 -0.023783263 2.3509883e-38
-0.042959519 -0.1169848 -0.023783263 2.3509883e-38
-0.04111851 -0.1169848 -0.023783263 2.3509883e-38
-0.039277501 -0.1169848 -0.023783263 2.350988e-38
-0.037436489 -0.1169848 -0.023783263 2.3509883e-38
-0.03559548 -0.1169848 -0.023783263 2.350988e-38
-0.033779353 -0.11800493 -0.027837809 2.350988e-38
-0.031931236 -0.11800493 -0.027837809 2.3509879e-38
-0.030083116 -0.11800493 -0.027837809 2.3509879e-38
-0.028237611 -0.11875431 -0.030816253 2.3509883e-38
-0.026384272 -0.11875431 -0.030816253 2.3509527e-38
-0.024530929 -0.11875431 -0.030816253 2.3509168e-38
-0.022664461 -0.11950795 -0.033811625 2.3509168e-38
-0.02082425 -0.11875431 -0.030816253 2.3509527e-38
-0.01897091 -0.11875431 -0.030816253 2.3509527e-38
-0.017088685 -0.11950795 -0.033811625 2.3509883e-38
-0.015230091 -0.11950795 -0.033811625 2.350988e-38
-0.013331886 -0.12026589 -0.036824044 2.3509879e-38
-0.011407753 -0.12128322 -0.040867385 2.3509879e-38
-0.0095367907 -0.12128322 -0.040867385 2.3509879e-38
-0.0076117134 -0.12202276 -0.043806728 2.3418043e-38
-0.0057355957 -0.12202276 -0.043806728 2.31411e-38
-0.0037922068 -0.12279506 -0.046876248 2.3048907e-38
-0.0019833623 -0.12202276 -0.043806728 2.3141106e-38
-0.00018197391 -0.12128322 -0.040867385 2.3509527e-38
0.0016889898 -0.12128322 -0.040867385 2.341805e-38
0.0035599517 -0.12128322 -0.040867385 2.3142544e-38
0.0054309154 -0.12128322 -0.040867385 2.2958514e-38
-0.082529433 -0.13276742 -0.078810871 6.0895807e-39
-0.080591939 -0.13276742 -0.078810871 6.9204204e-39
-0.078654446 -0.13276742 -0.078810871 1.3651061e-38
-0.076716952 -0.13276742 -0.078810871 1.531094e-38
-0.077185906 -0.14696048 -0.13483101 1.8814374e-38
-0.072678171 -0.13176022 -0.074835479 1.8812932e-38
-0.070591949 -0.13076027 -0.070888698 1.825904e-38
-0.068668351 -0.13076027 -0.070888698 2.0654331e-38
-0.066744752 -0.13076027 -0.070888698 2.3234372e-38
-0.064956091 -0.13176022 -0.074835479 2.3418043e-38
-0.063025571 -0.13176022 -0.074835479 2.3325846e-38
-0.06097395 -0.13076027 -0.070888698 2.3509879e-38
-0.059050351 -0.13076027 -0.070888698 2.3325483e-38
-0.057126753 -0.13076027 -0.070888698 2.3509866e-38
-0.055303492 -0.13176022 -0.074835479 2.3142157e-38
-0.053206414 -0.12997745 -0.067798913 2.3234353e-38
-0.050543346 -0.12136655 -0.033811625 2.3509869e-38
-0.0485643 -0.11985306 -0.027837809 2.3509873e-38
-0.04671618 -0.11985306 -0.027837809 2.3233648e-38
-0.044868063 -0.11985306 -0.027837809 2.3325847e-38
-0.042915717 -0.11808117 -0.020844158 2.3509883e-38
-0.04107986 -0.11808117 -0.020844158 2.3509883e-38
-0.039244004 -0.11808117 -0.020844158 2.3509883e-38
-0.037408147 -0.11808117 -0.020844158 2.3509886e-38
-0.03557229 -0.11808117 -0.020844158 2.3509883e-38
-0.033754472 -0.11882581 -0.023783263 2.3509883e-38
-0.031900581 -0.11808117 -0.020844158 2.350988e-38
-0.030064724 -0.11808117 -0.020844158 2.350988e-38
-0.028235 -0.11985306 -0.027837809 2.3509883e-38
-0.026386883 -0.11985306 -0.027837809 2.3509886e-38
-0.024538763 -0.11985306 -0.027837809 2.3509886e-38
-0.022677589 -0.12060766 -0.030816253 2.3509886e-38
-0.020842526 -0.11985306 -0.027837809 2.3509886e-38
-0.01899441 -0.11985306 -0.027837809 2.3509886e-38
-0.017146291 -0.11985306 -0.027837809 2.3509886e-38
-0.015264229 -0.12060766 -0.030816253 2.3509883e-38
-0.013410889 -0.12060766 -0.030816253 2.3509883e-38
-0.011557548 -0.12060766 -0.030816253 2.3509883e-38
-0.0097042089 -0.12060766 -0.030816253 2.3509883e-38
-0.0077402638 -0.12212978 -0.036824044 2.3509883e-38
-0.0058763912 -0.12212978 -0.036824044 2.3509886e-38
-0.0040125167 -0.12212978 -0.036824044 2.3509886e-38
-0.0020529376 -0.12315418 -0.040867385 2.3509886e-38
-0.00018197391 -0.12315418 -0.040867385 2.3509886e-38
0.0016889898 -0.12315418 -0.040867385 2.3509886e-38
0.0034429794 -0.12212978 -0.036824044 2.341805e-38
0.0053068521 -0.12212978 -0.036824044 2.341805e-38
0.058843933 -0.099322364 0.053196911 1.91821e-38
-0.082529433 -0.1347049 -0.078810871 6.0903038e-39
-0.080591939 -0.1347049 -0.078810871 6.9200672e-39
-0.078654446 -0.1347049 -0.078810871 1.3651067e-38
-0.076716952 -0.1347049 -0.078810871 1.4850331e-38
-0.077185906 -0.14899619 -0.13483101 1.8260849e-38
-0.072678171 -0.13369073 -0.074835479 1.8628909e-38
-0.070747651 -0.13369073 -0.074835479 1.8259407e-38
-0.068817131 -0.13369073 -0.074835479 1.9826011e-38
-0.066886611 -0.13369073 -0.074835479 2.2037265e-38
-0.064956091 -0.13369073 -0.074835479 2.2036902e-38
-0.063025571 -0.13369073 -0.074835479 2.1758874e-38
-0.06097395 -0.13268389 -0.070888698 2.1297176e-38
-0.059050351 -0.13268389 -0.070888698 2.0191183e-38
-0.057126753 -0.13268389 -0.070888698 1.9914945e-38
-0.055203147 -0.13268389 -0.070888698 1.973127e-38
-0.053111393 -0.13087155 -0.06378454 2.0653229e-38
-0.050697982 -0.12502514 -0.040867385 2.2404592e-38
-0.0485643 -0.12170117 -0.027837809 2.3509869e-38
-0.04671618 -0.12170117 -0.027837809 2.3509873e-38
-0.04475157 -0.11991702 -0.020844158 2.3509879e-38
-0.042915717 -0.11991702 -0.020844158 2.3509883e-38
-0.041040011 -0.11914389 -0.017813619 2.3509886e-38
-0.039175127 -0.11837523 -0.014800485 2.3509886e-38
-0.037320979 -0.11761098 -0.011804756 2.3509886e-38
-0.035469946 -0.11660783 -0.0078725182 2.3509886e-38
-0.033620015 -0.11507715 -0.0018724762 2.3509883e-38
-0.031817421 -0.11507715 -0.0018724762 2.3509883e-38
-0.030048829 -0.11837523 -0.014800485 2.350988e-38
-0.028228868 -0.11991702 -0.020844158 2.350988e-38
-0.026390437 -0.12066682 -0.023783263 2.3509886e-38
-0.024538763 -0.12170117 -0.027837809 2.3509886e-38
-0.022690646 -0.12170117 -0.027837809 2.3509886e-38
-0.020842526 -0.12170117 -0.027837809 2.3509886e-38
-0.01899441 -0.12170117 -0.027837809 2.3509886e-38
-0.017146291 -0.12170117 -0.027837809 2.3509886e-38
-0.015298173 -0.12170117 -0.027837809 2.3509886e-38
-0.013410889 -0.12246101 -0.030816253 2.3509886e-38
-0.011557548 -0.12246101 -0.030816253 2.3509886e-38
-0.0097042089 -0.12246101 -0.030816253 2.3509886e-38
-0.0078508677 -0.12246101 -0.030816253 2.3509886e-38
-0.0060575837 -0.12170117 -0.027837809 2.3509886e-38
-0.0042094653 -0.12170117 -0.027837809 2.3509886e-38
-0.0022199461 -0.12322514 -0.033811625 2.3509886e-38
-0.00036135409 -0.12322514 -0.033811625 2.3509886e-38
0.0015791049 -0.12399365 -0.036824044 2.3509886e-38
0.0034429794 -0.12399365 -0.036824044 2.341769e-38
0.0053068521 -0.12399365 -0.036824044 2.341769e-38
0.057317264 -0.10155563 0.051130239 2.3142544e-38
0.058843933 -0.1010284 0.053196911 2.2867037e-38
0.060549967 -0.1010284 0.053196911 2.2499695e-38
0.062256016 -0.1010284 0.053196911 2.084271e-38
-0.069908425 -0.14305727 -0.10378474 1.9918564e-38
-0.067138433 -0.13742088 -0.081841648 2.1300056e-38
-0.065092012 -0.13664238 -0.078810871 2.1483726e-38
-0.063025571 -0.13562126 -0.074835479 2.1482284e-38
-0.06097395 -0.13460748 -0.070888698 2.0559609e-38
-0.059050351 -0.13460748 -0.070888698 1.8808246e-38
-0.057126753 -0.13460748 -0.070888698 1.8532012e-38
-0.055124596 -0.13381381 -0.067798913 1.8256143e-38
-0.053041972 -0.13202934 -0.06085163 1.9269938e-38
-0.050917462 -0.1294684 -0.050881561 2.1574834e-38
-0.0485643 -0.1235493 -0.027837809 2.3418033e-38
-0.04671618 -0.1235493 -0.027837809 2.3509876e-38
-0.044701092 -0.12097444 -0.017813619 2.3418043e-38
-0.042870551 -0.12097444 -0.017813619 2.31411e-38
-0.041000385 -0.12020047 -0.014800485 2.3509886e-38
-0.039096169 -0.11842094 -0.0078725182 2.3509886e-38
-0.037253536 -0.11763458 -0.0048111044 2.3509886e-38
-0.035422605 -0.11687975 -0.0018724762 2.3509886e-38
-0.033620015 -0.11687975 -0.0018724762 2.3509883e-38
-0.031817421 -0.11687975 -0.0018724762 2.3509883e-38
-0.029991094 -0.11456163 0.0071522631 2.350988e-38
-0.028204326 -0.11456163 0.0071522631 2.350988e-38
-0.026417557 -0.11456163 0.0071522631 2.3509886e-38
-0.024549428 -0.12250783 -0.023783263 2.3509886e-38
-0.02270842 -0.12250783 -0.023783263 2.3509886e-38
-0.020842526 -0.1235493 -0.027837809 2.3509886e-38
-0.019026399 -0.12250783 -0.023783263 2.3509886e-38
-0.01718539 -0.12250783 -0.023783263 2.3509886e-38
-0.015344381 -0.12250783 -0.023783263 2.3509886e-38
-0.013450055 -0.1235493 -0.027837809 2.3509886e-38
-0.011601937 -0.1235493 -0.027837809 2.3509886e-38
-0.0097538186 -0.1235493 -0.027837809 2.3509886e-38
-0.0079057021 -0.1235493 -0.027837809 2.3509886e-38
-0.0061393371 -0.12250783 -0.023783263 2.3509886e-38
-0.0042983266 -0.12250783 -0.023783263 2.3509886e-38
-0.0022908477 -0.12431435 -0.030816253 2.3509886e-38
-0.00043750647 -0.12431435 -0.030816253 2.3509886e-38
0.0014972379 -0.12508373 -0.033811625 2.3509886e-38
0.00335583 -0.12508373 -0.033811625 2.3233299e-38
0.0052144201 -0.12508373 -0.033811625 2.3325494e-38
0.0070730122 -0.12508373 -0.033811625 2.341769e-38
0.0089316042 -0.12508373 -0.033811625 2.3509886e-38
0.011104588 -0.11456163 0.0071522631 2.3509886e-38
0.012891357 -0.11456163 0.0071522631 2.3509886e-38
0.057317264 -0.1032653 0.051130239 2.3232944e-38
0.058843933 -0.10273445 0.053196911 2.2496821e-38
0.060549967 -0.10273445 0.053196911 2.2774843e-38
0.062256016 -0.10273445 0.053196911 2.2775202e-38
0.06396205 -0.10273445 0.053196911 2.2039441e-38
-0.07232789 -0.14791109 -0.11489207 1.9273556e-38
-0.069908425 -0.14503856 -0.10378474 2.0287343e-38
-0.067786761 -0.14402847 -0.099879086 2.1300053e-38
-0.065195635 -0.13936369 -0.081841648 2.1852505e-38
-0.063025571 -0.1375518 -0.074835479 2.2496434e-38
-0.06097395 -0.13653107 -0.070888698 2.1850702e-38
-0.058960963 -0.13573201 -0.067798913 2.055996e-38
-0.057042778 -0.13573201 -0.067798913 2.0099698e-38
-0.055124596 -0.13573201 -0.067798913 1.963872e-38
-0.053041972 -0.13393532 -0.06085163 2.0007505e-38
-0.050983097 -0.13213144 -0.053876456 2.1482282e-38
-0.049028937 -0.13135691 -0.050881561 2.3049612e-38
-0.046771012 -0.12616767 -0.030816253 2.3509879e-38
-0.044701092 -0.12280498 -0.017813619 2.3417687e-38
-0.042825647 -0.12202574 -0.014800485 2.3325494e-38
-0.04096099 -0.121251 -0.011804756 2.3509886e-38
-0.039061282 -0.11944233 -0.0048111044 2.3509886e-38
-0.037253536 -0.11944233 -0.0048111044 2.3509886e-38
-0.035398733 -0.11789979 0.0011534132 2.3509886e-38
-0.033601444 -0.11789979 0.0011534132 2.3509886e-38
-0.031790972 -0.1171218 0.0041616596 2.3509883e-38
-0.029991094 -0.1163484 0.0071522631 2.350988e-38
-0.028204326 -0.1163484 0.0071522631 2.350988e-38
-0.026417557 -0.1163484 0.0071522631 2.3509883e-38
-0.024630789 -0.1163484 0.0071522631 2.3509886e-38
-0.022830911 -0.1171218 0.0041616596 2.3509886e-38
-0.020867407 -0.12434883 -0.023783263 2.3509886e-38
-0.019026399 -0.12434883 -0.023783263 2.3509886e-38
-0.017213734 -0.12358873 -0.020844158 2.3509886e-38
-0.015377877 -0.12358873 -0.020844158 2.3509886e-38
-0.013503373 -0.12434883 -0.023783263 2.3509886e-38
-0.011601937 -0.1253974 -0.027837809 2.3509886e-38
-0.0098703103 -0.12358873 -0.020844158 2.3509886e-38
-0.0080344537 -0.12358873 -0.020844158 2.3509886e-38
-0.006198599 -0.12358873 -0.020844158 2.3509886e-38
-0.0042983266 -0.12434883 -0.023783263 2.3509886e-38
-0.0022908477 -0.12616767 -0.030816253 2.3509886e-38
-0.00043750647 -0.12616767 -0.030816253 2.3509886e-38
0.00054700393 -0.11789979 0.0011534132 2.3509886e-38
0.0022572624 -0.1171218 0.0041616596 2.3233299e-38
0.0039575147 -0.1163484 0.0071522631 2.3233299e-38
0.0057442831 -0.1163484 0.0071522631 2.3233299e-38
0.0075310515 -0.1163484 0.0071522631 2.3325494e-38
0.00931782 -0.1163484 0.0071522631 2.3509886e-38
0.011104588 -0.1163484 0.0071522631 2.3509886e-38
0.012891357 -0.1163484 0.0071522631 2.3509886e-38
0.014801347 -0.1171218 0.0041616596 2.341769e-38
0.057137899 -0.10444047 0.053196911 2.3509168e-38
0.058843933 -0.10444047 0.053196911 2.3509168e-38
0.060549967 -0.10444047 0.053196911 2.295672e-38
0.062256016 -0.10444047 0.053196911 2.2958155e-38
0.069491692 -0.11478879 0.013182823 2.2775202e-38
0.071267895 -0.11478879 0.013182823 2.2039441e-38
0.073044084 -0.11478879 0.013182823 2.2316024e-38
-0.072206147 -0.14910837 -0.11180621 1.9181359e-38
-0.069908425 -0.14701982 -0.10378474 2.0195145e-38
-0.067786761 -0.1460029 -0.099879086 2.0839072e-38
-0.065195635 -0.1413065 -0.081841648 2.1668469e-38
-0.063154519 -0.14051737 -0.078810871 2.2681179e-38
-0.061095051 -0.1394823 -0.074835479 2.2773011e-38
-0.058960963 -0.13765021 -0.067798913 2.2404229e-38
-0.057042778 -0.13765021 -0.067798913 2.1574831e-38
-0.055022538 -0.13660498 -0.06378454 2.1390443e-38
-0.053041972 -0.13584132 -0.06085163 2.1482282e-38
-0.050983097 -0.1340252 -0.053876456 2.2219849e-38
-0.049028937 -0.13324542 -0.050881561 2.2957061e-38
-0.04658743 -0.12542458 -0.020844158 2.3325847e-38
-0.044701092 -0.12463553 -0.017813619 2.3509886e-38
-0.042825647 -0.12385099 -0.014800485 2.3509886e-38
-0.040909283 -0.12204717 -0.0078725182 2.3509886e-38
-0.039061282 -0.12125005 -0.0048111044 2.3509527e-38
-0.037225198 -0.12048493 -0.0018724762 2.3509886e-38
-0.035398733 -0.11969708 0.0011534132 2.3509886e-38
-0.033582985 -0.11891381 0.0041616596 2.3509886e-38
-0.031777862 -0.11813517 0.0071522631 2.3509883e-38
-0.029983275 -0.11736105 0.010125343 2.350988e-38
-0.028201718 -0.11736105 0.010125343 2.350988e-38
-0.026420161 -0.11736105 0.010125343 2.3509883e-38
-0.024630789 -0.11813517 0.0071522631 2.3509886e-38
-0.02284402 -0.11813517 0.0071522631 2.3509886e-38
-0.021001868 -0.12048493 -0.0018724762 2.3509886e-38
-0.019097274 -0.12385099 -0.014800485 2.3509886e-38
-0.017272014 -0.12385099 -0.014800485 2.3509886e-38
-0.015446755 -0.12385099 -0.014800485 2.3509886e-38
-0.013621496 -0.12385099 -0.014800485 2.3509886e-38
-0.011601937 -0.12724553 -0.027837809 2.3509886e-38
-0.009970977 -0.12385099 -0.014800485 2.3509886e-38
-0.0081457188 -0.12385099 -0.014800485 2.3509886e-38
-0.006198599 -0.12542458 -0.020844158 2.3509886e-38
-0.0042094653 -0.12724553 -0.027837809 2.3509886e-38
-0.0022908477 -0.12802102 -0.030816253 2.3509886e-38
-0.0012502829 -0.11969708 0.0011534132 2.3509886e-38
0.00054700393 -0.11969708 0.0011534132 2.3509886e-38
0.0022572624 -0.11891381 0.0041616596 2.341769e-38
0.0039575147 -0.11813517 0.0071522631 2.3233299e-38
0.0057442831 -0.11813517 0.0071522631 2.3048907e-38
0.0075310515 -0.11813517 0.0071522631 2.2956712e-38
0.00931782 -0.11813517 0.0071522631 2.3141103e-38
0.010992513 -0.11736105 0.010125343 2.341769e-38
0.01277407 -0.11736105 0.010125343 2.3509886e-38
0.014678125 -0.11813517 0.0071522631 2.3509886e-38
0.056878366 -0.10536788 0.056187335 2.3507013e-38
0.058579154 -0.10536788 0.056187335 2.3508451e-38
0.060279943 -0.10536788 0.056187335 2.3508451e-38
0.065390728 -0.11501329 0.019142453 2.3508809e-38
0.067156471 -0.11501329 0.019142453 2.3417691e-38
0.068922214 -0.11501329 0.019142453 2.323402e-38
0.070687957 -0.11501329 0.019142453 2.268229e-38
0.0724537 -0.11501329 0.019142453 2.2775202e-38
0.074219458 -0.11501329 0.019142453 2.1025298e-38
0.076910086 -0.11736105 0.010125343 1.6970129e-38
0.078691639 -0.11736105 0.010125343 1.0517153e-38
0.080473192 -0.11736105 0.010125343 4.3407616e-39
-0.069908425 -0.14900111 -0.10378474 2.001111e-38
-0.067786761 -0.14797734 -0.099879086 2.0470647e-38
-0.065434039 -0.14507706 -0.088814557 2.1484433e-38
-0.063252829 -0.14324932 -0.081841648 2.2313112e-38
-0.061095051 -0.14141284 -0.074835479 2.2680814e-38
-0.058960963 -0.13956837 -0.067798913 2.3141793e-38
-0.057042778 -0.13956837 -0.067798913 2.2957768e-38
-0.055022538 -0.13851611 -0.06378454 2.3141804e-38
-0.052970164 -0.13695215 -0.057817992 2.3418033e-38
-0.050983097 -0.13591899 -0.053876456 2.3509873e-38
-0.049028937 -0.13513394 -0.050881561 2.350988e-38
-0.04658743 -0.12726043 -0.020844158 2.3417687e-38
-0.044701092 -0.12646608 -0.017813619 2.3325497e-38
-0.042825647 -0.12567626 -0.014800485 2.3417691e-38
-0.040909283 -0.12386028 -0.0078725182 2.3509527e-38
-0.039061282 -0.1230578 -0.0048111044 2.3509527e-38
-0.037225198 -0.12228753 -0.0018724762 2.3509886e-38
-0.035398733 -0.12149437 0.0011534132 2.3509886e-38
-0.033582985 -0.12070583 0.0041616596 2.3509886e-38
-0.031777862 -0.11992194 0.0071522631 2.350988e-38
-0.029983275 -0.11914261 0.010125343 2.350988e-38
-0.028201718 -0.11914261 0.010125343 2.350988e-38
-0.026420161 -0.11914261 0.010125343 2.3509883e-38
-0.024630789 -0.11992194 0.0071522631 2.3509886e-38
-0.02284402 -0.11992194 0.0071522631 2.3509886e-38
-0.021038897 -0.12070583 0.0041616596 2.3509886e-38
-0.019151935 -0.12386028 -0.0078725182 2.3509886e-38
-0.017368346 -0.1230578 -0.0048111044 2.3509886e-38
-0.015560601 -0.1230578 -0.0048111044 2.3509886e-38
-0.013621496 -0.12567626 -0.014800485 2.3509886e-38
-0.011796237 -0.12567626 -0.014800485 2.3509886e-38
-0.009970977 -0.12567626 -0.014800485 2.3509886e-38
-0.0081457188 -0.12567626 -0.014800485 2.3509886e-38
-0.0066421432 -0.12149437 0.0011534132 2.3509886e-38
-0.0049107866 -0.12070583 0.0041616596 2.3509886e-38
-0.0031187749 -0.12070583 0.0041616596 2.3509886e-38
-0.0012502829 -0.12149437 0.0011534132 2.3509886e-38
0.00054700393 -0.12149437 0.0011534132 2.3509886e-38
0.0021707444 -0.11992194 0.0071522631 2.3509886e-38
0.0038662897 -0.11914261 0.010125343 2.3325494e-38
0.0056478465 -0.11914261 0.010125343 2.2956712e-38
0.0074293995 -0.11914261 0.010125343 2.2864516e-38
0.0092109563 -0.11914261 0.010125343 2.3048907e-38
0.010992513 -0.11914261 0.010125343 2.3325494e-38
0.01277407 -0.11914261 0.010125343 2.3509886e-38
0.014678125 -0.11992194 0.0071522631 2.3509886e-38
0.047740404 -0.11073507 0.042200092 2.3509886e-38
0.049234536 -0.1099584 0.045163158 2.3509886e-38
0.050954659 -0.1099584 0.045163158 2.3509886e-38
0.056878366 -0.1070687 0.056187335 2.3508451e-38
0.058579154 -0.1070687 0.056187335 2.3508451e-38
0.060279943 -0.1070687 0.056187335 2.3508092e-38
0.065390728 -0.11677901 0.019142453 2.3508809e-38
0.067156471 -0.11677901 0.019142453 2.3509168e-38
0.068922214 -0.11677901 0.019142453 2.3509168e-38
0.070687957 -0.11677901 0.019142453 2.341805e-38
0.0724537 -0.11677901 0.019142453 2.3142544e-38
0.074219458 -0.11677901 0.019142453 2.2867037e-38
0.075985201 -0.11677901 0.019142453 2.2591531e-38
0.077750944 -0.11677901 0.019142453 2.2224189e-38
0.079516686 -0.11677901 0.019142453 2.0107293e-38
-0.065573432 -0.14810793 -0.092891634 2.2037604e-38
-0.06338343 -0.14625455 -0.085867941 2.2497502e-38
-0.061217029 -0.14439236 -0.078810871 2.249642e-38
-0.059050351 -0.14230187 -0.070888698 2.3326184e-38
-0.057042778 -0.14148657 -0.067798913 2.3509866e-38
-0.055022538 -0.14042725 -0.06378454 2.350987e-38
-0.052970164 -0.13885282 -0.057817992 2.3509873e-38
-0.050983097 -0.13781275 -0.053876456 2.3509876e-38
-0.049028937 -0.13702248 -0.050881561 2.3509883e-38
-0.046771012 -0.13172771 -0.030816253 2.3509886e-38
-0.044701092 -0.1282966 -0.017813619 2.3325497e-38
-0.042825647 -0.1275015 -0.014800485 2.3232944e-38
-0.040909283 -0.1256734 -0.0078725182 2.3509527e-38
-0.039027791 -0.12409012 -0.0018724762 2.3509527e-38
-0.037225198 -0.12409012 -0.0018724762 2.3509886e-38
-0.035398733 -0.12329166 0.0011534132 2.3509886e-38
-0.033582985 -0.12249784 0.0041616596 2.3509886e-38
-0.031777862 -0.12170871 0.0071522631 2.350988e-38
-0.029983275 -0.12092416 0.010125343 2.350988e-38
-0.028201718 -0.12092416 0.010125343 2.350988e-38
-0.026420161 -0.12092416 0.010125343 2.3509883e-38
-0.024638608 -0.12092416 0.010125343 2.3509886e-38
-0.022857051 -0.12092416 0.010125343 2.3509886e-38
-0.02105725 -0.12170871 0.0071522631 2.3509886e-38
-0.019199274 -0.12409012 -0.0018724762 2.3509886e-38
-0.017396685 -0.12409012 -0.0018724762 2.3509886e-38
-0.015560601 -0.12486555 -0.0048111044 2.3509886e-38
-0.013752856 -0.12486555 -0.0048111044 2.3509886e-38
-0.011796237 -0.1275015 -0.014800485 2.3509886e-38
-0.009970977 -0.1275015 -0.014800485 2.3509886e-38
-0.0081457188 -0.1275015 -0.014800485 2.3509886e-38
-0.0066421432 -0.12329166 0.0011534132 2.3509886e-38
-0.0049107866 -0.12249784 0.0041616596 2.3509886e-38
-0.0031187749 -0.12249784 0.0041616596 2.3509886e-38
-0.0012502829 -0.12329166 0.0011534132 2.3509886e-38
0.00038397592 -0.12170871 0.0071522631 2.3509886e-38
0.0021707444 -0.12170871 0.0071522631 2.3509886e-38
0.0037724758 -0.12011738 0.013182823 2.3509886e-38
0.0054500932 -0.11931543 0.016221944 2.3233299e-38
0.0072209584 -0.11931543 0.016221944 2.3141103e-38
0.0092109563 -0.12092416 0.010125343 2.3325494e-38
0.010992513 -0.12092416 0.010125343 2.341769e-38
0.01277407 -0.12092416 0.010125343 2.3509886e-38
0.043134104 -0.11457725 0.034177903 2.3509886e-38
0.044873487 -0.11457725 0.034177903 2.3509886e-38
0.04661287 -0.11457725 0.034177903 2.3509886e-38
0.047740404 -0.11246039 0.042200092 2.3509886e-38
0.049234536 -0.1116785 0.045163158 2.3509886e-38
0.050954659 -0.1116785 0.045163158 2.3509886e-38
0.052916359 -0.11246039 0.042200092 2.3509886e-38
0.054641675 -0.11246039 0.042200092 2.3509527e-38
0.057306819 -0.11537679 0.03114802 2.3508091e-38
0.059832819 -0.11775221 0.022145931 2.3507732e-38
0.061593287 -0.11775221 0.022145931 2.3508451e-38
0.063353769 -0.11775221 0.022145931 2.3508089e-38
0.065114252 -0.11775221 0.022145931 2.3507369e-38
0.066874735 -0.11775221 0.022145931 2.3507009e-38
0.068635218 -0.11775221 0.022145931 2.3508448e-38
0.070395686 -0.11775221 0.022145931 2.3509527e-38
0.072156169 -0.11775221 0.022145931 2.3325497e-38
0.073916651 -0.11775221 0.022145931 2.3050349e-38
0.075677134 -0.11775221 0.022145931 2.2775202e-38
0.077437617 -0.11775221 0.022145931 2.2499695e-38
0.079198085 -0.11775221 0.022145931 2.2224189e-38
0.080958568 -0.11775221 0.022145931 2.1948682e-38
-0.063252829 -0.14713491 -0.081841648 2.2774445e-38
-0.061095051 -0.14527388 -0.074835479 2.2496776e-38
-0.058960963 -0.14340474 -0.067798913 2.3418018e-38
-0.057042778 -0.14340474 -0.067798913 2.3234355e-38
-0.055022538 -0.14233841 -0.06378454 2.3234001e-38
-0.052970164 -0.14075352 -0.057817992 2.3141452e-38
-0.050983097 -0.13970654 -0.053876456 2.3049259e-38
-0.049028937 -0.13891099 -0.050881561 2.31411e-38
-0.04658743 -0.13093217 -0.020844158 2.3509886e-38
-0.044650905 -0.12932678 -0.014800485 2.3509527e-38
-0.042825647 -0.12932678 -0.014800485 2.3509527e-38
-0.040909283 -0.12748651 -0.0078725182 2.3509527e-38
-0.039027791 -0.12589271 -0.0018724762 2.3509527e-38
-0.037225198 -0.12589271 -0.0018724762 2.3509527e-38
-0.035398733 -0.12508895 0.0011534132 2.3509886e-38
-0.033582985 -0.12428986 0.0041616596 2.3509886e-38
-0.031777862 -0.12349547 0.0071522631 2.350988e-38
-0.029983275 -0.12270571 0.010125343 2.350988e-38
-0.028201718 -0.12270571 0.010125343 2.350988e-38
-0.026420161 -0.12270571 0.010125343 2.3509883e-38
-0.024638608 -0.12270571 0.010125343 2.3509886e-38
-0.022857051 -0.12270571 0.010125343 2.3509886e-38
-0.021075495 -0.12270571 0.010125343 2.3509886e-38
-0.019293938 -0.12270571 0.010125343 2.3509886e-38
-0.017715111 -0.11712147 0.03114802 2.3509886e-38
-0.015970416 -0.11712147 0.03114802 2.3509886e-38
-0.014265561 -0.11631663 0.034177903 2.3509886e-38
-0.012526178 -0.11631663 0.034177903 2.3509886e-38
-0.010836956 -0.11551671 0.037189428 2.3509886e-38
-0.0091028521 -0.11551671 0.037189428 2.3509886e-38
-0.0073687481 -0.11551671 0.037189428 2.3509886e-38
-0.0048448564 -0.12508895 0.0011534132 2.3509886e-38
-0.0030475697 -0.12508895 0.0011534132 2.3509886e-38
-0.0012502829 -0.12508895 0.0011534132 2.3509886e-38
0.00038397592 -0.12349547 0.0071522631 2.3509886e-38
0.0021707444 -0.12349547 0.0071522631 2.3509886e-38
0.0037724758 -0.12189357 0.013182823 2.3509886e-38
0.0054500932 -0.12108628 0.016221944 2.3509886e-38
0.0072209584 -0.12108628 0.016221944 2.3509886e-38
0.0089918235 -0.12108628 0.016221944 2.3509886e-38
0.010762692 -0.12108628 0.016221944 2.3509886e-38
0.011825194 -0.11631663 0.034177903 2.3509886e-38
0.039655339 -0.11631663 0.034177903 2.3509886e-38
0.041394722 -0.11631663 0.034177903 2.3509886e-38
0.043134104 -0.11631663 0.034177903 2.3509886e-38
0.044873487 -0.11631663 0.034177903 2.3509886e-38
0.04661287 -0.11631663 0.034177903 2.3509886e-38
0.048122566 -0.11551671 0.037189428 2.3509886e-38
0.04946572 -0.11418571 0.042200092 2.3509886e-38
0.051191036 -0.11418571 0.042200092 2.3509886e-38
0.052916359 -0.11418571 0.042200092 2.3509886e-38
0.055058982 -0.11551671 0.037189428 2.3509886e-38
0.057306819 -0.11712147 0.03114802 2.3509527e-38
0.059051521 -0.11712147 0.03114802 2.3509167e-38
0.061328925 -0.11871959 0.025131647 2.3509167e-38
0.063084178 -0.11871959 0.025131647 2.3509165e-38
0.064839415 -0.11871959 0.025131647 2.3508807e-38
0.066594668 -0.11871959 0.025131647 2.3509163e-38
0.068349905 -0.11871959 0.025131647 2.3508802e-38
0.070105158 -0.11871959 0.025131647 2.3508802e-38
0.071860395 -0.11871959 0.025131647 2.3509165e-38
0.073615648 -0.11871959 0.025131647 2.3509527e-38
0.075677134 -0.11951269 0.022145931 2.3234379e-38
0.077437617 -0.11951269 0.022145931 2.2499336e-38
0.079198085 -0.11951269 0.022145931 2.240786e-38
0.080958568 -0.11951269 0.022145931 2.2224189e-38
0.08271905 -0.11951269 0.022145931 2.0660113e-38
-0.063252829 -0.14907773 -0.081841648 2.240566e-38
-0.061095051 -0.14720438 -0.074835479 2.3049947e-38
-0.058960963 -0.14532293 -0.067798913 2.3509856e-38
-0.057042778 -0.14532293 -0.067798913 2.3326192e-38
-0.054947972 -0.14346536 -0.06085163 2.3326196e-38
-0.052970164 -0.1426542 -0.057817992 2.3325843e-38
-0.050917462 -0.14079951 -0.050881561 2.3325846e-38
-0.048948176 -0.13972856 -0.046876248 2.3325492e-38
-0.04658743 -0.13276802 -0.020844158 2.3325494e-38
-0.044650905 -0.13115202 -0.014800485 2.3325138e-38
-0.042825647 -0.13115202 -0.014800485 2.3325138e-38
-0.040909283 -0.1292996 -0.0078725182 2.3509527e-38
-0.039061282 -0.12848105 -0.0048111044 2.3509527e-38
-0.037225198 -0.12769531 -0.0018724762 2.3509527e-38
-0.035398733 -0.12688623 0.0011534132 2.3509886e-38
-0.033582985 -0.12608187 0.0041616596 2.3509886e-38
-0.031777862 -0.12528224 0.0071522631 2.350988e-38
-0.029983275 -0.1244873 0.010125343 2.350988e-38
-0.028201718 -0.1244873 0.010125343 2.350988e-38
-0.026422843 -0.12366976 0.013182823 2.3509883e-38
-0.024646647 -0.12366976 0.013182823 2.3509886e-38
-0.022909742 -0.12127317 0.022145931 2.3509886e-38
-0.021223098 -0.11805601 0.034177903 2.3509886e-38
-0.019483713 -0.11805601 0.034177903 2.3509886e-38
-0.017715111 -0.11886616 0.03114802 2.3509886e-38
-0.015970416 -0.11886616 0.03114802 2.3509886e-38
-0.014265561 -0.11805601 0.034177903 2.3509886e-38
-0.012526178 -0.11805601 0.034177903 2.3509886e-38
-0.010836956 -0.11725079 0.037189428 2.3509886e-38
-0.0091028521 -0.11725079 0.037189428 2.3509886e-38
-0.0073687481 -0.11725079 0.037189428 2.3509886e-38
-0.0055022379 -0.11886616 0.03114802 2.3509886e-38
-0.0037575411 -0.11886616 0.03114802 2.3509886e-38
-0.0012502829 -0.12688623 0.0011534132 2.3509886e-38
0.00054700393 -0.12688623 0.0011534132 2.3509886e-38
0.0021707444 -0.12528224 0.0071522631 2.3509886e-38
0.0037724758 -0.12366976 0.013182823 2.3509886e-38
0.0055486718 -0.12366976 0.013182823 2.3509886e-38
0.0073248642 -0.12366976 0.013182823 2.3509886e-38
0.0091010602 -0.12366976 0.013182823 2.3509886e-38
0.010085811 -0.11805601 0.034177903 2.3509886e-38
0.011825194 -0.11805601 0.034177903 2.3509886e-38
0.027479649 -0.11805601 0.034177903 2.3509886e-38
0.029219031 -0.11805601 0.034177903 2.3509886e-38
0.03811517 -0.11886616 0.03114802 2.3509886e-38
0.039655339 -0.11805601 0.034177903 2.3509886e-38
0.041394722 -0.11805601 0.034177903 2.3509886e-38
0.043134104 -0.11805601 0.034177903 2.3509886e-38
0.044873487 -0.11805601 0.034177903 2.3509886e-38
0.04661287 -0.11805601 0.034177903 2.3509886e-38
0.048122566 -0.11725079 0.037189428 2.3509886e-38
0.049856666 -0.11725079 0.037189428 2.3509886e-38
