# .PCD v0.7 - Point Cloud Data file format
VERSION 0.7
FIELDS x y z rgb
SIZE 4 4 4 4
TYPE F F F F
COUNT 1 1 1 1
WIDTH 951
HEIGHT 1
VIEWPOINT 0 0 0 1 0 0 0
POINTS 951
DATA ascii
0.019498879 -0.12868352 0.034743771 2.3509886e-38
0.021296166 -0.12868352 0.034743771 2.3509886e-38
0.023093455 -0.12868352 0.034743771 2.3509886e-38
0.024787888 -0.12787388 0.037752017 2.3509886e-38
0.026579902 -0.12787388 0.037752017 2.3509886e-38
0.028259177 -0.12706901 0.040742621 2.3509886e-38
0.029928658 -0.12626885 0.043715701 2.3509886e-38
0.031710215 -0.12626885 0.043715701 2.3509886e-38
0.033491768 -0.12626885 0.043715701 2.3509886e-38
0.035136625 -0.12544595 0.04677318 2.3509886e-38
0.036912821 -0.12544595 0.04677318 2.3509886e-38
0.038689017 -0.12544595 0.04677318 2.3509886e-38
0.04046521 -0.12544595 0.04677318 2.3509886e-38
0.042084213 -0.12462802 0.049812302 2.3509886e-38
0.043855079 -0.12462802 0.049812302 2.3509886e-38
0.045464646 -0.12384202 0.05273281 2.3509886e-38
0.047230393 -0.12384202 0.05273281 2.3509886e-38
0.048819724 -0.12303366 0.055736288 2.3509886e-38
0.050580204 -0.12303366 0.055736288 2.3509886e-38
0.052340683 -0.12303366 0.055736288 2.3509886e-38
0.054101165 -0.12303366 0.055736288 2.3509886e-38
0.055861641 -0.12303366 0.055736288 2.3509886e-38
0.057622124 -0.12303366 0.055736288 2.3509886e-38
0.059382606 -0.12303366 0.055736288 2.3509886e-38
0.060931068 -0.1222301 0.058722004 2.3325494e-38
0.062686309 -0.1222301 0.058722004 2.341769e-38
0.064441562 -0.1222301 0.058722004 2.3509886e-38
0.066196799 -0.1222301 0.058722004 2.3509886e-38
0.067952052 -0.1222301 0.058722004 2.3509886e-38
0.069462642 -0.12140475 0.061788604 2.3509886e-38
0.070724994 -0.1197954 0.067768261 2.3509886e-38
0.072464377 -0.1197954 0.067768261 2.3509886e-38
0.074203767 -0.1197954 0.067768261 2.3509883e-38
0.078030668 -0.12626885 0.043715701 2.3509883e-38
0.079812221 -0.12626885 0.043715701 2.3417687e-38
0.081593774 -0.12626885 0.043715701 2.3509883e-38
0.083649002 -0.12706901 0.040742621 2.3509883e-38
0.08543577 -0.12706901 0.040742621 2.3509883e-38
0.087508313 -0.12787388 0.037752017 2.350988e-38
0.08959306 -0.12868352 0.034743771 2.3418043e-38
0.091690101 -0.1294979 0.031717882 2.3325847e-38
0.093788959 -0.13028879 0.028779253 2.1574131e-38
0.095910706 -0.13111271 0.02571784 2.1297542e-38
0.09844657 -0.13297729 0.018789873 2.0006803e-38
0.10059146 -0.13378824 0.015776739 1.8716065e-38
0.10274877 -0.13460387 0.0127462 1.8623869e-38
0.10490672 -0.13539489 0.0098070949 1.8255086e-38
0.10674772 -0.13539489 0.0098070949 1.8715346e-38
0.10904726 -0.13648613 0.0057525486 1.8437681e-38
0.11123743 -0.13728772 0.0027741045 1.7976343e-38
0.11379126 -0.13890465 -0.0032336861 1.8160733e-38
0.11613367 -0.13999285 -0.0072770268 1.7699752e-38
0.11956706 -0.14349405 -0.020286098 1.7423165e-38
0.12146083 -0.14349405 -0.020286098 1.5302665e-38
0.12384181 -0.14455487 -0.024227634 1.3089975e-38
0.1257425 -0.14455487 -0.024227634 7.465688e-39
-0.11306898 -0.1499963 -0.037298337 2.3418038e-38
-0.11114538 -0.1499963 -0.037298337 2.341804e-38
-0.10894278 -0.1491593 -0.034208551 2.3509879e-38
-0.1070246 -0.1491593 -0.034208551 2.3233652e-38
-0.10510642 -0.1491593 -0.034208551 2.3509883e-38
-0.10284687 -0.14807184 -0.030194178 2.3325492e-38
-0.10093572 -0.14807184 -0.030194178 2.3509886e-38
-0.099024571 -0.14807184 -0.030194178 2.3509886e-38
-0.09687946 -0.14727734 -0.027261272 2.3509886e-38
-0.094973452 -0.14727734 -0.027261272 2.3509886e-38
-0.093067445 -0.14727734 -0.027261272 2.3509886e-38
-0.090935387 -0.14645557 -0.024227634 2.3509886e-38
-0.089034714 -0.14645557 -0.024227634 2.3509886e-38
-0.086854137 -0.14538784 -0.020286098 2.3509886e-38
-0.084752955 -0.14457656 -0.017291203 2.3509886e-38
-0.082864426 -0.14457656 -0.017291203 2.3509886e-38
-0.080975898 -0.14457656 -0.017291203 2.3509886e-38
-0.078831054 -0.14349155 -0.01328589 2.3509886e-38
-0.076949559 -0.14349155 -0.01328589 2.3509886e-38
-0.075068064 -0.14349155 -0.01328589 2.3509886e-38
-0.073186554 -0.14349155 -0.01328589 2.3509886e-38
-0.071305059 -0.14349155 -0.01328589 2.3509886e-38
-0.069423564 -0.14349155 -0.01328589 2.3509886e-38
-0.067377917 -0.14266007 -0.01021637 2.3509886e-38
-0.065501802 -0.14266007 -0.01021637 2.3509886e-38
-0.063625686 -0.14266007 -0.01021637 2.3509886e-38
-0.061607845 -0.14186381 -0.0072770268 2.3509886e-38
-0.059736878 -0.14186381 -0.0072770268 2.3509886e-38
-0.057685137 -0.14076851 -0.0032336861 2.3509886e-38
-0.055821262 -0.14076851 -0.0032336861 2.3509886e-38
-0.053833269 -0.13995247 -0.00022126734 2.3509886e-38
-0.051974673 -0.13995247 -0.00022126734 2.3509886e-38
-0.050116081 -0.13995247 -0.00022126734 2.3509886e-38
-0.048149828 -0.13914107 0.0027741045 2.3509886e-38
-0.046296485 -0.13914107 0.0027741045 2.3509886e-38
-0.044443145 -0.13914107 0.0027741045 2.3509886e-38
-0.042498417 -0.13833423 0.0057525486 2.3509886e-38
-0.040650301 -0.13833423 0.0057525486 2.3509886e-38
-0.038802184 -0.13833423 0.0057525486 2.3509886e-38
-0.036850981 -0.13723589 0.0098070949 2.3509886e-38
-0.035009973 -0.13723589 0.0098070949 2.3509886e-38
-0.033257827 -0.13833423 0.0057525486 2.3509886e-38
-0.031327955 -0.13723589 0.0098070949 2.3509886e-38
-0.029486947 -0.13723589 0.0098070949 2.3509886e-38
-0.02759698 -0.13643973 0.0127462 2.3509886e-38
-0.025761127 -0.13643973 0.0127462 2.3509886e-38
-0.023925271 -0.13643973 0.0127462 2.3509886e-38
-0.022089414 -0.13643973 0.0127462 2.3509886e-38
-0.020253558 -0.13643973 0.0127462 2.3509886e-38
-0.018393792 -0.13561879 0.015776739 2.3509886e-38
-0.01656325 -0.13561879 0.015776739 2.3509886e-38
-0.014732707 -0.13561879 0.015776739 2.3509886e-38
-0.012902165 -0.13561879 0.015776739 2.3509886e-38
-0.011068981 -0.13480256 0.018789873 2.3509886e-38
-0.009243723 -0.13480256 0.018789873 2.3509886e-38
-0.007426342 -0.13399105 0.021785602 2.3509886e-38
-0.0056063347 -0.13399105 0.021785602 2.3509886e-38
-0.0037863292 -0.13399105 0.021785602 2.3509886e-38
-0.0019663218 -0.13399105 0.021785602 2.3509886e-38
-0.00018423516 -0.13292582 0.02571784 2.3509886e-38
0.0016288776 -0.13292582 0.02571784 2.3509886e-38
0.0034419894 -0.13292582 0.02571784 2.3509886e-38
0.0052094767 -0.13209651 0.028779253 2.3509886e-38
0.0069682728 -0.13130049 0.031717882 2.3509886e-38
0.0087708663 -0.13130049 0.031717882 2.3509886e-38
0.010573458 -0.13130049 0.031717882 2.3509886e-38
0.01237605 -0.13130049 0.031717882 2.3509886e-38
0.014178641 -0.13130049 0.031717882 2.3509886e-38
0.015981235 -0.13130049 0.031717882 2.3509886e-38
0.017783826 -0.13130049 0.031717882 2.3509886e-38
0.019498879 -0.13048081 0.034743771 2.3509886e-38
0.021296166 -0.13048081 0.034743771 2.3509886e-38
0.022995874 -0.1296659 0.037752017 2.3509886e-38
0.024787888 -0.1296659 0.037752017 2.3509886e-38
0.026472408 -0.12885578 0.040742621 2.3509886e-38
0.028259177 -0.12885578 0.040742621 2.3509886e-38
0.029928658 -0.1280504 0.043715701 2.3509886e-38
0.031710215 -0.1280504 0.043715701 2.3509886e-38
0.033491768 -0.1280504 0.043715701 2.3509886e-38
0.035136625 -0.12722217 0.04677318 2.3509886e-38
0.036912821 -0.12722217 0.04677318 2.3509886e-38
0.038689017 -0.12722217 0.04677318 2.3509886e-38
0.04046521 -0.12722217 0.04677318 2.3509886e-38
0.042084213 -0.12639888 0.049812302 2.3509886e-38
0.043698899 -0.12560774 0.05273281 2.3509886e-38
0.045298763 -0.12479414 0.055736288 2.3509886e-38
0.047059245 -0.12479414 0.055736288 2.3509886e-38
0.048819724 -0.12479414 0.055736288 2.3509886e-38
0.050580204 -0.12479414 0.055736288 2.3509886e-38
0.052340683 -0.12479414 0.055736288 2.3509886e-38
0.054101165 -0.12479414 0.055736288 2.3509886e-38
0.055861641 -0.12479414 0.055736288 2.3509886e-38
0.057622124 -0.12479414 0.055736288 2.3509886e-38
0.059175823 -0.12398534 0.058722004 2.3509886e-38
0.060931068 -0.12398534 0.058722004 2.3509886e-38
0.062686309 -0.12398534 0.058722004 2.3509886e-38
0.064441562 -0.12398534 0.058722004 2.3509886e-38
0.066196799 -0.12398534 0.058722004 2.3509886e-38
0.067712784 -0.12315463 0.061788604 2.3509886e-38
0.069462642 -0.12315463 0.061788604 2.3509886e-38
0.070724994 -0.12153481 0.067768261 2.341769e-38
0.072464377 -0.12153481 0.067768261 2.341769e-38
0.074203767 -0.12153481 0.067768261 2.3509883e-38
0.07620611 -0.12235557 0.064738378 2.3509883e-38
0.079541512 -0.12722217 0.04677318 2.3509883e-38
0.0813177 -0.12722217 0.04677318 2.3509883e-38
0.083375342 -0.1280504 0.043715701 2.350988e-38
0.085156895 -0.1280504 0.043715701 2.350988e-38
0.087222539 -0.12885578 0.040742621 2.350988e-38
0.089300327 -0.1296659 0.037752017 2.3325847e-38
0.091690101 -0.13130049 0.031717882 2.2957064e-38
0.093788959 -0.13209651 0.028779253 2.1020955e-38
0.095910706 -0.13292582 0.02571784 2.0559977e-38
0.09844657 -0.13480256 0.018789873 1.9361434e-38
0.10091292 -0.13643973 0.0127462 1.8347282e-38
0.10306571 -0.13723589 0.0098070949 1.8347282e-38
0.10490672 -0.13723589 0.0098070949 1.7886301e-38
0.10674772 -0.13723589 0.0098070949 1.8162172e-38
0.10904726 -0.13833423 0.0057525486 1.7792312e-38
0.11123743 -0.13914107 0.0027741045 1.7239138e-38
0.11344003 -0.13995247 -0.00022126734 1.7423887e-38
0.1171572 -0.13995247 -0.00022126734 1.7147294e-38
0.11901579 -0.13995247 -0.00022126734 1.5211189e-38
-0.10284687 -0.14998297 -0.030194178 2.3141103e-38
-0.10093572 -0.14998297 -0.030194178 2.3509886e-38
-0.099024571 -0.14998297 -0.030194178 2.3509886e-38
-0.09687946 -0.14918335 -0.027261272 2.3509886e-38
-0.094973452 -0.14918335 -0.027261272 2.3509886e-38
-0.093067445 -0.14918335 -0.027261272 2.3509886e-38
-0.090935387 -0.14835624 -0.024227634 2.3509886e-38
-0.089034714 -0.14835624 -0.024227634 2.3509886e-38
-0.086854137 -0.1472816 -0.020286098 2.3509886e-38
-0.084752955 -0.14646508 -0.017291203 2.3509886e-38
-0.082864426 -0.14646508 -0.017291203 2.3509886e-38
-0.080975898 -0.14646508 -0.017291203 2.3509886e-38
-0.078831054 -0.14537306 -0.01328589 2.3509886e-38
-0.076949559 -0.14537306 -0.01328589 2.3509886e-38
-0.075068064 -0.14537306 -0.01328589 2.3509886e-38
-0.073186554 -0.14537306 -0.01328589 2.3509886e-38
-0.071305059 -0.14537306 -0.01328589 2.3509886e-38
-0.069423564 -0.14537306 -0.01328589 2.3509886e-38
-0.067377917 -0.14453618 -0.01021637 2.3509886e-38
-0.065501802 -0.14453618 -0.01021637 2.3509886e-38
-0.063625686 -0.14453618 -0.01021637 2.3509886e-38
-0.061607845 -0.14373477 -0.0072770268 2.3509886e-38
-0.059736878 -0.14373477 -0.0072770268 2.3509886e-38
-0.057685137 -0.14263238 -0.0032336861 2.3509886e-38
-0.055821262 -0.14263238 -0.0032336861 2.3509886e-38
-0.053833269 -0.14181106 -0.00022126734 2.3509886e-38
-0.051974673 -0.14181106 -0.00022126734 2.3509886e-38
-0.050116081 -0.14181106 -0.00022126734 2.3509886e-38
-0.048257489 -0.14181106 -0.00022126734 2.3509886e-38
-0.046398897 -0.14181106 -0.00022126734 2.3509886e-38
-0.044443145 -0.14099441 0.0027741045 2.3509886e-38
-0.042589806 -0.14099441 0.0027741045 2.3509886e-38
-0.040650301 -0.14018236 0.0057525486 2.3509886e-38
-0.038802184 -0.14018236 0.0057525486 2.3509886e-38
-0.036850981 -0.1390769 0.0098070949 2.3509886e-38
-0.035009973 -0.1390769 0.0098070949 2.3509886e-38
-0.033257827 -0.14018236 0.0057525486 2.3509886e-38
-0.031327955 -0.1390769 0.0098070949 2.3509886e-38
-0.029486947 -0.1390769 0.0098070949 2.3509886e-38
-0.02759698 -0.13827558 0.0127462 2.3509886e-38
-0.025761127 -0.13827558 0.0127462 2.3509886e-38
-0.023925271 -0.13827558 0.0127462 2.3509886e-38
-0.022089414 -0.13827558 0.0127462 2.3509886e-38
-0.020253558 -0.13827558 0.0127462 2.3509886e-38
-0.018393792 -0.13744931 0.015776739 2.3509886e-38
-0.01656325 -0.13744931 0.015776739 2.3509886e-38
-0.014719501 -0.13662781 0.018789873 2.3509886e-38
-0.012894241 -0.13662781 0.018789873 2.3509886e-38
-0.011068981 -0.13662781 0.018789873 2.3509886e-38
-0.009243723 -0.13662781 0.018789873 2.3509886e-38
-0.007426342 -0.13581105 0.021785602 2.3509886e-38
-0.0056063347 -0.13581105 0.021785602 2.3509886e-38
-0.0037863292 -0.13581105 0.021785602 2.3509886e-38
-0.0019663218 -0.13581105 0.021785602 2.3509886e-38
-0.00018423516 -0.13473894 0.02571784 2.3509886e-38
0.0016288776 -0.13473894 0.02571784 2.3509886e-38
0.0034419894 -0.13473894 0.02571784 2.3509886e-38
0.0052551022 -0.13473894 0.02571784 2.3509886e-38
0.0070172213 -0.13390426 0.028779253 2.3509886e-38
0.0087708663 -0.13310309 0.031717882 2.3509886e-38
0.010573458 -0.13310309 0.031717882 2.3509886e-38
0.01237605 -0.13310309 0.031717882 2.3509886e-38
0.014178641 -0.13310309 0.031717882 2.3509886e-38
0.015981235 -0.13310309 0.031717882 2.3509886e-38
0.017783826 -0.13310309 0.031717882 2.3509886e-38
0.019498879 -0.1322781 0.034743771 2.3509886e-38
0.021296166 -0.1322781 0.034743771 2.3509886e-38
0.022995874 -0.13145791 0.037752017 2.3509886e-38
0.024787888 -0.13145791 0.037752017 2.3509886e-38
0.026472408 -0.13064255 0.040742621 2.3509886e-38
0.028259177 -0.13064255 0.040742621 2.3509886e-38
0.029928658 -0.12983195 0.043715701 2.3509886e-38
0.031710215 -0.12983195 0.043715701 2.3509886e-38
0.033491768 -0.12983195 0.043715701 2.3509886e-38
0.035136625 -0.12899835 0.04677318 2.3509886e-38
0.036912821 -0.12899835 0.04677318 2.3509886e-38
0.038689017 -0.12899835 0.04677318 2.3509886e-38
0.04046521 -0.12899835 0.04677318 2.3509886e-38
0.042084213 -0.12816976 0.049812302 2.3509886e-38
0.043698899 -0.1273735 0.05273281 2.3509886e-38
0.045298763 -0.12655462 0.055736288 2.3509886e-38
0.047059245 -0.12655462 0.055736288 2.3509886e-38
0.048819724 -0.12655462 0.055736288 2.3509886e-38
0.050580204 -0.12655462 0.055736288 2.3509886e-38
0.052340683 -0.12655462 0.055736288 2.3509886e-38
0.054101165 -0.12655462 0.055736288 2.3509886e-38
0.055861641 -0.12655462 0.055736288 2.3509886e-38
0.057622124 -0.12655462 0.055736288 2.3509886e-38
0.059175823 -0.12574057 0.058722004 2.3509886e-38
0.060931068 -0.12574057 0.058722004 2.3509886e-38
0.062686309 -0.12574057 0.058722004 2.3509886e-38
0.064441562 -0.12574057 0.058722004 2.3509886e-38
0.065962911 -0.1249045 0.061788604 2.3509886e-38
0.067482635 -0.12410025 0.064738378 2.3509886e-38
0.069227323 -0.12410025 0.064738378 2.341769e-38
0.070972025 -0.12410025 0.064738378 2.3233299e-38
0.072716713 -0.12410025 0.064738378 2.3141103e-38
0.074461408 -0.12410025 0.064738378 2.3417687e-38
0.07620611 -0.12410025 0.064738378 2.3509883e-38
0.079541512 -0.12899835 0.04677318 2.3509883e-38
0.0813177 -0.12899835 0.04677318 2.3509883e-38
0.083375342 -0.12983195 0.043715701 2.350988e-38
0.085156895 -0.12983195 0.043715701 2.350988e-38
0.087222539 -0.13064255 0.040742621 2.3325847e-38
0.089009307 -0.13064255 0.040742621 2.2864869e-38
0.091390349 -0.1322781 0.034743771 2.2864868e-38
0.094097607 -0.13473894 0.02571784 2.0652173e-38
0.095910706 -0.13473894 0.02571784 2.0098999e-38
0.09876091 -0.13744931 0.015776739 1.880826e-38
0.10091292 -0.13827558 0.0127462 1.7794108e-38
0.10306571 -0.1390769 0.0098070949 1.7886304e-38
0.10490672 -0.1390769 0.0098070949 1.7333127e-38
0.10674772 -0.1390769 0.0098070949 1.7333127e-38
0.10904726 -0.14018236 0.0057525486 1.7424607e-38
0.11123743 -0.14099441 0.0027741045 1.6871433e-38
0.11344003 -0.14181106 -0.00022126734 1.7239493e-38
-0.088747911 -0.14917539 -0.020286098 2.3509886e-38
-0.086641468 -0.14835359 -0.017291203 2.3509886e-38
-0.084752955 -0.14835359 -0.017291203 2.3509886e-38
-0.082864426 -0.14835359 -0.017291203 2.3509886e-38
-0.080975898 -0.14835359 -0.017291203 2.3509886e-38
-0.078831054 -0.14725454 -0.01328589 2.3509886e-38
-0.076949559 -0.14725454 -0.01328589 2.3509886e-38
-0.075068064 -0.14725454 -0.01328589 2.3509886e-38
-0.073186554 -0.14725454 -0.01328589 2.3509886e-38
-0.071305059 -0.14725454 -0.01328589 2.3509886e-38
-0.069254033 -0.1464123 -0.01021637 2.3509886e-38
-0.067377917 -0.1464123 -0.01021637 2.3509886e-38
-0.065349765 -0.14560573 -0.0072770268 2.3509886e-38
-0.063478805 -0.14560573 -0.0072770268 2.3509886e-38
-0.061607845 -0.14560573 -0.0072770268 2.3509886e-38
-0.059736878 -0.14560573 -0.0072770268 2.3509886e-38
-0.057685137 -0.14449625 -0.0032336861 2.3509886e-38
-0.055821262 -0.14449625 -0.0032336861 2.3509886e-38
-0.053957388 -0.14449625 -0.0032336861 2.3509886e-38
-0.051974673 -0.14366965 -0.00022126734 2.3509886e-38
-0.050116081 -0.14366965 -0.00022126734 2.3509886e-38
-0.048257489 -0.14366965 -0.00022126734 2.3509886e-38
-0.046398897 -0.14366965 -0.00022126734 2.3509886e-38
-0.044443145 -0.14284773 0.0027741045 2.3509886e-38
-0.042589806 -0.14284773 0.0027741045 2.3509886e-38
-0.040736467 -0.14284773 0.0027741045 2.3509886e-38
-0.038802184 -0.14203046 0.0057525486 2.3509886e-38
-0.036850981 -0.14091791 0.0098070949 2.3509886e-38
-0.035009973 -0.14091791 0.0098070949 2.3509886e-38
-0.033257827 -0.14203046 0.0057525486 2.3509886e-38
-0.031327955 -0.14091791 0.0098070949 2.3509886e-38
-0.029486947 -0.14091791 0.0098070949 2.3509886e-38
-0.02759698 -0.14011143 0.0127462 2.3509886e-38
-0.025761127 -0.14011143 0.0127462 2.3509886e-38
-0.023925271 -0.14011143 0.0127462 2.3509886e-38
-0.022089414 -0.14011143 0.0127462 2.3509886e-38
-0.020253558 -0.14011143 0.0127462 2.3509886e-38
-0.018393792 -0.13927986 0.015776739 2.3509886e-38
-0.01656325 -0.13927986 0.015776739 2.3509886e-38
-0.014719501 -0.13845308 0.018789873 2.3509886e-38
-0.012894241 -0.13845308 0.018789873 2.3509886e-38
-0.011068981 -0.13845308 0.018789873 2.3509886e-38
-0.009243723 -0.13845308 0.018789873 2.3509886e-38
-0.007426342 -0.13763104 0.021785602 2.3509886e-38
-0.0056063347 -0.13763104 0.021785602 2.3509886e-38
-0.0037863292 -0.13763104 0.021785602 2.3509886e-38
-0.0019663218 -0.13763104 0.021785602 2.3509886e-38
-0.00018423516 -0.13655205 0.02571784 2.3509886e-38
0.0016288776 -0.13655205 0.02571784 2.3509886e-38
0.0034419894 -0.13655205 0.02571784 2.3509886e-38
0.0052551022 -0.13655205 0.02571784 2.3509886e-38
0.0070172213 -0.13571201 0.028779253 2.3509886e-38
0.008824965 -0.13571201 0.028779253 2.3509886e-38
0.010573458 -0.13490568 0.031717882 2.3509886e-38
0.01237605 -0.13490568 0.031717882 2.3509886e-38
0.014178641 -0.13490568 0.031717882 2.3509886e-38
0.015904306 -0.13407536 0.034743771 2.3509886e-38
0.017701592 -0.13407536 0.034743771 2.3509886e-38
0.019498879 -0.13407536 0.034743771 2.3509886e-38
0.021296166 -0.13407536 0.034743771 2.3509886e-38
0.022995874 -0.13324992 0.037752017 2.3509886e-38
0.02468564 -0.13242932 0.040742621 2.3509886e-38
0.026472408 -0.13242932 0.040742621 2.3509886e-38
0.028259177 -0.13242932 0.040742621 2.3509886e-38
0.029928658 -0.13161351 0.043715701 2.3509886e-38
0.031710215 -0.13161351 0.043715701 2.3509886e-38
0.033491768 -0.13161351 0.043715701 2.3509886e-38
0.035273325 -0.13161351 0.043715701 2.3509886e-38
0.036912821 -0.13077454 0.04677318 2.3509886e-38
0.038689017 -0.13077454 0.04677318 2.3509886e-38
0.04046521 -0.13077454 0.04677318 2.3509886e-38
0.042084213 -0.12994061 0.049812302 2.3509886e-38
0.043855079 -0.12994061 0.049812302 2.3509886e-38
0.045464646 -0.12913923 0.05273281 2.3509886e-38
0.047230393 -0.12913923 0.05273281 2.3509886e-38
0.048819724 -0.12831511 0.055736288 2.3509886e-38
0.050580204 -0.12831511 0.055736288 2.3509886e-38
0.052340683 -0.12831511 0.055736288 2.3509886e-38
0.054101165 -0.12831511 0.055736288 2.3509886e-38
0.055861641 -0.12831511 0.055736288 2.3509886e-38
0.057622124 -0.12831511 0.055736288 2.3509886e-38
0.059175823 -0.12749584 0.058722004 2.3509886e-38
0.060931068 -0.12749584 0.058722004 2.3509886e-38
0.062686309 -0.12749584 0.058722004 2.3509886e-38
0.064441562 -0.12749584 0.058722004 2.3509886e-38
0.065962911 -0.12665437 0.061788604 2.3509886e-38
0.067482635 -0.12584494 0.064738378 2.3509886e-38
0.069227323 -0.12584494 0.064738378 2.3325494e-38
0.070972025 -0.12584494 0.064738378 2.2956712e-38
0.072716713 -0.12584494 0.064738378 2.2587929e-38
0.074461408 -0.12584494 0.064738378 2.3325492e-38
0.07620611 -0.12584494 0.064738378 2.350988e-38
0.079272412 -0.12994061 0.049812302 2.350988e-38
0.0813177 -0.13077454 0.04677318 2.3141456e-38
0.083093889 -0.13077454 0.04677318 2.3141456e-38
0.085156895 -0.13161351 0.043715701 2.3233652e-38
0.086938448 -0.13161351 0.043715701 2.2864868e-38
0.088720001 -0.13161351 0.043715701 2.2311694e-38
0.091390349 -0.13407536 0.034743771 2.2588281e-38
0.094097607 -0.13655205 0.02571784 2.0375586e-38
0.095910706 -0.13655205 0.02571784 1.9730217e-38
0.09876091 -0.13927986 0.015776739 1.8531673e-38
0.10091292 -0.14011143 0.0127462 1.7517519e-38
0.10306571 -0.14091791 0.0098070949 1.770191e-38
0.10490672 -0.14091791 0.0098070949 1.7148736e-38
0.10674772 -0.14091791 0.0098070949 1.7240932e-38
0.10904726 -0.14203046 0.0057525486 1.7056543e-38
0.11123743 -0.14284773 0.0027741045 1.6687761e-38
0.11309078 -0.14284773 0.0027741045 1.705618e-38
-0.078831054 -0.14913605 -0.01328589 2.3509886e-38
-0.076949559 -0.14913605 -0.01328589 2.3509886e-38
-0.075068064 -0.14913605 -0.01328589 2.3509886e-38
-0.073186554 -0.14913605 -0.01328589 2.3509886e-38
-0.071130149 -0.14828841 -0.01021637 2.3509886e-38
-0.069254033 -0.14828841 -0.01021637 2.3509886e-38
-0.067220725 -0.14747669 -0.0072770268 2.3509886e-38
-0.065349765 -0.14747669 -0.0072770268 2.3509886e-38
-0.063478805 -0.14747669 -0.0072770268 2.3509886e-38
-0.061607845 -0.14747669 -0.0072770268 2.3509886e-38
-0.059549011 -0.14636014 -0.0032336861 2.3509886e-38
-0.057685137 -0.14636014 -0.0032336861 2.3509886e-38
-0.055821262 -0.14636014 -0.0032336861 2.3509886e-38
-0.053957388 -0.14636014 -0.0032336861 2.3509886e-38
-0.052093513 -0.14636014 -0.0032336861 2.3509886e-38
-0.050116081 -0.14552824 -0.00022126734 2.3509886e-38
-0.048257489 -0.14552824 -0.00022126734 2.3509886e-38
-0.046398897 -0.14552824 -0.00022126734 2.3509886e-38
-0.044443145 -0.14470108 0.0027741045 2.3509886e-38
-0.042589806 -0.14470108 0.0027741045 2.3509886e-38
-0.040736467 -0.14470108 0.0027741045 2.3509886e-38
-0.038802184 -0.14387859 0.0057525486 2.3509886e-38
-0.036850981 -0.14275892 0.0098070949 2.3509886e-38
-0.035009973 -0.14275892 0.0098070949 2.3509886e-38
-0.033257827 -0.14387859 0.0057525486 2.3509886e-38
-0.031327955 -0.14275892 0.0098070949 2.3509886e-38
-0.029486947 -0.14275892 0.0098070949 2.3509886e-38
-0.02759698 -0.14194728 0.0127462 2.3509886e-38
-0.025761127 -0.14194728 0.0127462 2.3509886e-38
-0.023925271 -0.14194728 0.0127462 2.3509886e-38
-0.022054877 -0.14111041 0.015776739 2.3509886e-38
-0.020224335 -0.14111041 0.015776739 2.3509886e-38
-0.018393792 -0.14111041 0.015776739 2.3509886e-38
-0.016544759 -0.14027832 0.018789873 2.3509886e-38
-0.014719501 -0.14027832 0.018789873 2.3509886e-38
-0.012894241 -0.14027832 0.018789873 2.3509886e-38
-0.011068981 -0.14027832 0.018789873 2.3509886e-38
-0.009243723 -0.14027832 0.018789873 2.3509886e-38
-0.007426342 -0.13945107 0.021785602 2.3509886e-38
-0.0056063347 -0.13945107 0.021785602 2.3509886e-38
-0.0037863292 -0.13945107 0.021785602 2.3509886e-38
-0.0019663218 -0.13945107 0.021785602 2.3509886e-38
-0.00018423516 -0.13836516 0.02571784 2.3509886e-38
0.0016288776 -0.13836516 0.02571784 2.3509886e-38
0.0034419894 -0.13836516 0.02571784 2.3509886e-38
0.0052551022 -0.13836516 0.02571784 2.3509886e-38
0.0070172213 -0.13751976 0.028779253 2.3509886e-38
0.008824965 -0.13751976 0.028779253 2.3509886e-38
0.010573458 -0.13670824 0.031717882 2.3509886e-38
0.01237605 -0.13670824 0.031717882 2.3509886e-38
0.014107019 -0.13587265 0.034743771 2.3509886e-38
0.015904306 -0.13587265 0.034743771 2.3509886e-38
0.017701592 -0.13587265 0.034743771 2.3509886e-38
0.019498879 -0.13587265 0.034743771 2.3509886e-38
0.021296166 -0.13587265 0.034743771 2.3509886e-38
0.022995874 -0.13504194 0.037752017 2.3509886e-38
0.02468564 -0.13421609 0.040742621 2.3509886e-38
0.026472408 -0.13421609 0.040742621 2.3509886e-38
0.028259177 -0.13421609 0.040742621 2.3509886e-38
0.029928658 -0.13339506 0.043715701 2.3509886e-38
0.031710215 -0.13339506 0.043715701 2.3509886e-38
0.033491768 -0.13339506 0.043715701 2.3509886e-38
0.035136625 -0.13255073 0.04677318 2.3509886e-38
0.036912821 -0.13255073 0.04677318 2.3509886e-38
0.038689017 -0.13255073 0.04677318 2.3509886e-38
0.040313344 -0.1317115 0.049812302 2.3509886e-38
0.042084213 -0.1317115 0.049812302 2.3509886e-38
0.043698899 -0.13090499 0.05273281 2.3509886e-38
0.045464646 -0.13090499 0.05273281 2.3509886e-38
0.047059245 -0.13007559 0.055736288 2.3509886e-38
0.048819724 -0.13007559 0.055736288 2.3509886e-38
0.050580204 -0.13007559 0.055736288 2.3509886e-38
0.052340683 -0.13007559 0.055736288 2.3509886e-38
0.054101165 -0.13007559 0.055736288 2.3509886e-38
0.055861641 -0.13007559 0.055736288 2.3509886e-38
0.057622124 -0.13007559 0.055736288 2.3509886e-38
0.059175823 -0.12925108 0.058722004 2.3509886e-38
0.060931068 -0.12925108 0.058722004 2.3509886e-38
0.062686309 -0.12925108 0.058722004 2.3509886e-38
0.064441562 -0.12925108 0.058722004 2.341769e-38
0.065962911 -0.12840421 0.061788604 2.3509886e-38
0.067712784 -0.12840421 0.061788604 2.341769e-38
0.069462642 -0.12840421 0.061788604 2.3141103e-38
0.070972025 -0.12758966 0.064738378 2.2495734e-38
0.072716713 -0.12758966 0.064738378 2.1942557e-38
0.074461408 -0.12758966 0.064738378 2.2956709e-38
0.07620611 -0.12758966 0.064738378 2.3233652e-38
0.079013817 -0.13090499 0.05273281 2.3141456e-38
0.081043281 -0.1317115 0.049812302 2.2680478e-38
0.083093889 -0.13255073 0.04677318 2.2588282e-38
0.084870093 -0.13255073 0.04677318 2.2772674e-38
0.086938448 -0.13339506 0.043715701 2.2496085e-38
0.088720001 -0.13339506 0.043715701 2.1850716e-38
0.091390349 -0.13587265 0.034743771 2.2035107e-38
0.094494037 -0.13945107 0.021785602 2.0006803e-38
0.096314035 -0.13945107 0.021785602 1.945363e-38
0.09844657 -0.14027832 0.018789873 1.8347282e-38
0.10091292 -0.14194728 0.0127462 1.7333127e-38
0.10306571 -0.14275892 0.0098070949 1.7609714e-38
0.10490672 -0.14275892 0.0098070949 1.7333127e-38
0.10674772 -0.14275892 0.0098070949 1.7609714e-38
0.10904726 -0.14387859 0.0057525486 1.6595565e-38
0.11123743 -0.14470108 0.0027741045 1.6503367e-38
0.11309078 -0.14470108 0.0027741045 1.6872149e-38
-0.067220725 -0.14934768 -0.0072770268 2.3509886e-38
-0.065349765 -0.14934768 -0.0072770268 2.3509886e-38
-0.063478805 -0.14934768 -0.0072770268 2.3509886e-38
-0.061412886 -0.14822401 -0.0032336861 2.3509886e-38
-0.059549011 -0.14822401 -0.0032336861 2.3509886e-38
-0.057685137 -0.14822401 -0.0032336861 2.3509886e-38
-0.055821262 -0.14822401 -0.0032336861 2.3509886e-38
-0.053957388 -0.14822401 -0.0032336861 2.3509886e-38
-0.052093513 -0.14822401 -0.0032336861 2.3509886e-38
-0.050116081 -0.14738683 -0.00022126734 2.3509886e-38
-0.048257489 -0.14738683 -0.00022126734 2.3509886e-38
-0.046398897 -0.14738683 -0.00022126734 2.3509886e-38
-0.044443145 -0.14655443 0.0027741045 2.3509886e-38
-0.042589806 -0.14655443 0.0027741045 2.3509886e-38
-0.040736467 -0.14655443 0.0027741045 2.3509886e-38
-0.038802184 -0.1457267 0.0057525486 2.3509886e-38
-0.036850981 -0.14459993 0.0098070949 2.3509886e-38
-0.035009973 -0.14459993 0.0098070949 2.3509886e-38
-0.033257827 -0.1457267 0.0057525486 2.3509886e-38
-0.031327955 -0.14459993 0.0098070949 2.3509886e-38
-0.029486947 -0.14459993 0.0098070949 2.3509886e-38
-0.02759698 -0.14378314 0.0127462 2.3509886e-38
-0.025761127 -0.14378314 0.0127462 2.3509886e-38
-0.023925271 -0.14378314 0.0127462 2.3509886e-38
-0.022054877 -0.14294095 0.015776739 2.3509886e-38
-0.020224335 -0.14294095 0.015776739 2.3509886e-38
-0.018393792 -0.14294095 0.015776739 2.3509886e-38
-0.016544759 -0.1421036 0.018789873 2.3509886e-38
-0.014719501 -0.1421036 0.018789873 2.3509886e-38
-0.012894241 -0.1421036 0.018789873 2.3509886e-38
-0.011066355 -0.14127107 0.021785602 2.3509886e-38
-0.0092463493 -0.14127107 0.021785602 2.3509886e-38
-0.007426342 -0.14127107 0.021785602 2.3509886e-38
-0.0056063347 -0.14127107 0.021785602 2.3509886e-38
-0.0037863292 -0.14127107 0.021785602 2.3509886e-38
-0.0019663218 -0.14127107 0.021785602 2.3509886e-38
-0.00018423516 -0.14017828 0.02571784 2.3509886e-38
0.0016288776 -0.14017828 0.02571784 2.3509886e-38
0.0034419894 -0.14017828 0.02571784 2.3509886e-38
0.0052551022 -0.14017828 0.02571784 2.3509886e-38
0.0070172213 -0.13932751 0.028779253 2.3509886e-38
0.0087708663 -0.13851084 0.031717882 2.3509886e-38
0.010573458 -0.13851084 0.031717882 2.3509886e-38
0.012309732 -0.13766994 0.034743771 2.3509886e-38
0.014107019 -0.13766994 0.034743771 2.3509886e-38
0.015904306 -0.13766994 0.034743771 2.3509886e-38
0.017701592 -0.13766994 0.034743771 2.3509886e-38
0.019498879 -0.13766994 0.034743771 2.3509886e-38
0.021203864 -0.13683395 0.037752017 2.3509886e-38
0.022995874 -0.13683395 0.037752017 2.3509886e-38
0.02468564 -0.13600285 0.040742621 2.3509886e-38
0.026472408 -0.13600285 0.040742621 2.3509886e-38
0.028147101 -0.13517661 0.043715701 2.3509886e-38
0.029928658 -0.13517661 0.043715701 2.3509886e-38
0.031710215 -0.13517661 0.043715701 2.3509886e-38
0.033491768 -0.13517661 0.043715701 2.3509886e-38
0.035136625 -0.13432692 0.04677318 2.3509886e-38
0.036912821 -0.13432692 0.04677318 2.3509886e-38
0.038689017 -0.13432692 0.04677318 2.3509886e-38
0.040313344 -0.13348235 0.049812302 2.3509886e-38
0.042084213 -0.13348235 0.049812302 2.3509886e-38
0.043698899 -0.13267075 0.05273281 2.3509886e-38
0.045464646 -0.13267075 0.05273281 2.3509886e-38
0.047059245 -0.13183604 0.055736288 2.3509886e-38
0.048819724 -0.13183604 0.055736288 2.3509886e-38
0.050580204 -0.13183604 0.055736288 2.3509886e-38
0.052340683 -0.13183604 0.055736288 2.3509886e-38
0.054101165 -0.13183604 0.055736288 2.3509886e-38
0.055861641 -0.13183604 0.055736288 2.3509886e-38
0.057622124 -0.13183604 0.055736288 2.3509886e-38
0.059175823 -0.13100632 0.058722004 2.3509886e-38
0.060931068 -0.13100632 0.058722004 2.3509886e-38
0.062686309 -0.13100632 0.058722004 2.3509886e-38
0.064441562 -0.13100632 0.058722004 2.341769e-38
0.065962911 -0.13015409 0.061788604 2.3509886e-38
0.067712784 -0.13015409 0.061788604 2.341769e-38
0.069462642 -0.13015409 0.061788604 2.2956712e-38
0.071212515 -0.13015409 0.061788604 2.2034756e-38
0.072962381 -0.13015409 0.061788604 2.1389383e-38
0.074712254 -0.13015409 0.061788604 2.2403535e-38
0.076462127 -0.13015409 0.061788604 2.2772674e-38
0.078747876 -0.13183604 0.055736288 2.2588282e-38
0.08077956 -0.13267075 0.05273281 2.2035109e-38
0.08281415 -0.13348235 0.049812302 2.2035109e-38
0.084870093 -0.13432692 0.04677318 2.2496087e-38
0.086938448 -0.13517661 0.043715701 2.2311694e-38
0.088720001 -0.13517661 0.043715701 2.1666325e-38
0.091390349 -0.13766994 0.034743771 2.1389738e-38
0.094097607 -0.14017828 0.02571784 1.945363e-38
0.095910706 -0.14017828 0.02571784 1.917704e-38
0.09844657 -0.1421036 0.018789873 1.7886301e-38
0.10091292 -0.14378314 0.0127462 1.6779954e-38
0.10306571 -0.14459993 0.0098070949 1.6964345e-38
0.10490672 -0.14459993 0.0098070949 1.6872149e-38
0.10674772 -0.14459993 0.0098070949 1.7333127e-38
0.1093841 -0.14655443 0.0027741045 1.6504088e-38
0.11123743 -0.14655443 0.0027741045 1.641189e-38
0.11379126 -0.14822401 -0.0032336861 1.6780672e-38
-0.051974673 -0.14924543 -0.00022126734 2.3509886e-38
-0.050116081 -0.14924543 -0.00022126734 2.3509886e-38
-0.048257489 -0.14924543 -0.00022126734 2.3509886e-38
-0.046398897 -0.14924543 -0.00022126734 2.3509527e-38
-0.044443145 -0.14840777 0.0027741045 2.3509886e-38
-0.042589806 -0.14840777 0.0027741045 2.3509527e-38
-0.040736467 -0.14840777 0.0027741045 2.3509886e-38
-0.038802184 -0.14757483 0.0057525486 2.3509886e-38
-0.036954064 -0.14757483 0.0057525486 2.3509886e-38
-0.035105944 -0.14757483 0.0057525486 2.3509886e-38
-0.033257827 -0.14757483 0.0057525486 2.3509886e-38
-0.031327955 -0.14644094 0.0098070949 2.3509886e-38
-0.029486947 -0.14644094 0.0098070949 2.3509886e-38
-0.02759698 -0.14561899 0.0127462 2.3509886e-38
-0.025761127 -0.14561899 0.0127462 2.3509886e-38
-0.023925271 -0.14561899 0.0127462 2.3509886e-38
-0.022054877 -0.1447715 0.015776739 2.3509886e-38
-0.020224335 -0.1447715 0.015776739 2.3509886e-38
-0.018393792 -0.1447715 0.015776739 2.3509886e-38
-0.016544759 -0.14392884 0.018789873 2.3509886e-38
-0.014719501 -0.14392884 0.018789873 2.3509886e-38
-0.012894241 -0.14392884 0.018789873 2.3509886e-38
-0.011066355 -0.14309107 0.021785602 2.3509886e-38
-0.0092463493 -0.14309107 0.021785602 2.3509886e-38
-0.007426342 -0.14309107 0.021785602 2.3509886e-38
-0.0056063347 -0.14309107 0.021785602 2.3509886e-38
-0.0037863292 -0.14309107 0.021785602 2.3509886e-38
-0.0019663218 -0.14309107 0.021785602 2.3509886e-38
-0.00018423516 -0.14199139 0.02571784 2.3509886e-38
0.0016288776 -0.14199139 0.02571784 2.3509886e-38
0.0034419894 -0.14199139 0.02571784 2.3509886e-38
0.0052551022 -0.14199139 0.02571784 2.3509886e-38
0.0070172213 -0.14113526 0.028779253 2.3509886e-38
0.0087708663 -0.14031343 0.031717882 2.3509886e-38
0.010573458 -0.14031343 0.031717882 2.3509886e-38
0.012309732 -0.13946722 0.034743771 2.3509886e-38
0.014107019 -0.13946722 0.034743771 2.3509886e-38
0.015904306 -0.13946722 0.034743771 2.3509886e-38
0.017701592 -0.13946722 0.034743771 2.3509886e-38
0.019411851 -0.13862596 0.037752017 2.3509886e-38
0.021203864 -0.13862596 0.037752017 2.3509886e-38
0.022898871 -0.13778962 0.040742621 2.3509886e-38
0.02468564 -0.13778962 0.040742621 2.3509886e-38
0.026365545 -0.13695817 0.043715701 2.3509886e-38
0.028147101 -0.13695817 0.043715701 2.3509886e-38
0.029928658 -0.13695817 0.043715701 2.3509886e-38
0.031710215 -0.13695817 0.043715701 2.3509886e-38
0.033491768 -0.13695817 0.043715701 2.3509886e-38
0.035136625 -0.13610314 0.04677318 2.3509886e-38
0.036912821 -0.13610314 0.04677318 2.3509886e-38
0.038689017 -0.13610314 0.04677318 2.3509886e-38
0.04046521 -0.13610314 0.04677318 2.3509886e-38
0.042084213 -0.13525321 0.049812302 2.3509886e-38
0.043698899 -0.13443647 0.05273281 2.3509886e-38
0.045464646 -0.13443647 0.05273281 2.3509886e-38
0.047059245 -0.13359652 0.055736288 2.3509886e-38
0.048819724 -0.13359652 0.055736288 2.3509886e-38
0.050580204 -0.13359652 0.055736288 2.3509886e-38
0.052340683 -0.13359652 0.055736288 2.3509886e-38
0.054101165 -0.13359652 0.055736288 2.3509886e-38
0.055861641 -0.13359652 0.055736288 2.3509886e-38
0.057622124 -0.13359652 0.055736288 2.3509527e-38
0.059382606 -0.13359652 0.055736288 2.3509886e-38
0.061143082 -0.13359652 0.055736288 2.3509527e-38
0.062686309 -0.13276155 0.058722004 2.341769e-38
0.064441562 -0.13276155 0.058722004 2.341769e-38
0.066196799 -0.13276155 0.058722004 2.3509886e-38
0.067712784 -0.13190396 0.061788604 2.341769e-38
0.069462642 -0.13190396 0.061788604 2.2772321e-38
0.071212515 -0.13190396 0.061788604 2.1666692e-38
0.072962381 -0.13190396 0.061788604 2.0929127e-38
0.074712254 -0.13190396 0.061788604 2.1942557e-38
0.076462127 -0.13190396 0.061788604 2.2311696e-38
0.078747876 -0.13359652 0.055736288 2.22195e-38
0.080508359 -0.13359652 0.055736288 2.1666325e-38
0.082545318 -0.13443647 0.05273281 2.175852e-38
0.084870093 -0.13610314 0.04677318 2.2311691e-38
0.086938448 -0.13695817 0.043715701 2.2311691e-38
0.088720001 -0.13695817 0.043715701 2.1666322e-38
0.091690101 -0.14031343 0.031717882 2.1020955e-38
0.094097607 -0.14199139 0.02571784 1.9177043e-38
0.095910706 -0.14199139 0.02571784 1.8900453e-38
0.09844657 -0.14392884 0.018789873 1.7517519e-38
0.10091292 -0.14561899 0.0127462 1.6042389e-38
0.10306571 -0.14644094 0.0098070949 1.613494e-38
0.10490672 -0.14644094 0.0098070949 1.613494e-38
0.10753075 -0.14840777 0.0027741045 1.6688114e-38
0.1093841 -0.14840777 0.0027741045 1.6780672e-38
0.11123743 -0.14840777 0.0027741045 1.6688477e-38
0.11344003 -0.14924543 -0.00022126734 1.6780672e-38
-0.036954064 -0.14942293 0.0057525486 2.341805e-38
-0.035105944 -0.14942293 0.0057525486 2.341805e-38
-0.033257827 -0.14942293 0.0057525486 2.341805e-38
-0.031327955 -0.14828195 0.0098070949 2.341805e-38
-0.029486947 -0.14828195 0.0098070949 2.341805e-38
-0.02759698 -0.14745484 0.0127462 2.341805e-38
-0.025761127 -0.14745484 0.0127462 2.341805e-38
-0.023885421 -0.14660202 0.015776739 2.3418047e-38
-0.022054877 -0.14660202 0.015776739 2.3418047e-38
-0.020224335 -0.14660202 0.015776739 2.3418047e-38
-0.018393792 -0.14660202 0.015776739 2.3418047e-38
-0.016544759 -0.14575411 0.018789873 2.3418047e-38
-0.014719501 -0.14575411 0.018789873 2.3418047e-38
-0.012894241 -0.14575411 0.018789873 2.3418047e-38
-0.011066355 -0.14491107 0.021785602 2.341805e-38
-0.0092463493 -0.14491107 0.021785602 2.3509886e-38
-0.007426342 -0.14491107 0.021785602 2.3509886e-38
-0.0056063347 -0.14491107 0.021785602 2.3509527e-38
-0.0037863292 -0.14491107 0.021785602 2.3509886e-38
-0.0019663218 -0.14491107 0.021785602 2.3509527e-38
-0.00018423516 -0.14380451 0.02571784 2.3509886e-38
0.0016288776 -0.14380451 0.02571784 2.3509886e-38
0.0034017321 -0.14294298 0.028779253 2.3509886e-38
0.0052094767 -0.14294298 0.028779253 2.3509886e-38
0.0070172213 -0.14294298 0.028779253 2.3509886e-38
0.0087708663 -0.14211603 0.031717882 2.3509886e-38
0.010573458 -0.14211603 0.031717882 2.3509886e-38
0.012309732 -0.14126451 0.034743771 2.3509886e-38
0.014107019 -0.14126451 0.034743771 2.3509886e-38
0.015904306 -0.14126451 0.034743771 2.3509886e-38
0.017701592 -0.14126451 0.034743771 2.3509886e-38
0.019411851 -0.14041798 0.037752017 2.3509886e-38
0.021203864 -0.14041798 0.037752017 2.3509886e-38
0.022898871 -0.13957639 0.040742621 2.3509886e-38
0.02468564 -0.13957639 0.040742621 2.3509886e-38
0.026365545 -0.13873972 0.043715701 2.3509886e-38
0.028147101 -0.13873972 0.043715701 2.3509886e-38
0.029928658 -0.13873972 0.043715701 2.3509886e-38
0.031710215 -0.13873972 0.043715701 2.3509886e-38
0.033491768 -0.13873972 0.043715701 2.3509886e-38
0.035136625 -0.13787933 0.04677318 2.3509886e-38
0.036912821 -0.13787933 0.04677318 2.3509886e-38
0.038689017 -0.13787933 0.04677318 2.3509886e-38
0.04046521 -0.13787933 0.04677318 2.3509886e-38
0.042084213 -0.13702409 0.049812302 2.3509886e-38
0.043698899 -0.13620223 0.05273281 2.3509886e-38
0.045464646 -0.13620223 0.05273281 2.3509886e-38
0.047059245 -0.13535701 0.055736288 2.3509886e-38
0.048819724 -0.13535701 0.055736288 2.3509886e-38
0.050580204 -0.13535701 0.055736288 2.3509527e-38
0.052340683 -0.13535701 0.055736288 2.3509527e-38
0.054101165 -0.13535701 0.055736288 2.3509527e-38
0.055861641 -0.13535701 0.055736288 2.3509527e-38
0.057622124 -0.13535701 0.055736288 2.3509527e-38
0.059382606 -0.13535701 0.055736288 2.3509527e-38
0.061143082 -0.13535701 0.055736288 2.3509527e-38
0.062686309 -0.13451682 0.058722004 2.3509527e-38
0.064441562 -0.13451682 0.058722004 2.3509886e-38
0.066196799 -0.13451682 0.058722004 2.3325494e-38
0.067952052 -0.13451682 0.058722004 2.341805e-38
0.069462642 -0.13365383 0.061788604 2.3049626e-38
0.071212515 -0.13365383 0.061788604 2.0745456e-38
0.072962381 -0.13365383 0.061788604 2.0561065e-38
0.074712254 -0.13365383 0.061788604 2.0191559e-38
0.076462127 -0.13365383 0.061788604 2.1481935e-38
0.078747876 -0.13535701 0.055736288 2.1574129e-38
0.080508359 -0.13535701 0.055736288 2.2312047e-38
0.082545318 -0.13620223 0.05273281 2.2312044e-38
0.084870093 -0.13787933 0.04677318 2.1666675e-38
0.086938448 -0.13873972 0.043715701 2.1758871e-38
0.088720001 -0.13873972 0.043715701 2.0836917e-38
0.092284493 -0.14380451 0.02571784 2.0467779e-38
0.094097607 -0.14380451 0.02571784 1.9545822e-38
0.096314035 -0.14491107 0.021785602 1.8531673e-38
0.09844657 -0.14575411 0.018789873 1.6964345e-38
0.10091292 -0.14745484 0.0127462 1.5673962e-38
0.10306571 -0.14828195 0.0098070949 1.5950546e-38
0.10490672 -0.14828195 0.0098070949 1.6595914e-38
0.10719914 -0.14942293 0.0057525486 1.6227132e-38
-0.02759698 -0.14929073 0.0127462 2.341805e-38
-0.025761127 -0.14929073 0.0127462 2.341805e-38
-0.023885421 -0.14843257 0.015776739 2.3418047e-38
-0.022054877 -0.14843257 0.015776739 2.3418047e-38
-0.020224335 -0.14843257 0.015776739 2.3418047e-38
-0.018393792 -0.14843257 0.015776739 2.3418047e-38
-0.016544759 -0.14757936 0.018789873 2.3418047e-38
-0.014719501 -0.14757936 0.018789873 2.3418047e-38
-0.012894241 -0.14757936 0.018789873 2.3418047e-38
-0.011066355 -0.14673109 0.021785602 2.341805e-38
-0.0092463493 -0.14673109 0.021785602 2.3509886e-38
-0.007426342 -0.14673109 0.021785602 2.3509527e-38
-0.0056063347 -0.14673109 0.021785602 2.3509527e-38
-0.0037863292 -0.14673109 0.021785602 2.3509527e-38
-0.0019663218 -0.14673109 0.021785602 2.3509527e-38
-0.00018423516 -0.14561762 0.02571784 2.3509527e-38
0.0016288776 -0.14561762 0.02571784 2.3509886e-38
0.0034017321 -0.14475073 0.028779253 2.3509886e-38
0.0052094767 -0.14475073 0.028779253 2.3509886e-38
0.0070172213 -0.14475073 0.028779253 2.3509886e-38
0.0087708663 -0.14391862 0.031717882 2.3509886e-38
0.010573458 -0.14391862 0.031717882 2.3509886e-38
0.012309732 -0.1430618 0.034743771 2.3509886e-38
0.014107019 -0.1430618 0.034743771 2.3509886e-38
0.015904306 -0.1430618 0.034743771 2.3509886e-38
0.017619839 -0.14220999 0.037752017 2.3509886e-38
0.019411851 -0.14220999 0.037752017 2.3509886e-38
0.021203864 -0.14220999 0.037752017 2.3509886e-38
0.022898871 -0.14136316 0.040742621 2.3509886e-38
0.02468564 -0.14136316 0.040742621 2.3509886e-38
0.026365545 -0.14052127 0.043715701 2.3509886e-38
0.028147101 -0.14052127 0.043715701 2.3509886e-38
0.029928658 -0.14052127 0.043715701 2.3509886e-38
0.031710215 -0.14052127 0.043715701 2.3509886e-38
0.033491768 -0.14052127 0.043715701 2.3509886e-38
0.035136625 -0.13965552 0.04677318 2.3509886e-38
0.036912821 -0.13965552 0.04677318 2.3509886e-38
0.038689017 -0.13965552 0.04677318 2.3509886e-38
0.04046521 -0.13965552 0.04677318 2.3509886e-38
0.042084213 -0.13879494 0.049812302 2.3509886e-38
0.043698899 -0.13796796 0.05273281 2.3509886e-38
0.045464646 -0.13796796 0.05273281 2.3509886e-38
0.047230393 -0.13796796 0.05273281 2.3509886e-38
0.048819724 -0.13711749 0.055736288 2.3509886e-38
0.050580204 -0.13711749 0.055736288 2.3509527e-38
0.052340683 -0.13711749 0.055736288 2.3509527e-38
0.054101165 -0.13711749 0.055736288 2.3509527e-38
0.055861641 -0.13711749 0.055736288 2.3509527e-38
0.057622124 -0.13711749 0.055736288 2.3509527e-38
0.059382606 -0.13711749 0.055736288 2.3509527e-38
0.061143082 -0.13711749 0.055736288 2.3509527e-38
0.062686309 -0.13627206 0.058722004 2.3509527e-38
0.064441562 -0.13627206 0.058722004 2.3509527e-38
0.066196799 -0.13627206 0.058722004 2.341769e-38
0.067952052 -0.13627206 0.058722004 2.341805e-38
0.069462642 -0.13540371 0.061788604 2.3142542e-38
0.071212515 -0.13540371 0.061788604 2.083837e-38
0.072962381 -0.13540371 0.061788604 2.065326e-38
0.074712254 -0.13540371 0.061788604 2.0744733e-38
0.076728277 -0.13627206 0.058722004 2.1666326e-38
0.078483514 -0.13627206 0.058722004 2.1297539e-38
0.080508359 -0.13711749 0.055736288 2.1482284e-38
0.082545318 -0.13796796 0.05273281 2.1297891e-38
0.084870093 -0.13965552 0.04677318 2.0837269e-38
0.086646281 -0.13965552 0.04677318 2.1205696e-38
0.088720001 -0.14052127 0.043715701 2.0468132e-38
0.092284493 -0.14561762 0.02571784 2.0836561e-38
0.094097607 -0.14561762 0.02571784 1.8531671e-38
0.096314035 -0.14673109 0.021785602 1.6964348e-38
0.09844657 -0.14757936 0.018789873 1.6503367e-38
0.10091292 -0.14929073 0.0127462 1.6042744e-38
-0.022020537 -0.14940463 0.018789873 2.341805e-38
-0.020195279 -0.14940463 0.018789873 2.341805e-38
-0.018370017 -0.14940463 0.018789873 2.341805e-38
-0.016544759 -0.14940463 0.018789873 2.3418047e-38
-0.014719501 -0.14940463 0.018789873 2.3418047e-38
-0.012894241 -0.14940463 0.018789873 2.3418047e-38
-0.011066355 -0.14855109 0.021785602 2.341805e-38
-0.0092463493 -0.14855109 0.021785602 2.3509886e-38
-0.007426342 -0.14855109 0.021785602 2.3509886e-38
-0.0056063347 -0.14855109 0.021785602 2.3509886e-38
-0.0037863292 -0.14855109 0.021785602 2.3509886e-38
-0.0019663218 -0.14855109 0.021785602 2.3509886e-38
-0.00018423516 -0.14743073 0.02571784 2.3509886e-38
0.0015939875 -0.14655848 0.028779253 2.3509886e-38
0.0034017321 -0.14655848 0.028779253 2.3509886e-38
0.0052094767 -0.14655848 0.028779253 2.3509886e-38
0.0069682728 -0.14572121 0.031717882 2.3509886e-38
0.0087708663 -0.14572121 0.031717882 2.3509886e-38
0.010573458 -0.14572121 0.031717882 2.3509886e-38
0.012309732 -0.14485909 0.034743771 2.3509886e-38
0.014107019 -0.14485909 0.034743771 2.3509886e-38
0.015827825 -0.14400201 0.037752017 2.3509886e-38
0.017619839 -0.14400201 0.037752017 2.3509886e-38
0.019325333 -0.14314993 0.040742621 2.3509886e-38
0.021112103 -0.14314993 0.040742621 2.3509886e-38
0.022898871 -0.14314993 0.040742621 2.3509886e-38
0.02468564 -0.14314993 0.040742621 2.3509886e-38
0.026365545 -0.14230286 0.043715701 2.3509886e-38
0.028147101 -0.14230286 0.043715701 2.3509886e-38
0.029928658 -0.14230286 0.043715701 2.3509886e-38
0.031710215 -0.14230286 0.043715701 2.3509886e-38
0.033491768 -0.14230286 0.043715701 2.3509886e-38
0.035136625 -0.1414317 0.04677318 2.3509886e-38
0.036912821 -0.1414317 0.04677318 2.3509886e-38
0.038689017 -0.1414317 0.04677318 2.3509886e-38
0.04046521 -0.1414317 0.04677318 2.3509886e-38
0.042241406 -0.1414317 0.04677318 2.3509886e-38
0.043855079 -0.14056583 0.049812302 2.3509886e-38
0.045464646 -0.13973372 0.05273281 2.3509886e-38
0.047230393 -0.13973372 0.05273281 2.3509886e-38
0.048996139 -0.13973372 0.05273281 2.3509886e-38
0.050580204 -0.13887797 0.055736288 2.3509527e-38
0.052340683 -0.13887797 0.055736288 2.3509527e-38
0.054101165 -0.13887797 0.055736288 2.3509527e-38
0.055861641 -0.13887797 0.055736288 2.3509527e-38
0.057420578 -0.1380273 0.058722004 2.3509527e-38
0.059175823 -0.1380273 0.058722004 2.3509527e-38
0.060931068 -0.1380273 0.058722004 2.3509527e-38
0.062686309 -0.1380273 0.058722004 2.3416971e-38
0.064441562 -0.1380273 0.058722004 2.3509527e-38
0.066196799 -0.1380273 0.058722004 2.3325494e-38
0.067952052 -0.1380273 0.058722004 2.341805e-38
0.069707289 -0.1380273 0.058722004 2.3234379e-38
0.071212515 -0.13715358 0.061788604 2.083837e-38
0.072962381 -0.13715358 0.061788604 2.0468869e-38
0.074712254 -0.13715358 0.061788604 2.1205714e-38
0.076728277 -0.1380273 0.058722004 2.1942557e-38
0.078483514 -0.1380273 0.058722004 2.1389738e-38
0.080508359 -0.13887797 0.055736288 2.1482287e-38
0.082545318 -0.13973372 0.05273281 2.1297893e-38
0.084585004 -0.14056583 0.049812302 2.0836913e-38
0.086646281 -0.1414317 0.04677318 2.1205697e-38
0.088720001 -0.14230286 0.043715701 2.0375936e-38
0.091390349 -0.14485909 0.034743771 2.065217e-38
0.094097607 -0.14743073 0.02571784 1.7886304e-38
0.095910706 -0.14743073 0.02571784 1.6503371e-38
0.09844657 -0.14940463 0.018789873 1.6872152e-38
-0.001997347 -0.14924385 0.02571784 2.3509886e-38
-0.00021375716 -0.14836623 0.028779253 2.3509886e-38
0.0015939875 -0.14836623 0.028779253 2.3509886e-38
0.0033630887 -0.14752381 0.031717882 2.3509886e-38
0.0051656812 -0.14752381 0.031717882 2.3509886e-38
0.0069682728 -0.14752381 0.031717882 2.3509886e-38
0.0087708663 -0.14752381 0.031717882 2.3509886e-38
0.010512445 -0.14665638 0.034743771 2.3509886e-38
0.012309732 -0.14665638 0.034743771 2.3509886e-38
0.014035814 -0.14579402 0.037752017 2.3509886e-38
0.015827825 -0.14579402 0.037752017 2.3509886e-38
0.017619839 -0.14579402 0.037752017 2.3509886e-38
0.019325333 -0.1449367 0.040742621 2.3509886e-38
0.021112103 -0.1449367 0.040742621 2.3509886e-38
0.022898871 -0.1449367 0.040742621 2.3509886e-38
0.02468564 -0.1449367 0.040742621 2.3509886e-38
0.026365545 -0.14408441 0.043715701 2.3509886e-38
0.028147101 -0.14408441 0.043715701 2.3509886e-38
0.029928658 -0.14408441 0.043715701 2.3509886e-38
0.031710215 -0.14408441 0.043715701 2.3509886e-38
0.033491768 -0.14408441 0.043715701 2.3509886e-38
0.035136625 -0.14320792 0.04677318 2.3509886e-38
0.036912821 -0.14320792 0.04677318 2.3509886e-38
0.038689017 -0.14320792 0.04677318 2.3509886e-38
0.04046521 -0.14320792 0.04677318 2.3509886e-38
0.042241406 -0.14320792 0.04677318 2.3509886e-38
0.043855079 -0.14233668 0.049812302 2.3509886e-38
0.045464646 -0.14149947 0.05273281 2.3509886e-38
0.047230393 -0.14149947 0.05273281 2.3509886e-38
0.048996139 -0.14149947 0.05273281 2.3509886e-38
0.050580204 -0.14063846 0.055736288 2.3509527e-38
0.052340683 -0.14063846 0.055736288 2.3509527e-38
0.054101165 -0.14063846 0.055736288 2.3509527e-38
0.055861641 -0.14063846 0.055736288 2.3509527e-38
0.057420578 -0.13978253 0.058722004 2.3509527e-38
0.059175823 -0.13978253 0.058722004 2.3509527e-38
0.060931068 -0.13978253 0.058722004 2.3509527e-38
0.062686309 -0.13978253 0.058722004 2.323258e-38
