# .PCD v0.7 - Point Cloud Data file format
VERSION 0.7
FIELDS x y z rgb
SIZE 4 4 4 4
TYPE F F F F
COUNT 1 1 1 1
WIDTH 942
HEIGHT 1
VIEWPOINT 0 0 0 1 0 0 0
POINTS 942
DATA ascii
0.10213346 -0.13890938 -0.099577121 1.3097891e-38
0.10414126 -0.13890938 -0.099577121 1.1438724e-38
0.10657731 -0.13988586 -0.1034854 1.0516402e-38
0.10859195 -0.13988586 -0.1034854 2.0329618e-39
0.1110665 -0.14090194 -0.1075521 1.8449832e-39
-0.073338531 -0.11548282 0.0015119985 2.3233662e-38
-0.071507998 -0.11548282 0.0015119985 2.304927e-38
-0.069387726 -0.11397095 0.0075208619 2.3141466e-38
-0.067567714 -0.11397095 0.0075208619 2.341805e-38
-0.065571897 -0.1129816 0.0114531 2.3418043e-38
-0.063758783 -0.1129816 0.0114531 2.2681196e-38
-0.061945677 -0.1129816 0.0114531 2.3418047e-38
-0.062338293 -0.12704925 -0.044458918 2.3418047e-38
-0.060316589 -0.12631132 -0.041526012 2.3509883e-38
-0.058410585 -0.12631132 -0.041526012 2.3509886e-38
-0.056400862 -0.12554805 -0.038492374 2.3232944e-38
-0.053396206 -0.1169848 -0.0044576451 2.3232944e-38
-0.051555198 -0.1169848 -0.0044576451 2.3509527e-38
-0.050004311 -0.11950795 -0.014486007 2.3509527e-38
-0.048145719 -0.11950795 -0.014486007 2.3509527e-38
-0.046363711 -0.12026589 -0.017498426 2.3509886e-38
-0.044499837 -0.12026589 -0.017498426 2.3509886e-38
-0.042635962 -0.12026589 -0.017498426 2.3509886e-38
-0.040772088 -0.12026589 -0.017498426 2.3509886e-38
-0.038908213 -0.12026589 -0.017498426 2.3509886e-38
-0.037044339 -0.12026589 -0.017498426 2.3509886e-38
-0.035180464 -0.12026589 -0.017498426 2.3509886e-38
-0.033316594 -0.12026589 -0.017498426 2.3509527e-38
-0.031452719 -0.12026589 -0.017498426 2.3509886e-38
-0.029559795 -0.11950795 -0.014486007 2.3509886e-38
-0.02765407 -0.11800493 -0.0085121915 2.3509886e-38
-0.025781071 -0.1169848 -0.0044576451 2.3509886e-38
-0.023900688 -0.11472471 0.0045251325 2.3509886e-38
-0.022057207 -0.1129816 0.0114531 2.3509886e-38
-0.020241411 -0.11221133 0.014514513 2.3509527e-38
-0.018436242 -0.11147197 0.017453142 2.3509527e-38
-0.016641609 -0.11071064 0.020479031 2.3509527e-38
-0.014844322 -0.11071064 0.020479031 2.3509527e-38
-0.013047036 -0.11071064 0.020479031 2.3509527e-38
-0.011202689 -0.11221133 0.014514513 2.3509527e-38
-0.0093949446 -0.11221133 0.014514513 2.3509527e-38
-0.0075872 -0.11221133 0.014514513 2.3509527e-38
-0.0057391981 -0.1129816 0.0114531 2.3509527e-38
-0.0038674816 -0.11397095 0.0075208619 2.3509527e-38
-0.0019975759 -0.11472471 0.0045251325 2.3509527e-38
-6.1052619e-05 -0.11624531 -0.0015185401 2.3509886e-38
0.001834064 -0.1169848 -0.0044576451 2.3509886e-38
0.0036750745 -0.1169848 -0.0044576451 2.3509886e-38
0.0056825532 -0.11875431 -0.011490636 2.3509886e-38
0.0076886313 -0.12026589 -0.017498426 2.341805e-38
0.0095525058 -0.12026589 -0.017498426 2.341805e-38
0.011533353 -0.12128322 -0.021541767 2.3509886e-38
0.013404316 -0.12128322 -0.021541767 2.3509886e-38
0.015600107 -0.12380283 -0.031555943 2.3509886e-38
0.017488629 -0.12380283 -0.031555943 2.3509886e-38
0.01937715 -0.12380283 -0.031555943 2.3509886e-38
0.021378569 -0.12455635 -0.034550838 2.3509886e-38
0.023272343 -0.12455635 -0.034550838 2.3509886e-38
0.025166113 -0.12455635 -0.034550838 2.3509886e-38
0.027059887 -0.12455635 -0.034550838 2.3509886e-38
0.02895366 -0.12455635 -0.034550838 2.3509886e-38
0.031494316 -0.12805928 -0.048473291 2.3509886e-38
0.033943459 -0.13082992 -0.059485249 2.3509886e-38
0.036032397 -0.13159247 -0.062516026 2.3509886e-38
0.038183454 -0.13260551 -0.06654232 2.3509886e-38
0.04013332 -0.13260551 -0.06654232 2.3509886e-38
0.042083181 -0.13260551 -0.06654232 2.341805e-38
0.041238364 -0.12026589 -0.017498426 2.3234379e-38
0.043102238 -0.12026589 -0.017498426 2.3142544e-38
0.044966113 -0.12026589 -0.017498426 2.3234379e-38
0.046829987 -0.12026589 -0.017498426 2.3234376e-38
0.048693862 -0.12026589 -0.017498426 2.3418047e-38
0.050557729 -0.12026589 -0.017498426 2.3418047e-38
0.052694548 -0.12128322 -0.021541767 2.350988e-38
0.05476908 -0.12202276 -0.02448111 2.350988e-38
0.056436468 -0.12128322 -0.021541767 2.350988e-38
0.058307435 -0.12128322 -0.021541767 2.350988e-38
0.061667558 -0.12631132 -0.041526012 2.3509879e-38
0.063573554 -0.12631132 -0.041526012 2.3417323e-38
0.065708391 -0.12704925 -0.044458918 2.350988e-38
0.067939796 -0.12805928 -0.048473291 2.350988e-38
0.070109881 -0.12883668 -0.051563077 2.2126585e-38
0.072362192 -0.12982969 -0.055509858 2.0281948e-38
0.074292712 -0.12982969 -0.055509858 2.0280858e-38
0.076568253 -0.13082992 -0.059485249 1.8990472e-38
0.078774102 -0.13159247 -0.062516026 1.7884845e-38
0.081080474 -0.13260551 -0.06654232 1.7149078e-38
0.083030336 -0.13260551 -0.06654232 1.5675753e-38
0.084980197 -0.13260551 -0.06654232 1.3925478e-38
0.087211631 -0.13334687 -0.069488935 1.3557781e-38
0.089563392 -0.1343727 -0.073566012 1.411204e-38
0.092217781 -0.13613077 -0.080553465 1.3190809e-38
0.094585963 -0.13711344 -0.084459119 1.2822029e-38
0.096983708 -0.138135 -0.088519387 1.2084464e-38
0.099707268 -0.13990806 -0.095566444 1.2729111e-38
0.10213346 -0.14091717 -0.099577121 1.2452518e-38
0.10414126 -0.14091717 -0.099577121 1.1161415e-38
0.10657731 -0.14190049 -0.1034854 1.0608597e-38
0.10859195 -0.14190049 -0.1034854 2.4939399e-39
0.1110665 -0.1429237 -0.1075521 1.8449832e-39
0.11308826 -0.1429237 -0.1075521 2.0279367e-39
-0.07900285 -0.11808117 -0.0015185401 2.341805e-38
-0.077166997 -0.11808117 -0.0015185401 2.341805e-38
-0.075169079 -0.11731337 0.0015119985 2.3509886e-38
-0.073338531 -0.11731337 0.0015119985 2.3509886e-38
-0.071507998 -0.11731337 0.0015119985 2.3509886e-38
-0.069387726 -0.11579098 0.0075208619 2.3509886e-38
-0.067567714 -0.11579098 0.0075208619 2.3509886e-38
-0.065571897 -0.11479472 0.0114531 2.3509883e-38
-0.063758783 -0.11479472 0.0114531 2.3509883e-38
-0.061945677 -0.11479472 0.0114531 2.3509886e-38
-0.060287692 -0.11579098 0.0075208619 2.3509886e-38
-0.058467682 -0.11579098 0.0075208619 2.3509886e-38
-0.056755353 -0.11654995 0.0045251325 2.3509886e-38
-0.055033114 -0.11731337 0.0015119985 2.3509886e-38
-0.053300872 -0.11808117 -0.0015185401 2.3509886e-38
-0.051465016 -0.11808117 -0.0015185401 2.3509886e-38
-0.049714185 -0.11882581 -0.0044576451 2.3509886e-38
-0.047873177 -0.11882581 -0.0044576451 2.3509886e-38
-0.04613525 -0.11985306 -0.0085121915 2.3509886e-38
-0.044357631 -0.12060766 -0.011490636 2.3509886e-38
-0.042504292 -0.12060766 -0.011490636 2.3509886e-38
-0.040650949 -0.12060766 -0.011490636 2.3509886e-38
-0.038852755 -0.12136655 -0.014486007 2.3509886e-38
-0.036994163 -0.12136655 -0.014486007 2.3509886e-38
-0.035135571 -0.12136655 -0.014486007 2.3509886e-38
-0.033276979 -0.12136655 -0.014486007 2.3509886e-38
-0.031384252 -0.12060766 -0.011490636 2.3509886e-38
-0.029502187 -0.11985306 -0.0085121915 2.3509886e-38
-0.02759889 -0.11808117 -0.0015185401 2.3509886e-38
-0.025744436 -0.11731337 0.0015119985 2.3509886e-38
-0.023900688 -0.11654995 0.0045251325 2.3509886e-38
-0.022057207 -0.11479472 0.0114531 2.3509886e-38
-0.020238835 -0.11327456 0.017453142 2.3509886e-38
-0.018436242 -0.11327456 0.017453142 2.3509527e-38
-0.01663365 -0.11327456 0.017453142 2.3509527e-38
-0.014844322 -0.11250792 0.020479031 2.3509527e-38
-0.013047036 -0.11250792 0.020479031 2.3509527e-38
-0.011225875 -0.11327456 0.017453142 2.3509527e-38
-0.0094232829 -0.11327456 0.017453142 2.3509886e-38
-0.0075872 -0.11401908 0.014514513 2.3509527e-38
-0.0057794554 -0.11401908 0.014514513 2.3509886e-38
-0.0038674816 -0.11579098 0.0075208619 2.3509886e-38
-0.0019473869 -0.11731337 0.0015119985 2.3509886e-38
-6.1052619e-05 -0.11808117 -0.0015185401 2.3509886e-38
0.001834064 -0.11882581 -0.0044576451 2.3509886e-38
0.0036750745 -0.11882581 -0.0044576451 2.3509886e-38
0.0056825532 -0.12060766 -0.011490636 2.3509886e-38
0.0076120468 -0.12136655 -0.014486007 2.3509886e-38
0.0094706388 -0.12136655 -0.014486007 2.3509886e-38
0.01141638 -0.12212978 -0.017498426 2.3509886e-38
0.013404316 -0.12315418 -0.021541767 2.3509886e-38
0.015600107 -0.12569134 -0.031555943 2.3509886e-38
0.017488629 -0.12569134 -0.031555943 2.3509886e-38
0.01937715 -0.12569134 -0.031555943 2.3509883e-38
0.021265671 -0.12569134 -0.031555943 2.3509883e-38
0.023154192 -0.12569134 -0.031555943 2.3509883e-38
0.025042713 -0.12569134 -0.031555943 2.3509883e-38
0.026931237 -0.12569134 -0.031555943 2.3509883e-38
0.02850344 -0.12389888 -0.02448111 2.3509883e-38
0.030242987 -0.12315418 -0.021541767 2.3509886e-38
0.032113951 -0.12315418 -0.021541767 2.3509886e-38
0.033984914 -0.12315418 -0.021541767 2.3509886e-38
0.035335999 -0.12060766 -0.011490636 2.3509886e-38
0.037189338 -0.12060766 -0.011490636 2.3509886e-38
0.039042678 -0.12060766 -0.011490636 2.341805e-38
0.040896017 -0.12060766 -0.011490636 2.3050349e-38
0.042925298 -0.12136655 -0.014486007 2.3050347e-38
0.044966113 -0.12212978 -0.017498426 2.3142542e-38
0.046829987 -0.12212978 -0.017498426 2.3234374e-38
0.048693862 -0.12212978 -0.017498426 2.3418043e-38
0.050557729 -0.12212978 -0.017498426 2.341804e-38
0.052694548 -0.12315418 -0.021541767 2.3326201e-38
0.05476908 -0.12389888 -0.02448111 2.3142524e-38
0.056436468 -0.12315418 -0.021541767 2.3509869e-38
0.058307435 -0.12315418 -0.021541767 2.3418032e-38
0.06114779 -0.12645011 -0.034550838 2.2865218e-38
0.063342184 -0.12744872 -0.038492374 2.3234001e-38
0.065479554 -0.12821732 -0.041526012 2.2588634e-38
0.06761954 -0.12896039 -0.044458918 2.1851069e-38
0.069857977 -0.12997745 -0.048473291 2.212694e-38
0.072033487 -0.13076027 -0.051563077 2.0744e-38
0.073957093 -0.13076027 -0.051563077 2.000535e-38
0.076568253 -0.13276742 -0.059485249 1.9084107e-38
0.078774102 -0.13353528 -0.062516026 1.7978483e-38
0.081080474 -0.13455538 -0.06654232 1.6965413e-38
0.083030336 -0.13455538 -0.06654232 1.5676117e-38
0.084980197 -0.13455538 -0.06654232 1.4202432e-38
0.087211631 -0.1353019 -0.069488935 1.3189722e-38
0.089563392 -0.13633488 -0.073566012 1.2913499e-38
0.092217781 -0.1381052 -0.080553465 1.3006418e-38
0.094585963 -0.13909473 -0.084459119 1.2822027e-38
0.096983708 -0.14012341 -0.088519387 1.2914222e-38
0.099385343 -0.14112701 -0.092480592 1.3005695e-38
0.10170803 -0.14190884 -0.095566444 1.2820939e-38
0.10414126 -0.14292495 -0.099577121 1.1990456e-38
0.10614903 -0.14292495 -0.099577121 1.0330213e-38
0.10815682 -0.14292495 -0.099577121 1.5712676e-39
0.1110665 -0.14494546 -0.1075521 1.8618352e-40
0.11308826 -0.14494546 -0.1075521 1.6598745e-39
-0.088182129 -0.11991702 -0.0015185401 2.3142532e-38
-0.086152337 -0.11914389 0.0015119985 2.3234372e-38
-0.084321789 -0.11914389 0.0015119985 2.3234374e-38
-0.08267457 -0.11991702 -0.0015185401 2.3234376e-38
-0.080660708 -0.11914389 0.0015119985 2.2681564e-38
-0.07883016 -0.11914389 0.0015119985 2.2865955e-38
-0.07699962 -0.11914389 0.0015119985 2.3509886e-38
-0.075007945 -0.11837523 0.0045251325 2.3509886e-38
-0.073182687 -0.11837523 0.0045251325 2.3509886e-38
-0.071357429 -0.11837523 0.0045251325 2.3509886e-38
-0.069532163 -0.11837523 0.0045251325 2.3509886e-38
-0.067706905 -0.11837523 0.0045251325 2.3509886e-38
-0.065747716 -0.11761098 0.0075208619 2.3509886e-38
-0.063927703 -0.11761098 0.0075208619 2.3509886e-38
-0.062107697 -0.11761098 0.0075208619 2.3509886e-38
-0.060287692 -0.11761098 0.0075208619 2.3509886e-38
-0.058467682 -0.11761098 0.0075208619 2.3509886e-38
-0.056755353 -0.11837523 0.0045251325 2.3509886e-38
-0.055033114 -0.11914389 0.0015119985 2.3509886e-38
-0.053202569 -0.11914389 0.0015119985 2.3509886e-38
-0.051465016 -0.11991702 -0.0015185401 2.3509886e-38
-0.049629159 -0.11991702 -0.0015185401 2.3509886e-38
-0.047793306 -0.11991702 -0.0015185401 2.3509886e-38
-0.046032168 -0.12066682 -0.0044576451 2.3509886e-38
-0.04428713 -0.12170117 -0.0085121915 2.3509886e-38
-0.042439014 -0.12170117 -0.0085121915 2.3509886e-38
-0.040590897 -0.12170117 -0.0085121915 2.3509886e-38
-0.03879761 -0.12246101 -0.011490636 2.3509886e-38
-0.03694427 -0.12246101 -0.011490636 2.3509886e-38
-0.035090931 -0.12246101 -0.011490636 2.3509886e-38
-0.033198424 -0.12170117 -0.0085121915 2.3509886e-38
-0.031350307 -0.12170117 -0.0085121915 2.3509886e-38
-0.029463088 -0.12066682 -0.0044576451 2.3509886e-38
-0.02759889 -0.11991702 -0.0015185401 2.3509886e-38
-0.025744436 -0.11914389 0.0015119985 2.3509886e-38
-0.023887556 -0.11761098 0.0075208619 2.3509886e-38
-0.022057207 -0.11660783 0.0114531 2.3509886e-38
-0.020238835 -0.11507715 0.017453142 2.3509886e-38
-0.018436242 -0.11507715 0.017453142 2.3509886e-38
-0.01663365 -0.11507715 0.017453142 2.3509886e-38
-0.014844322 -0.11430521 0.020479031 2.3509886e-38
-0.013047036 -0.11430521 0.020479031 2.3509886e-38
-0.011225875 -0.11507715 0.017453142 2.3509886e-38
-0.0094232829 -0.11507715 0.017453142 2.3509886e-38
-0.0076206904 -0.11507715 0.017453142 2.3509886e-38
-0.0057794554 -0.11582683 0.014514513 2.3509886e-38
-0.0038674816 -0.11761098 0.0075208619 2.3509886e-38
-0.0019975759 -0.11837523 0.0045251325 2.3509886e-38
-6.1052619e-05 -0.11991702 -0.0015185401 2.3509886e-38
0.001834064 -0.12066682 -0.0044576451 2.3509886e-38
0.0037639358 -0.12170117 -0.0085121915 2.3509886e-38
0.0056825532 -0.12246101 -0.011490636 2.3509886e-38
0.0075358944 -0.12246101 -0.011490636 2.3509886e-38
0.0093892338 -0.12246101 -0.011490636 2.3509886e-38
0.011156407 -0.12170117 -0.0085121915 2.3509886e-38
0.013004526 -0.12170117 -0.0085121915 2.3509886e-38
0.015470187 -0.12655805 -0.02755063 2.3509886e-38
0.017351687 -0.12655805 -0.02755063 2.3509886e-38
0.019233186 -0.12655805 -0.02755063 2.3509883e-38
0.021265671 -0.12757985 -0.031555943 2.3509883e-38
0.023154192 -0.12757985 -0.031555943 2.3509883e-38
0.025042713 -0.12757985 -0.031555943 2.3509883e-38
0.026759181 -0.12655805 -0.02755063 2.3509883e-38
0.02850344 -0.12577499 -0.02448111 2.3509883e-38
0.030242987 -0.12502514 -0.021541767 2.3509886e-38
0.032113951 -0.12502514 -0.021541767 2.3509886e-38
0.033782866 -0.12399365 -0.017498426 2.3509886e-38
0.03564674 -0.12399365 -0.017498426 2.3509886e-38
0.037189338 -0.12246101 -0.011490636 2.3509886e-38
0.039042678 -0.12246101 -0.011490636 2.341805e-38
0.040896017 -0.12246101 -0.011490636 2.3326213e-38
0.042925298 -0.12322514 -0.014486007 2.3142542e-38
0.044966113 -0.12399365 -0.017498426 2.3234376e-38
0.046829987 -0.12399365 -0.017498426 2.3050698e-38
0.048693862 -0.12399365 -0.017498426 2.2865581e-38
0.050557729 -0.12399365 -0.017498426 2.2220568e-38
0.052694548 -0.12502514 -0.021541767 2.1575194e-38
0.05476908 -0.12577499 -0.02448111 2.1114572e-38
0.056645196 -0.12577499 -0.02448111 2.0652875e-38
0.058521312 -0.12577499 -0.02448111 2.2496787e-38
0.06114779 -0.1283439 -0.034550838 2.3509866e-38
0.06304156 -0.1283439 -0.034550838 2.3509866e-38
0.065479554 -0.13012333 -0.041526012 2.2680826e-38
0.067385562 -0.13012333 -0.041526012 2.1113501e-38
0.069530688 -0.13087155 -0.044458918 2.1112785e-38
0.071776159 -0.13189565 -0.048473291 1.9545457e-38
0.073957093 -0.13268389 -0.051563077 1.9729479e-38
0.076223232 -0.13369073 -0.055509858 1.8808599e-38
0.078505747 -0.1347049 -0.059485249 1.7794813e-38
0.081080474 -0.13650523 -0.06654232 1.6689908e-38
0.083030336 -0.13650523 -0.06654232 1.5677199e-38
0.085256599 -0.13725694 -0.069488935 1.4755969e-38
0.087601222 -0.13829704 -0.073566012 1.3742897e-38
0.089563392 -0.13829704 -0.073566012 1.3097891e-38
0.092217781 -0.14007963 -0.080553465 1.2453244e-38
0.094585963 -0.14107598 -0.084459119 1.2268853e-38
0.096983708 -0.14211179 -0.088519387 1.2729108e-38
0.099385343 -0.14312236 -0.092480592 1.2729105e-38
0.10170803 -0.14390959 -0.095566444 1.281986e-38
0.10370878 -0.14390959 -0.095566444 1.189826e-38
0.10614903 -0.14493273 -0.099577121 1.0606439e-38
0.10815682 -0.14493273 -0.099577121 2.2155608e-39
0.11060659 -0.14592977 -0.1034854 9.3987891e-41
0.11308826 -0.14696725 -0.1075521 1.6602374e-39
-0.091643952 -0.12097444 0.0015119985 1.7427118e-38
-0.089813419 -0.12097444 0.0015119985 2.3234367e-38
-0.087982871 -0.12097444 0.0015119985 2.2682272e-38
-0.085959502 -0.12020047 0.0045251325 2.2497525e-38
-0.084134243 -0.12020047 0.0045251325 2.2589722e-38
-0.082308985 -0.12020047 0.0045251325 2.2589724e-38
-0.080483727 -0.12020047 0.0045251325 2.2589368e-38
-0.078658469 -0.12020047 0.0045251325 2.3234379e-38
-0.076833203 -0.12020047 0.0045251325 2.3509886e-38
-0.074847743 -0.11943097 0.0075208619 2.3509886e-38
-0.073027737 -0.11943097 0.0075208619 2.3509886e-38
-0.071207732 -0.11943097 0.0075208619 2.3509886e-38
-0.069532163 -0.12020047 0.0045251325 2.3509886e-38
-0.067706905 -0.12020047 0.0045251325 2.3509886e-38
-0.065747716 -0.11943097 0.0075208619 2.3509886e-38
-0.063927703 -0.11943097 0.0075208619 2.3509886e-38
-0.062107697 -0.11943097 0.0075208619 2.3509886e-38
-0.060405873 -0.12020047 0.0045251325 2.3509886e-38
-0.058580611 -0.12020047 0.0045251325 2.3509886e-38
-0.056755353 -0.12020047 0.0045251325 2.3509886e-38
-0.054930095 -0.12020047 0.0045251325 2.3509886e-38
-0.053104836 -0.12020047 0.0045251325 2.3509886e-38
-0.051372029 -0.12097444 0.0015119985 2.3509886e-38
-0.049541488 -0.12097444 0.0015119985 2.3509886e-38
-0.047710944 -0.12097444 0.0015119985 2.3509886e-38
-0.046032168 -0.12250783 -0.0044576451 2.3509886e-38
-0.044191159 -0.12250783 -0.0044576451 2.3509886e-38
-0.042350151 -0.12250783 -0.0044576451 2.3509886e-38
-0.040509142 -0.12250783 -0.0044576451 2.3509886e-38
-0.038668133 -0.12250783 -0.0044576451 2.3509886e-38
-0.03689466 -0.1235493 -0.0085121915 2.3509886e-38
-0.034942314 -0.12175287 -0.0015185401 2.3509886e-38
-0.033106457 -0.12175287 -0.0015185401 2.3509886e-38
-0.031270601 -0.12175287 -0.0015185401 2.3509886e-38
-0.029434744 -0.12175287 -0.0015185401 2.3509886e-38
-0.027574979 -0.12097444 0.0015119985 2.3509886e-38
-0.025725946 -0.12020047 0.0045251325 2.3509886e-38
-0.023887556 -0.11943097 0.0075208619 2.3509886e-38
-0.022057207 -0.11842094 0.0114531 2.3509886e-38
-0.020241411 -0.11763458 0.014514513 2.3509886e-38
-0.018436242 -0.11687975 0.017453142 2.3509886e-38
-0.01663365 -0.11687975 0.017453142 2.3509886e-38
-0.014844322 -0.1161025 0.020479031 2.3509886e-38
-0.013047036 -0.1161025 0.020479031 2.3509886e-38
-0.011225875 -0.11687975 0.017453142 2.3509886e-38
-0.0094232829 -0.11687975 0.017453142 2.3509886e-38
-0.0076206904 -0.11687975 0.017453142 2.3509886e-38
-0.0057794554 -0.11763458 0.014514513 2.3509886e-38
-0.0038674816 -0.11943097 0.0075208619 2.3509886e-38
-0.0019975759 -0.12020047 0.0045251325 2.3509886e-38
-0.00017231773 -0.12020047 0.0045251325 2.3509886e-38
0.0017748021 -0.12175287 -0.0015185401 2.3509886e-38
0.0037639358 -0.1235493 -0.0085121915 2.3509886e-38
0.0056825532 -0.12431435 -0.011490636 2.3509886e-38
0.0075358944 -0.12431435 -0.011490636 2.3509886e-38
0.0093082907 -0.1235493 -0.0085121915 2.3509886e-38
0.011156407 -0.1235493 -0.0085121915 2.3509886e-38
0.013004526 -0.1235493 -0.0085121915 2.3509886e-38
0.015470187 -0.12843956 -0.02755063 2.3509886e-38
0.017246742 -0.12765111 -0.02448111 2.3509886e-38
0.019122858 -0.12765111 -0.02448111 2.3509886e-38
0.021265671 -0.1294684 -0.031555943 2.3509886e-38
0.023154192 -0.1294684 -0.031555943 2.3509883e-38
0.025042713 -0.1294684 -0.031555943 2.3509883e-38
0.026759181 -0.12843956 -0.02755063 2.3509883e-38
0.02850344 -0.12765111 -0.02448111 2.3509883e-38
0.030242987 -0.1268961 -0.021541767 2.3509883e-38
0.032113951 -0.1268961 -0.021541767 2.3509883e-38
0.033782866 -0.12585752 -0.017498426 2.3509883e-38
0.03549093 -0.12508373 -0.014486007 2.3509883e-38
0.037189338 -0.12431435 -0.011490636 2.3509883e-38
0.039042678 -0.12431435 -0.011490636 2.3418047e-38
0.041066706 -0.12508373 -0.014486007 2.3141819e-38
0.042925298 -0.12508373 -0.014486007 2.3142537e-38
0.044966113 -0.12585752 -0.017498426 2.3234372e-38
0.046829987 -0.12585752 -0.017498426 2.3050696e-38
0.048693862 -0.12585752 -0.017498426 2.258935e-38
0.050557729 -0.12585752 -0.017498426 2.1759588e-38
0.052694548 -0.1268961 -0.021541767 2.0930181e-38
0.05476908 -0.12765111 -0.02448111 2.04692e-38
0.056645196 -0.12765111 -0.02448111 2.0191894e-38
0.058521312 -0.12765111 -0.02448111 2.2220198e-38
0.06062616 -0.12843956 -0.02755063 2.3326189e-38
0.06304156 -0.13023765 -0.034550838 2.3326192e-38
0.065242864 -0.1312501 -0.038492374 2.1666674e-38
0.067143552 -0.1312501 -0.038492374 2.0744719e-38
0.069530688 -0.13278268 -0.044458918 2.1113504e-38
0.071776159 -0.13381381 -0.048473291 1.9729848e-38
0.073694341 -0.13381381 -0.048473291 1.9176306e-38
0.075880684 -0.13460748 -0.051563077 1.8532012e-38
0.078505747 -0.13664238 -0.059485249 1.7518226e-38
0.080716901 -0.13742088 -0.062516026 1.6228929e-38
0.083030336 -0.13845511 -0.06654232 1.5677199e-38
0.085256599 -0.13921197 -0.069488935 1.5401338e-38
0.087601222 -0.14025922 -0.073566012 1.4296071e-38
0.089563392 -0.14025922 -0.073566012 1.3005695e-38
0.092217781 -0.14205404 -0.080553465 1.2176657e-38
0.094585963 -0.14305727 -0.084459119 1.2084462e-38
0.096983708 -0.1441002 -0.088519387 1.2544717e-38
0.099385343 -0.14511769 -0.092480592 1.2544714e-38
0.10170803 -0.14591034 -0.095566444 1.2635469e-38
0.10370878 -0.14591034 -0.095566444 1.1806064e-38
0.10614903 -0.14694051 -0.099577121 1.0790831e-38
0.10815682 -0.14694051 -0.099577121 2.7687346e-39
0.11060659 -0.14794444 -0.1034854 5.5496884e-40
0.11308826 -0.14898901 -0.1075521 1.9375474e-39
0.11511003 -0.14898901 -0.1075521 2.3056096e-39
-0.093689702 -0.12358873 -0.0015185401 2.3234367e-38
-0.091643952 -0.12280498 0.0015119985 2.3234367e-38
-0.089813419 -0.12280498 0.0015119985 2.2866663e-38
-0.087982871 -0.12280498 0.0015119985 2.3142535e-38
-0.085959502 -0.12202574 0.0045251325 2.3234374e-38
-0.084134243 -0.12202574 0.0045251325 2.2497529e-38
-0.082308985 -0.12202574 0.0045251325 2.2589368e-38
-0.080483727 -0.12202574 0.0045251325 2.3234379e-38
-0.078658469 -0.12202574 0.0045251325 2.2312784e-38
-0.076833203 -0.12202574 0.0045251325 2.3509886e-38
-0.074847743 -0.121251 0.0075208619 2.3509886e-38
-0.073027737 -0.121251 0.0075208619 2.3509886e-38
-0.071207732 -0.121251 0.0075208619 2.3509886e-38
-0.069532163 -0.12202574 0.0045251325 2.3509886e-38
-0.067706905 -0.12202574 0.0045251325 2.3509886e-38
-0.065881647 -0.12202574 0.0045251325 2.3509886e-38
-0.064056389 -0.12202574 0.0045251325 2.3509886e-38
-0.062231131 -0.12202574 0.0045251325 2.3509886e-38
-0.060405873 -0.12202574 0.0045251325 2.3509886e-38
-0.058580611 -0.12202574 0.0045251325 2.3509886e-38
-0.056755353 -0.12202574 0.0045251325 2.3509886e-38
-0.054827671 -0.121251 0.0075208619 2.3509886e-38
-0.053007662 -0.121251 0.0075208619 2.3509886e-38
-0.051187657 -0.121251 0.0075208619 2.3509886e-38
-0.049454316 -0.12202574 0.0045251325 2.3509886e-38
-0.047629058 -0.12202574 0.0045251325 2.3509886e-38
-0.045957446 -0.12358873 -0.0015185401 2.3509886e-38
-0.044121593 -0.12358873 -0.0015185401 2.3509886e-38
-0.042285737 -0.12358873 -0.0015185401 2.3509886e-38
-0.04044988 -0.12358873 -0.0015185401 2.3509886e-38
-0.038614027 -0.12358873 -0.0015185401 2.3509886e-38
-0.03689466 -0.1253974 -0.0085121915 2.3509886e-38
-0.034942314 -0.12358873 -0.0015185401 2.3509886e-38
-0.033066608 -0.12280498 0.0015119985 2.3509886e-38
-0.031236064 -0.12280498 0.0015119985 2.3509886e-38
-0.029405521 -0.12280498 0.0015119985 2.3509886e-38
-0.027574979 -0.12280498 0.0015119985 2.3509886e-38
-0.025725946 -0.12202574 0.0045251325 2.3509886e-38
-0.023870319 -0.12023406 0.0114531 2.3509886e-38
-0.022041427 -0.11868234 0.017453142 2.3509886e-38
-0.020238835 -0.11868234 0.017453142 2.3509886e-38
-0.018438894 -0.11789979 0.020479031 2.3509886e-38
-0.016641609 -0.11789979 0.020479031 2.3509886e-38
-0.014844322 -0.11789979 0.020479031 2.3509886e-38
-0.013047036 -0.11789979 0.020479031 2.3509886e-38
-0.011249749 -0.11789979 0.020479031 2.3509886e-38
-0.0094232829 -0.11868234 0.017453142 2.3509886e-38
-0.0076206904 -0.11868234 0.017453142 2.3509886e-38
-0.0058180988 -0.11868234 0.017453142 2.3509886e-38
-0.0039717108 -0.11944233 0.014514513 2.3509886e-38
-0.0021129742 -0.12023406 0.0114531 2.3509886e-38
-0.00017231773 -0.12202574 0.0045251325 2.3509886e-38
0.0017748021 -0.12358873 -0.0015185401 2.3509886e-38
0.003829214 -0.12616767 -0.011490636 2.3509886e-38
0.0056825532 -0.12616767 -0.011490636 2.3509886e-38
0.0075358944 -0.12616767 -0.011490636 2.3509886e-38
0.0093082907 -0.1253974 -0.0085121915 2.3509886e-38
0.011156407 -0.1253974 -0.0085121915 2.3509886e-38
0.013004526 -0.1253974 -0.0085121915 2.3509886e-38
0.015470187 -0.13032107 -0.02755063 2.3509886e-38
0.017246742 -0.12952723 -0.02448111 2.3509886e-38
0.019122858 -0.12952723 -0.02448111 2.3509886e-38
0.021265671 -0.13135691 -0.031555943 2.3509886e-38
0.023154192 -0.13135691 -0.031555943 2.3509883e-38
0.025042713 -0.13135691 -0.031555943 2.3509883e-38
0.026759181 -0.13032107 -0.02755063 2.3509883e-38
0.02850344 -0.12952723 -0.02448111 2.3509883e-38
0.030242987 -0.12876706 -0.021541767 2.3509883e-38
0.032113951 -0.12876706 -0.021541767 2.3509883e-38
0.033333827 -0.1253974 -0.0085121915 2.3509883e-38
0.035181943 -0.1253974 -0.0085121915 2.350988e-38
0.03703006 -0.1253974 -0.0085121915 2.3509883e-38
0.038654245 -0.12434883 -0.0044576451 2.3418045e-38
0.040495254 -0.12434883 -0.0044576451 2.3142174e-38
0.04274936 -0.12616767 -0.011490636 2.3142532e-38
0.044783887 -0.12694232 -0.014486007 2.3234367e-38
0.046829987 -0.12772138 -0.017498426 2.2866657e-38
0.048693862 -0.12772138 -0.017498426 2.2312762e-38
0.050557729 -0.12772138 -0.017498426 2.1483354e-38
0.052694548 -0.12876706 -0.021541767 2.0930178e-38
0.054565508 -0.12876706 -0.021541767 2.0561394e-38
0.056645196 -0.12952723 -0.02448111 2.1022012e-38
0.058521312 -0.12952723 -0.02448111 2.1851415e-38
0.06062616 -0.13032107 -0.02755063 2.1482633e-38
0.06304156 -0.13213144 -0.034550838 2.139044e-38
0.065242864 -0.13315077 -0.038492374 2.0836913e-38
0.067143552 -0.13315077 -0.038492374 2.1113501e-38
0.069291569 -0.13393532 -0.041526012 2.1482287e-38
0.071441837 -0.13469382 -0.044458918 1.9546176e-38
0.073694341 -0.13573201 -0.048473291 1.8439461e-38
0.075880684 -0.13653107 -0.051563077 1.816323e-38
0.078153752 -0.1375518 -0.055509858 1.6965052e-38
0.080716901 -0.13936369 -0.062516026 1.558356e-38
0.082659714 -0.13936369 -0.062516026 1.5400612e-38
0.084980197 -0.14040495 -0.06654232 1.5677562e-38
0.087601222 -0.14222141 -0.073566012 1.4480462e-38
0.089563392 -0.14222141 -0.073566012 1.2729108e-38
0.092217781 -0.14402847 -0.080553465 1.2729111e-38
0.094585963 -0.14503856 -0.084459119 1.2452521e-38
0.096983708 -0.14608859 -0.088519387 1.2636912e-38
0.099385343 -0.14711304 -0.092480592 1.2728745e-38
0.10170803 -0.14791109 -0.095566444 1.2543273e-38
0.10370878 -0.14791109 -0.095566444 1.1620954e-38
0.10614903 -0.14894833 -0.099577121 1.0606439e-38
0.10815682 -0.14894833 -0.099577121 2.8609302e-39
0.11060659 -0.14995907 -0.1034854 1.2006984e-39
-0.0934745 -0.12463553 0.0015119985 2.2958859e-38
-0.091643952 -0.12463553 0.0015119985 2.2590076e-38
-0.089610018 -0.12385099 0.0045251325 2.2866307e-38
-0.08778476 -0.12385099 0.0045251325 2.3234374e-38
-0.085767783 -0.123071 0.0075208619 2.3142539e-38
-0.083947785 -0.123071 0.0075208619 2.2865955e-38
-0.082127772 -0.123071 0.0075208619 2.2958154e-38
-0.080483727 -0.12385099 0.0045251325 2.3234379e-38
-0.078658469 -0.12385099 0.0045251325 2.2865958e-38
-0.076833203 -0.12385099 0.0045251325 2.3509886e-38
-0.074847743 -0.123071 0.0075208619 2.3509886e-38
-0.073027737 -0.123071 0.0075208619 2.3509886e-38
-0.071207732 -0.123071 0.0075208619 2.3509886e-38
-0.069532163 -0.12385099 0.0045251325 2.3509886e-38
-0.067846909 -0.12463553 0.0015119985 2.3509886e-38
-0.065747716 -0.123071 0.0075208619 2.3509886e-38
-0.063927703 -0.123071 0.0075208619 2.3509886e-38
-0.062107697 -0.123071 0.0075208619 2.3509886e-38
-0.060287692 -0.123071 0.0075208619 2.3509886e-38
-0.058319449 -0.12204717 0.0114531 2.3509886e-38
-0.056506339 -0.12204717 0.0114531 2.3509886e-38
-0.054693226 -0.12204717 0.0114531 2.3509886e-38
-0.052780811 -0.12125005 0.014514513 2.3509886e-38
-0.050882902 -0.12048493 0.017453142 2.3509886e-38
-0.049080309 -0.12048493 0.017453142 2.3509886e-38
-0.047357582 -0.12125005 0.014514513 2.3509886e-38
-0.045627668 -0.12204717 0.0114531 2.3509886e-38
-0.043907627 -0.123071 0.0075208619 2.3509886e-38
-0.042153277 -0.12385099 0.0045251325 2.3509886e-38
-0.040328018 -0.12385099 0.0045251325 2.3509886e-38
-0.03850276 -0.12385099 0.0045251325 2.3509886e-38
-0.036677502 -0.12385099 0.0045251325 2.3509886e-38
-0.034852244 -0.12385099 0.0045251325 2.3509886e-38
-0.032987587 -0.123071 0.0075208619 2.3509886e-38
-0.031167582 -0.123071 0.0075208619 2.3509886e-38
-0.029347576 -0.123071 0.0075208619 2.3509886e-38
-0.027527569 -0.123071 0.0075208619 2.3509886e-38
-0.025683431 -0.12204717 0.0114531 2.3509886e-38
-0.023844019 -0.12048493 0.017453142 2.3509886e-38
-0.022033468 -0.11969708 0.020479031 2.3509886e-38
-0.020236183 -0.11969708 0.020479031 2.3509886e-38
-0.018441532 -0.11891381 0.023487277 2.3509886e-38
-0.01664952 -0.11891381 0.023487277 2.3509886e-38
-0.014844322 -0.11969708 0.020479031 2.3509886e-38
-0.013047036 -0.11969708 0.020479031 2.3509886e-38
-0.011249749 -0.11969708 0.020479031 2.3509886e-38
-0.0094524622 -0.11969708 0.020479031 2.3509886e-38
-0.0076206904 -0.12048493 0.017453142 2.3509886e-38
-0.0058180988 -0.12048493 0.017453142 2.3509886e-38
-0.0040155062 -0.12048493 0.017453142 2.3509886e-38
-0.0022129144 -0.12048493 0.017453142 2.3509886e-38
-0.00041032094 -0.12048493 0.017453142 2.3509886e-38
0.0020362691 -0.12880091 -0.014486007 2.3509886e-38
0.003894863 -0.12880091 -0.014486007 2.3509886e-38
0.0056825532 -0.12802102 -0.011490636 2.3509886e-38
0.0075358944 -0.12802102 -0.011490636 2.3509886e-38
0.0093082907 -0.12724553 -0.0085121915 2.3509886e-38
0.011156407 -0.12724553 -0.0085121915 2.3509886e-38
0.013004526 -0.12724553 -0.0085121915 2.3509886e-38
0.013621247 -0.11736105 0.02945096 2.3509886e-38
0.0154028 -0.11736105 0.02945096 2.3509886e-38
0.017074462 -0.11656497 0.03250844 2.3509886e-38
0.018850658 -0.11656497 0.03250844 2.3509886e-38
0.020626854 -0.11656497 0.03250844 2.3509883e-38
0.024877682 -0.13220255 -0.02755063 2.3509883e-38
0.026759181 -0.13220255 -0.02755063 2.3509883e-38
0.02850344 -0.13140334 -0.02448111 2.3509883e-38
0.03037956 -0.13140334 -0.02448111 2.350988e-38
0.03085709 -0.12385099 0.0045251325 2.350988e-38
0.032682352 -0.12385099 0.0045251325 2.350988e-38
0.034663457 -0.12463553 0.0015119985 2.3509879e-38
0.036656063 -0.12542458 -0.0015185401 2.350988e-38
0.038654245 -0.12618984 -0.0044576451 2.3418043e-38
0.040495254 -0.12618984 -0.0044576451 2.3418038e-38
0.042336263 -0.12618984 -0.0044576451 2.305069e-38
0.044602696 -0.12802102 -0.011490636 2.2682623e-38
0.046642479 -0.12880091 -0.014486007 2.2037251e-38
0.048501071 -0.12880091 -0.014486007 2.1300042e-38
0.050557729 -0.12958528 -0.017498426 2.0562473e-38
0.052421603 -0.12958528 -0.017498426 2.0285163e-38
0.054565508 -0.13063805 -0.021541767 2.0100772e-38
0.056436468 -0.13063805 -0.021541767 2.0192967e-38
0.058521312 -0.13140334 -0.02448111 2.065359e-38
0.060924623 -0.13324542 -0.031555943 2.0652872e-38
0.06304156 -0.1340252 -0.034550838 2.1206049e-38
0.065242864 -0.13505147 -0.038492374 2.1297891e-38
0.067143552 -0.13505147 -0.038492374 2.1297893e-38
0.069291569 -0.13584132 -0.041526012 2.1021308e-38
0.071441837 -0.13660498 -0.044458918 1.8439828e-38
0.073694341 -0.13765021 -0.048473291 1.825507e-38
0.075880684 -0.13845469 -0.051563077 1.7886643e-38
0.078153752 -0.1394823 -0.055509858 1.659627e-38
0.080716901 -0.1413065 -0.062516026 1.5214777e-38
0.082659714 -0.1413065 -0.062516026 1.5307335e-38
0.084980197 -0.14235483 -0.06654232 1.5585366e-38
0.087211631 -0.14312203 -0.069488935 1.4571579e-38
0.089563392 -0.14418359 -0.073566012 1.2820941e-38
0.09192007 -0.14522041 -0.077548198 1.291278e-38
0.094192214 -0.1460029 -0.080553465 1.2359607e-38
0.096567236 -0.14701982 -0.084459119 1.2451802e-38
0.098972104 -0.148077 -0.088519387 1.2544354e-38
0.10170803 -0.14991184 -0.095566444 1.2358882e-38
0.10370878 -0.14991184 -0.095566444 1.1344367e-38
-0.095305048 -0.12646608 0.0015119985 2.3050698e-38
-0.0934745 -0.12646608 0.0015119985 2.2774113e-38
-0.091435276 -0.12567626 0.0045251325 2.3234374e-38
-0.089407794 -0.124891 0.0075208619 2.3234374e-38
-0.087587796 -0.124891 0.0075208619 2.3234376e-38
-0.085767783 -0.124891 0.0075208619 2.3234379e-38
-0.083947785 -0.124891 0.0075208619 2.3234379e-38
-0.082127772 -0.124891 0.0075208619 2.2681567e-38
-0.080307759 -0.124891 0.0075208619 2.2589374e-38
-0.078487761 -0.124891 0.0075208619 2.3233662e-38
-0.076667748 -0.124891 0.0075208619 2.3509886e-38
-0.074637465 -0.12386028 0.0114531 2.3509886e-38
-0.072824351 -0.12386028 0.0114531 2.3509886e-38
-0.071207732 -0.124891 0.0075208619 2.3509886e-38
-0.069387726 -0.124891 0.0075208619 2.3509886e-38
-0.067567714 -0.124891 0.0075208619 2.3509886e-38
-0.065571897 -0.12386028 0.0114531 2.3509886e-38
-0.063758783 -0.12386028 0.0114531 2.3509886e-38
-0.061945677 -0.12386028 0.0114531 2.3509886e-38
-0.060132563 -0.12386028 0.0114531 2.3509886e-38
-0.058319449 -0.12386028 0.0114531 2.3509886e-38
-0.056506339 -0.12386028 0.0114531 2.3509886e-38
-0.054693226 -0.12386028 0.0114531 2.3509886e-38
-0.052780811 -0.1230578 0.014514513 2.3509886e-38
-0.050882902 -0.12228753 0.017453142 2.3509886e-38
-0.049080309 -0.12228753 0.017453142 2.3509886e-38
-0.047357582 -0.1230578 0.014514513 2.3509886e-38
-0.045627668 -0.12386028 0.0114531 2.3509886e-38
-0.043907627 -0.124891 0.0075208619 2.3509886e-38
-0.042001441 -0.12386028 0.0114531 2.3509886e-38
-0.040126599 -0.1230578 0.014514513 2.3509886e-38
-0.038318858 -0.1230578 0.014514513 2.3509886e-38
-0.036562104 -0.12386028 0.0114531 2.3509886e-38
-0.034748994 -0.12386028 0.0114531 2.3509886e-38
-0.03293588 -0.12386028 0.0114531 2.3509886e-38
-0.031087879 -0.1230578 0.014514513 2.3509886e-38
-0.029280134 -0.1230578 0.014514513 2.3509886e-38
-0.027496543 -0.12386028 0.0114531 2.3509886e-38
-0.025664644 -0.1230578 0.014514513 2.3509886e-38
-0.023844019 -0.12228753 0.017453142 2.3509886e-38
-0.022025557 -0.12070583 0.023487277 2.3509886e-38
-0.020233545 -0.12070583 0.023487277 2.3509886e-38
-0.018441532 -0.12070583 0.023487277 2.3509886e-38
-0.01664952 -0.12070583 0.023487277 2.3509886e-38
-0.014844322 -0.12149437 0.020479031 2.3509886e-38
-0.013047036 -0.12149437 0.020479031 2.3509886e-38
-0.011249749 -0.12149437 0.020479031 2.3509886e-38
-0.0094524622 -0.12149437 0.020479031 2.3509886e-38
-0.0076206904 -0.12228753 0.017453142 2.3509886e-38
-0.0058180988 -0.12228753 0.017453142 2.3509886e-38
-0.0040155062 -0.12228753 0.017453142 2.3509886e-38
-0.0022129144 -0.12228753 0.017453142 2.3509886e-38
-0.00041032094 -0.12228753 0.017453142 2.3509886e-38
0.0020362691 -0.13065951 -0.014486007 2.3509886e-38
0.003894863 -0.13065951 -0.014486007 2.3509886e-38
0.0056825532 -0.12987436 -0.011490636 2.3509886e-38
0.0075358944 -0.12987436 -0.011490636 2.3509886e-38
0.0093892338 -0.12987436 -0.011490636 2.3509886e-38
0.010317692 -0.12149437 0.020479031 2.3509886e-38
0.011839691 -0.11914261 0.02945096 2.3509886e-38
0.013621247 -0.11914261 0.02945096 2.3509886e-38
0.0154028 -0.11914261 0.02945096 2.3509886e-38
0.017074462 -0.11834116 0.03250844 2.3509886e-38
0.018850658 -0.11834116 0.03250844 2.3509886e-38
0.020626854 -0.11834116 0.03250844 2.3509883e-38
0.022529028 -0.11914261 0.02945096 2.3509883e-38
0.024179243 -0.11834116 0.03250844 2.3509883e-38
0.025955439 -0.11834116 0.03250844 2.350988e-38
0.027873695 -0.11914261 0.02945096 2.350988e-38
0.030523047 -0.12386028 0.0114531 2.3509879e-38
0.032336161 -0.12386028 0.0114531 2.3509879e-38
0.03435266 -0.124891 0.0075208619 2.3509876e-38
0.036494002 -0.12646608 0.0015119985 2.3509876e-38
0.03849192 -0.12726043 -0.0015185401 2.3418038e-38
0.040327776 -0.12726043 -0.0015185401 2.3050689e-38
0.042336263 -0.12803085 -0.0044576451 2.2590781e-38
0.044602696 -0.12987436 -0.011490636 2.1945409e-38
0.046642479 -0.13065951 -0.014486007 2.1392234e-38
0.048501071 -0.13065951 -0.014486007 2.1023451e-38
0.050557729 -0.13144915 -0.017498426 2.074722e-38
0.052421603 -0.13144915 -0.017498426 2.0653943e-38
0.054565508 -0.13250901 -0.021541767 2.0469907e-38
0.056436468 -0.13250901 -0.021541767 1.9731986e-38
0.058521312 -0.13327946 -0.02448111 2.0377359e-38
0.06062616 -0.13408406 -0.02755063 2.0653229e-38
0.06281314 -0.13513394 -0.031555943 2.1482633e-38
0.064935334 -0.13591899 -0.034550838 2.1113856e-38
0.067143552 -0.13695215 -0.038492374 2.0652522e-38
0.069291569 -0.13774733 -0.041526012 2.0744719e-38
0.071441837 -0.13851611 -0.044458918 1.8993002e-38
0.073694341 -0.13956837 -0.048473291 1.8347265e-38
0.075880684 -0.14037828 -0.051563077 1.7518221e-38
0.078153752 -0.14141284 -0.055509858 1.6319683e-38
0.080443241 -0.14245488 -0.059485249 1.5122582e-38
0.082659714 -0.14324932 -0.062516026 1.5215139e-38
0.084980197 -0.14430468 -0.06654232 1.5400612e-38
0.087211631 -0.14507706 -0.069488935 1.4663413e-38
0.089563392 -0.14614578 -0.073566012 1.3465231e-38
0.09192007 -0.1471896 -0.077548198 1.3004256e-38
0.094192214 -0.14797734 -0.080553465 1.1898984e-38
0.096567236 -0.14900111 -0.084459119 1.1990101e-38
-0.095305048 -0.1282966 0.0015119985 2.3418045e-38
-0.092768587 -0.1256734 0.0114531 2.3234015e-38
-0.090955473 -0.1256734 0.0114531 2.2773037e-38
-0.08914236 -0.1256734 0.0114531 2.2865235e-38
-0.087329246 -0.1256734 0.0114531 2.3141822e-38
-0.085320212 -0.12486555 0.014514513 2.2864879e-38
-0.083512463 -0.12486555 0.014514513 2.2588292e-38
-0.081704728 -0.12486555 0.014514513 2.341805e-38
-0.079896979 -0.12486555 0.014514513 2.341805e-38
-0.078263685 -0.1256734 0.0114531 2.2957078e-38
-0.076450579 -0.1256734 0.0114531 2.3509886e-38
-0.074473746 -0.12486555 0.014514513 2.3509886e-38
-0.072665997 -0.12486555 0.014514513 2.3509886e-38
-0.071011238 -0.1256734 0.0114531 2.3509886e-38
-0.069198124 -0.1256734 0.0114531 2.3509886e-38
-0.06738501 -0.1256734 0.0114531 2.3509886e-38
-0.06543503 -0.12486555 0.014514513 2.3509886e-38
-0.063501045 -0.12409012 0.017453142 2.3509886e-38
-0.061698459 -0.12409012 0.017453142 2.3509886e-38
-0.060011789 -0.12486555 0.014514513 2.3509886e-38
-0.058204047 -0.12486555 0.014514513 2.3509886e-38
-0.056396302 -0.12486555 0.014514513 2.3509886e-38
-0.054588556 -0.12486555 0.014514513 2.3509886e-38
-0.052685492 -0.12409012 0.017453142 2.3509886e-38
-0.050790057 -0.12329166 0.020479031 2.3509886e-38
-0.048992768 -0.12329166 0.020479031 2.3509886e-38
-0.047195483 -0.12329166 0.020479031 2.3509886e-38
-0.045549832 -0.12486555 0.014514513 2.3509886e-38
-0.043672532 -0.12409012 0.017453142 2.3509886e-38
-0.041803621 -0.12329166 0.020479031 2.3509886e-38
-0.040006336 -0.12329166 0.020479031 2.3509886e-38
-0.038264759 -0.12409012 0.017453142 2.3509886e-38
-0.036562104 -0.1256734 0.0114531 2.3509886e-38
-0.034703366 -0.12486555 0.014514513 2.3509886e-38
-0.032856978 -0.12409012 0.017453142 2.3509886e-38
-0.031054389 -0.12409012 0.017453142 2.3509886e-38
-0.029251795 -0.12409012 0.017453142 2.3509886e-38
-0.027449204 -0.12409012 0.017453142 2.3509886e-38
-0.025664644 -0.12486555 0.014514513 2.3509886e-38
-0.023817569 -0.12249784 0.023487277 2.3509886e-38
-0.022017691 -0.12170871 0.026477881 2.3509886e-38
-0.020230923 -0.12170871 0.026477881 2.3509886e-38
-0.01844676 -0.12092416 0.02945096 2.3509886e-38
-0.016665205 -0.12092416 0.02945096 2.3509886e-38
-0.014844322 -0.12329166 0.020479031 2.3509886e-38
-0.013047036 -0.12329166 0.020479031 2.3509886e-38
-0.011249749 -0.12329166 0.020479031 2.3509886e-38
-0.0094524622 -0.12329166 0.020479031 2.3509886e-38
-0.0076551754 -0.12329166 0.020479031 2.3509886e-38
-0.0058180988 -0.12409012 0.017453142 2.3509886e-38
-0.0040155062 -0.12409012 0.017453142 2.3509886e-38
-0.0022129144 -0.12409012 0.017453142 2.3509886e-38
-0.00041032094 -0.12409012 0.017453142 2.3509886e-38
0.0019758728 -0.13172771 -0.011490636 2.3509886e-38
0.003829214 -0.13172771 -0.011490636 2.3509886e-38
0.0056825532 -0.13172771 -0.011490636 2.3509886e-38
0.0075358944 -0.13172771 -0.011490636 2.3509886e-38
0.0093892338 -0.13172771 -0.011490636 2.3509886e-38
0.010317692 -0.12329166 0.020479031 2.3509886e-38
0.012114978 -0.12329166 0.020479031 2.3509886e-38
0.013621247 -0.12092416 0.02945096 2.3509886e-38
0.0154028 -0.12092416 0.02945096 2.3509886e-38
0.017074462 -0.12011738 0.03250844 2.3509886e-38
0.018850658 -0.12011738 0.03250844 2.3509886e-38
0.020626854 -0.12011738 0.03250844 2.3509886e-38
0.022529028 -0.12092416 0.02945096 2.3509883e-38
0.024179243 -0.12011738 0.03250844 2.3509883e-38
0.025955439 -0.12011738 0.03250844 2.350988e-38
0.027873695 -0.12092416 0.02945096 2.350988e-38
0.030233745 -0.12409012 0.017453142 2.3509879e-38
0.032183181 -0.12486555 0.014514513 2.3509876e-38
0.034149271 -0.1256734 0.0114531 2.3509873e-38
0.036332868 -0.1275015 0.0045251325 2.3509873e-38
0.038324542 -0.1282966 0.0015119985 2.3418033e-38
0.040327776 -0.12909628 -0.0015185401 2.2958846e-38
0.042336263 -0.12987186 -0.0044576451 2.2222713e-38
0.044422533 -0.13094176 -0.0085121915 2.139295e-38
0.046456043 -0.13172771 -0.011490636 2.1116719e-38
0.048501071 -0.1325181 -0.014486007 2.1208195e-38
0.050359663 -0.1325181 -0.014486007 2.1208193e-38
0.052421603 -0.13331302 -0.017498426 2.0931962e-38
0.054565508 -0.13437997 -0.021541767 2.0563179e-38
0.056436468 -0.13437997 -0.021541767 1.9824538e-38
0.058521312 -0.13515557 -0.02448111 1.9824538e-38
0.06062616 -0.13596557 -0.02755063 1.9824185e-38
0.06281314 -0.13702248 -0.031555943 2.0837981e-38
0.064935334 -0.13781275 -0.034550838 2.0468484e-38
0.067143552 -0.13885282 -0.038492374 1.9730565e-38
0.069291569 -0.13965334 -0.041526012 2.0283741e-38
0.071441837 -0.14042725 -0.044458918 1.9453979e-38
0.073694341 -0.14148657 -0.048473291 1.8070678e-38
0.075880684 -0.14230187 -0.051563077 1.6965047e-38
0.078153752 -0.14334334 -0.055509858 1.5766509e-38
0.080443241 -0.14439236 -0.059485249 1.5030386e-38
0.082659714 -0.1451921 -0.062516026 1.5030748e-38
0.084602512 -0.1451921 -0.062516026 1.4939634e-38
0.086930059 -0.14625455 -0.06654232 1.4571217e-38
0.089166664 -0.1470321 -0.069488935 1.4018043e-38
0.09192007 -0.14915876 -0.077548198 1.3464512e-38
0.094192214 -0.14995177 -0.080553465 1.2174492e-38
-0.10183414 -0.12748651 0.0114531 9.9578413e-39
-0.10002103 -0.12748651 0.0114531 2.3418045e-38
-0.097974427 -0.1266733 0.014514513 2.3418045e-38
-0.094145112 -0.12589271 0.017453142 2.3418047e-38
-0.092342518 -0.12589271 0.017453142 2.3418047e-38
-0.090743445 -0.1266733 0.014514513 2.341805e-38
-0.088737331 -0.12589271 0.017453142 2.341805e-38
-0.086934738 -0.12589271 0.017453142 2.3325856e-38
-0.085132144 -0.12589271 0.017453142 2.341805e-38
-0.083329566 -0.12589271 0.017453142 2.341805e-38
-0.081526972 -0.12589271 0.017453142 2.3141467e-38
-0.079724379 -0.12589271 0.017453142 2.1758536e-38
-0.077921785 -0.12589271 0.017453142 2.341805e-38
-0.076119192 -0.12589271 0.017453142 2.3509886e-38
-0.074316598 -0.12589271 0.017453142 2.3509886e-38
-0.072514005 -0.12589271 0.017453142 2.3509886e-38
-0.069959097 -0.12189357 0.03250844 2.3509886e-38
-0.068182908 -0.12189357 0.03250844 2.3509886e-38
-0.065990254 -0.11951269 0.041471548 2.3509886e-38
-0.064229779 -0.11951269 0.041471548 2.3509886e-38
-0.062723771 -0.12108628 0.035547562 2.3509886e-38
-0.060708817 -0.11951269 0.041471548 2.3509886e-38
-0.058948334 -0.11951269 0.041471548 2.3509886e-38
-0.058204047 -0.1266733 0.014514513 2.3509886e-38
-0.056396302 -0.1266733 0.014514513 2.3509886e-38
-0.054588556 -0.1266733 0.014514513 2.3509886e-38
-0.052685492 -0.12589271 0.017453142 2.3509886e-38
-0.050790057 -0.12508895 0.020479031 2.3509886e-38
-0.048992768 -0.12508895 0.020479031 2.3509886e-38
-0.047195483 -0.12508895 0.020479031 2.3509886e-38
-0.045398198 -0.12508895 0.020479031 2.3509886e-38
-0.043600909 -0.12508895 0.020479031 2.3509886e-38
-0.041803621 -0.12508895 0.020479031 2.3509886e-38
-0.040006336 -0.12508895 0.020479031 2.3509886e-38
-0.038264759 -0.12589271 0.017453142 2.3509886e-38
-0.036562104 -0.12748651 0.0114531 2.3509886e-38
-0.034703366 -0.1266733 0.014514513 2.3509886e-38
-0.032856978 -0.12589271 0.017453142 2.3509886e-38
-0.031054389 -0.12589271 0.017453142 2.3509886e-38
-0.029251795 -0.12589271 0.017453142 2.3509886e-38
-0.027449204 -0.12589271 0.017453142 2.3509886e-38
-0.025646612 -0.12589271 0.017453142 2.3509886e-38
-0.023817569 -0.12428986 0.023487277 2.3509886e-38
-0.022017691 -0.12349547 0.026477881 2.3509886e-38
-0.020222971 -0.12108628 0.035547562 2.3509886e-38
-0.018452106 -0.12108628 0.035547562 2.3509886e-38
-0.016665205 -0.12270571 0.02945096 2.3509886e-38
-0.014844322 -0.12508895 0.020479031 2.3509886e-38
-0.013047036 -0.12508895 0.020479031 2.3509886e-38
-0.011249749 -0.12508895 0.020479031 2.3509886e-38
-0.0094524622 -0.12508895 0.020479031 2.3509886e-38
-0.0076551754 -0.12508895 0.020479031 2.3509886e-38
-0.0058180988 -0.12589271 0.017453142 2.3509886e-38
-0.0040155062 -0.12589271 0.017453142 2.3509886e-38
-0.0022129144 -0.12589271 0.017453142 2.3509886e-38
0.0025358119 -0.11790501 0.047523864 2.3509886e-38
0.004428939 -0.11951269 0.041471548 2.3509886e-38
0.006189418 -0.11951269 0.041471548 2.3509886e-38
0.007949899 -0.11951269 0.041471548 2.3509886e-38
0.010317692 -0.12508895 0.020479031 2.3509886e-38
0.012114978 -0.12508895 0.020479031 2.3509886e-38
0.013621247 -0.12270571 0.02945096 2.3509886e-38
0.0154028 -0.12270571 0.02945096 2.3509886e-38
0.017074462 -0.12189357 0.03250844 2.3509886e-38
0.018850658 -0.12189357 0.03250844 2.3509886e-38
0.020747472 -0.12270571 0.02945096 2.3509886e-38
0.022529028 -0.12270571 0.02945096 2.3509883e-38
0.024310581 -0.12270571 0.02945096 2.3509883e-38
0.026092138 -0.12270571 0.02945096 2.350988e-38
0.028011832 -0.12349547 0.026477881 2.3509879e-38
0.030087847 -0.12508895 0.020479031 2.3509876e-38
0.032183181 -0.1266733 0.014514513 2.3509873e-38
0.033990923 -0.1266733 0.014514513 2.350987e-38
0.036172666 -0.12853102 0.0075208619 2.3509869e-38
0.038324542 -0.13012715 0.0015119985 2.3418031e-38
0.040155087 -0.13012715 0.0015119985 2.3234353e-38
0.042163633 -0.13093217 -0.0015185401 2.2407457e-38
0.044177275 -0.13171287 -0.0044576451 2.1485501e-38
0.046456043 -0.13358103 -0.011490636 2.102452e-38
0.048501071 -0.13437669 -0.014486007 2.1024157e-38
0.050359663 -0.13437669 -0.014486007 2.0839765e-38
0.052421603 -0.13517688 -0.017498426 2.0194395e-38
0.054565508 -0.13625093 -0.021541767 1.9549026e-38
0.056436468 -0.13625093 -0.021541767 1.8994773e-38
0.058521312 -0.13703169 -0.02448111 1.8441601e-38
0.06062616 -0.13784705 -0.02755063 1.8441248e-38
0.06281314 -0.13891099 -0.031555943 2.0284807e-38
0.064935334 -0.13970654 -0.034550838 2.0468484e-38
0.066829108 -0.13970654 -0.034550838 1.9269943e-38
0.069291569 -0.14155935 -0.041526012 1.9085196e-38
0.071441837 -0.14233841 -0.044458918 1.7886653e-38
0.073694341 -0.14340474 -0.048473291 1.7794091e-38
0.075880684 -0.14422549 -0.051563077 1.6411876e-38
0.078153752 -0.14527388 -0.055509858 1.5213696e-38
0.080443241 -0.14632986 -0.059485249 1.4937109e-38
0.082659714 -0.14713491 -0.062516026 1.4845638e-38
0.084602512 -0.14713491 -0.062516026 1.4754164e-38
0.086930059 -0.14820443 -0.06654232 1.4386104e-38
0.089166664 -0.14898713 -0.069488935 1.429463e-38
-0.10183414 -0.1292996 0.0114531 9.8656457e-39
-0.10002103 -0.1292996 0.0114531 2.3234012e-38
-0.097974427 -0.12848105 0.014514513 2.3418047e-38
-0.095947705 -0.12769531 0.017453142 2.3141819e-38
-0.093924932 -0.12688623 0.020479031 2.341805e-38
-0.092127658 -0.12688623 0.020479031 2.341805e-38
-0.090122022 -0.12608187 0.023487277 2.341805e-38
-0.088330008 -0.12608187 0.023487277 2.341805e-38
-0.086537994 -0.12608187 0.023487277 2.341805e-38
-0.084745981 -0.12608187 0.023487277 2.341805e-38
-0.082953982 -0.12608187 0.023487277 2.341805e-38
-0.081161961 -0.12608187 0.023487277 2.341805e-38
-0.079369955 -0.12608187 0.023487277 2.341805e-38
-0.077407524 -0.12528224 0.026477881 2.341805e-38
-0.075620756 -0.12528224 0.026477881 2.3509886e-38
-0.073674999 -0.1244873 0.02945096 2.3509886e-38
-0.0717353 -0.12366976 0.03250844 2.3509886e-38
-0.069959097 -0.12366976 0.03250844 2.3509886e-38
-0.06803637 -0.12285714 0.035547562 2.3509886e-38
-0.065851532 -0.12047486 0.044457264 2.3509886e-38
-0.064096279 -0.12047486 0.044457264 2.3509886e-38
-0.062469296 -0.12127317 0.041471548 2.3509886e-38
