# .PCD v0.7 - Point Cloud Data file format
VERSION 0.7
FIELDS x y z rgb
SIZE 4 4 4 4
TYPE F F F F
COUNT 1 1 1 1
WIDTH 933
HEIGHT 1
VIEWPOINT 0 0 0 1 0 0 0
POINTS 933
DATA ascii
0.040631186 -0.12285618 -0.034439068 2.3509886e-38
0.042581048 -0.12285618 -0.034439068 2.3509886e-38
0.044667821 -0.12357174 -0.037385684 2.3509886e-38
0.047011442 -0.12552883 -0.045444947 2.3509886e-38
0.048980605 -0.12552883 -0.045444947 2.3509886e-38
0.050949767 -0.12552883 -0.045444947 2.3509886e-38
0.053079639 -0.1262586 -0.048450213 2.3509886e-38
0.055054069 -0.1262586 -0.048450213 2.3509886e-38
0.057251059 -0.12720706 -0.052355867 2.3509886e-38
0.059232339 -0.12720706 -0.052355867 2.3509886e-38
0.060977362 -0.1262586 -0.048450213 2.3509886e-38
0.062951788 -0.1262586 -0.048450213 2.3509886e-38
0.064926222 -0.1262586 -0.048450213 2.3509886e-38
0.067424409 -0.12819304 -0.056416135 2.3509886e-38
0.069138728 -0.12720706 -0.052355867 2.341805e-38
0.071120009 -0.12720706 -0.052355867 2.341805e-38
0.073389605 -0.12819304 -0.056416135 2.341805e-38
0.075666234 -0.12915494 -0.060377341 2.3234379e-38
0.078190379 -0.13087825 -0.067473866 2.3234379e-38
0.07989227 -0.12990431 -0.063463189 2.3234379e-38
0.081893019 -0.12990431 -0.063463189 2.3234379e-38
0.083893783 -0.12990431 -0.063463189 2.3234379e-38
0.085894533 -0.12990431 -0.063463189 2.3234379e-38
0.087638281 -0.12915494 -0.060377341 2.3142544e-38
0.089296781 -0.12819304 -0.056416135 2.3142544e-38
0.091285177 -0.12819304 -0.056416135 2.2683362e-38
0.092914067 -0.12720706 -0.052355867 2.2590087e-38
0.094895341 -0.12720706 -0.052355867 2.2130191e-38
0.096876614 -0.12720706 -0.052355867 2.2313503e-38
0.098857902 -0.12720706 -0.052355867 2.2406778e-38
0.10017879 -0.12552883 -0.045444947 2.2775202e-38
0.10214796 -0.12552883 -0.045444947 2.2958873e-38
0.10411712 -0.12552883 -0.045444947 2.2867037e-38
0.10568481 -0.1245618 -0.04146276 2.2867037e-38
0.10764698 -0.1245618 -0.04146276 2.2683366e-38
0.10960916 -0.1245618 -0.04146276 2.2406783e-38
0.11157133 -0.1245618 -0.04146276 2.2406783e-38
0.11309389 -0.12357174 -0.037385684 2.2867037e-38
0.11504892 -0.12357174 -0.037385684 2.2867037e-38
0.11700395 -0.12357174 -0.037385684 2.2867037e-38
0.11895897 -0.12357174 -0.037385684 2.249826e-38
0.12138223 -0.1245618 -0.04146276 1.124932e-38
0.12334441 -0.1245618 -0.04146276 4.1498908e-39
-0.10136653 -0.12382124 -0.030412775 2.0107291e-38
-0.098840214 -0.12210761 -0.023406606 2.0935248e-38
-0.096909694 -0.12210761 -0.023406606 2.2591531e-38
-0.094979174 -0.12210761 -0.023406606 2.1670292e-38
-0.093048654 -0.12210761 -0.023406606 2.2867037e-38
-0.091118135 -0.12210761 -0.023406606 2.2958873e-38
-0.088663273 -0.12038656 -0.016370039 2.3142542e-38
-0.086745091 -0.12038656 -0.016370039 2.3326213e-38
-0.08454185 -0.11940466 -0.012355666 2.304927e-38
-0.082630701 -0.11940466 -0.012355666 2.341805e-38
-0.080521576 -0.11868732 -0.0094227595 2.3233662e-38
-0.078156956 -0.11698125 -0.0024475856 2.3234379e-38
-0.076071523 -0.11624874 0.00054730941 2.3142544e-38
-0.074182995 -0.11624874 0.00054730941 2.2958873e-38
-0.072294481 -0.11624874 0.00054730941 2.2591172e-38
-0.070405953 -0.11624874 0.00054730941 2.2222754e-38
-0.068688095 -0.11698125 -0.0024475856 2.2406783e-38
-0.066628911 -0.11624874 0.00054730941 2.341805e-38
-0.064740397 -0.11624874 0.00054730941 2.3509886e-38
-0.062851869 -0.11624874 0.00054730941 2.3233299e-38
-0.060763199 -0.11526908 0.0045526223 2.3233299e-38
-0.05859198 -0.11379938 0.010561486 2.3509886e-38
-0.056533147 -0.11281042 0.014604826 2.3509886e-38
-0.054669272 -0.11281042 0.014604826 2.3509886e-38
-0.052805398 -0.11281042 0.014604826 2.3509886e-38
-0.050941523 -0.11281042 0.014604826 2.3509886e-38
-0.049077649 -0.11281042 0.014604826 2.3509886e-38
-0.047213774 -0.11281042 0.014604826 2.3509886e-38
-0.045349903 -0.11281042 0.014604826 2.3509886e-38
-0.043486029 -0.11281042 0.014604826 2.3509886e-38
-0.041622154 -0.11281042 0.014604826 2.3509886e-38
-0.039882343 -0.11379938 0.010561486 2.3509886e-38
-0.03801138 -0.11379938 0.010561486 2.3509886e-38
-0.036220301 -0.1145183 0.0076221423 2.3509886e-38
-0.03452405 -0.11624874 0.00054730941 2.3509886e-38
-0.032635529 -0.11624874 0.00054730941 2.3509886e-38
-0.030747008 -0.11624874 0.00054730941 2.3509886e-38
-0.02891887 -0.11698125 -0.0024475856 2.3509886e-38
-0.0270251 -0.11698125 -0.0024475856 2.3509886e-38
-0.025131326 -0.11698125 -0.0024475856 2.3509886e-38
-0.023237552 -0.11698125 -0.0024475856 2.3509886e-38
-0.021343779 -0.11698125 -0.0024475856 2.3509886e-38
-0.019450009 -0.11698125 -0.0024475856 2.3509886e-38
-0.017556235 -0.11698125 -0.0024475856 2.3509886e-38
-0.015662465 -0.11698125 -0.0024475856 2.3509886e-38
-0.013768693 -0.11698125 -0.0024475856 2.3509886e-38
-0.011874919 -0.11698125 -0.0024475856 2.3509886e-38
-0.0099915126 -0.11794533 -0.0063891215 2.3509886e-38
-0.0080908304 -0.11794533 -0.0063891215 2.3509886e-38
-0.0061874865 -0.11868732 -0.0094227595 2.3509886e-38
-0.0042737713 -0.11940466 -0.012355666 2.3509886e-38
-0.0023626266 -0.11940466 -0.012355666 2.3509886e-38
-0.00042684749 -0.12038656 -0.016370039 2.3509886e-38
0.0015157145 -0.12114228 -0.019459825 2.3509886e-38
0.0034393147 -0.12114228 -0.019459825 2.3509886e-38
0.0053629158 -0.12114228 -0.019459825 2.3509886e-38
0.007286516 -0.12114228 -0.019459825 2.3509886e-38
0.0092101162 -0.12114228 -0.019459825 2.3509886e-38
0.011133716 -0.12114228 -0.019459825 2.3509886e-38
0.013057319 -0.12114228 -0.019459825 2.3509886e-38
0.015060498 -0.12210761 -0.023406606 2.3509886e-38
0.016991019 -0.12210761 -0.023406606 2.3509886e-38
0.018921539 -0.12210761 -0.023406606 2.3509886e-38
0.020953126 -0.12307997 -0.027381998 2.3509886e-38
0.02289062 -0.12307997 -0.027381998 2.3509886e-38
0.024915792 -0.12382124 -0.030412775 2.3509886e-38
0.026858594 -0.12382124 -0.030412775 2.3509886e-38
0.0288014 -0.12382124 -0.030412775 2.3509886e-38
0.030744206 -0.12382124 -0.030412775 2.3509886e-38
0.032687008 -0.12382124 -0.030412775 2.3509886e-38
0.034781594 -0.12480606 -0.034439068 2.3509886e-38
0.036731455 -0.12480606 -0.034439068 2.3509886e-38
0.038681321 -0.12480606 -0.034439068 2.3509886e-38
0.040631186 -0.12480606 -0.034439068 2.3509886e-38
0.042712793 -0.12552677 -0.037385684 2.3509886e-38
0.044667821 -0.12552677 -0.037385684 2.3509886e-38
0.047011442 -0.12749799 -0.045444947 2.3509886e-38
0.048980605 -0.12749799 -0.045444947 2.3509886e-38
0.050949767 -0.12749799 -0.045444947 2.3509886e-38
0.053079639 -0.12823303 -0.048450213 2.3509886e-38
0.055054069 -0.12823303 -0.048450213 2.3509886e-38
0.057251059 -0.12918831 -0.052355867 2.3509886e-38
0.059232339 -0.12918831 -0.052355867 2.3509886e-38
0.060977362 -0.12823303 -0.048450213 2.3509886e-38
0.062951788 -0.12823303 -0.048450213 2.3509886e-38
0.064926222 -0.12823303 -0.048450213 2.3509886e-38
0.067424409 -0.13018142 -0.056416135 2.3509886e-38
0.069138728 -0.12918831 -0.052355867 2.341805e-38
0.071120009 -0.12918831 -0.052355867 2.341805e-38
0.073389605 -0.13018142 -0.056416135 2.3049626e-38
0.076182596 -0.13288604 -0.067473866 2.3326213e-38
0.078190379 -0.13288604 -0.067473866 2.3234379e-38
0.080198161 -0.13288604 -0.067473866 2.3234379e-38
0.081652261 -0.13115029 -0.060377341 2.3142542e-38
0.083647601 -0.13115029 -0.060377341 2.3234379e-38
0.085319988 -0.13018142 -0.056416135 2.3234379e-38
0.087308384 -0.13018142 -0.056416135 2.3142542e-38
0.088951506 -0.12918831 -0.052355867 2.3142544e-38
0.090932779 -0.12918831 -0.052355867 2.3142544e-38
0.092568241 -0.12823303 -0.048450213 2.3142544e-38
0.094542675 -0.12823303 -0.048450213 2.2958873e-38
0.096517108 -0.12823303 -0.048450213 2.3142544e-38
0.098209627 -0.12749799 -0.045444947 2.2867036e-38
0.10017879 -0.12749799 -0.045444947 2.2498973e-38
0.10214796 -0.12749799 -0.045444947 2.2222747e-38
0.10411712 -0.12749799 -0.045444947 2.0193727e-38
0.10568481 -0.12652399 -0.04146276 2.0378837e-38
0.10764698 -0.12652399 -0.04146276 2.0286643e-38
0.10918383 -0.12552677 -0.037385684 1.9733829e-38
0.11113886 -0.12552677 -0.037385684 1.9364686e-38
0.11309389 -0.12552677 -0.037385684 1.9180655e-38
0.11504892 -0.12552677 -0.037385684 1.908846e-38
0.11700395 -0.12552677 -0.037385684 1.8903352e-38
0.11895897 -0.12552677 -0.037385684 1.9363614e-38
0.120914 -0.12552677 -0.037385684 8.6689186e-39
0.12334441 -0.12652399 -0.04146276 5.4413484e-39
0.12530659 -0.12652399 -0.04146276 1.8453545e-39
-0.11173462 -0.1274818 -0.037385684 5.0750784e-39
-0.10950836 -0.12675591 -0.034439068 5.9977578e-39
-0.1075585 -0.12675591 -0.034439068 3.6943076e-39
-0.1011088 -0.12501745 -0.027381998 7.9363884e-39
-0.098511524 -0.12306587 -0.019459825 6.4601793e-39
-0.096587919 -0.12306587 -0.019459825 1.2636563e-38
-0.094417818 -0.12230472 -0.016370039 1.2820234e-38
-0.092499636 -0.12230472 -0.016370039 1.9549795e-38
-0.090817116 -0.12306587 -0.019459825 2.2683365e-38
-0.088663273 -0.12230472 -0.016370039 2.3234379e-38
-0.086452998 -0.12131582 -0.012355666 2.341805e-38
-0.08454185 -0.12131582 -0.012355666 2.341769e-38
-0.082630701 -0.12131582 -0.012355666 2.3509886e-38
-0.080719553 -0.12131582 -0.012355666 2.341769e-38
-0.078156956 -0.11887501 -0.0024475856 2.3233302e-38
-0.076263182 -0.11887501 -0.0024475856 2.3233662e-38
-0.074182995 -0.11813726 0.00054730941 2.3142544e-38
-0.072294481 -0.11813726 0.00054730941 2.3142544e-38
-0.070405953 -0.11813726 0.00054730941 2.2958873e-38
-0.068688095 -0.11887501 -0.0024475856 2.3142544e-38
-0.066628911 -0.11813726 0.00054730941 2.3233662e-38
-0.064740397 -0.11813726 0.00054730941 2.3325494e-38
-0.062851869 -0.11813726 0.00054730941 2.341769e-38
-0.060763199 -0.11715056 0.0045526223 2.3509886e-38
-0.058733705 -0.11639442 0.0076221423 2.3509886e-38
-0.056721013 -0.11567034 0.010561486 2.3509886e-38
-0.054669272 -0.11467429 0.014604826 2.3509886e-38
-0.052805398 -0.11467429 0.014604826 2.3509886e-38
-0.050941523 -0.11467429 0.014604826 2.3509886e-38
-0.049077649 -0.11467429 0.014604826 2.3509886e-38
-0.047213774 -0.11467429 0.014604826 2.3509886e-38
-0.045349903 -0.11467429 0.014604826 2.3509886e-38
-0.043486029 -0.11467429 0.014604826 2.3509886e-38
-0.041753307 -0.11567034 0.010561486 2.3509886e-38
-0.039882343 -0.11567034 0.010561486 2.3509886e-38
-0.03801138 -0.11567034 0.010561486 2.3509886e-38
-0.036220301 -0.11639442 0.0076221423 2.3509886e-38
-0.03452405 -0.11813726 0.00054730941 2.3509886e-38
-0.032635529 -0.11813726 0.00054730941 2.3509886e-38
-0.030747008 -0.11813726 0.00054730941 2.3509886e-38
-0.02891887 -0.11887501 -0.0024475856 2.3509886e-38
-0.0270251 -0.11887501 -0.0024475856 2.3509886e-38
-0.025131326 -0.11887501 -0.0024475856 2.3509886e-38
-0.023237552 -0.11887501 -0.0024475856 2.3509886e-38
-0.021343779 -0.11887501 -0.0024475856 2.3509886e-38
-0.019450009 -0.11887501 -0.0024475856 2.3509886e-38
-0.017556235 -0.11887501 -0.0024475856 2.3509886e-38
-0.015662465 -0.11887501 -0.0024475856 2.3509886e-38
-0.013768693 -0.11887501 -0.0024475856 2.3509886e-38
-0.011874919 -0.11887501 -0.0024475856 2.3509886e-38
-0.0099915126 -0.119846 -0.0063891215 2.3509886e-38
-0.0080908304 -0.119846 -0.0063891215 2.3509886e-38
-0.0061874865 -0.12059332 -0.0094227595 2.3509886e-38
-0.0042737713 -0.12131582 -0.012355666 2.3509886e-38
-0.0023626266 -0.12131582 -0.012355666 2.3509886e-38
-0.00042684749 -0.12230472 -0.016370039 2.3509886e-38
0.0015157145 -0.12306587 -0.019459825 2.3509886e-38
0.0034393147 -0.12306587 -0.019459825 2.3509886e-38
0.0053629158 -0.12306587 -0.019459825 2.3509886e-38
0.007286516 -0.12306587 -0.019459825 2.3509886e-38
0.0092101162 -0.12306587 -0.019459825 2.3509886e-38
0.011133716 -0.12306587 -0.019459825 2.3509886e-38
0.013057319 -0.12306587 -0.019459825 2.3509886e-38
0.015060498 -0.12403814 -0.023406606 2.3509886e-38
0.016991019 -0.12403814 -0.023406606 2.3509886e-38
0.018921539 -0.12403814 -0.023406606 2.3509886e-38
0.020953126 -0.12501745 -0.027381998 2.3509886e-38
0.02289062 -0.12501745 -0.027381998 2.3509886e-38
0.024915792 -0.12576406 -0.030412775 2.3509886e-38
0.026858594 -0.12576406 -0.030412775 2.3509886e-38
0.0288014 -0.12576406 -0.030412775 2.3509886e-38
0.030744206 -0.12576406 -0.030412775 2.3509886e-38
0.032687008 -0.12576406 -0.030412775 2.3509886e-38
0.034629814 -0.12576406 -0.030412775 2.3509886e-38
0.03657262 -0.12576406 -0.030412775 2.3509886e-38
0.038681321 -0.12675591 -0.034439068 2.3509886e-38
0.040631186 -0.12675591 -0.034439068 2.3509886e-38
0.042581048 -0.12675591 -0.034439068 2.3509886e-38
0.044530913 -0.12675591 -0.034439068 2.3509886e-38
0.047011442 -0.12946714 -0.045444947 2.3509886e-38
0.049130779 -0.13020746 -0.048450213 2.3509886e-38
0.051105209 -0.13020746 -0.048450213 2.3509886e-38
0.053079639 -0.13020746 -0.048450213 2.3509886e-38
0.055269778 -0.1311696 -0.052355867 2.3509886e-38
0.053665817 -0.11567034 0.010561486 2.3509886e-38
0.055536777 -0.11567034 0.010561486 2.3509886e-38
0.061459221 -0.13216983 -0.056416135 2.3509886e-38
0.063447617 -0.13216983 -0.056416135 2.3509886e-38
0.062616289 -0.12131582 -0.012355666 2.3509886e-38
0.064527437 -0.12131582 -0.012355666 2.3509886e-38
0.066709563 -0.12230472 -0.016370039 2.341805e-38
0.068627745 -0.12230472 -0.016370039 2.341805e-38
0.070545927 -0.12230472 -0.016370039 2.341805e-38
0.072464116 -0.12230472 -0.016370039 2.341805e-38
0.074382298 -0.12230472 -0.016370039 2.341805e-38
0.079656906 -0.13314565 -0.060377341 2.341805e-38
0.081652261 -0.13314565 -0.060377341 2.3418047e-38
0.083647601 -0.13314565 -0.060377341 2.3418047e-38
0.083768435 -0.1274818 -0.037385684 2.3418047e-38
0.085723467 -0.1274818 -0.037385684 2.3142542e-38
0.087678485 -0.1274818 -0.037385684 2.295887e-38
0.089028351 -0.12576406 -0.030412775 2.2867037e-38
0.09097115 -0.12576406 -0.030412775 2.2958873e-38
0.093277521 -0.12675591 -0.034439068 2.2683366e-38
0.095227383 -0.12675591 -0.034439068 2.2222387e-38
0.097453646 -0.1274818 -0.037385684 2.1116399e-38
0.09979827 -0.12848614 -0.04146276 2.0194443e-38
0.10176044 -0.12848614 -0.04146276 1.9457597e-38
0.10331874 -0.1274818 -0.037385684 1.8534924e-38
0.10527376 -0.1274818 -0.037385684 1.881223e-38
0.10722879 -0.1274818 -0.037385684 1.9088817e-38
0.10918383 -0.1274818 -0.037385684 1.8720755e-38
0.11113886 -0.1274818 -0.037385684 1.881223e-38
0.11309389 -0.1274818 -0.037385684 1.8720755e-38
0.11504892 -0.1274818 -0.037385684 1.8628559e-38
0.11700395 -0.1274818 -0.037385684 1.8627482e-38
0.11895897 -0.1274818 -0.037385684 1.9640917e-38
0.120914 -0.1274818 -0.037385684 8.4848832e-39
0.12334441 -0.12848614 -0.04146276 5.5335427e-39
0.12530659 -0.12848614 -0.04146276 1.0155911e-39
-0.11079625 -0.12695493 -0.027381998 2.1761771e-38
-0.10885876 -0.12695493 -0.027381998 2.2775202e-38
-0.10692126 -0.12695493 -0.027381998 2.2591531e-38
-0.10463177 -0.12596865 -0.023406606 2.2499695e-38
-0.10270125 -0.12596865 -0.023406606 2.0934893e-38
-0.10077073 -0.12596865 -0.023406606 2.2224189e-38
-0.098254196 -0.12422292 -0.016370039 2.1672458e-38
-0.096336015 -0.12422292 -0.016370039 2.2316024e-38
-0.094097577 -0.12322696 -0.012355666 2.1763575e-38
-0.092186429 -0.12322696 -0.012355666 2.2683366e-38
-0.090581454 -0.12422292 -0.016370039 2.2498618e-38
-0.088663273 -0.12422292 -0.016370039 2.2865955e-38
-0.086452998 -0.12322696 -0.012355666 2.2404257e-38
-0.08454185 -0.12322696 -0.012355666 2.3048545e-38
-0.082630701 -0.12322696 -0.012355666 2.3509883e-38
-0.080521576 -0.1224993 -0.0094227595 2.3509883e-38
-0.078416117 -0.12174667 -0.0063891215 2.3417327e-38
-0.076515429 -0.12174667 -0.0063891215 2.31411e-38
-0.074369408 -0.1207688 -0.0024475856 2.2957431e-38
-0.072294481 -0.12002577 0.00054730941 2.2681564e-38
-0.070405953 -0.12002577 0.00054730941 2.2773763e-38
-0.068688095 -0.1207688 -0.0024475856 2.2865958e-38
-0.066628911 -0.12002577 0.00054730941 2.3326213e-38
-0.064740397 -0.12002577 0.00054730941 2.3509886e-38
-0.062851869 -0.12002577 0.00054730941 2.3509886e-38
-0.060763199 -0.11903207 0.0045526223 2.3509886e-38
-0.058881704 -0.11903207 0.0045526223 2.3509886e-38
-0.05685759 -0.11827053 0.0076221423 2.3325494e-38
-0.054850046 -0.1175413 0.010561486 2.3325494e-38
-0.052805398 -0.11653815 0.014604826 2.3509886e-38
-0.050941523 -0.11653815 0.014604826 2.3509886e-38
-0.049077649 -0.11653815 0.014604826 2.3509886e-38
-0.047213774 -0.11653815 0.014604826 2.3509886e-38
-0.045349903 -0.11653815 0.014604826 2.3509886e-38
-0.043486029 -0.11653815 0.014604826 2.3509886e-38
-0.041753307 -0.1175413 0.010561486 2.3509886e-38
-0.039882343 -0.1175413 0.010561486 2.3509886e-38
-0.03801138 -0.1175413 0.010561486 2.3509886e-38
-0.036220301 -0.11827053 0.0076221423 2.3509886e-38
-0.034422219 -0.11903207 0.0045526223 2.3509886e-38
-0.032635529 -0.12002577 0.00054730941 2.3509886e-38
-0.030747008 -0.12002577 0.00054730941 2.3509886e-38
-0.028858483 -0.12002577 0.00054730941 2.3509886e-38
-0.0270251 -0.1207688 -0.0024475856 2.3509886e-38
-0.025131326 -0.1207688 -0.0024475856 2.3509886e-38
-0.023237552 -0.1207688 -0.0024475856 2.3509886e-38
-0.021343779 -0.1207688 -0.0024475856 2.3509886e-38
-0.019450009 -0.1207688 -0.0024475856 2.3509886e-38
-0.017556235 -0.1207688 -0.0024475856 2.3509886e-38
-0.015662465 -0.1207688 -0.0024475856 2.3509886e-38
-0.013768693 -0.1207688 -0.0024475856 2.3509886e-38
-0.011874919 -0.1207688 -0.0024475856 2.3509886e-38
-0.009981147 -0.1207688 -0.0024475856 2.3509886e-38
-0.0080908304 -0.12174667 -0.0063891215 2.3509886e-38
-0.0061874865 -0.1224993 -0.0094227595 2.3509886e-38
-0.0042737713 -0.12322696 -0.012355666 2.3509886e-38
-0.0023626266 -0.12322696 -0.012355666 2.3509886e-38
-0.00042684749 -0.12422292 -0.016370039 2.3509886e-38
0.0014913362 -0.12422292 -0.016370039 2.3509886e-38
0.0034393147 -0.12498946 -0.019459825 2.3509886e-38
0.0053629158 -0.12498946 -0.019459825 2.3509886e-38
0.0073384158 -0.12596865 -0.023406606 2.3509886e-38
0.0092689367 -0.12596865 -0.023406606 2.3509886e-38
0.011133716 -0.12498946 -0.019459825 2.3509886e-38
0.013057319 -0.12498946 -0.019459825 2.3509886e-38
0.014980919 -0.12498946 -0.019459825 2.3509886e-38
0.016904518 -0.12498946 -0.019459825 2.3509886e-38
0.01882812 -0.12498946 -0.019459825 2.3509886e-38
0.020852059 -0.12596865 -0.023406606 2.3509886e-38
0.02289062 -0.12695493 -0.027381998 2.3509886e-38
0.024915792 -0.12770687 -0.030412775 2.3509886e-38
0.026858594 -0.12770687 -0.030412775 2.3509886e-38
0.0288014 -0.12770687 -0.030412775 2.3509886e-38
0.030744206 -0.12770687 -0.030412775 2.3509886e-38
0.032687008 -0.12770687 -0.030412775 2.3509886e-38
0.034629814 -0.12770687 -0.030412775 2.3509886e-38
0.03657262 -0.12770687 -0.030412775 2.3509886e-38
0.038515422 -0.12770687 -0.030412775 2.3509886e-38
0.040631186 -0.12870578 -0.034439068 2.3509886e-38
0.042581048 -0.12870578 -0.034439068 2.3509886e-38
0.044530913 -0.12870578 -0.034439068 2.3509886e-38
0.046480779 -0.12870578 -0.034439068 2.3509886e-38
0.046832029 -0.1207688 -0.0024475856 2.3509886e-38
0.048725799 -0.1207688 -0.0024475856 2.3509886e-38
0.050619572 -0.1207688 -0.0024475856 2.3509886e-38
0.051794853 -0.1175413 0.010561486 2.3509886e-38
0.053665817 -0.1175413 0.010561486 2.3509886e-38
0.055536777 -0.1175413 0.010561486 2.3509886e-38
0.057407744 -0.1175413 0.010561486 2.3509886e-38
0.060333766 -0.12174667 -0.0063891215 2.3509886e-38
0.062616289 -0.12322696 -0.012355666 2.3509886e-38
0.064527437 -0.12322696 -0.012355666 2.3509886e-38
0.066438578 -0.12322696 -0.012355666 2.341805e-38
0.068349726 -0.12322696 -0.012355666 2.341805e-38
0.070545927 -0.12422292 -0.016370039 2.341805e-38
0.072464116 -0.12422292 -0.016370039 2.341805e-38
0.074382298 -0.12422292 -0.016370039 2.341805e-38
0.076300479 -0.12422292 -0.016370039 2.3234018e-38
0.078459732 -0.12498946 -0.019459825 2.332621e-38
0.081257127 -0.12770687 -0.030412775 2.3418047e-38
0.083199926 -0.12770687 -0.030412775 2.3418047e-38
0.085142739 -0.12770687 -0.030412775 2.2497173e-38
0.087085538 -0.12770687 -0.030412775 2.0839452e-38
0.088765301 -0.12695493 -0.027381998 2.0563228e-38
0.090702794 -0.12695493 -0.027381998 2.0286641e-38
0.092913948 -0.12770687 -0.030412775 1.9734186e-38
0.094856761 -0.12770687 -0.030412775 1.9088817e-38
0.09679956 -0.12770687 -0.030412775 1.8443448e-38
0.098742373 -0.12770687 -0.030412775 1.7798078e-38
0.10107697 -0.12870578 -0.034439068 1.733782e-38
0.10302683 -0.12870578 -0.034439068 1.8536363e-38
0.10497671 -0.12870578 -0.034439068 1.8628559e-38
0.10692657 -0.12870578 -0.034439068 1.8351972e-38
0.10918383 -0.12943684 -0.037385684 1.7891713e-38
0.11113886 -0.12943684 -0.037385684 1.7707322e-38
0.11309389 -0.12943684 -0.037385684 1.7891713e-38
0.11504892 -0.12943684 -0.037385684 1.7891713e-38
0.11700395 -0.12943684 -0.037385684 1.7707322e-38
0.11895897 -0.12943684 -0.037385684 1.8534926e-38
0.120914 -0.12943684 -0.037385684 8.300492e-39
0.12380872 -0.1314363 -0.045444947 4.8885292e-39
0.12577789 -0.1314363 -0.045444947 7.1746481e-43
0.12774706 -0.1314363 -0.045444947 3.5873241e-43
-0.11428439 -0.12789918 -0.023406606 2.2958154e-38
-0.11129787 -0.12513812 -0.012355666 2.3050708e-38
-0.10938673 -0.12513812 -0.012355666 2.3142544e-38
-0.10747559 -0.12513812 -0.012355666 2.1945444e-38
-0.10656231 -0.12789918 -0.023406606 2.1946164e-38
-0.10428233 -0.12691309 -0.019459825 2.2775202e-38
-0.10209056 -0.12614109 -0.016370039 2.2591531e-38
-0.10017238 -0.12614109 -0.016370039 2.2132353e-38
-0.097919859 -0.12513812 -0.012355666 2.2040518e-38
-0.096008711 -0.12513812 -0.012355666 2.2224189e-38
-0.094097577 -0.12513812 -0.012355666 2.2499695e-38
-0.092186429 -0.12513812 -0.012355666 2.2591531e-38
-0.09027528 -0.12513812 -0.012355666 2.2958873e-38
-0.088364132 -0.12513812 -0.012355666 2.3234379e-38
-0.086239584 -0.12440531 -0.0094227595 2.3509886e-38
-0.084333576 -0.12440531 -0.0094227595 2.3509883e-38
-0.082427584 -0.12440531 -0.0094227595 2.332405e-38
-0.080521576 -0.12440531 -0.0094227595 2.3508801e-38
-0.078416117 -0.12364738 -0.0063891215 2.3509521e-38
-0.076263182 -0.12266256 -0.0024475856 2.3509521e-38
-0.074369408 -0.12266256 -0.0024475856 2.3509883e-38
-0.072294481 -0.12191428 0.00054730941 2.3509883e-38
-0.070405953 -0.12191428 0.00054730941 2.3418047e-38
-0.068517439 -0.12191428 0.00054730941 2.3418047e-38
-0.066628911 -0.12191428 0.00054730941 2.3509886e-38
-0.064740397 -0.12191428 0.00054730941 2.3509886e-38
-0.062851869 -0.12191428 0.00054730941 2.3509886e-38
-0.060963351 -0.12191428 0.00054730941 2.3509886e-38
-0.058881704 -0.12091358 0.0045526223 2.3509886e-38
-0.05685759 -0.12014665 0.0076221423 2.3325494e-38
-0.054850046 -0.11941226 0.010561486 2.3325494e-38
-0.052979086 -0.11941226 0.010561486 2.3509886e-38
-0.050941523 -0.11840202 0.014604826 2.3509886e-38
-0.049077649 -0.11840202 0.014604826 2.3509886e-38
-0.047213774 -0.11840202 0.014604826 2.3509886e-38
-0.045349903 -0.11840202 0.014604826 2.3509886e-38
-0.043486029 -0.11840202 0.014604826 2.3509886e-38
-0.041622154 -0.11840202 0.014604826 2.3509886e-38
-0.039882343 -0.11941226 0.010561486 2.3509886e-38
-0.03801138 -0.11941226 0.010561486 2.3509886e-38
-0.036220301 -0.12014665 0.0076221423 2.3509886e-38
-0.034422219 -0.12091358 0.0045526223 2.3509886e-38
-0.032635529 -0.12191428 0.00054730941 2.3509886e-38
-0.030747008 -0.12191428 0.00054730941 2.3509886e-38
-0.028858483 -0.12191428 0.00054730941 2.3509886e-38
-0.026969962 -0.12191428 0.00054730941 2.3509886e-38
-0.025131326 -0.12266256 -0.0024475856 2.3509886e-38
-0.023237552 -0.12266256 -0.0024475856 2.3509886e-38
-0.021343779 -0.12266256 -0.0024475856 2.3509886e-38
-0.019450009 -0.12266256 -0.0024475856 2.3509886e-38
-0.017556235 -0.12266256 -0.0024475856 2.3509886e-38
-0.015662465 -0.12266256 -0.0024475856 2.3509886e-38
-0.013768693 -0.12266256 -0.0024475856 2.3509886e-38
-0.011874919 -0.12266256 -0.0024475856 2.3509886e-38
-0.009981147 -0.12266256 -0.0024475856 2.3509886e-38
-0.0080908304 -0.12364738 -0.0063891215 2.3509886e-38
-0.0061874865 -0.12440531 -0.0094227595 2.3509886e-38
-0.0042737713 -0.12513812 -0.012355666 2.3509886e-38
-0.0023626266 -0.12513812 -0.012355666 2.3509886e-38
-0.00042684749 -0.12614109 -0.016370039 2.3509886e-38
0.0014913362 -0.12614109 -0.016370039 2.3509886e-38
0.0034393147 -0.12691309 -0.019459825 2.3509886e-38
0.0053629158 -0.12691309 -0.019459825 2.3509886e-38
0.007286516 -0.12691309 -0.019459825 2.3509886e-38
0.0092101162 -0.12691309 -0.019459825 2.3509886e-38
0.011082252 -0.12614109 -0.016370039 2.3509886e-38
0.013000435 -0.12614109 -0.016370039 2.3509886e-38
0.014918617 -0.12614109 -0.016370039 2.3509886e-38
0.0168368 -0.12614109 -0.016370039 2.3509886e-38
0.018754985 -0.12614109 -0.016370039 2.3509886e-38
0.020852059 -0.12789918 -0.023406606 2.3509886e-38
0.022782579 -0.12789918 -0.023406606 2.3509886e-38
0.024915792 -0.12964968 -0.030412775 2.3509886e-38
0.026858594 -0.12964968 -0.030412775 2.3509886e-38
0.0288014 -0.12964968 -0.030412775 2.3509886e-38
0.030744206 -0.12964968 -0.030412775 2.3509886e-38
0.032578073 -0.12889244 -0.027381998 2.3509886e-38
0.034515563 -0.12889244 -0.027381998 2.3509886e-38
0.03657262 -0.12964968 -0.030412775 2.3509886e-38
0.038515422 -0.12964968 -0.030412775 2.3509886e-38
0.040458228 -0.12964968 -0.030412775 2.3509886e-38
0.041150711 -0.12266256 -0.0024475856 2.3509886e-38
0.043044481 -0.12266256 -0.0024475856 2.3509886e-38
0.044938255 -0.12266256 -0.0024475856 2.3509886e-38
0.046832029 -0.12266256 -0.0024475856 2.3509886e-38
0.048725799 -0.12266256 -0.0024475856 2.3509886e-38
0.050619572 -0.12266256 -0.0024475856 2.3509886e-38
0.052513346 -0.12266256 -0.0024475856 2.3509886e-38
0.05383331 -0.12014665 0.0076221423 2.3509886e-38
0.055709429 -0.12014665 0.0076221423 2.3509886e-38
0.05819466 -0.12266256 -0.0024475856 2.3509886e-38
0.060333766 -0.12364738 -0.0063891215 2.3509886e-38
0.062234454 -0.12364738 -0.0063891215 2.3509886e-38
0.064334594 -0.12440531 -0.0094227595 2.3509886e-38
0.066240601 -0.12440531 -0.0094227595 2.3509886e-38
0.068349726 -0.12513812 -0.012355666 2.3509886e-38
0.070260867 -0.12513812 -0.012355666 2.3326213e-38
0.072172016 -0.12513812 -0.012355666 2.341805e-38
0.074382298 -0.12614109 -0.016370039 2.3234015e-38
0.076300479 -0.12614109 -0.016370039 2.2957428e-38
0.078218661 -0.12614109 -0.016370039 2.332621e-38
0.080383338 -0.12691309 -0.019459825 2.3418047e-38
0.08262872 -0.12789918 -0.023406606 2.2865232e-38
0.084559239 -0.12789918 -0.023406606 2.1483021e-38
0.086489759 -0.12789918 -0.023406606 2.0194446e-38
0.088420279 -0.12789918 -0.023406606 1.9733829e-38
0.090350799 -0.12789918 -0.023406606 1.9180655e-38
0.092640288 -0.12889244 -0.027381998 1.8444169e-38
0.094577782 -0.12889244 -0.027381998 1.8075387e-38
0.096515261 -0.12889244 -0.027381998 1.7983191e-38
0.098452754 -0.12889244 -0.027381998 1.7983191e-38
0.10068517 -0.12964968 -0.030412775 1.798391e-38
0.10262797 -0.12964968 -0.030412775 1.8076106e-38
0.10457078 -0.12964968 -0.030412775 1.7800239e-38
0.10651358 -0.12964968 -0.030412775 1.7524009e-38
0.10887643 -0.13065563 -0.034439068 1.7247423e-38
0.11082629 -0.13065563 -0.034439068 1.7431814e-38
0.11309389 -0.13139187 -0.037385684 1.7800956e-38
0.11504892 -0.13139187 -0.037385684 1.7708761e-38
0.11700395 -0.13139187 -0.037385684 1.7524009e-38
0.11895897 -0.13139187 -0.037385684 1.7982112e-38
0.12138223 -0.13241051 -0.04146276 1.0236599e-38
0.12380872 -0.13340546 -0.045444947 6.4558521e-39
0.12577789 -0.13340546 -0.045444947 1.0761972e-42
0.12774706 -0.13340546 -0.045444947 3.5873241e-43
-0.12007595 -0.12982969 -0.023406606 2.2497894e-38
-0.11774752 -0.12883668 -0.019459825 2.2958151e-38
-0.11551783 -0.12805928 -0.016370039 2.3234379e-38
-0.11359965 -0.12805928 -0.016370039 2.341805e-38
-0.11101761 -0.12631132 -0.0094227595 2.3142544e-38
-0.10911161 -0.12631132 -0.0094227595 2.3234379e-38
-0.10747559 -0.12704925 -0.012355666 2.3234379e-38
-0.10592692 -0.12805928 -0.016370039 2.3142544e-38
-0.10365329 -0.12704925 -0.012355666 2.3050708e-38
-0.10174216 -0.12704925 -0.012355666 2.2867037e-38
-0.099831007 -0.12704925 -0.012355666 2.2867037e-38
-0.097919859 -0.12704925 -0.012355666 2.240786e-38
-0.095769592 -0.12631132 -0.0094227595 2.2499695e-38
-0.093863599 -0.12631132 -0.0094227595 2.240786e-38
-0.091957591 -0.12631132 -0.0094227595 2.2867037e-38
-0.090051584 -0.12631132 -0.0094227595 2.2958873e-38
-0.088145591 -0.12631132 -0.0094227595 2.277376e-38
-0.086239584 -0.12631132 -0.0094227595 2.3509886e-38
-0.084333576 -0.12631132 -0.0094227595 2.3232936e-38
-0.082427584 -0.12631132 -0.0094227595 2.3509521e-38
-0.080521576 -0.12631132 -0.0094227595 2.3509521e-38
-0.078416117 -0.12554805 -0.0063891215 2.3509521e-38
-0.076263182 -0.12455635 -0.0024475856 2.3508801e-38
-0.074182995 -0.12380283 0.00054730941 2.3325129e-38
-0.072294481 -0.12380283 0.00054730941 2.3418043e-38
-0.070405953 -0.12380283 0.00054730941 2.3509883e-38
-0.068517439 -0.12380283 0.00054730941 2.3418047e-38
-0.066628911 -0.12380283 0.00054730941 2.3509886e-38
-0.064740397 -0.12380283 0.00054730941 2.3233299e-38
-0.062851869 -0.12380283 0.00054730941 2.3141103e-38
-0.060763199 -0.12279506 0.0045526223 2.341769e-38
-0.058733705 -0.12202276 0.0076221423 2.3509886e-38
-0.05685759 -0.12202276 0.0076221423 2.341769e-38
-0.054850046 -0.12128322 0.010561486 2.3509886e-38
-0.052979086 -0.12128322 0.010561486 2.3509886e-38
-0.050941523 -0.12026589 0.014604826 2.3509886e-38
-0.049077649 -0.12026589 0.014604826 2.3509886e-38
-0.047213774 -0.12026589 0.014604826 2.3509886e-38
-0.045349903 -0.12026589 0.014604826 2.3509886e-38
-0.043486029 -0.12026589 0.014604826 2.3509886e-38
-0.041622154 -0.12026589 0.014604826 2.3509886e-38
-0.039882343 -0.12128322 0.010561486 2.3509886e-38
-0.03801138 -0.12128322 0.010561486 2.3509886e-38
-0.036220301 -0.12202276 0.0076221423 2.3509886e-38
-0.034422219 -0.12279506 0.0045526223 2.3509886e-38
-0.032635529 -0.12380283 0.00054730941 2.3509886e-38
-0.030747008 -0.12380283 0.00054730941 2.3509886e-38
-0.028858483 -0.12380283 0.00054730941 2.3509886e-38
-0.026969962 -0.12380283 0.00054730941 2.3509886e-38
-0.025131326 -0.12455635 -0.0024475856 2.3509886e-38
-0.023237552 -0.12455635 -0.0024475856 2.3509886e-38
-0.021343779 -0.12455635 -0.0024475856 2.3509886e-38
-0.019450009 -0.12455635 -0.0024475856 2.3509886e-38
-0.017556235 -0.12455635 -0.0024475856 2.3509886e-38
-0.015662465 -0.12455635 -0.0024475856 2.3509886e-38
-0.013768693 -0.12455635 -0.0024475856 2.3509886e-38
-0.011874919 -0.12455635 -0.0024475856 2.3509886e-38
-0.009981147 -0.12455635 -0.0024475856 2.3509886e-38
-0.0080908304 -0.12554805 -0.0063891215 2.3509886e-38
-0.0061874865 -0.12631132 -0.0094227595 2.3509886e-38
-0.0042814845 -0.12631132 -0.0094227595 2.3509886e-38
-0.0023754826 -0.12631132 -0.0094227595 2.3509886e-38
-0.0004514819 -0.12704925 -0.012355666 2.3509886e-38
0.0014596628 -0.12704925 -0.012355666 2.3509886e-38
0.0034393147 -0.12883668 -0.019459825 2.3509886e-38
0.0053629158 -0.12883668 -0.019459825 2.3509886e-38
0.007286516 -0.12883668 -0.019459825 2.3509886e-38
0.0092101162 -0.12883668 -0.019459825 2.3509886e-38
0.011082252 -0.12805928 -0.016370039 2.3509886e-38
0.013000435 -0.12805928 -0.016370039 2.3509886e-38
0.014918617 -0.12805928 -0.016370039 2.3509886e-38
0.0168368 -0.12805928 -0.016370039 2.3509886e-38
0.018754985 -0.12805928 -0.016370039 2.3509886e-38
0.020852059 -0.12982969 -0.023406606 2.3509886e-38
0.022782579 -0.12982969 -0.023406606 2.3509886e-38
0.02482811 -0.13082992 -0.027381998 2.3509886e-38
0.026858594 -0.13159247 -0.030412775 2.3509886e-38
0.0288014 -0.13159247 -0.030412775 2.3509886e-38
0.030744206 -0.13159247 -0.030412775 2.3509886e-38
0.032578073 -0.13082992 -0.027381998 2.3509886e-38
0.034515563 -0.13082992 -0.027381998 2.3509886e-38
0.036453053 -0.13082992 -0.027381998 2.3509886e-38
0.037239764 -0.12380283 0.00054730941 2.3509886e-38
0.039128289 -0.12380283 0.00054730941 2.3509886e-38
0.04101681 -0.12380283 0.00054730941 2.3509886e-38
0.043044481 -0.12455635 -0.0024475856 2.3509886e-38
0.044938255 -0.12455635 -0.0024475856 2.3509886e-38
0.046832029 -0.12455635 -0.0024475856 2.3509886e-38
0.048725799 -0.12455635 -0.0024475856 2.3509886e-38
0.050619572 -0.12455635 -0.0024475856 2.3509886e-38
0.052513346 -0.12455635 -0.0024475856 2.3509886e-38
0.054407116 -0.12455635 -0.0024475856 2.3509886e-38
0.056300886 -0.12455635 -0.0024475856 2.3509886e-38
0.05819466 -0.12455635 -0.0024475856 2.3509886e-38
0.060333766 -0.12554805 -0.0063891215 2.3509886e-38
0.062234454 -0.12554805 -0.0063891215 2.3509886e-38
0.064334594 -0.12631132 -0.0094227595 2.3509886e-38
0.066240601 -0.12631132 -0.0094227595 2.3509886e-38
0.068349726 -0.12704925 -0.012355666 2.3509886e-38
0.070260867 -0.12704925 -0.012355666 2.341769e-38
0.072172016 -0.12704925 -0.012355666 2.341805e-38
0.074382298 -0.12805928 -0.016370039 2.3326213e-38
0.076300479 -0.12805928 -0.016370039 2.3234015e-38
0.078218661 -0.12805928 -0.016370039 2.341805e-38
0.080136843 -0.12805928 -0.016370039 2.3418047e-38
0.082306929 -0.12883668 -0.019459825 2.2680844e-38
0.084230535 -0.12883668 -0.019459825 2.0838373e-38
0.086489759 -0.12982969 -0.023406606 2.0378838e-38
0.088420279 -0.12982969 -0.023406606 1.9734911e-38
0.090350799 -0.12982969 -0.023406606 1.8997346e-38
0.092640288 -0.13082992 -0.027381998 1.8260141e-38
0.094577782 -0.13082992 -0.027381998 1.7891358e-38
0.096515261 -0.13082992 -0.027381998 1.7799163e-38
0.098452754 -0.13082992 -0.027381998 1.7708043e-38
0.10039025 -0.13082992 -0.027381998 1.7800239e-38
0.10262797 -0.13159247 -0.030412775 1.7800239e-38
0.10457078 -0.13159247 -0.030412775 1.7708762e-38
0.10651358 -0.13159247 -0.030412775 1.752437e-38
0.1084564 -0.13159247 -0.030412775 1.7432174e-38
0.11082629 -0.13260551 -0.034439068 1.7616565e-38
0.11309389 -0.13334687 -0.037385684 1.7800956e-38
0.11504892 -0.13334687 -0.037385684 1.7339978e-38
0.11700395 -0.13334687 -0.037385684 1.6786444e-38
0.11942006 -0.1343727 -0.04146276 1.7705165e-38
0.12138223 -0.1343727 -0.04146276 1.0696498e-38
0.12380872 -0.13537462 -0.045444947 5.9026783e-39
0.12613356 -0.13613077 -0.048450213 7.1746481e-43
0.12906472 -0.138135 -0.056416135 5.5388704e-40
0.13105312 -0.138135 -0.056416135 4.6133128e-40
-0.1224212 -0.13276742 -0.027381998 1.0418819e-38
-0.12007595 -0.13176022 -0.023406606 2.2680838e-38
-0.11774752 -0.13076027 -0.019459825 2.3141819e-38
-0.11551783 -0.12997745 -0.016370039 2.332621e-38
-0.11359965 -0.12997745 -0.016370039 2.3509883e-38
-0.11101761 -0.12821732 -0.0094227595 2.341805e-38
-0.10911161 -0.12821732 -0.0094227595 2.341805e-38
-0.10720561 -0.12821732 -0.0094227595 2.341805e-38
-0.10529961 -0.12821732 -0.0094227595 2.341805e-38
-0.103125 -0.12744872 -0.0063891215 2.341805e-38
-0.10122431 -0.12744872 -0.0063891215 2.341805e-38
-0.099831007 -0.12896039 -0.012355666 2.3234379e-38
-0.097919859 -0.12896039 -0.012355666 2.3234379e-38
-0.095769592 -0.12821732 -0.0094227595 2.3142544e-38
-0.093863599 -0.12821732 -0.0094227595 2.3234379e-38
-0.091720901 -0.12744872 -0.0063891215 2.3234379e-38
-0.089820214 -0.12744872 -0.0063891215 2.341805e-38
-0.088145591 -0.12821732 -0.0094227595 2.341805e-38
-0.086018853 -0.12744872 -0.0063891215 2.3509886e-38
-0.084118165 -0.12744872 -0.0063891215 2.3509886e-38
-0.082217477 -0.12744872 -0.0063891215 2.3509883e-38
-0.080521576 -0.12821732 -0.0094227595 2.3509883e-38
-0.078615569 -0.12821732 -0.0094227595 2.3509883e-38
-0.076263182 -0.12645011 -0.0024475856 2.3509883e-38
-0.073933698 -0.12467657 0.0045526223 2.3509883e-38
-0.072052203 -0.12467657 0.0045526223 2.3509883e-38
-0.069817759 -0.12315418 0.010561486 2.3509886e-38
-0.067946799 -0.12315418 0.010561486 2.3509886e-38
-0.066407703 -0.12467657 0.0045526223 2.3509886e-38
-0.064526208 -0.12467657 0.0045526223 2.3509886e-38
-0.062644705 -0.12467657 0.0045526223 2.3509886e-38
-0.060763199 -0.12467657 0.0045526223 2.3509886e-38
-0.058733705 -0.12389888 0.0076221423 2.3509886e-38
-0.05685759 -0.12389888 0.0076221423 2.3509886e-38
-0.054850046 -0.12315418 0.010561486 2.3509886e-38
-0.052979086 -0.12315418 0.010561486 2.3509886e-38
-0.050941523 -0.12212978 0.014604826 2.3509886e-38
-0.049077649 -0.12212978 0.014604826 2.3509886e-38
-0.047213774 -0.12212978 0.014604826 2.3509886e-38
-0.045349903 -0.12212978 0.014604826 2.3509886e-38
-0.043486029 -0.12212978 0.014604826 2.3509886e-38
-0.041622154 -0.12212978 0.014604826 2.3509886e-38
-0.039882343 -0.12315418 0.010561486 2.3509886e-38
-0.03801138 -0.12315418 0.010561486 2.3509886e-38
-0.036140416 -0.12315418 0.010561486 2.3509886e-38
-0.034344181 -0.12389888 0.0076221423 2.3509886e-38
-0.03254072 -0.12467657 0.0045526223 2.3509886e-38
-0.030659221 -0.12467657 0.0045526223 2.3509886e-38
-0.028858483 -0.12569134 0.00054730941 2.3509886e-38
-0.026969962 -0.12569134 0.00054730941 2.3509886e-38
-0.025131326 -0.12645011 -0.0024475856 2.3509886e-38
-0.02319292 -0.12569134 0.00054730941 2.3509886e-38
-0.021304399 -0.12569134 0.00054730941 2.3509886e-38
-0.019415878 -0.12569134 0.00054730941 2.3509886e-38
-0.017527357 -0.12569134 0.00054730941 2.3509886e-38
-0.015662465 -0.12645011 -0.0024475856 2.3509886e-38
-0.013768693 -0.12645011 -0.0024475856 2.3509886e-38
-0.011874919 -0.12645011 -0.0024475856 2.3509886e-38
-0.009981147 -0.12645011 -0.0024475856 2.3509886e-38
-0.0080908304 -0.12744872 -0.0063891215 2.3509886e-38
-0.0061874865 -0.12821732 -0.0094227595 2.3509886e-38
-0.0042814845 -0.12821732 -0.0094227595 2.3509886e-38
-0.0023754826 -0.12821732 -0.0094227595 2.3509886e-38
-0.0004514819 -0.12896039 -0.012355666 2.3509886e-38
0.0014596628 -0.12896039 -0.012355666 2.3509886e-38
0.0034393147 -0.13076027 -0.019459825 2.3509886e-38
0.0053629158 -0.13076027 -0.019459825 2.3509886e-38
0.007193096 -0.12896039 -0.012355666 2.3509886e-38
0.0091042416 -0.12896039 -0.012355666 2.3509886e-38
0.010966533 -0.12821732 -0.0094227595 2.3509886e-38
0.012872535 -0.12821732 -0.0094227595 2.3509886e-38
0.014778537 -0.12821732 -0.0094227595 2.3509886e-38
0.016618054 -0.12744872 -0.0063891215 2.3509886e-38
0.018518735 -0.12744872 -0.0063891215 2.3509886e-38
0.020419419 -0.12744872 -0.0063891215 2.3509886e-38
0.02289062 -0.13276742 -0.027381998 2.3509886e-38
0.02482811 -0.13276742 -0.027381998 2.3509883e-38
0.026858594 -0.13353528 -0.030412775 2.3509883e-38
0.0288014 -0.13353528 -0.030412775 2.3509883e-38
0.030744206 -0.13353528 -0.030412775 2.3509883e-38
0.032831728 -0.13455538 -0.034439068 2.3509886e-38
0.033196025 -0.12389888 0.0076221423 2.3509886e-38
0.03507214 -0.12389888 0.0076221423 2.3509886e-38
0.03694826 -0.12389888 0.0076221423 2.3509886e-38
0.038956232 -0.12467657 0.0045526223 2.3509886e-38
0.04101681 -0.12569134 0.00054730941 2.3509886e-38
0.043044481 -0.12645011 -0.0024475856 2.3509886e-38
0.044938255 -0.12645011 -0.0024475856 2.3509886e-38
0.046832029 -0.12645011 -0.0024475856 2.3509886e-38
0.048725799 -0.12645011 -0.0024475856 2.3509886e-38
0.050619572 -0.12645011 -0.0024475856 2.3509886e-38
0.052513346 -0.12645011 -0.0024475856 2.3509886e-38
0.054407116 -0.12645011 -0.0024475856 2.3509527e-38
0.056300886 -0.12645011 -0.0024475856 2.3509527e-38
0.05819466 -0.12645011 -0.0024475856 2.3509527e-38
0.060333766 -0.12744872 -0.0063891215 2.3509527e-38
0.062234454 -0.12744872 -0.0063891215 2.3509527e-38
0.064334594 -0.12821732 -0.0094227595 2.3509527e-38
0.066240601 -0.12821732 -0.0094227595 2.3509527e-38
0.068349726 -0.12896039 -0.012355666 2.3509886e-38
0.070260867 -0.12896039 -0.012355666 2.3509886e-38
0.072172016 -0.12896039 -0.012355666 2.3509886e-38
0.074083157 -0.12896039 -0.012355666 2.341769e-38
0.075994305 -0.12896039 -0.012355666 2.3325494e-38
0.077905439 -0.12896039 -0.012355666 2.341805e-38
0.080136843 -0.12997745 -0.016370039 2.341805e-38
0.082306929 -0.13076027 -0.019459825 2.2864879e-38
0.084230535 -0.13076027 -0.019459825 2.1575938e-38
0.086489759 -0.13176022 -0.023406606 2.0747621e-38
0.088420279 -0.13176022 -0.023406606 1.9734911e-38
0.090350799 -0.13176022 -0.023406606 1.9182097e-38
0.092640288 -0.13276742 -0.027381998 1.8444532e-38
0.094577782 -0.13276742 -0.027381998 1.7338541e-38
0.096515261 -0.13276742 -0.027381998 1.7247065e-38
0.098452754 -0.13276742 -0.027381998 1.7893153e-38
0.10039025 -0.13276742 -0.027381998 1.7893153e-38
0.10262797 -0.13353528 -0.030412775 1.7800958e-38
0.10457078 -0.13353528 -0.030412775 1.7247784e-38
0.10651358 -0.13353528 -0.030412775 1.6879002e-38
0.1084564 -0.13353528 -0.030412775 1.7063393e-38
0.11039919 -0.13353528 -0.030412775 1.7339261e-38
0.11277615 -0.13455538 -0.034439068 1.7247065e-38
0.11504892 -0.1353019 -0.037385684 1.7062674e-38
0.11700395 -0.1353019 -0.037385684 1.7337822e-38
0.11942006 -0.13633488 -0.04146276 1.7336381e-38
0.12138223 -0.13633488 -0.04146276 1.0973441e-38
0.12415912 -0.1381052 -0.048450213 7.4692852e-39
0.12613356 -0.1381052 -0.048450213 9.2911693e-41
0.12906472 -0.14012341 -0.056416135 1.1981774e-39
0.13105312 -0.14012341 -0.056416135 1.9346635e-39
-0.12468018 -0.13547809 -0.030412775 1.1063825e-38
-0.1224212 -0.1347049 -0.027381998 1.0418458e-38
-0.12007595 -0.13369073 -0.023406606 2.2680477e-38
-0.11774752 -0.13268389 -0.019459825 2.3418043e-38
-0.11551783 -0.13189565 -0.016370039 2.350988e-38
-0.11320902 -0.13087155 -0.012355666 2.3509883e-38
-0.11129787 -0.13087155 -0.012355666 2.3509883e-38
-0.10911161 -0.13012333 -0.0094227595 2.3509886e-38
-0.10692636 -0.12934943 -0.0063891215 2.3509886e-38
-0.10502569 -0.12934943 -0.0063891215 2.3509886e-38
-0.102776 -0.1283439 -0.0024475856 2.3509886e-38
-0.10088222 -0.1283439 -0.0024475856 2.3509886e-38
-0.099581607 -0.13012333 -0.0094227595 2.3509886e-38
-0.097675599 -0.13012333 -0.0094227595 2.3509886e-38
-0.095522262 -0.12934943 -0.0063891215 2.3509886e-38
-0.093621574 -0.12934943 -0.0063891215 2.3509886e-38
-0.091720901 -0.12934943 -0.0063891215 2.3509886e-38
-0.089820214 -0.12934943 -0.0063891215 2.3509886e-38
-0.088145591 -0.13012333 -0.0094227595 2.3509886e-38
-0.086018853 -0.12934943 -0.0063891215 2.3509886e-38
-0.084118165 -0.12934943 -0.0063891215 2.3509886e-38
-0.082217477 -0.12934943 -0.0063891215 2.3509886e-38
-0.080316804 -0.12934943 -0.0063891215 2.3509886e-38
-0.078416117 -0.12934943 -0.0063891215 2.3509886e-38
-0.075815193 -0.12655805 0.0045526223 2.3509886e-38
-0.073933698 -0.12655805 0.0045526223 2.3509886e-38
-0.072052203 -0.12655805 0.0045526223 2.3509886e-38
-0.069580264 -0.12399365 0.014604826 2.3509886e-38
-0.067716397 -0.12399365 0.014604826 2.3509886e-38
-0.066075832 -0.12502514 0.010561486 2.3509886e-38
-0.064362057 -0.12577499 0.0076221423 2.3509886e-38
-0.062485937 -0.12577499 0.0076221423 2.3509886e-38
-0.060609821 -0.12577499 0.0076221423 2.3509886e-38
-0.05859198 -0.12502514 0.010561486 2.3509886e-38
-0.056533147 -0.12399365 0.014604826 2.3509886e-38
-0.054669272 -0.12399365 0.014604826 2.3509886e-38
-0.052805398 -0.12399365 0.014604826 2.3509886e-38
-0.050817404 -0.12322514 0.017617244 2.3509886e-38
-0.048958808 -0.12322514 0.017617244 2.3509886e-38
-0.047100216 -0.12322514 0.017617244 2.3509886e-38
-0.045241624 -0.12322514 0.017617244 2.3509886e-38
-0.043486029 -0.12399365 0.014604826 2.3509886e-38
-0.041622154 -0.12399365 0.014604826 2.3509886e-38
-0.03975828 -0.12399365 0.014604826 2.3509886e-38
-0.037894409 -0.12399365 0.014604826 2.3509886e-38
-0.036030535 -0.12399365 0.014604826 2.3509886e-38
-0.034269456 -0.12502514 0.010561486 2.3509886e-38
-0.032468066 -0.12577499 0.0076221423 2.3509886e-38
-0.030591946 -0.12577499 0.0076221423 2.3509886e-38
-0.028777722 -0.12655805 0.0045526223 2.3509886e-38
-0.026896223 -0.12655805 0.0045526223 2.3509886e-38
-0.025081441 -0.12757985 0.00054730941 2.3509886e-38
-0.02319292 -0.12757985 0.00054730941 2.3509886e-38
-0.021304399 -0.12757985 0.00054730941 2.3509886e-38
-0.019370228 -0.12655805 0.0045526223 2.3509886e-38
-0.017488729 -0.12655805 0.0045526223 2.3509886e-38
-0.015662465 -0.1283439 -0.0024475856 2.3509886e-38
-0.013792881 -0.12934943 -0.0063891215 2.3509886e-38
-0.011874919 -0.1283439 -0.0024475856 2.3509886e-38
-0.009981147 -0.1283439 -0.0024475856 2.3509886e-38
-0.0080443611 -0.11582683 0.046617765 2.3509886e-38
-0.0062366156 -0.11582683 0.046617765 2.3509886e-38
-0.0042814845 -0.13012333 -0.0094227595 2.3509886e-38
-0.0023754826 -0.13012333 -0.0094227595 2.3509886e-38
-0.00046948064 -0.13012333 -0.0094227595 2.3509886e-38
0.0010969518 -0.11914389 0.03361525 2.3509886e-38
0.0029567182 -0.11991702 0.030584712 2.3509886e-38
0.0052819513 -0.13087155 -0.012355666 2.3509886e-38
0.007193096 -0.13087155 -0.012355666 2.3509886e-38
0.0085685151 -0.12170117 0.02359106 2.3509886e-38
0.010416633 -0.12170117 0.02359106 2.3509886e-38
0.01226475 -0.12170117 0.02359106 2.3509886e-38
0.014112868 -0.12170117 0.02359106 2.3509886e-38
0.016026266 -0.12246101 0.020612616 2.3509886e-38
0.018021811 -0.12399365 0.014604826 2.3509886e-38
0.019885682 -0.12399365 0.014604826 2.3509886e-38
0.021859441 -0.12502514 0.010561486 2.3509886e-38
0.023730405 -0.12502514 0.010561486 2.3509883e-38
0.025601368 -0.12502514 0.010561486 2.3509883e-38
0.027567673 -0.12577499 0.0076221423 2.3509883e-38
0.029443793 -0.12577499 0.0076221423 2.3509883e-38
0.031319909 -0.12577499 0.0076221423 2.3509886e-38
0.033196025 -0.12577499 0.0076221423 2.3509886e-38
0.03507214 -0.12577499 0.0076221423 2.3509886e-38
0.03694826 -0.12577499 0.0076221423 2.3509886e-38
0.038956232 -0.12655805 0.0045526223 2.3509886e-38
0.04101681 -0.12757985 0.00054730941 2.3509886e-38
0.043044481 -0.1283439 -0.0024475856 2.3509886e-38
0.044938255 -0.1283439 -0.0024475856 2.3509886e-38
0.046832029 -0.1283439 -0.0024475856 2.3509886e-38
0.048725799 -0.1283439 -0.0024475856 2.3509886e-38
0.050619572 -0.1283439 -0.0024475856 2.3509886e-38
0.052513346 -0.1283439 -0.0024475856 2.3509886e-38
0.054407116 -0.1283439 -0.0024475856 2.3509527e-38
0.056300886 -0.1283439 -0.0024475856 2.3509527e-38
0.05819466 -0.1283439 -0.0024475856 2.3509527e-38
0.060333766 -0.12934943 -0.0063891215 2.3509527e-38
0.062428594 -0.13012333 -0.0094227595 2.3509527e-38
0.064334594 -0.13012333 -0.0094227595 2.3509527e-38
0.066240601 -0.13012333 -0.0094227595 2.3509527e-38
0.068349726 -0.13087155 -0.012355666 2.3509527e-38
0.070260867 -0.13087155 -0.012355666 2.3509886e-38
0.072172016 -0.13087155 -0.012355666 2.3509886e-38
0.074083157 -0.13087155 -0.012355666 2.3417691e-38
0.075994305 -0.13087155 -0.012355666 2.3417691e-38
0.077905439 -0.13087155 -0.012355666 2.341805e-38
0.080136843 -0.13189565 -0.016370039 2.341805e-38
0.082306929 -0.13268389 -0.019459825 2.2957075e-38
0.084230535 -0.13268389 -0.019459825 2.20362e-38
0.086154141 -0.13268389 -0.019459825 2.0839816e-38
0.088077731 -0.13268389 -0.019459825 1.9366128e-38
0.090001337 -0.13268389 -0.019459825 1.8813315e-38
0.092281319 -0.13369073 -0.023406606 1.8536728e-38
0.094577782 -0.1347049 -0.027381998 1.7523652e-38
0.096515261 -0.1347049 -0.027381998 1.7247065e-38
0.098452754 -0.1347049 -0.027381998 1.7616567e-38
0.10039025 -0.1347049 -0.027381998 1.752509e-38
0.10262797 -0.13547809 -0.030412775 1.7801677e-38
0.10457078 -0.13547809 -0.030412775 1.7248503e-38
0.10651358 -0.13547809 -0.030412775 1.6971197e-38
0.1084564 -0.13547809 -0.030412775 1.7155588e-38
0.11039919 -0.13547809 -0.030412775 1.7431456e-38
0.11234201 -0.13547809 -0.030412775 1.7247065e-38
0.11472601 -0.13650523 -0.034439068 1.7245989e-38
0.11700395 -0.13725694 -0.037385684 1.7337822e-38
0.11895897 -0.13725694 -0.037385684 1.779664e-38
0.12138223 -0.13829704 -0.04146276 1.1434416e-38
0.12415912 -0.14007963 -0.048450213 7.929543e-39
0.12613356 -0.14007963 -0.048450213 3.6877972e-40
0.12906472 -0.14211179 -0.056416135 1.1981774e-39
0.13105312 -0.14211179 -0.056416135 2.4878401e-39
-0.12662297 -0.13742088 -0.030412775 1.0049673e-38
-0.12468018 -0.13742088 -0.030412775 1.0234064e-38
-0.1224212 -0.13664238 -0.027381998 9.9574798e-39
-0.11967113 -0.13460748 -0.019459825 2.2219499e-38
-0.11774752 -0.13460748 -0.019459825 2.3418043e-38
-0.11512017 -0.13278268 -0.012355666 2.350988e-38
-0.11320902 -0.13278268 -0.012355666 2.3509883e-38
-0.11101761 -0.13202934 -0.0094227595 2.3509883e-38
-0.10911161 -0.13202934 -0.0094227595 2.3509886e-38
-0.10656355 -0.13023765 -0.0024475856 2.3509886e-38
-0.10466977 -0.13023765 -0.0024475856 2.3509886e-38
-0.10251082 -0.1294684 0.00054730941 2.3509886e-38
-0.1006223 -0.1294684 0.00054730941 2.3509886e-38
-0.098393179 -0.12843956 0.0045526223 2.3509886e-38
-0.096511684 -0.12843956 0.0045526223 2.3509886e-38
