# .PCD v0.7 - Point Cloud Data file format
VERSION 0.7
FIELDS x y z rgb
SIZE 4 4 4 4
TYPE F F F F
COUNT 1 1 1 1
WIDTH 933
HEIGHT 1
VIEWPOINT 0 0 0 1 0 0 0
POINTS 933
DATA ascii
0.014245113 -0.12159048 -0.068045154 2.3509886e-38
0.016214274 -0.12159048 -0.068045154 2.3509886e-38
0.018183434 -0.12159048 -0.068045154 2.3509886e-38
0.020171039 -0.12230973 -0.07105042 2.3509886e-38
0.022176284 -0.12324448 -0.074956074 2.3509886e-38
0.024157563 -0.12324448 -0.074956074 2.3509886e-38
0.026138842 -0.12324448 -0.074956074 2.3509886e-38
0.028120119 -0.12324448 -0.074956074 2.3509886e-38
0.030101398 -0.12324448 -0.074956074 2.3509886e-38
0.032150306 -0.12421621 -0.079016343 2.3509886e-38
0.034138702 -0.12421621 -0.079016343 2.3509886e-38
0.036127102 -0.12421621 -0.079016343 2.3509886e-38
0.038115498 -0.12421621 -0.079016343 2.3509886e-38
0.040103897 -0.12421621 -0.079016343 2.3509886e-38
0.040058244 -0.1050681 0.00099085644 2.3509886e-38
0.04179617 -0.10409774 0.0050454028 2.3509886e-38
0.043637179 -0.10409774 0.0050454028 2.3509883e-38
0.045295022 -0.10266902 0.011015046 2.3509883e-38
0.047125563 -0.10266902 0.011015046 2.3509883e-38
0.048853088 -0.10194789 0.01402818 2.3509883e-38
0.050678346 -0.10194789 0.01402818 2.3418047e-38
0.052503604 -0.10194789 0.01402818 2.3234376e-38
0.054328866 -0.10194789 0.01402818 2.3234376e-38
0.05937174 -0.12063743 -0.064062968 2.3234376e-38
0.061333917 -0.12063743 -0.064062968 2.3234376e-38
0.063296095 -0.12063743 -0.064062968 2.3234376e-38
0.065258279 -0.12063743 -0.064062968 2.3418047e-38
0.067220457 -0.12063743 -0.064062968 2.3418047e-38
0.069182634 -0.12063743 -0.064062968 2.3509883e-38
0.071144819 -0.12063743 -0.064062968 2.3509883e-38
0.073106989 -0.12063743 -0.064062968 2.3509883e-38
0.075069174 -0.12063743 -0.064062968 2.350988e-38
0.077031344 -0.12063743 -0.064062968 2.3509879e-38
0.079227433 -0.12159048 -0.068045154 2.3509876e-38
0.081196591 -0.12159048 -0.068045154 2.350988e-38
0.082917884 -0.12063743 -0.064062968 2.3509883e-38
0.084880069 -0.12063743 -0.064062968 2.341805e-38
0.086842254 -0.12063743 -0.064062968 2.3234379e-38
0.088804424 -0.12063743 -0.064062968 2.3142544e-38
0.090766609 -0.12063743 -0.064062968 2.2958873e-38
0.092439264 -0.11966167 -0.059985887 2.2958873e-38
0.094179899 -0.11895646 -0.057039272 2.2958873e-38
0.09612976 -0.11895646 -0.057039272 2.2958873e-38
0.098079622 -0.11895646 -0.057039272 1.8902282e-38
-0.071545735 -0.10908265 -0.0079953782 8.3047673e-40
-0.069681853 -0.10908265 -0.0079953782 2.249645e-38
-0.067817986 -0.10908265 -0.0079953782 2.2588645e-38
-0.065954104 -0.10908265 -0.0079953782 2.3418047e-38
-0.064090237 -0.10908265 -0.0079953782 2.3509886e-38
-0.062226355 -0.10908265 -0.0079953782 2.2034756e-38
-0.060362488 -0.10908265 -0.0079953782 2.3509886e-38
-0.058295265 -0.1083564 -0.0049829595 2.3509886e-38
-0.056436673 -0.1083564 -0.0049829595 2.3509527e-38
-0.054770872 -0.10908265 -0.0079953782 2.3509527e-38
-0.05290699 -0.10908265 -0.0079953782 2.3509527e-38
-0.051287696 -0.11005743 -0.012038719 2.3509527e-38
-0.049416736 -0.11005743 -0.012038719 2.3509527e-38
-0.047888175 -0.11150609 -0.018047582 2.3509527e-38
-0.04600668 -0.11150609 -0.018047582 2.3509886e-38
-0.044125184 -0.11150609 -0.018047582 2.3509886e-38
-0.042450845 -0.11247168 -0.022052895 2.3509886e-38
-0.040562332 -0.11247168 -0.022052895 2.3509886e-38
-0.038673803 -0.11247168 -0.022052895 2.3509886e-38
-0.03678529 -0.11247168 -0.022052895 2.3509886e-38
-0.034896761 -0.11247168 -0.022052895 2.3509886e-38
-0.033136889 -0.11319371 -0.02504779 2.3509886e-38
-0.031405523 -0.11414395 -0.028989326 2.3509886e-38
-0.029624522 -0.1148753 -0.032022964 2.3509886e-38
-0.027718518 -0.1148753 -0.032022964 2.3509886e-38
-0.025812514 -0.1148753 -0.032022964 2.3509886e-38
-0.024006788 -0.11558239 -0.03495587 2.3509886e-38
-0.022095643 -0.11558239 -0.03495587 2.3509886e-38
-0.020184498 -0.11558239 -0.03495587 2.3509886e-38
-0.018273354 -0.11558239 -0.03495587 2.3509886e-38
-0.016471304 -0.11655019 -0.038970243 2.3509886e-38
-0.014631674 -0.11729507 -0.042060029 2.3509886e-38
-0.012801498 -0.11824657 -0.04600681 2.3509886e-38
-0.010958105 -0.11920498 -0.049982201 2.3509886e-38
-0.0090817213 -0.11993565 -0.053012978 2.3509886e-38
-0.0071389154 -0.11993565 -0.053012978 2.3509886e-38
-0.0051961131 -0.11993565 -0.053012978 2.3509886e-38
-0.0033133142 -0.12090631 -0.057039272 2.3509886e-38
-0.0013634488 -0.12090631 -0.057039272 2.3509886e-38
0.0013963468 -0.10377313 0.01402818 2.3509886e-38
0.003221605 -0.10377313 0.01402818 2.3509886e-38
0.0050468668 -0.10377313 0.01402818 2.3509886e-38
0.0063929055 -0.12259962 -0.064062968 2.3509886e-38
0.0086708926 -0.10523017 0.0079845078 2.3509886e-38
0.010506749 -0.10523017 0.0079845078 2.3509886e-38
0.012336474 -0.10691623 0.00099085644 2.3509886e-38
0.01418459 -0.10691623 0.00099085644 2.3509886e-38
0.016032709 -0.10691623 0.00099085644 2.3509886e-38
0.018213728 -0.12522577 -0.074956074 2.3509886e-38
0.020195007 -0.12522577 -0.074956074 2.3509886e-38
0.022176284 -0.12522577 -0.074956074 2.3509886e-38
0.024157563 -0.12522577 -0.074956074 2.3509886e-38
0.026138842 -0.12522577 -0.074956074 2.3509886e-38
0.028120119 -0.12522577 -0.074956074 2.3509886e-38
0.030101398 -0.12522577 -0.074956074 2.3509886e-38
0.032150306 -0.12620462 -0.079016343 2.3509886e-38
0.034063954 -0.12522577 -0.074956074 2.3509886e-38
0.036045231 -0.12522577 -0.074956074 2.3509886e-38
0.036427286 -0.10763429 -0.0019875877 2.3509886e-38
0.038210124 -0.10691623 0.00099085644 2.3509886e-38
0.040058244 -0.10691623 0.00099085644 2.3509886e-38
0.04179617 -0.10593875 0.0050454028 2.3509886e-38
0.043637179 -0.10593875 0.0050454028 2.3509527e-38
0.045295022 -0.10449956 0.011015046 2.3509883e-38
0.047125563 -0.10449956 0.011015046 2.3509883e-38
0.048853088 -0.10377313 0.01402818 2.3509883e-38
0.050678346 -0.10377313 0.01402818 2.3418047e-38
0.052503604 -0.10377313 0.01402818 2.3418047e-38
0.054328866 -0.10377313 0.01402818 2.3418047e-38
0.056278277 -0.10449956 0.011015046 2.3234376e-38
0.058108818 -0.10449956 0.011015046 2.3234376e-38
0.063296095 -0.12259962 -0.064062968 2.3234376e-38
0.065258279 -0.12259962 -0.064062968 2.3418047e-38
0.067220457 -0.12259962 -0.064062968 2.3418047e-38
0.069182634 -0.12259962 -0.064062968 2.3509883e-38
0.071144819 -0.12259962 -0.064062968 2.3509883e-38
0.073106989 -0.12259962 -0.064062968 2.3509883e-38
0.075069174 -0.12259962 -0.064062968 2.350988e-38
0.077031344 -0.12259962 -0.064062968 2.3509517e-38
0.079227433 -0.12355967 -0.068045154 2.3509873e-38
0.081196591 -0.12355967 -0.068045154 2.3509876e-38
0.082917884 -0.12259962 -0.064062968 2.3509879e-38
0.084880069 -0.12259962 -0.064062968 2.350988e-38
0.086842254 -0.12259962 -0.064062968 2.3509883e-38
0.088804424 -0.12259962 -0.064062968 2.341805e-38
0.090766609 -0.12259962 -0.064062968 2.341805e-38
0.092439264 -0.12161671 -0.059985887 2.2957796e-38
0.094179899 -0.12090631 -0.057039272 2.2773408e-38
0.09612976 -0.12090631 -0.057039272 2.2773408e-38
0.098079622 -0.12090631 -0.057039272 2.3142185e-38
0.1005775 -0.12259962 -0.064062968 2.3234379e-38
0.10253967 -0.12259962 -0.064062968 2.3234379e-38
-0.071545735 -0.11094652 -0.0079953782 3.5873241e-43
-0.069681853 -0.11094652 -0.0079953782 2.2865232e-38
-0.067817986 -0.11094652 -0.0079953782 2.3418047e-38
-0.065954104 -0.11094652 -0.0079953782 2.3234015e-38
-0.064090237 -0.11094652 -0.0079953782 2.3509886e-38
-0.062012449 -0.11021499 -0.0049829595 2.3509886e-38
-0.060153857 -0.11021499 -0.0049829595 2.3509886e-38
-0.058295265 -0.11021499 -0.0049829595 2.3509886e-38
-0.056436673 -0.11021499 -0.0049829595 2.3509527e-38
-0.054770872 -0.11094652 -0.0079953782 2.3509527e-38
-0.05290699 -0.11094652 -0.0079953782 2.3509527e-38
-0.051287696 -0.11192839 -0.012038719 2.3509527e-38
-0.049416736 -0.11192839 -0.012038719 2.3509527e-38
-0.047888175 -0.11338757 -0.018047582 2.3509527e-38
-0.04600668 -0.11338757 -0.018047582 2.3509886e-38
-0.044125184 -0.11338757 -0.018047582 2.3509886e-38
-0.042243682 -0.11338757 -0.018047582 2.3509886e-38
-0.040562332 -0.1143602 -0.022052895 2.3509886e-38
-0.038673803 -0.1143602 -0.022052895 2.3509886e-38
-0.03678529 -0.1143602 -0.022052895 2.3509886e-38
-0.034896761 -0.1143602 -0.022052895 2.3509886e-38
-0.033136889 -0.11508749 -0.02504779 2.3509886e-38
-0.031405523 -0.11604463 -0.028989326 2.3509886e-38
-0.029624522 -0.11678131 -0.032022964 2.3509886e-38
-0.027718518 -0.11678131 -0.032022964 2.3509886e-38
-0.025812514 -0.11678131 -0.032022964 2.3509886e-38
-0.02390651 -0.11678131 -0.032022964 2.3509886e-38
-0.022095643 -0.11749353 -0.03495587 2.3509886e-38
-0.020184498 -0.11749353 -0.03495587 2.3509886e-38
-0.018273354 -0.11749353 -0.03495587 2.3509886e-38
-0.016471304 -0.11846836 -0.038970243 2.3509886e-38
-0.014631674 -0.11921866 -0.042060029 2.3509886e-38
-0.012801498 -0.12017711 -0.04600681 2.3509886e-38
-0.010958105 -0.12114246 -0.049982201 2.3509886e-38
-0.0090817213 -0.12187846 -0.053012978 2.3509886e-38
-0.0071389154 -0.12187846 -0.053012978 2.3509886e-38
-0.0052631795 -0.12285618 -0.057039272 2.3509886e-38
-0.0033133142 -0.12285618 -0.057039272 2.3509886e-38
-0.00038951635 -0.10487093 0.01702391 2.3509886e-38
0.0014304891 -0.10487093 0.01702391 2.3509886e-38
0.0032504946 -0.10487093 0.01702391 2.3509886e-38
0.005023092 -0.10633011 0.011015046 2.3509886e-38
0.0068536345 -0.10633011 0.011015046 2.3509886e-38
0.0086708926 -0.10706602 0.0079845078 2.3509886e-38
0.010506749 -0.10706602 0.0079845078 2.3509886e-38
0.012336474 -0.10876434 0.00099085644 2.3509886e-38
0.01418459 -0.10876434 0.00099085644 2.3509886e-38
0.016032709 -0.10876434 0.00099085644 2.3509886e-38
0.018213728 -0.12720706 -0.074956074 2.3509886e-38
0.020195007 -0.12720706 -0.074956074 2.3509886e-38
0.022176284 -0.12720706 -0.074956074 2.3509886e-38
0.024157563 -0.12720706 -0.074956074 2.3509886e-38
0.026138842 -0.12720706 -0.074956074 2.3509886e-38
0.028120119 -0.12720706 -0.074956074 2.3509886e-38
0.030101398 -0.12720706 -0.074956074 2.3509886e-38
0.030917156 -0.11021499 -0.0049829595 2.3509886e-38
0.032775749 -0.11021499 -0.0049829595 2.3509886e-38
0.034573942 -0.10948761 -0.0019875877 2.3509886e-38
0.036427286 -0.10948761 -0.0019875877 2.3509886e-38
0.038210124 -0.10876434 0.00099085644 2.3509886e-38
0.040058244 -0.10876434 0.00099085644 2.3509886e-38
0.04179617 -0.10777976 0.0050454028 2.3509886e-38
0.043637179 -0.10777976 0.0050454028 2.3509886e-38
0.045388009 -0.10706602 0.0079845078 2.3509886e-38
0.047223866 -0.10706602 0.0079845078 2.3509886e-38
0.048956107 -0.10633011 0.011015046 2.3509886e-38
0.050786648 -0.10633011 0.011015046 2.3509883e-38
0.052617192 -0.10633011 0.011015046 2.3418047e-38
0.054447733 -0.10633011 0.011015046 2.3418045e-38
0.056278277 -0.10633011 0.011015046 2.3418045e-38
0.058108818 -0.10633011 0.011015046 2.3418045e-38
0.060074855 -0.10706602 0.0079845078 2.3418045e-38
0.065258279 -0.1245618 -0.064062968 2.3509883e-38
0.067220457 -0.1245618 -0.064062968 2.3509883e-38
0.069182634 -0.1245618 -0.064062968 2.3509886e-38
0.071144819 -0.1245618 -0.064062968 2.3509886e-38
0.073106989 -0.1245618 -0.064062968 2.3509886e-38
0.075069174 -0.1245618 -0.064062968 2.3509883e-38
0.077031344 -0.1245618 -0.064062968 2.3509517e-38
0.079227433 -0.12552883 -0.068045154 2.3509873e-38
0.081196591 -0.12552883 -0.068045154 2.3509517e-38
0.082917884 -0.1245618 -0.064062968 2.3509879e-38
0.084880069 -0.1245618 -0.064062968 2.3509879e-38
0.086842254 -0.1245618 -0.064062968 2.3509521e-38
0.088804424 -0.1245618 -0.064062968 2.3509883e-38
0.090766609 -0.1245618 -0.064062968 2.3509883e-38
0.092439264 -0.12357174 -0.059985887 2.3509886e-38
0.094179899 -0.12285618 -0.057039272 2.3509886e-38
0.09612976 -0.12285618 -0.057039272 2.341805e-38
0.098079622 -0.12285618 -0.057039272 2.3233662e-38
0.10025939 -0.12357174 -0.059985887 2.3325856e-38
0.10221443 -0.12357174 -0.059985887 2.341805e-38
0.10450186 -0.1245618 -0.064062968 2.3325856e-38
0.10646404 -0.1245618 -0.064062968 2.2958514e-38
-0.071545735 -0.11281042 -0.0079953782 4.6169421e-40
-0.069681853 -0.11281042 -0.0079953782 2.1205711e-38
-0.067817986 -0.11281042 -0.0079953782 2.2773037e-38
-0.065729633 -0.11207359 -0.0049829595 2.3418047e-38
-0.063871041 -0.11207359 -0.0049829595 2.3509886e-38
-0.062012449 -0.11207359 -0.0049829595 2.3048907e-38
-0.060153857 -0.11207359 -0.0049829595 2.3509886e-38
-0.058295265 -0.11207359 -0.0049829595 2.3509886e-38
-0.056436673 -0.11207359 -0.0049829595 2.3509527e-38
-0.054578081 -0.11207359 -0.0049829595 2.3509527e-38
-0.052719489 -0.11207359 -0.0049829595 2.3509527e-38
-0.051043123 -0.11281042 -0.0079953782 2.3509527e-38
-0.049179241 -0.11281042 -0.0079953782 2.3509527e-38
-0.047545776 -0.11379938 -0.012038719 2.3509527e-38
-0.045837149 -0.1145183 -0.014978062 2.3509886e-38
-0.043961033 -0.1145183 -0.014978062 2.3509886e-38
-0.042243682 -0.11526908 -0.018047582 2.3509886e-38
-0.040562332 -0.11624874 -0.022052895 2.3509886e-38
-0.038673803 -0.11624874 -0.022052895 2.3509886e-38
-0.03678529 -0.11624874 -0.022052895 2.3509886e-38
-0.035030663 -0.11698125 -0.02504779 2.3509886e-38
-0.033136889 -0.11698125 -0.02504779 2.3509886e-38
-0.031405523 -0.11794533 -0.028989326 2.3509886e-38
-0.029624522 -0.11868732 -0.032022964 2.3509886e-38
-0.027718518 -0.11868732 -0.032022964 2.3509886e-38
-0.025812514 -0.11868732 -0.032022964 2.3509886e-38
-0.02390651 -0.11868732 -0.032022964 2.3509886e-38
-0.022095643 -0.11940466 -0.03495587 2.3509886e-38
-0.020184498 -0.11940466 -0.03495587 2.3509886e-38
-0.018273354 -0.11940466 -0.03495587 2.3509886e-38
-0.016471304 -0.12038656 -0.038970243 2.3509886e-38
-0.014631674 -0.12114228 -0.042060029 2.3509886e-38
-0.011074461 -0.10426159 0.026956189 2.3509886e-38
-0.00920555 -0.10352151 0.029982079 2.3509886e-38
-0.007408265 -0.10352151 0.029982079 2.3509886e-38
-0.0072130412 -0.12480606 -0.057039272 2.3509886e-38
-0.0053122565 -0.12552677 -0.059985887 2.3509886e-38
-0.0021052957 -0.10498036 0.024017561 2.3509886e-38
-0.00025890768 -0.10426159 0.026956189 2.3509886e-38
0.0015436821 -0.10426159 0.026956189 2.3509886e-38
0.0032504946 -0.10669093 0.01702391 2.3509886e-38
0.0050705019 -0.10669093 0.01702391 2.3509886e-38
0.006835036 -0.10890187 0.0079845078 2.3509886e-38
0.0086708926 -0.10890187 0.0079845078 2.3509886e-38
0.010506749 -0.10890187 0.0079845078 2.3509886e-38
0.012340028 -0.10962076 0.0050454028 2.3509886e-38
0.01418459 -0.11061247 0.00099085644 2.3509886e-38
0.016040543 -0.11134095 -0.0019875877 2.3509886e-38
0.017893882 -0.11134095 -0.0019875877 2.3509886e-38
0.019747224 -0.11134095 -0.0019875877 2.3509886e-38
0.022176284 -0.12918831 -0.074956074 2.3509886e-38
0.024157563 -0.12918831 -0.074956074 2.3509886e-38
0.026138842 -0.12918831 -0.074956074 2.3509886e-38
0.027239587 -0.11281042 -0.0079953782 2.3509886e-38
0.029058564 -0.11207359 -0.0049829595 2.3509886e-38
0.030917156 -0.11207359 -0.0049829595 2.3509886e-38
0.032775749 -0.11207359 -0.0049829595 2.3509886e-38
0.034573942 -0.11134095 -0.0019875877 2.3509886e-38
0.036427286 -0.11134095 -0.0019875877 2.3509886e-38
0.038280625 -0.11134095 -0.0019875877 2.3509886e-38
0.040058244 -0.11061247 0.00099085644 2.3509886e-38
0.041906364 -0.11061247 0.00099085644 2.3509886e-38
0.043637179 -0.10962076 0.0050454028 2.3509886e-38
0.045478191 -0.10962076 0.0050454028 2.3509886e-38
0.0473192 -0.10962076 0.0050454028 2.3509886e-38
0.049160209 -0.10962076 0.0050454028 2.3509886e-38
0.050895575 -0.10890187 0.0079845078 2.3509886e-38
0.052731432 -0.10890187 0.0079845078 2.3509883e-38
0.054567289 -0.10890187 0.0079845078 2.3418047e-38
0.056403145 -0.10890187 0.0079845078 2.3418045e-38
0.058238998 -0.10890187 0.0079845078 2.3418045e-38
0.060074855 -0.10890187 0.0079845078 2.3418045e-38
0.062235661 -0.11061247 0.00099085644 2.3509883e-38
0.067220457 -0.12652399 -0.064062968 2.3509883e-38
0.069182634 -0.12652399 -0.064062968 2.3509886e-38
0.071144819 -0.12652399 -0.064062968 2.3509886e-38
0.073106989 -0.12652399 -0.064062968 2.3509886e-38
0.072527744 -0.11526908 -0.018047582 2.3509527e-38
0.074409246 -0.11526908 -0.018047582 2.3509521e-38
0.076526001 -0.11624874 -0.022052895 2.3509517e-38
0.078414515 -0.11624874 -0.022052895 2.350952e-38
0.080303043 -0.11624874 -0.022052895 2.3509879e-38
0.082191557 -0.11624874 -0.022052895 2.350952e-38
0.086842254 -0.12652399 -0.064062968 2.3509521e-38
0.088804424 -0.12652399 -0.064062968 2.3509521e-38
0.090766609 -0.12652399 -0.064062968 2.3509524e-38
0.092439264 -0.12552677 -0.059985887 2.2771958e-38
0.094179899 -0.12480606 -0.057039272 2.3509527e-38
0.09612976 -0.12480606 -0.057039272 2.3509886e-38
0.098079622 -0.12480606 -0.057039272 2.3509886e-38
0.10002948 -0.12480606 -0.057039272 2.3141106e-38
0.10221443 -0.12552677 -0.059985887 2.2864516e-38
0.10416946 -0.12552677 -0.059985887 2.3509886e-38
0.10612449 -0.12552677 -0.059985887 2.3234379e-38
0.10807951 -0.12552677 -0.059985887 2.2775202e-38
0.11003454 -0.12552677 -0.059985887 2.2499695e-38
0.11198957 -0.12552677 -0.059985887 2.2131277e-38
0.1139446 -0.12552677 -0.059985887 2.2591531e-38
0.11562841 -0.12480606 -0.057039272 2.2591531e-38
0.11757827 -0.12480606 -0.057039272 2.2591531e-38
-0.069681853 -0.11467429 -0.0079953782 2.037595e-38
-0.067588225 -0.11393218 -0.0049829595 2.3418047e-38
-0.065729633 -0.11393218 -0.0049829595 2.3418047e-38
-0.063871041 -0.11393218 -0.0049829595 2.3141103e-38
-0.062012449 -0.11393218 -0.0049829595 2.3325494e-38
-0.060153857 -0.11393218 -0.0049829595 2.3509886e-38
-0.058295265 -0.11393218 -0.0049829595 2.3509886e-38
-0.056436673 -0.11393218 -0.0049829595 2.3509527e-38
-0.054578081 -0.11393218 -0.0049829595 2.3509527e-38
-0.052719489 -0.11393218 -0.0049829595 2.3509527e-38
-0.050860897 -0.11393218 -0.0049829595 2.3509527e-38
-0.049179241 -0.11467429 -0.0079953782 2.3509527e-38
-0.047315374 -0.11467429 -0.0079953782 2.3509527e-38
-0.045451492 -0.11467429 -0.0079953782 2.3509886e-38
-0.043803841 -0.11567034 -0.012038719 2.3509886e-38
-0.041932881 -0.11567034 -0.012038719 2.3509886e-38
-0.040362179 -0.11715056 -0.018047582 2.3509886e-38
-0.038673803 -0.11813726 -0.022052895 2.3509886e-38
-0.03678529 -0.11813726 -0.022052895 2.3509886e-38
-0.035030663 -0.11887501 -0.02504779 2.3509886e-38
-0.033306211 -0.119846 -0.028989326 2.3509886e-38
-0.031405523 -0.119846 -0.028989326 2.3509886e-38
-0.029624522 -0.12059332 -0.032022964 2.3509886e-38
-0.027718518 -0.12059332 -0.032022964 2.3509886e-38
-0.025812514 -0.12059332 -0.032022964 2.3509886e-38
-0.024006788 -0.12131582 -0.03495587 2.3509886e-38
-0.022095643 -0.12131582 -0.03495587 2.3509886e-38
-0.020184498 -0.12131582 -0.03495587 2.3509886e-38
-0.016394697 -0.1053188 0.029982079 2.3509886e-38
-0.014597412 -0.1053188 0.029982079 2.3509886e-38
-0.012877055 -0.10606419 0.026956189 2.3509886e-38
-0.011002839 -0.1053188 0.029982079 2.3509886e-38
-0.00920555 -0.1053188 0.029982079 2.3509886e-38
-0.0073476098 -0.10457774 0.032990325 2.3509886e-38
-0.0055555962 -0.10457774 0.032990325 2.3509886e-38
-0.0037635863 -0.10457774 0.032990325 2.3509886e-38
-0.0020164065 -0.1053188 0.029982079 2.3509886e-38
-0.00021911785 -0.1053188 0.029982079 2.3509886e-38
0.0015781671 -0.1053188 0.029982079 2.3509886e-38
0.0033754557 -0.1053188 0.029982079 2.3509886e-38
0.0051727407 -0.1053188 0.029982079 2.3509886e-38
0.0069700293 -0.1053188 0.029982079 2.3509886e-38
0.0086708926 -0.11073773 0.0079845078 2.3509886e-38
0.010506749 -0.11073773 0.0079845078 2.3509886e-38
0.012340028 -0.11146177 0.0050454028 2.3509886e-38
0.01418459 -0.11246057 0.00099085644 2.3509886e-38
0.016040543 -0.1131943 -0.0019875877 2.3509886e-38
0.017893882 -0.1131943 -0.0019875877 2.3509886e-38
0.019747224 -0.1131943 -0.0019875877 2.3509886e-38
0.021600563 -0.1131943 -0.0019875877 2.3509886e-38
0.023453902 -0.1131943 -0.0019875877 2.3509886e-38
0.025307244 -0.1131943 -0.0019875877 2.3509886e-38
0.027160585 -0.1131943 -0.0019875877 2.3509886e-38
0.029058564 -0.11393218 -0.0049829595 2.3509886e-38
0.030867264 -0.1131943 -0.0019875877 2.3509886e-38
0.032720603 -0.1131943 -0.0019875877 2.3509886e-38
0.034573942 -0.1131943 -0.0019875877 2.3509886e-38
0.036427286 -0.1131943 -0.0019875877 2.3509886e-38
0.038280625 -0.1131943 -0.0019875877 2.3509886e-38
0.040058244 -0.11246057 0.00099085644 2.3509886e-38
0.041906364 -0.11246057 0.00099085644 2.3509886e-38
0.043754481 -0.11246057 0.00099085644 2.3509886e-38
0.045602597 -0.11246057 0.00099085644 2.3509886e-38
0.047450714 -0.11246057 0.00099085644 2.3509886e-38
0.049298834 -0.11246057 0.00099085644 2.3509886e-38
0.051146951 -0.11246057 0.00099085644 2.3509886e-38
0.052995071 -0.11246057 0.00099085644 2.3509883e-38
0.054843187 -0.11246057 0.00099085644 2.3509883e-38
0.056524243 -0.11146177 0.0050454028 2.3509883e-38
0.058365256 -0.11146177 0.0050454028 2.3509883e-38
0.060387541 -0.11246057 0.00099085644 2.3509883e-38
0.062235661 -0.11246057 0.00099085644 2.3509886e-38
0.064083777 -0.11246057 0.00099085644 2.3509886e-38
0.065931901 -0.11246057 0.00099085644 2.3509886e-38
0.067780018 -0.11246057 0.00099085644 2.3509886e-38
0.070482098 -0.11639442 -0.014978062 2.3509527e-38
0.072358213 -0.11639442 -0.014978062 2.3509886e-38
0.074234329 -0.11639442 -0.014978062 2.3509527e-38
0.076290742 -0.11715056 -0.018047582 2.3509524e-38
0.078414515 -0.11813726 -0.022052895 2.3509524e-38
0.080303043 -0.11813726 -0.022052895 2.3509883e-38
0.082191557 -0.11813726 -0.022052895 2.3509524e-38
0.084080085 -0.11813726 -0.022052895 2.3509883e-38
0.086170778 -0.11887501 -0.02504779 2.3509883e-38
0.088064551 -0.11887501 -0.02504779 2.3509883e-38
0.092439264 -0.1274818 -0.059985887 2.3417327e-38
0.093886927 -0.12576406 -0.053012978 2.3509523e-38
0.09582974 -0.12576406 -0.053012978 2.3417687e-38
0.097772539 -0.12576406 -0.053012978 2.3509883e-38
0.099715337 -0.12576406 -0.053012978 2.3509886e-38
0.10197935 -0.12675591 -0.057039272 2.3325492e-38
0.10392922 -0.12675591 -0.057039272 2.2956712e-38
0.10587908 -0.12675591 -0.057039272 2.240498e-38
0.10782894 -0.12675591 -0.057039272 2.2775202e-38
0.10977881 -0.12675591 -0.057039272 2.2499695e-38
0.11172867 -0.12675591 -0.057039272 2.2131636e-38
0.11367854 -0.12675591 -0.057039272 2.2131636e-38
0.11562841 -0.12675591 -0.057039272 2.222383e-38
0.11720058 -0.12576406 -0.053012978 2.2591531e-38
0.1191434 -0.12576406 -0.053012978 2.2775202e-38
0.12176473 -0.1274818 -0.059985887 2.0747631e-38
-0.0789226 -0.12174667 -0.028989326 5.168702e-39
-0.076693654 -0.1207688 -0.02504779 1.0973435e-38
-0.07479988 -0.1207688 -0.02504779 1.7517886e-38
-0.072347656 -0.11903207 -0.018047582 1.9638385e-38
-0.069681853 -0.11653815 -0.0079953782 2.3418047e-38
-0.067588225 -0.11579077 -0.0049829595 2.2312058e-38
-0.065729633 -0.11579077 -0.0049829595 2.2865232e-38
-0.063871041 -0.11579077 -0.0049829595 2.3509886e-38
-0.062012449 -0.11579077 -0.0049829595 2.3509886e-38
-0.060153857 -0.11579077 -0.0049829595 2.3509886e-38
-0.058295265 -0.11579077 -0.0049829595 2.3509886e-38
-0.056239724 -0.11504765 -0.0019875877 2.3509527e-38
-0.054386392 -0.11504765 -0.0019875877 2.3509527e-38
-0.052719489 -0.11579077 -0.0049829595 2.3509527e-38
-0.050860897 -0.11579077 -0.0049829595 2.3509527e-38
-0.049002305 -0.11579077 -0.0049829595 2.3509527e-38
-0.047143713 -0.11579077 -0.0049829595 2.3509527e-38
-0.045119688 -0.11504765 -0.0019875877 2.3509886e-38
-0.042890243 -0.11330278 0.0050454028 2.3509886e-38
-0.041049235 -0.11330278 0.0050454028 2.3509886e-38
-0.040362179 -0.11903207 -0.018047582 2.3509886e-38
-0.038673803 -0.12002577 -0.022052895 2.3509886e-38
-0.036924437 -0.1207688 -0.02504779 2.3509886e-38
-0.035206892 -0.12174667 -0.028989326 2.3509886e-38
-0.033306211 -0.12174667 -0.028989326 2.3509886e-38
-0.031530522 -0.1224993 -0.032022964 2.3509886e-38
-0.029624522 -0.1224993 -0.032022964 2.3509886e-38
-0.027718518 -0.1224993 -0.032022964 2.3509886e-38
-0.025812514 -0.1224993 -0.032022964 2.3509886e-38
-0.02390651 -0.1224993 -0.032022964 2.3509886e-38
-0.022095643 -0.12322696 -0.03495587 2.3509886e-38
-0.018191986 -0.10711606 0.029982079 2.3509886e-38
-0.016307671 -0.10636975 0.032990325 2.3509886e-38
-0.014515661 -0.10636975 0.032990325 2.3509886e-38
-0.012800127 -0.10711606 0.029982079 2.3509886e-38
-0.011002839 -0.10711606 0.029982079 2.3509886e-38
-0.0091396198 -0.10636975 0.032990325 2.3509886e-38
-0.0073476098 -0.10636975 0.032990325 2.3509886e-38
-0.0055555962 -0.10636975 0.032990325 2.3509886e-38
-0.0037635863 -0.10636975 0.032990325 2.3509886e-38
-0.0019715726 -0.10636975 0.032990325 2.3509886e-38
-0.00017955899 -0.10636975 0.032990325 2.3509886e-38
0.0016124509 -0.10636975 0.032990325 2.3509886e-38
0.0034044646 -0.10636975 0.032990325 2.3509886e-38
0.0052200723 -0.10562779 0.035980929 2.3509886e-38
0.0070068426 -0.10562779 0.035980929 2.3509886e-38
0.0087936111 -0.10562779 0.035980929 2.3509886e-38
0.01058038 -0.10562779 0.035980929 2.3509886e-38
0.012336474 -0.1143087 0.00099085644 2.3509886e-38
0.01418459 -0.1143087 0.00099085644 2.3509886e-38
0.016040543 -0.11504765 -0.0019875877 2.3509886e-38
0.017893882 -0.11504765 -0.0019875877 2.3509886e-38
0.019747224 -0.11504765 -0.0019875877 2.3509886e-38
0.021577064 -0.1143087 0.00099085644 2.3509886e-38
0.02342518 -0.1143087 0.00099085644 2.3509886e-38
0.025273301 -0.1143087 0.00099085644 2.3509886e-38
0.027121417 -0.1143087 0.00099085644 2.3509886e-38
0.029013924 -0.11504765 -0.0019875877 2.3509886e-38
0.030867264 -0.11504765 -0.0019875877 2.3509886e-38
0.032720603 -0.11504765 -0.0019875877 2.3509886e-38
0.034513891 -0.1143087 0.00099085644 2.3509886e-38
0.036362007 -0.1143087 0.00099085644 2.3509886e-38
0.038280625 -0.11504765 -0.0019875877 2.3509886e-38
0.040133968 -0.11504765 -0.0019875877 2.3509886e-38
0.041987307 -0.11504765 -0.0019875877 2.3509886e-38
0.043840647 -0.11504765 -0.0019875877 2.3509527e-38
0.045693986 -0.11504765 -0.0019875877 2.3509527e-38
0.047547325 -0.11504765 -0.0019875877 2.3509527e-38
0.049400665 -0.11504765 -0.0019875877 2.3509886e-38
0.051254008 -0.11504765 -0.0019875877 2.3509886e-38
0.053107347 -0.11504765 -0.0019875877 2.3509886e-38
0.054960687 -0.11504765 -0.0019875877 2.3509883e-38
0.056691308 -0.1143087 0.00099085644 2.3509883e-38
0.058539424 -0.1143087 0.00099085644 2.3509883e-38
0.060387541 -0.1143087 0.00099085644 2.3509883e-38
0.062235661 -0.1143087 0.00099085644 2.3509886e-38
0.064083777 -0.1143087 0.00099085644 2.3509886e-38
0.065931901 -0.1143087 0.00099085644 2.3509886e-38
0.068089001 -0.11579077 -0.0049829595 2.3509527e-38
0.070324913 -0.1175413 -0.012038719 2.3509527e-38
0.072358213 -0.11827053 -0.014978062 2.3509527e-38
0.074234329 -0.11827053 -0.014978062 2.3509527e-38
0.076290742 -0.11903207 -0.018047582 2.3509886e-38
0.078172237 -0.11903207 -0.018047582 2.3509886e-38
0.080303043 -0.12002577 -0.022052895 2.3509886e-38
0.082191557 -0.12002577 -0.022052895 2.3509886e-38
0.084080085 -0.12002577 -0.022052895 2.3509886e-38
0.086170778 -0.1207688 -0.02504779 2.3509886e-38
0.088064551 -0.1207688 -0.02504779 2.3509883e-38
0.08995831 -0.1207688 -0.02504779 2.3509883e-38
0.092138886 -0.12174667 -0.028989326 2.3509883e-38
0.095307663 -0.12596865 -0.04600681 2.3325492e-38
0.097238183 -0.12596865 -0.04600681 2.3509883e-38
0.099478871 -0.12695493 -0.049982201 2.3509883e-38
0.10165815 -0.12770687 -0.053012978 2.3418047e-38
0.10392922 -0.12870578 -0.057039272 2.3509883e-38
0.10554376 -0.12770687 -0.053012978 2.3234379e-38
0.10748656 -0.12770687 -0.053012978 2.2775202e-38
0.10977881 -0.12870578 -0.057039272 2.2499695e-38
0.11172867 -0.12870578 -0.057039272 2.240786e-38
0.11367854 -0.12870578 -0.057039272 2.2039799e-38
0.11525778 -0.12770687 -0.053012978 2.1117845e-38
0.11720058 -0.12770687 -0.053012978 2.0472473e-38
0.1191434 -0.12770687 -0.053012978 1.9826027e-38
0.12147799 -0.12870578 -0.057039272 1.6875404e-38
0.12342785 -0.12870578 -0.057039272 1.4938577e-38
0.12537773 -0.12870578 -0.057039272 2.1636048e-42
-0.0789226 -0.12364738 -0.028989326 1.8537787e-38
-0.076444238 -0.12191428 -0.022052895 2.3142541e-38
-0.07455571 -0.12191428 -0.022052895 2.3418047e-38
-0.072347656 -0.12091358 -0.018047582 2.2588645e-38
-0.069997326 -0.11941226 -0.012038719 2.332621e-38
-0.067817986 -0.11840202 -0.0079953782 2.3418047e-38
-0.065954104 -0.11840202 -0.0079953782 2.3418047e-38
-0.063871041 -0.11764936 -0.0049829595 2.3325494e-38
-0.062012449 -0.11764936 -0.0049829595 2.2864516e-38
-0.060153857 -0.11764936 -0.0049829595 2.3509886e-38
-0.058295265 -0.11764936 -0.0049829595 2.3509886e-38
-0.056239724 -0.11690097 -0.0019875877 2.3509527e-38
-0.054386392 -0.11690097 -0.0019875877 2.3509527e-38
-0.052533045 -0.11690097 -0.0019875877 2.3509527e-38
-0.050679699 -0.11690097 -0.0019875877 2.3509527e-38
-0.048826367 -0.11690097 -0.0019875877 2.3509527e-38
-0.046803303 -0.1161568 0.00099085644 2.3509527e-38
-0.044731252 -0.11514379 0.0050454028 2.3509886e-38
-0.042733073 -0.11440946 0.0079845078 2.3509886e-38
-0.040226281 -0.11116849 0.020956147 2.3509886e-38
-0.038260192 -0.11040358 0.024017561 2.3509886e-38
-0.036452442 -0.11040358 0.024017561 2.3509886e-38
-0.037107572 -0.12364738 -0.028989326 2.3509886e-38
-0.035206892 -0.12364738 -0.028989326 2.3509886e-38
-0.033436522 -0.12440531 -0.032022964 2.3509886e-38
-0.031530522 -0.12440531 -0.032022964 2.3509886e-38
-0.029624522 -0.12440531 -0.032022964 2.3509886e-38
-0.027718518 -0.12440531 -0.032022964 2.3509886e-38
-0.025812514 -0.12440531 -0.032022964 2.3509886e-38
-0.02390651 -0.12440531 -0.032022964 2.3509886e-38
-0.02018274 -0.11040358 0.024017561 2.3509886e-38
-0.018191986 -0.10891335 0.029982079 2.3509886e-38
-0.016307671 -0.10816176 0.032990325 2.3509886e-38
-0.014515661 -0.10816176 0.032990325 2.3509886e-38
-0.012647614 -0.10741456 0.035980929 2.3509886e-38
-0.010860845 -0.10741456 0.035980929 2.3509886e-38
-0.009074077 -0.10741456 0.035980929 2.3509886e-38
-0.0072873086 -0.10741456 0.035980929 2.3509886e-38
-0.0054458082 -0.10667174 0.038954008 2.3509886e-38
-0.0036642477 -0.10667174 0.038954008 2.3509886e-38
-0.0018826947 -0.10667174 0.038954008 2.3509886e-38
-0.00010113791 -0.10667174 0.038954008 2.3509886e-38
0.0016804188 -0.10667174 0.038954008 2.3509886e-38
0.0034333039 -0.10741456 0.035980929 2.3509886e-38
0.0052200723 -0.10741456 0.035980929 2.3509886e-38
0.0070068426 -0.10741456 0.035980929 2.3509886e-38
0.0088066421 -0.10667174 0.038954008 2.3509886e-38
0.010588199 -0.10667174 0.038954008 2.3509886e-38
0.012369754 -0.10667174 0.038954008 2.3509886e-38
0.014187202 -0.11690097 -0.0019875877 2.3509886e-38
0.016032709 -0.1161568 0.00099085644 2.3509886e-38
0.017880827 -0.1161568 0.00099085644 2.3509886e-38
0.019728946 -0.1161568 0.00099085644 2.3509886e-38
0.021577064 -0.1161568 0.00099085644 2.3509886e-38
0.02342518 -0.1161568 0.00099085644 2.3509886e-38
0.025273301 -0.1161568 0.00099085644 2.3509886e-38
0.027121417 -0.1161568 0.00099085644 2.3509886e-38
0.028969536 -0.1161568 0.00099085644 2.3509886e-38
0.030817654 -0.1161568 0.00099085644 2.3509886e-38
0.032665771 -0.1161568 0.00099085644 2.3509886e-38
0.034513891 -0.1161568 0.00099085644 2.3509886e-38
0.036362007 -0.1161568 0.00099085644 2.3509886e-38
0.038210124 -0.1161568 0.00099085644 2.3509886e-38
0.040058244 -0.1161568 0.00099085644 2.3509886e-38
0.041906364 -0.1161568 0.00099085644 2.3509886e-38
0.043754481 -0.1161568 0.00099085644 2.3509527e-38
0.045693986 -0.11690097 -0.0019875877 2.3509527e-38
0.047547325 -0.11690097 -0.0019875877 2.3509527e-38
0.049400665 -0.11690097 -0.0019875877 2.3509886e-38
0.051254008 -0.11690097 -0.0019875877 2.3509527e-38
0.053107347 -0.11690097 -0.0019875877 2.3509527e-38
0.054960687 -0.11690097 -0.0019875877 2.3509883e-38
0.056814026 -0.11690097 -0.0019875877 2.3509883e-38
0.058667369 -0.11690097 -0.0019875877 2.3509883e-38
0.060520709 -0.11690097 -0.0019875877 2.3509883e-38
0.062374048 -0.11690097 -0.0019875877 2.3509527e-38
0.064227387 -0.11690097 -0.0019875877 2.3509527e-38
0.066080734 -0.11690097 -0.0019875877 2.3509886e-38
0.068089001 -0.11764936 -0.0049829595 2.3509527e-38
0.070324913 -0.11941226 -0.012038719 2.3509527e-38
0.072358213 -0.12014665 -0.014978062 2.3417691e-38
0.074234329 -0.12014665 -0.014978062 2.3417691e-38
0.076290742 -0.12091358 -0.018047582 2.3234379e-38
0.078172237 -0.12091358 -0.018047582 2.341805e-38
0.080303043 -0.12191428 -0.022052895 2.341805e-38
0.082191557 -0.12191428 -0.022052895 2.341805e-38
0.084080085 -0.12191428 -0.022052895 2.341805e-38
0.086170778 -0.12266256 -0.02504779 2.341805e-38
0.088064551 -0.12266256 -0.02504779 2.341805e-38
0.08995831 -0.12266256 -0.02504779 2.3325494e-38
0.092138886 -0.12364738 -0.028989326 2.341805e-38
0.09448418 -0.12513812 -0.03495587 2.3418047e-38
0.096701503 -0.12614109 -0.038970243 2.3418047e-38
0.099168703 -0.12789918 -0.04600681 2.3049624e-38
0.10141636 -0.12889244 -0.049982201 2.2774116e-38
0.10360095 -0.12964968 -0.053012978 2.3234015e-38
0.10554376 -0.12964968 -0.053012978 2.3142541e-38
0.10748656 -0.12964968 -0.053012978 2.2316014e-38
0.10977881 -0.13065563 -0.057039272 2.1487696e-38
0.11172867 -0.13065563 -0.057039272 2.0011847e-38
0.11331497 -0.12964968 -0.053012978 1.9458673e-38
0.11525778 -0.12964968 -0.053012978 1.918101e-38
0.11720058 -0.12964968 -0.053012978 1.9181007e-38
0.1191434 -0.12964968 -0.053012978 1.9364682e-38
0.1210862 -0.12964968 -0.053012978 1.7244539e-38
0.12302899 -0.12964968 -0.053012978 1.4201364e-38
0.12567478 -0.13139187 -0.059985887 1.4783671e-39
-0.10509546 -0.12026589 -0.0079953782 1.1064194e-38
-0.10290147 -0.11950795 -0.0049829595 1.2908107e-38
-0.10104288 -0.11950795 -0.0049829595 1.3922256e-38
-0.098866552 -0.11875431 -0.0019875877 1.6042753e-38
-0.097013205 -0.11875431 -0.0019875877 2.0652174e-38
-0.095159873 -0.11875431 -0.0019875877 2.350988e-38
-0.090184465 -0.12026589 -0.0079953782 2.3049273e-38
-0.088320598 -0.12026589 -0.0079953782 2.3234379e-38
-0.078332752 -0.12380283 -0.022052895 2.2591522e-38
-0.076444238 -0.12380283 -0.022052895 2.3142541e-38
-0.07455571 -0.12380283 -0.022052895 2.3418047e-38
-0.072347656 -0.12279506 -0.018047582 2.3418047e-38
-0.069997326 -0.12128322 -0.012038719 2.2680841e-38
-0.067817986 -0.12026589 -0.0079953782 2.3418047e-38
-0.065954104 -0.12026589 -0.0079953782 2.3141819e-38
-0.063871041 -0.11950795 -0.0049829595 2.3141103e-38
-0.062012449 -0.11950795 -0.0049829595 2.3509886e-38
-0.060153857 -0.11950795 -0.0049829595 2.3509886e-38
-0.058295265 -0.11950795 -0.0049829595 2.3509886e-38
-0.056239724 -0.11875431 -0.0019875877 2.3509527e-38
-0.054386392 -0.11875431 -0.0019875877 2.3509527e-38
-0.052533045 -0.11875431 -0.0019875877 2.3509527e-38
-0.050679699 -0.11875431 -0.0019875877 2.3509527e-38
-0.048651427 -0.11800493 0.00099085644 2.3509527e-38
-0.046572261 -0.1169848 0.0050454028 2.3509527e-38
-0.044568926 -0.11624531 0.0079845078 2.3509886e-38
-0.042409874 -0.11472471 0.01402818 2.3509886e-38
-0.040226281 -0.1129816 0.020956147 2.3509886e-38
-0.038113341 -0.11147197 0.026956189 2.3509886e-38
-0.03616485 -0.11071064 0.029982079 2.3509886e-38
-0.034367561 -0.11071064 0.029982079 2.3509886e-38
-0.035342529 -0.12631132 -0.032022964 2.3509886e-38
-0.033436522 -0.12631132 -0.032022964 2.3509886e-38
-0.031530522 -0.12631132 -0.032022964 2.3509886e-38
-0.029624522 -0.12631132 -0.032022964 2.3509886e-38
-0.025495198 -0.11147197 0.026956189 2.3509886e-38
-0.023692608 -0.11147197 0.026956189 2.3509886e-38
-0.021990485 -0.11221133 0.024017561 2.3509886e-38
-0.020087421 -0.11147197 0.026956189 2.3509886e-38
-0.018191986 -0.11071064 0.029982079 2.3509886e-38
-0.016307671 -0.10995375 0.032990325 2.3509886e-38
-0.014515661 -0.10995375 0.032990325 2.3509886e-38
-0.012647614 -0.10920133 0.035980929 2.3509886e-38
-0.010860845 -0.10920133 0.035980929 2.3509886e-38
-0.009008918 -0.10845329 0.038954008 2.3509886e-38
-0.0072273612 -0.10845329 0.038954008 2.3509886e-38
-0.0054458082 -0.10845329 0.038954008 2.3509886e-38
-0.0036642477 -0.10845329 0.038954008 2.3509886e-38
-0.0018826947 -0.10845329 0.038954008 2.3509886e-38
-0.00010113791 -0.10845329 0.038954008 2.3509886e-38
0.0016804188 -0.10845329 0.038954008 2.3509886e-38
0.0034619756 -0.10845329 0.038954008 2.3509886e-38
0.0052435305 -0.10845329 0.038954008 2.3509886e-38
0.0070250854 -0.10845329 0.038954008 2.3509886e-38
0.0088066421 -0.10845329 0.038954008 2.3509886e-38
0.010588199 -0.10845329 0.038954008 2.3509886e-38
0.012369754 -0.10845329 0.038954008 2.3509886e-38
0.014173161 -0.11472471 0.01402818 2.3509886e-38
0.015998421 -0.11472471 0.01402818 2.3509886e-38
0.017863054 -0.1169848 0.0050454028 2.3509886e-38
0.019704064 -0.1169848 0.0050454028 2.3509886e-38
0.021545073 -0.1169848 0.0050454028 2.3509886e-38
0.023357738 -0.11624531 0.0079845078 2.3509886e-38
0.025193594 -0.11624531 0.0079845078 2.3509886e-38
0.027029451 -0.11624531 0.0079845078 2.3509886e-38
0.02890911 -0.1169848 0.0050454028 2.3509886e-38
0.030750118 -0.1169848 0.0050454028 2.3509886e-38
0.032591127 -0.1169848 0.0050454028 2.3509886e-38
0.034432136 -0.1169848 0.0050454028 2.3509886e-38
0.036273144 -0.1169848 0.0050454028 2.3509886e-38
0.038210124 -0.11800493 0.00099085644 2.3509886e-38
0.040058244 -0.11800493 0.00099085644 2.3509886e-38
0.041906364 -0.11800493 0.00099085644 2.3509886e-38
0.043754481 -0.11800493 0.00099085644 2.3509527e-38
0.045693986 -0.11875431 -0.0019875877 2.3509527e-38
0.047547325 -0.11875431 -0.0019875877 2.3509527e-38
0.049400665 -0.11875431 -0.0019875877 2.3509886e-38
0.051254008 -0.11875431 -0.0019875877 2.3509527e-38
0.053107347 -0.11875431 -0.0019875877 2.3509527e-38
0.054960687 -0.11875431 -0.0019875877 2.3509883e-38
0.056814026 -0.11875431 -0.0019875877 2.3509883e-38
0.058667369 -0.11875431 -0.0019875877 2.3509883e-38
0.060520709 -0.11875431 -0.0019875877 2.3509883e-38
0.062513225 -0.11950795 -0.0049829595 2.3509527e-38
0.064371817 -0.11950795 -0.0049829595 2.3509527e-38
0.066230409 -0.11950795 -0.0049829595 2.3509886e-38
0.068244815 -0.12026589 -0.0079953782 2.3509527e-38
0.070324913 -0.12128322 -0.012038719 2.3509527e-38
0.072358213 -0.12202276 -0.014978062 2.341805e-38
0.074234329 -0.12202276 -0.014978062 2.3234379e-38
0.076290742 -0.12279506 -0.018047582 2.3234379e-38
0.078172237 -0.12279506 -0.018047582 2.3234379e-38
0.080303043 -0.12380283 -0.022052895 2.3234379e-38
0.082191557 -0.12380283 -0.022052895 2.341805e-38
0.084080085 -0.12380283 -0.022052895 2.341805e-38
0.086170778 -0.12455635 -0.02504779 2.341805e-38
0.088064551 -0.12455635 -0.02504779 2.341805e-38
0.08995831 -0.12455635 -0.02504779 2.341805e-38
0.091852084 -0.12455635 -0.02504779 2.341805e-38
0.094039574 -0.12554805 -0.028989326 2.332621e-38
0.096395329 -0.12704925 -0.03495587 2.3234376e-38
0.098860756 -0.12883668 -0.042060029 2.3234376e-38
0.10109922 -0.12982969 -0.04600681 2.3234376e-38
0.10335386 -0.13082992 -0.049982201 2.3234376e-38
0.10529135 -0.13082992 -0.049982201 2.2683359e-38
0.10722883 -0.13082992 -0.049982201 2.1670289e-38
0.10942937 -0.13159247 -0.053012978 2.0657216e-38
0.11137217 -0.13159247 -0.053012978 1.9182086e-38
0.11331497 -0.13159247 -0.053012978 1.908989e-38
0.11525778 -0.13159247 -0.053012978 1.9088811e-38
0.11720058 -0.13159247 -0.053012978 1.8996616e-38
0.1191434 -0.13159247 -0.053012978 1.8996256e-38
0.1210862 -0.13159247 -0.053012978 1.6691365e-38
0.12272877 -0.13082992 -0.049982201 1.429356e-38
0.12466626 -0.13082992 -0.049982201 2.4925162e-39
0.12660374 -0.13082992 -0.049982201 1.2010543e-39
-0.10509546 -0.12212978 -0.0079953782 1.4751301e-38
-0.10257323 -0.12060766 -0.0019875877 1.7701561e-38
-0.10039872 -0.11985306 0.00099085644 2.129719e-38
-0.097808748 -0.11808117 0.0079845078 2.3509883e-38
-0.095972896 -0.11808117 0.0079845078 2.3509883e-38
-0.094137028 -0.11808117 0.0079845078 2.3509883e-38
-0.092597485 -0.11882581 0.0050454028 2.341769e-38
-0.090756476 -0.11882581 0.0050454028 2.3509886e-38
-0.089891329 -0.12136655 -0.0049829595 2.3509886e-38
-0.088320598 -0.12212978 -0.0079953782 2.341805e-38
-0.086456716 -0.12212978 -0.0079953782 2.341805e-38
-0.084592849 -0.12212978 -0.0079953782 2.3234379e-38
-0.082728967 -0.12212978 -0.0079953782 2.3234379e-38
-0.0808651 -0.12212978 -0.0079953782 2.3234379e-38
-0.079001218 -0.12212978 -0.0079953782 2.3142544e-38
-0.078332752 -0.12569134 -0.022052895 2.3234376e-38
-0.076444238 -0.12569134 -0.022052895 2.341805e-38
-0.074229166 -0.12467657 -0.018047582 2.3509886e-38
-0.072102785 -0.12389888 -0.014978062 2.3509886e-38
-0.069997326 -0.12315418 -0.012038719 2.3509886e-38
-0.067817986 -0.12212978 -0.0079953782 2.3509886e-38
-0.065954104 -0.12212978 -0.0079953782 2.3509886e-38
-0.063871041 -0.12136655 -0.0049829595 2.3509886e-38
-0.062012449 -0.12136655 -0.0049829595 2.3509886e-38
-0.059946403 -0.12060766 -0.0019875877 2.3509886e-38
-0.058093071 -0.12060766 -0.0019875877 2.3509886e-38
-0.056043893 -0.11985306 0.00099085644 2.3509886e-38
-0.054195777 -0.11985306 0.00099085644 2.3509886e-38
-0.05234766 -0.11985306 0.00099085644 2.3509886e-38
-0.050499544 -0.11985306 0.00099085644 2.3509886e-38
-0.048413269 -0.11882581 0.0050454028 2.3509886e-38
-0.046404779 -0.11808117 0.0079845078 2.3509886e-38
-0.044401549 -0.11731337 0.011015046 2.3509886e-38
-0.042409874 -0.11654995 0.01402818 2.3509886e-38
-0.040226281 -0.11479472 0.020956147 2.3509886e-38
-0.038113341 -0.11327456 0.026956189 2.3509886e-38
-0.03616485 -0.11250792 0.029982079 2.3509886e-38
-0.034227788 -0.11174576 0.032990325 2.3509886e-38
-0.032032445 -0.10946019 0.042011488 2.3509886e-38
-0.030256249 -0.10946019 0.042011488 2.3509886e-38
-0.028480053 -0.10946019 0.042011488 2.3509886e-38
-0.026703861 -0.10946019 0.042011488 2.3509886e-38
-0.025267731 -0.11174576 0.032990325 2.3509527e-38
-0.023692608 -0.11327456 0.026956189 2.3509527e-38
-0.021990485 -0.11401908 0.024017561 2.3509527e-38
-0.020087421 -0.11327456 0.026956189 2.3509527e-38
-0.018191986 -0.11250792 0.029982079 2.3509527e-38
-0.016307671 -0.11174576 0.032990325 2.3509527e-38
-0.014515661 -0.11174576 0.032990325 2.3509883e-38
-0.012572028 -0.11023484 0.038954008 2.3509883e-38
-0.010790475 -0.11023484 0.038954008 2.3509883e-38
-0.009008918 -0.11023484 0.038954008 2.3509883e-38
-0.0071657151 -0.10946019 0.042011488 2.3509883e-38
-0.005389519 -0.10946019 0.042011488 2.3509883e-38
-0.003613323 -0.10946019 0.042011488 2.3509883e-38
-0.0018371269 -0.10946019 0.042011488 2.3509883e-38
-6.0930848e-05 -0.10946019 0.042011488 2.3509883e-38
0.0017152652 -0.10946019 0.042011488 2.3509883e-38
0.0034914576 -0.10946019 0.042011488 2.3509883e-38
0.0052435305 -0.11023484 0.038954008 2.3509883e-38
0.0070250854 -0.11023484 0.038954008 2.3509883e-38
0.0088066421 -0.11023484 0.038954008 2.3509883e-38
0.010588199 -0.11023484 0.038954008 2.3509883e-38
0.012369754 -0.11023484 0.038954008 2.3509886e-38
0.014159176 -0.11250792 0.029982079 2.3509886e-38
0.015990542 -0.11579098 0.01702391 2.3509886e-38
0.017823681 -0.11654995 0.01402818 2.3509886e-38
0.019648939 -0.11654995 0.01402818 2.3509886e-38
0.021474198 -0.11654995 0.01402818 2.3509886e-38
0.023299459 -0.11654995 0.01402818 2.3509886e-38
0.025124718 -0.11654995 0.01402818 2.3509886e-38
0.0269896 -0.11731337 0.011015046 2.3509886e-38
0.028820142 -0.11731337 0.011015046 2.3417691e-38
0.030701162 -0.11808117 0.0079845078 2.3417691e-38
0.032591127 -0.11882581 0.0050454028 2.3417691e-38
0.034432136 -0.11882581 0.0050454028 2.3417691e-38
0.036273144 -0.11882581 0.0050454028 2.3509886e-38
0.038210124 -0.11985306 0.00099085644 2.3509886e-38
0.040058244 -0.11985306 0.00099085644 2.3509886e-38
0.041906364 -0.11985306 0.00099085644 2.3509886e-38
0.043754481 -0.11985306 0.00099085644 2.3417691e-38
0.045693986 -0.12060766 -0.0019875877 2.3417691e-38
0.047547325 -0.12060766 -0.0019875877 2.3509886e-38
0.049400665 -0.12060766 -0.0019875877 2.3509886e-38
0.051254008 -0.12060766 -0.0019875877 2.3509886e-38
0.053107347 -0.12060766 -0.0019875877 2.3509886e-38
0.054960687 -0.12060766 -0.0019875877 2.341769e-38
0.056814026 -0.12060766 -0.0019875877 2.341769e-38
0.058667369 -0.12060766 -0.0019875877 2.3509886e-38
0.060520709 -0.12060766 -0.0019875877 2.3509886e-38
0.062513225 -0.12136655 -0.0049829595 2.3509886e-38
0.064371817 -0.12136655 -0.0049829595 2.3509886e-38
0.066230409 -0.12136655 -0.0049829595 2.3509886e-38
0.068244815 -0.12212978 -0.0079953782 2.3509886e-38
0.070324913 -0.12315418 -0.012038719 2.3509886e-38
0.072358213 -0.12389888 -0.014978062 2.3509886e-38
0.074234329 -0.12389888 -0.014978062 2.341805e-38
0.076110452 -0.12389888 -0.014978062 2.341805e-38
0.078172237 -0.12467657 -0.018047582 2.3325856e-38
0.080303043 -0.12569134 -0.022052895 2.3325856e-38
0.082191557 -0.12569134 -0.022052895 2.3509886e-38
0.084080085 -0.12569134 -0.022052895 2.341805e-38
0.086170778 -0.12645011 -0.02504779 2.341805e-38
0.088064551 -0.12645011 -0.02504779 2.341805e-38
0.08995831 -0.12645011 -0.02504779 2.3234379e-38
0.091852084 -0.12645011 -0.02504779 2.3234379e-38
0.094039574 -0.12744872 -0.028989326 2.3142542e-38
0.096395329 -0.12896039 -0.03495587 2.3142542e-38
0.098619685 -0.12997745 -0.038970243 2.3234379e-38
0.10078436 -0.13076027 -0.042060029 2.3142544e-38
0.10302974 -0.13176022 -0.04600681 2.3050707e-38
0.10496026 -0.13176022 -0.04600681 2.2591169e-38
0.10689078 -0.13176022 -0.04600681 2.2775202e-38
0.10916632 -0.13276742 -0.049982201 2.0932375e-38
0.11137217 -0.13353528 -0.053012978 2.0102614e-38
0.11331497 -0.13353528 -0.053012978 1.8627482e-38
0.11525778 -0.13353528 -0.053012978 1.9180295e-38
0.11720058 -0.13353528 -0.053012978 1.8719316e-38
0.11885378 -0.13276742 -0.049982201 1.862712e-38
0.12079127 -0.13276742 -0.049982201 1.6783205e-38
0.12272877 -0.13276742 -0.049982201 1.4754541e-38
0.12466626 -0.13276742 -0.049982201 2.8613015e-39
0.12660374 -0.13276742 -0.049982201 1.2006984e-39
0.12854123 -0.13276742 -0.049982201 2.3995975e-39
-0.10695933 -0.12399365 -0.0079953782 2.3418047e-38
-0.10509546 -0.12399365 -0.0079953782 2.341769e-38
-0.10257323 -0.12246101 -0.0019875877 2.3509886e-38
-0.10039872 -0.12170117 0.00099085644 2.3509886e-38
-0.097808748 -0.11991702 0.0079845078 2.3509886e-38
-0.095972896 -0.11991702 0.0079845078 2.341769e-38
-0.094137028 -0.11991702 0.0079845078 2.2956712e-38
-0.092597485 -0.12066682 0.0050454028 2.3141103e-38
-0.090756476 -0.12066682 0.0050454028 2.3509886e-38
-0.08931002 -0.12170117 0.00099085644 2.3509886e-38
-0.088032737 -0.12322514 -0.0049829595 2.3509886e-38
-0.086174145 -0.12322514 -0.0049829595 2.3509886e-38
-0.084315553 -0.12322514 -0.0049829595 2.3509886e-38
-0.082456961 -0.12322514 -0.0049829595 2.3509886e-38
-0.080598369 -0.12322514 -0.0049829595 2.3509886e-38
-0.078332752 -0.12757985 -0.022052895 2.3509886e-38
-0.076444238 -0.12757985 -0.022052895 2.3509886e-38
-0.074229166 -0.12655805 -0.018047582 2.3509886e-38
-0.072102785 -0.12577499 -0.014978062 2.3509886e-38
-0.069997326 -0.12502514 -0.012038719 2.3509886e-38
-0.067817986 -0.12399365 -0.0079953782 2.3509886e-38
-0.065954104 -0.12399365 -0.0079953782 2.3509886e-38
-0.063653082 -0.12246101 -0.0019875877 2.3509886e-38
-0.06179975 -0.12246101 -0.0019875877 2.3509886e-38
-0.059946403 -0.12246101 -0.0019875877 2.3509886e-38
-0.058093071 -0.12246101 -0.0019875877 2.3509886e-38
-0.056043893 -0.12170117 0.00099085644 2.3509886e-38
-0.054195777 -0.12170117 0.00099085644 2.3509886e-38
-0.05234766 -0.12170117 0.00099085644 2.3509886e-38
-0.050254285 -0.12066682 0.0050454028 2.3509886e-38
-0.048240639 -0.11991702 0.0079845078 2.3509886e-38
-0.046404779 -0.11991702 0.0079845078 2.3509886e-38
-0.044401549 -0.11914389 0.011015046 2.3509886e-38
-0.042409874 -0.11837523 0.01402818 2.3509886e-38
-0.040226281 -0.11660783 0.020956147 2.3509886e-38
-0.038113341 -0.11507715 0.026956189 2.3509886e-38
-0.03616485 -0.11430521 0.029982079 2.3509886e-38
-0.034227788 -0.11353777 0.032990325 2.3509886e-38
-0.032032445 -0.11123641 0.042011488 2.3509886e-38
-0.030256249 -0.11123641 0.042011488 2.3509886e-38
-0.027490903 -0.10511206 0.06601809 2.3509886e-38
-0.025756799 -0.10511206 0.06601809 2.3509886e-38
-0.025267731 -0.11353777 0.032990325 2.3509527e-38
-0.023692608 -0.11507715 0.026956189 2.3509527e-38
-0.021990485 -0.11582683 0.024017561 2.3509527e-38
-0.020087421 -0.11507715 0.026956189 2.3509527e-38
-0.018191986 -0.11430521 0.029982079 2.3509527e-38
-0.016221151 -0.11277486 0.035980929 2.3509527e-38
