# .PCD v0.7 - Point Cloud Data file format
VERSION 0.7
FIELDS x y z rgb
SIZE 4 4 4 4
TYPE F F F F
COUNT 1 1 1 1
WIDTH 944
HEIGHT 1
VIEWPOINT 0 0 0 1 0 0 0
POINTS 944
DATA ascii
0.029758053 -0.1061465 0.050599374 2.3509527e-38
0.031464089 -0.1061465 0.050599374 2.3509886e-38
0.033883639 -0.11345388 0.02253411 2.3509527e-38
0.035475381 -0.11188738 0.028550483 2.3509527e-38
0.037220076 -0.11188738 0.028550483 2.3509883e-38
0.038964771 -0.11188738 0.028550483 2.3509883e-38
0.040709466 -0.11188738 0.028550483 2.3509527e-38
0.042555019 -0.11265542 0.025600709 2.3509886e-38
0.044304885 -0.11265542 0.025600709 2.341805e-38
0.045943558 -0.11188738 0.028550483 2.3141822e-38
0.047688253 -0.11188738 0.028550483 2.3049626e-38
0.04955449 -0.11265542 0.025600709 2.3234015e-38
0.051304355 -0.11265542 0.025600709 2.3418047e-38
0.056410804 -0.13220255 -0.049473785 2.2865229e-38
0.058149688 -0.13140334 -0.046404265 2.2589e-38
0.059884079 -0.13063805 -0.043464921 2.295778e-38
0.061755039 -0.13063805 -0.043464921 2.350987e-38
0.063778035 -0.13140334 -0.046404265 2.3233999e-38
0.065654151 -0.13140334 -0.046404265 2.111314e-38
0.067699797 -0.13220255 -0.049473785 1.8808249e-38
0.0695813 -0.13220255 -0.049473785 1.8993002e-38
0.071462795 -0.13220255 -0.049473785 2.1390451e-38
0.073767737 -0.1340252 -0.056473993 2.2588994e-38
0.07609567 -0.13584132 -0.063449167 2.0469577e-38
0.078001671 -0.13584132 -0.063449167 1.8626027e-38
0.080364458 -0.13765021 -0.070396446 1.8811497e-38
0.082757629 -0.1394823 -0.077433012 1.7982455e-38
0.085173376 -0.1413065 -0.084439181 1.5309142e-38
0.08740209 -0.14235483 -0.088465475 1.4571579e-38
0.089566357 -0.14312203 -0.09141209 1.3835091e-38
0.091825202 -0.14418359 -0.095489167 1.36507e-38
0.094618186 -0.14701982 -0.10638227 1.1991179e-38
0.096916258 -0.148077 -0.11044254 1.1437282e-38
0.098904669 -0.148077 -0.11044254 1.042313e-38
0.10146761 -0.14991184 -0.1174896 8.4870188e-39
-0.064998463 -0.12386028 -0.010470055 2.2865581e-38
-0.063185349 -0.12386028 -0.010470055 2.3509873e-38
-0.061165586 -0.1230578 -0.0074086413 2.3509873e-38
-0.059164613 -0.12228753 -0.0044700131 2.3509879e-38
-0.05736202 -0.12228753 -0.0044700131 2.3325129e-38
-0.055742338 -0.1230578 -0.0074086413 2.3509883e-38
-0.053391837 -0.12070583 0.0015641227 2.3509527e-38
-0.05159983 -0.12070583 0.0015641227 2.3509168e-38
-0.049979232 -0.12149437 -0.0014441237 2.3509527e-38
-0.048181951 -0.12149437 -0.0014441237 2.3509886e-38
-0.046063863 -0.11992194 0.0045547262 2.3509886e-38
-0.044277094 -0.11992194 0.0045547262 2.3509886e-38
-0.042341754 -0.11914261 0.0075278059 2.3509886e-38
-0.040560201 -0.11914261 0.0075278059 2.3509886e-38
-0.039055735 -0.12070583 0.0015641227 2.3509886e-38
-0.037263729 -0.12070583 0.0015641227 2.3509886e-38
-0.035600938 -0.12149437 -0.0014441237 2.3509886e-38
-0.033803657 -0.12149437 -0.0014441237 2.3509886e-38
-0.032125734 -0.12228753 -0.0044700131 2.3509886e-38
-0.030433921 -0.1230578 -0.0074086413 2.3509886e-38
-0.028626176 -0.1230578 -0.0074086413 2.3509886e-38
-0.02681843 -0.1230578 -0.0074086413 2.3509886e-38
-0.024915366 -0.12228753 -0.0044700131 2.3509886e-38
-0.02301993 -0.12149437 -0.0014441237 2.3509886e-38
-0.021135615 -0.12070583 0.0015641227 2.3509886e-38
-0.019262327 -0.11992194 0.0045547262 2.3509886e-38
-0.017399972 -0.11914261 0.0075278059 2.3509886e-38
-0.015618419 -0.11914261 0.0075278059 2.3509886e-38
-0.013769852 -0.11834116 0.010585286 2.3509886e-38
-0.01199366 -0.11834116 0.010585286 2.3509886e-38
-0.01016151 -0.11754455 0.013624407 2.3509886e-38
-0.0083906446 -0.11754455 0.013624407 2.3509886e-38
-0.0066197794 -0.11754455 0.013624407 2.3509886e-38
-0.0048105065 -0.11677901 0.016544916 2.3509886e-38
-0.0030447599 -0.11677901 0.016544916 2.3509886e-38
-0.0012790151 -0.11677901 0.016544916 2.3509886e-38
0.0005104281 -0.11599173 0.019548394 2.3509886e-38
0.00228923 -0.11520912 0.02253411 2.3509886e-38
0.0040579177 -0.11440529 0.025600709 2.3509886e-38
0.0058155432 -0.11363207 0.028550483 2.3509886e-38
0.0075628962 -0.11283787 0.031580366 2.3509886e-38
0.009302279 -0.11283787 0.031580366 2.3509886e-38
0.011033744 -0.11204849 0.034591891 2.3509886e-38
0.012767846 -0.11204849 0.034591891 2.3509886e-38
0.014489494 -0.11151646 0.036621548 2.3509886e-38
0.016196519 -0.11073507 0.039602555 2.3509886e-38
0.017921839 -0.11073507 0.039602555 2.3509886e-38
0.019613387 -0.1099584 0.042565621 2.3509886e-38
0.02133351 -0.1099584 0.042565621 2.3509886e-38
0.023053633 -0.1099584 0.042565621 2.3509527e-38
0.02472312 -0.10916151 0.045605637 2.3509527e-38
0.026437912 -0.10916151 0.045605637 2.3509527e-38
0.028052015 -0.10785256 0.050599374 2.3509527e-38
0.029758053 -0.10785256 0.050599374 2.3509527e-38
0.031393304 -0.1070687 0.053589799 2.3509527e-38
0.033094101 -0.1070687 0.053589799 2.3509527e-38
0.035393037 -0.11283787 0.031580366 2.3509527e-38
0.03713242 -0.11283787 0.031580366 2.3509883e-38
0.038871802 -0.11283787 0.031580366 2.3509883e-38
0.040611185 -0.11283787 0.031580366 2.3509886e-38
0.042454161 -0.11363207 0.028550483 2.3325492e-38
0.044198863 -0.11363207 0.028550483 2.332621e-38
0.045943558 -0.11363207 0.028550483 2.3418045e-38
0.047688253 -0.11363207 0.028550483 2.3418045e-38
0.04955449 -0.11440529 0.025600709 2.3418043e-38
0.054830015 -0.13591899 -0.056473993 2.341804e-38
0.056589887 -0.13513394 -0.053479098 2.3418038e-38
0.058149688 -0.13327946 -0.046404265 2.3418035e-38
0.059689119 -0.13144915 -0.039421581 2.3418033e-38
0.061552994 -0.13144915 -0.039421581 2.1943614e-38
0.063778035 -0.13327946 -0.046404265 1.9085546e-38
0.065654151 -0.13327946 -0.046404265 1.9546164e-38
0.067699797 -0.13408406 -0.049473785 2.1851418e-38
0.0695813 -0.13408406 -0.049473785 2.2128371e-38
0.071698055 -0.13513394 -0.053479098 2.2129095e-38
0.074006163 -0.13695215 -0.060415529 2.1852508e-38
0.076278225 -0.13851611 -0.066382073 2.0378097e-38
0.078189366 -0.13851611 -0.066382073 1.8627103e-38
0.080364458 -0.13956837 -0.070396446 1.8351238e-38
0.082491212 -0.14037828 -0.073486231 1.7429642e-38
0.085173376 -0.14324932 -0.084439181 1.5402417e-38
0.08740209 -0.14430468 -0.088465475 1.4388265e-38
0.089566357 -0.14507706 -0.09141209 1.3466309e-38
0.091825202 -0.14614578 -0.095489167 1.3097526e-38
0.094320312 -0.14797734 -0.10247662 1.1714592e-38
0.096599475 -0.14900111 -0.10638227 1.1437282e-38
0.098580748 -0.14900111 -0.10638227 1.0884108e-38
-0.076696798 -0.11696436 0.02253411 1.1712783e-38
-0.06862469 -0.1256734 -0.010470055 2.3049975e-38
-0.066811576 -0.1256734 -0.010470055 2.341804e-38
-0.064998463 -0.1256734 -0.010470055 2.341804e-38
-0.063185349 -0.1256734 -0.010470055 2.3141455e-38
-0.061165586 -0.12486555 -0.0074086413 2.323365e-38
-0.058965668 -0.12329166 -0.0014441237 2.3509883e-38
-0.057168379 -0.12329166 -0.0014441237 2.3048189e-38
-0.055559441 -0.12409012 -0.0044700131 2.3048191e-38
-0.053210936 -0.12170871 0.0045547262 2.3509527e-38
-0.051424168 -0.12170871 0.0045547262 2.2679412e-38
-0.049807817 -0.12249784 0.0015641227 2.3509527e-38
-0.047850631 -0.12170871 0.0045547262 2.3509886e-38
-0.045904875 -0.12092416 0.0075278059 2.3509886e-38
-0.044123314 -0.12092416 0.0075278059 2.3509886e-38
-0.042188972 -0.12011738 0.010585286 2.3509886e-38
-0.040412784 -0.12011738 0.010585286 2.3509886e-38
-0.038916782 -0.12170871 0.0045547262 2.3509886e-38
-0.037263729 -0.12249784 0.0015641227 2.3509886e-38
-0.035600938 -0.12329166 -0.0014441237 2.3509886e-38
-0.033803657 -0.12329166 -0.0014441237 2.3509886e-38
-0.032006361 -0.12329166 -0.0014441237 2.3509886e-38
-0.030323142 -0.12409012 -0.0044700131 2.3509886e-38
-0.028626176 -0.12486555 -0.0074086413 2.3509886e-38
-0.02681843 -0.12486555 -0.0074086413 2.3509886e-38
-0.024915366 -0.12409012 -0.0044700131 2.3509886e-38
-0.02301993 -0.12329166 -0.0014441237 2.3509886e-38
-0.021049095 -0.12170871 0.0045547262 2.3509886e-38
-0.019262327 -0.12170871 0.0045547262 2.3509886e-38
-0.017399972 -0.12092416 0.0075278059 2.3509886e-38
-0.015618419 -0.12092416 0.0075278059 2.3509886e-38
-0.013836863 -0.12092416 0.0075278059 2.3509886e-38
-0.01199366 -0.12011738 0.010585286 2.3509886e-38
-0.010217464 -0.12011738 0.010585286 2.3509886e-38
-0.0084412675 -0.12011738 0.010585286 2.3509886e-38
-0.0066197794 -0.11931543 0.013624407 2.3509886e-38
-0.0048489105 -0.11931543 0.013624407 2.3509886e-38
-0.0030447599 -0.11854477 0.016544916 2.3509886e-38
-0.0012790151 -0.11854477 0.016544916 2.3509886e-38
0.00048672967 -0.11854477 0.016544916 2.3509886e-38
0.00228923 -0.11696436 0.02253411 2.3509886e-38
0.004044475 -0.11696436 0.02253411 2.3509886e-38
0.0058077853 -0.11615516 0.025600709 2.3509886e-38
0.0075602401 -0.11537679 0.028550483 2.3509886e-38
0.009302279 -0.11457725 0.031580366 2.3509886e-38
0.011033744 -0.1137826 0.034591891 2.3509886e-38
0.012767846 -0.1137826 0.034591891 2.3509886e-38
0.014489494 -0.11324702 0.036621548 2.3509886e-38
0.016196519 -0.11246039 0.039602555 2.3509886e-38
0.017921839 -0.11246039 0.039602555 2.3509886e-38
0.019613387 -0.1116785 0.042565621 2.3509527e-38
0.02133351 -0.1116785 0.042565621 2.3509527e-38
0.023053633 -0.1116785 0.042565621 2.3509527e-38
0.02472312 -0.11087631 0.045605637 2.3509527e-38
0.026437912 -0.11087631 0.045605637 2.3509527e-38
0.028052015 -0.1095586 0.050599374 2.3509527e-38
0.029692512 -0.10876949 0.053589799 2.3509527e-38
0.031393304 -0.10876949 0.053589799 2.3509527e-38
0.033094101 -0.10876949 0.053589799 2.3509527e-38
0.035393037 -0.11457725 0.031580366 2.3509883e-38
0.03713242 -0.11457725 0.031580366 2.3509523e-38
0.038871802 -0.11457725 0.031580366 2.3509883e-38
0.040611185 -0.11457725 0.031580366 2.3417687e-38
0.042350575 -0.11457725 0.031580366 2.3048905e-38
0.044089958 -0.11457725 0.031580366 2.3418045e-38
0.045829341 -0.11457725 0.031580366 2.3418043e-38
0.047688253 -0.11537679 0.028550483 2.341804e-38
0.049432948 -0.11537679 0.028550483 2.2312407e-38
0.054701366 -0.13702248 -0.053479098 2.2865937e-38
0.056589887 -0.13702248 -0.053479098 2.323436e-38
0.058013111 -0.13437997 -0.043464921 2.3418028e-38
0.059689119 -0.13331302 -0.039421581 2.2497504e-38
0.061552994 -0.13331302 -0.039421581 1.9270295e-38
0.063778035 -0.13515557 -0.046404265 1.6965401e-38
0.065654151 -0.13515557 -0.046404265 1.8717116e-38
0.067699797 -0.13596557 -0.049473785 2.2036161e-38
0.069809534 -0.13702248 -0.053479098 2.323436e-38
0.071698055 -0.13702248 -0.053479098 2.2222007e-38
0.074006163 -0.13885282 -0.060415529 2.0931268e-38
0.076278225 -0.14042725 -0.066382073 2.0010394e-38
0.078189366 -0.14042725 -0.066382073 1.8996602e-38
0.080100514 -0.14042725 -0.066382073 1.8536345e-38
0.08228264 -0.14148657 -0.070396446 1.7522193e-38
0.0856563 -0.1470321 -0.09141209 1.5771197e-38
0.087611325 -0.1470321 -0.09141209 1.4480458e-38
0.089566357 -0.1470321 -0.09141209 1.3098242e-38
0.091825202 -0.14810793 -0.095489167 1.272946e-38
0.094320312 -0.14995177 -0.10247662 1.1623112e-38
-0.076696798 -0.11871959 0.02253411 2.2499673e-38
-0.074941546 -0.11871959 0.02253411 2.3234374e-38
-0.073186308 -0.11871959 0.02253411 2.3050703e-38
-0.071431056 -0.11871959 0.02253411 2.3050703e-38
-0.069675818 -0.11871959 0.02253411 2.3418045e-38
-0.067230612 -0.11631663 0.031580366 2.3418045e-38
-0.065491229 -0.11631663 0.031580366 2.3418043e-38
-0.066811576 -0.12748651 -0.010470055 2.3326208e-38
-0.064998463 -0.12748651 -0.010470055 2.3234012e-38
-0.063185349 -0.12748651 -0.010470055 2.350988e-38
-0.061165586 -0.1266733 -0.0074086413 2.3509883e-38
-0.058965668 -0.12508895 -0.0014441237 2.3140384e-38
-0.057168379 -0.12508895 -0.0014441237 2.3509527e-38
-0.055559441 -0.12589271 -0.0044700131 2.3509527e-38
-0.053210936 -0.12349547 0.0045547262 2.3509527e-38
-0.051424168 -0.12349547 0.0045547262 2.3140033e-38
-0.0496374 -0.12349547 0.0045547262 2.3509527e-38
-0.047850631 -0.12349547 0.0045547262 2.3509886e-38
-0.045904875 -0.12270571 0.0075278059 2.3509886e-38
-0.044123314 -0.12270571 0.0075278059 2.3509886e-38
-0.042188972 -0.12189357 0.010585286 2.3509886e-38
-0.040412784 -0.12189357 0.010585286 2.3509886e-38
-0.038916782 -0.12349547 0.0045547262 2.3509886e-38
-0.037263729 -0.12428986 0.0015641227 2.3509886e-38
-0.035600938 -0.12508895 -0.0014441237 2.3509886e-38
-0.033803657 -0.12508895 -0.0014441237 2.3509886e-38
-0.032006361 -0.12508895 -0.0014441237 2.3509886e-38
-0.030323142 -0.12589271 -0.0044700131 2.3509886e-38
-0.028626176 -0.1266733 -0.0074086413 2.3509886e-38
-0.02681843 -0.1266733 -0.0074086413 2.3509886e-38
-0.024915366 -0.12589271 -0.0044700131 2.3509886e-38
-0.022927629 -0.12428986 0.0015641227 2.3509886e-38
-0.021049095 -0.12349547 0.0045547262 2.3509886e-38
-0.019181529 -0.12270571 0.0075278059 2.3509886e-38
-0.017399972 -0.12270571 0.0075278059 2.3509886e-38
-0.015618419 -0.12270571 0.0075278059 2.3509886e-38
-0.013836863 -0.12270571 0.0075278059 2.3509886e-38
-0.012055306 -0.12270571 0.0075278059 2.3509886e-38
-0.010217464 -0.12189357 0.010585286 2.3509886e-38
-0.0084412675 -0.12189357 0.010585286 2.3509886e-38
-0.0066650715 -0.12189357 0.010585286 2.3509886e-38
-0.0048489105 -0.12108628 0.013624407 2.3509886e-38
-0.0030447599 -0.1203105 0.016544916 2.3509886e-38
-0.0012790151 -0.1203105 0.016544916 2.3509886e-38
0.0005104281 -0.11951269 0.019548394 2.3509886e-38
0.00228923 -0.11871959 0.02253411 2.3509886e-38
0.0040579177 -0.11790501 0.025600709 2.3509886e-38
0.0058077853 -0.11790501 0.025600709 2.3509886e-38
0.0075602401 -0.11712147 0.028550483 2.3509886e-38
0.009302279 -0.11631663 0.031580366 2.3509886e-38
0.011033744 -0.11551671 0.034591891 2.3509886e-38
0.012767846 -0.11551671 0.034591891 2.3509886e-38
0.014489494 -0.11497755 0.036621548 2.3509886e-38
0.016220041 -0.11497755 0.036621548 2.3509886e-38
0.017921839 -0.11418571 0.039602555 2.3509886e-38
0.019613387 -0.11339863 0.042565621 2.3509527e-38
0.02133351 -0.11339863 0.042565621 2.3509527e-38
0.023053633 -0.11339863 0.042565621 2.3509527e-38
0.02472312 -0.1125911 0.045605637 2.3509527e-38
0.026437912 -0.1125911 0.045605637 2.3509527e-38
0.028052015 -0.11126463 0.050599374 2.3509527e-38
0.029692512 -0.11047028 0.053589799 2.3509527e-38
0.031393304 -0.11047028 0.053589799 2.3509524e-38
0.033094101 -0.11047028 0.053589799 2.3509524e-38
0.035475381 -0.11712147 0.028550483 2.3509883e-38
0.037220076 -0.11712147 0.028550483 2.3417687e-38
0.038871802 -0.11631663 0.031580366 2.350988e-38
0.040513508 -0.11551671 0.034591891 2.350988e-38
0.042247608 -0.11551671 0.034591891 2.3049261e-38
0.043981709 -0.11551671 0.034591891 2.3418043e-38
0.045829341 -0.11631663 0.031580366 2.341804e-38
0.047568724 -0.11631663 0.031580366 2.1759234e-38
0.051040724 -0.12748651 -0.010470055 1.8809328e-38
0.052853838 -0.12748651 -0.010470055 1.6965413e-38
0.054666951 -0.12748651 -0.010470055 1.7242353e-38
0.058013111 -0.13625093 -0.043464921 1.6873569e-38
0.05954387 -0.13437669 -0.036409162 1.6781729e-38
0.061402462 -0.13437669 -0.036409162 1.862492e-38
0.063625999 -0.13625093 -0.043464921 2.148334e-38
0.065654151 -0.13703169 -0.046404265 2.2958468e-38
0.067530267 -0.13703169 -0.046404265 2.2682247e-38
0.069809534 -0.13891099 -0.053479098 2.2130163e-38
0.071698055 -0.13891099 -0.053479098 2.0747956e-38
0.074006163 -0.14075352 -0.060415529 1.9641608e-38
0.07609567 -0.14155935 -0.063449167 1.8628175e-38
0.078001671 -0.14155935 -0.063449167 1.8167557e-38
0.080100514 -0.14233841 -0.066382073 1.8536342e-38
0.08228264 -0.14340474 -0.070396446 1.7799856e-38
0.0856563 -0.14898713 -0.09141209 1.6048139e-38
0.087611325 -0.14898713 -0.09141209 1.4481177e-38
0.089566357 -0.14898713 -0.09141209 1.3006047e-38
-0.088983506 -0.12047486 0.02253411 1.2170172e-38
-0.087228268 -0.12047486 0.02253411 1.3369434e-38
-0.085473016 -0.12047486 0.02253411 1.6411887e-38
-0.083717778 -0.12047486 0.02253411 2.1760313e-38
-0.081962526 -0.12047486 0.02253411 2.3142531e-38
-0.080207288 -0.12047486 0.02253411 2.2958857e-38
-0.078452036 -0.12047486 0.02253411 2.2867023e-38
-0.076696798 -0.12047486 0.02253411 2.2958863e-38
-0.074686155 -0.11965488 0.025600709 2.3234376e-38
-0.072936282 -0.11965488 0.025600709 2.3418047e-38
-0.070709378 -0.11805601 0.031580366 2.3418047e-38
-0.068969995 -0.11805601 0.031580366 2.3509883e-38
-0.067230612 -0.11805601 0.031580366 2.3509883e-38
-0.065491229 -0.11805601 0.031580366 2.350988e-38
-0.063751847 -0.11805601 0.031580366 2.3509883e-38
-0.062012464 -0.11805601 0.031580366 2.3509883e-38
-0.060273081 -0.11805601 0.031580366 2.3509883e-38
-0.059144348 -0.12047486 0.02253411 2.3509886e-38
-0.057389095 -0.12047486 0.02253411 2.3509527e-38
-0.055633858 -0.12047486 0.02253411 2.3509527e-38
-0.053878605 -0.12047486 0.02253411 2.3509527e-38
-0.052662313 -0.12285714 0.013624407 2.3509168e-38
-0.050891444 -0.12285714 0.013624407 2.3509168e-38
-0.049120575 -0.12285714 0.013624407 2.3509168e-38
-0.047517568 -0.12366976 0.010585286 2.3509886e-38
-0.045741364 -0.12366976 0.010585286 2.3509886e-38
-0.043965176 -0.12366976 0.010585286 2.3509886e-38
-0.042037115 -0.12285714 0.013624407 2.3509886e-38
-0.040266246 -0.12285714 0.013624407 2.3509886e-38
-0.038916782 -0.12528224 0.0045547262 2.3509886e-38
-0.037263729 -0.12608187 0.0015641227 2.3509886e-38
-0.035600938 -0.12688623 -0.0014441237 2.3509886e-38
-0.033803657 -0.12688623 -0.0014441237 2.3509886e-38
-0.032125734 -0.12769531 -0.0044700131 2.3509886e-38
-0.030433921 -0.12848105 -0.0074086413 2.3509886e-38
-0.028626176 -0.12848105 -0.0074086413 2.3509886e-38
-0.02681843 -0.12848105 -0.0074086413 2.3509886e-38
-0.024817219 -0.12688623 -0.0014441237 2.3509886e-38
-0.022927629 -0.12608187 0.0015641227 2.3509886e-38
-0.020963086 -0.1244873 0.0075278059 2.3509886e-38
-0.019181529 -0.1244873 0.0075278059 2.3509886e-38
-0.017399972 -0.1244873 0.0075278059 2.3509886e-38
-0.015546048 -0.12366976 0.010585286 2.3509886e-38
-0.013769852 -0.12366976 0.010585286 2.3509886e-38
-0.01199366 -0.12366976 0.010585286 2.3509886e-38
-0.01016151 -0.12285714 0.013624407 2.3509886e-38
-0.0083906446 -0.12285714 0.013624407 2.3509886e-38
-0.0066197794 -0.12285714 0.013624407 2.3509886e-38
-0.0048489105 -0.12285714 0.013624407 2.3509886e-38
-0.0030447599 -0.12207626 0.016544916 2.3509886e-38
-0.0012500528 -0.12127317 0.019548394 2.3509886e-38
0.00053398497 -0.12047486 0.02253411 2.3509886e-38
0.0023080502 -0.11965488 0.025600709 2.3509886e-38
0.0040708464 -0.11886616 0.028550483 2.3509886e-38
0.0058155432 -0.11886616 0.028550483 2.3509886e-38
0.0075602401 -0.11886616 0.028550483 2.3509886e-38
0.009302279 -0.11805601 0.031580366 2.3509886e-38
0.011041664 -0.11805601 0.031580366 2.3509886e-38
0.012767846 -0.11725079 0.034591891 2.3509886e-38
0.01450195 -0.11725079 0.034591891 2.3509886e-38
0.016220041 -0.11670811 0.036621548 2.3509886e-38
0.017950585 -0.11670811 0.036621548 2.3509886e-38
0.019647155 -0.11591102 0.039602555 2.3509886e-38
0.021372475 -0.11591102 0.039602555 2.3509886e-38
0.023097793 -0.11591102 0.039602555 2.2956349e-38
0.024773756 -0.11511876 0.042565621 2.3509883e-38
0.026493879 -0.11511876 0.042565621 2.3509883e-38
0.028093686 -0.11352326 0.048532702 2.3048545e-38
0.029758053 -0.11297067 0.050599374 2.3325131e-38
0.031393304 -0.11217107 0.053589799 2.350988e-38
0.033094101 -0.11217107 0.053589799 2.350988e-38
0.035475381 -0.11886616 0.028550483 2.350988e-38
0.037220076 -0.11886616 0.028550483 2.3326208e-38
0.038871802 -0.11805601 0.031580366 2.3418043e-38
0.040513508 -0.11725079 0.034591891 2.3418043e-38
0.042247608 -0.11725079 0.034591891 2.295778e-38
0.043981709 -0.11725079 0.034591891 2.3418038e-38
0.045715816 -0.11725079 0.034591891 2.2958133e-38
0.049106836 -0.12848105 -0.0074086413 2.2036175e-38
0.050914586 -0.12848105 -0.0074086413 1.7703334e-38
0.052722327 -0.12848105 -0.0074086413 1.7334548e-38
0.054666951 -0.1292996 -0.010470055 1.6228555e-38
0.056480065 -0.1292996 -0.010470055 1.5951966e-38
0.05954387 -0.13623528 -0.036409162 1.7519647e-38
0.061402462 -0.13623528 -0.036409162 2.0101122e-38
0.063625999 -0.13812189 -0.043464921 2.1945033e-38
0.065496966 -0.13812189 -0.043464921 2.2498207e-38
0.067530267 -0.13890781 -0.046404265 2.231454e-38
0.0695813 -0.13972856 -0.049473785 2.2591141e-38
0.071698055 -0.14079951 -0.053479098 2.0471367e-38
0.074006163 -0.1426542 -0.060415529 1.8719651e-38
0.07609567 -0.14346536 -0.063449167 1.8351587e-38
0.078001671 -0.14346536 -0.063449167 1.8536697e-38
0.080100514 -0.14424954 -0.066382073 1.8259753e-38
0.082491212 -0.14614908 -0.073486231 1.7154484e-38
-0.087228268 -0.1222301 0.02253411 1.7240935e-38
-0.085473016 -0.1222301 0.02253411 2.2312413e-38
-0.083717778 -0.1222301 0.02253411 2.3234372e-38
-0.081962526 -0.1222301 0.02253411 2.2774111e-38
-0.080207288 -0.1222301 0.02253411 2.2129461e-38
-0.078452036 -0.1222301 0.02253411 2.3142537e-38
-0.076436013 -0.12140475 0.025600709 2.3142538e-38
-0.074686155 -0.12140475 0.025600709 2.3418047e-38
-0.072936282 -0.12140475 0.025600709 2.3509886e-38
-0.070709378 -0.1197954 0.031580366 2.3509883e-38
-0.068969995 -0.1197954 0.031580366 2.3509883e-38
-0.067230612 -0.1197954 0.031580366 2.3509883e-38
-0.065491229 -0.1197954 0.031580366 2.3509883e-38
-0.063751847 -0.1197954 0.031580366 2.3509883e-38
-0.062012464 -0.1197954 0.031580366 2.3509883e-38
-0.060273081 -0.1197954 0.031580366 2.3509886e-38
-0.058533698 -0.1197954 0.031580366 2.3509886e-38
-0.056794301 -0.1197954 0.031580366 2.3509527e-38
-0.055054918 -0.1197954 0.031580366 2.3509527e-38
-0.053504124 -0.12061088 0.028550483 2.3509527e-38
-0.051759437 -0.12061088 0.028550483 2.3509168e-38
-0.050187998 -0.12140475 0.025600709 2.3509168e-38
-0.048612878 -0.1222301 0.02253411 2.3509168e-38
-0.046857625 -0.1222301 0.02253411 2.3509886e-38
-0.045262054 -0.12303366 0.019548394 2.3509886e-38
-0.043501571 -0.12303366 0.019548394 2.3509886e-38
-0.041741088 -0.12303366 0.019548394 2.3509886e-38
-0.040266246 -0.12462802 0.013624407 2.3509886e-38
-0.036873423 -0.11523293 0.048532702 2.3509886e-38
-0.03516376 -0.11523293 0.048532702 2.3509886e-38
-0.033454098 -0.11523293 0.048532702 2.3509886e-38
-0.031659283 -0.1146767 0.050599374 2.3509886e-38
-0.030150251 -0.11602069 0.045605637 2.3509886e-38
-0.030433921 -0.13028879 -0.0074086413 2.3509886e-38
-0.028626176 -0.13028879 -0.0074086413 2.3509886e-38
-0.02681843 -0.13028879 -0.0074086413 2.3509886e-38
-0.024817219 -0.12868352 -0.0014441237 2.3509886e-38
-0.022927629 -0.12787388 0.0015641227 2.3509886e-38
-0.020963086 -0.12626885 0.0075278059 2.3509886e-38
-0.019181529 -0.12626885 0.0075278059 2.3509886e-38
-0.01732224 -0.12544595 0.010585286 2.3509886e-38
-0.015546048 -0.12544595 0.010585286 2.3509886e-38
-0.013769852 -0.12544595 0.010585286 2.3509886e-38
-0.01199366 -0.12544595 0.010585286 2.3509886e-38
-0.01016151 -0.12462802 0.013624407 2.3509886e-38
-0.0083906446 -0.12462802 0.013624407 2.3509886e-38
-0.0066197794 -0.12462802 0.013624407 2.3509886e-38
-0.0048489105 -0.12462802 0.013624407 2.3509886e-38
-0.0030105319 -0.12303366 0.019548394 2.3509886e-38
-0.0012500528 -0.12303366 0.019548394 2.3509886e-38
0.00060536154 -0.1197954 0.031580366 2.3509886e-38
0.0023447443 -0.1197954 0.031580366 2.3509886e-38
0.004084127 -0.1197954 0.031580366 2.3509886e-38
0.0058235116 -0.1197954 0.031580366 2.3509886e-38
0.0075628962 -0.1197954 0.031580366 2.3509886e-38
0.0092996396 -0.11898489 0.034591891 2.3509886e-38
0.011033744 -0.11898489 0.034591891 2.3509886e-38
0.012767846 -0.11898489 0.034591891 2.3509886e-38
0.014489494 -0.11843865 0.036621548 2.3509886e-38
0.016220041 -0.11843865 0.036621548 2.3509886e-38
0.017950585 -0.11843865 0.036621548 2.3509886e-38
0.01968113 -0.11843865 0.036621548 2.3509886e-38
0.021411676 -0.11843865 0.036621548 2.3509886e-38
0.023142219 -0.11843865 0.036621548 2.3509883e-38
0.024823111 -0.11763634 0.039602555 2.3417687e-38
0.026548428 -0.11763634 0.039602555 2.3048905e-38
0.028273748 -0.11763634 0.039602555 2.3325847e-38
0.029758053 -0.1146767 0.050599374 2.350988e-38
0.031393304 -0.11387186 0.053589799 2.350988e-38
0.033094101 -0.11387186 0.053589799 2.3141456e-38
0.035475381 -0.12061088 0.028550483 2.3418042e-38
0.037394129 -0.1222301 0.02253411 2.3234372e-38
0.03942275 -0.12462802 0.013624407 2.2774467e-38
0.041193619 -0.12462802 0.013624407 2.3326201e-38
0.042964488 -0.12462802 0.013624407 2.3418035e-38
0.044954486 -0.12626885 0.0075278059 2.3418035e-38
0.047299094 -0.13028879 -0.0074086413 1.9270303e-38
0.049106836 -0.13028879 -0.0074086413 1.7518942e-38
0.050914586 -0.13028879 -0.0074086413 1.5859418e-38
0.052722327 -0.13028879 -0.0074086413 1.549099e-38
0.055246912 -0.13460387 -0.023441695 1.73349e-38
0.057407714 -0.13648613 -0.030435346 2.0101125e-38
0.059255831 -0.13648613 -0.030435346 2.2313817e-38
0.061252788 -0.13728772 -0.03341379 2.2774795e-38
0.063416868 -0.13890465 -0.039421581 2.1946112e-38
0.065496966 -0.13999285 -0.043464921 2.1300743e-38
0.067367926 -0.13999285 -0.043464921 2.1208911e-38
0.069406383 -0.14078392 -0.046404265 2.1300758e-38
0.071462795 -0.14161004 -0.049473785 1.9641607e-38
0.07418967 -0.14537133 -0.063449167 1.8258672e-38
0.07609567 -0.14537133 -0.063449167 1.7706217e-38
0.078189366 -0.14616071 -0.066382073 1.7522545e-38
0.080100514 -0.14616071 -0.066382073 1.7245958e-38
0.082491212 -0.14807267 -0.073486231 1.6693505e-38
-0.088983506 -0.12398534 0.02253411 8.9433292e-39
-0.087228268 -0.12398534 0.02253411 1.8347283e-38
-0.085473016 -0.12398534 0.02253411 2.3418045e-38
-0.083717778 -0.12398534 0.02253411 2.3234374e-38
-0.081962526 -0.12398534 0.02253411 2.2774116e-38
-0.080207288 -0.12398534 0.02253411 2.2958867e-38
-0.078452036 -0.12398534 0.02253411 2.3142541e-38
-0.076436013 -0.12315463 0.025600709 2.268192e-38
-0.074686155 -0.12315463 0.025600709 2.3509886e-38
-0.072936282 -0.12315463 0.025600709 2.3509527e-38
-0.070709378 -0.12153481 0.031580366 2.3509527e-38
-0.068969995 -0.12153481 0.031580366 2.3509527e-38
-0.067230612 -0.12153481 0.031580366 2.3509527e-38
-0.065491229 -0.12153481 0.031580366 2.3509527e-38
-0.063751847 -0.12153481 0.031580366 2.3509527e-38
-0.062012464 -0.12153481 0.031580366 2.3509527e-38
-0.060273081 -0.12153481 0.031580366 2.3509527e-38
-0.058533698 -0.12153481 0.031580366 2.3509527e-38
-0.056794301 -0.12153481 0.031580366 2.3509527e-38
-0.055054918 -0.12153481 0.031580366 2.3509527e-38
-0.053315535 -0.12153481 0.031580366 2.3509527e-38
-0.051576152 -0.12153481 0.031580366 2.3509527e-38
-0.04983677 -0.12153481 0.031580366 2.3509527e-38
-0.048097387 -0.12153481 0.031580366 2.3509527e-38
-0.046358004 -0.12153481 0.031580366 2.3509886e-38
-0.044780649 -0.12235557 0.028550483 2.3509886e-38
-0.042879239 -0.12153481 0.031580366 2.3509886e-38
-0.040738985 -0.11936165 0.039602555 2.3509886e-38
-0.038583085 -0.11694257 0.048532702 2.3509886e-38
-0.036777399 -0.11638273 0.050599374 2.3509886e-38
-0.034937665 -0.11557265 0.053589799 2.3509886e-38
-0.033236861 -0.11557265 0.053589799 2.3509886e-38
-0.031659283 -0.11638273 0.050599374 2.3509886e-38
-0.030150251 -0.11773549 0.045605637 2.3509886e-38
-0.028435459 -0.11773549 0.045605637 2.3509886e-38
-0.026615458 -0.11694257 0.048532702 2.3509886e-38
-0.024905795 -0.11694257 0.048532702 2.3509886e-38
-0.023196137 -0.11694257 0.048532702 2.3509886e-38
-0.022744643 -0.1280504 0.0075278059 2.3509886e-38
-0.020963086 -0.1280504 0.0075278059 2.3509886e-38
-0.019181529 -0.1280504 0.0075278059 2.3509886e-38
-0.01732224 -0.12722217 0.010585286 2.3509886e-38
-0.015546048 -0.12722217 0.010585286 2.3509886e-38
-0.013769852 -0.12722217 0.010585286 2.3509886e-38
-0.01199366 -0.12722217 0.010585286 2.3509886e-38
-0.0094808023 -0.11638273 0.050599374 2.3509886e-38
-0.0077747647 -0.11638273 0.050599374 2.3509886e-38
-0.006068727 -0.11638273 0.050599374 2.3509886e-38
-0.0043233689 -0.11557265 0.053589799 2.3509886e-38
-0.0025886986 -0.11476754 0.056561984 2.3509886e-38
-0.00089311786 -0.11476754 0.056561984 2.3509886e-38
0.00060536154 -0.12153481 0.031580366 2.3509886e-38
0.0023447443 -0.12153481 0.031580366 2.3509886e-38
0.0040973295 -0.120719 0.034591891 2.3509886e-38
0.0058314316 -0.120719 0.034591891 2.3509886e-38
0.0075655356 -0.120719 0.034591891 2.3509886e-38
0.0092978608 -0.12016918 0.036621548 2.3509886e-38
0.011028405 -0.12016918 0.036621548 2.3509527e-38
0.012767846 -0.120719 0.034591891 2.3509886e-38
0.014489494 -0.12016918 0.036621548 2.3509886e-38
0.016220041 -0.12016918 0.036621548 2.3509886e-38
0.017950585 -0.12016918 0.036621548 2.3509886e-38
0.01968113 -0.12016918 0.036621548 2.341805e-38
0.021411676 -0.12016918 0.036621548 2.341805e-38
0.023142219 -0.12016918 0.036621548 2.3418047e-38
0.024872765 -0.12016918 0.036621548 2.3418047e-38
0.026603309 -0.12016918 0.036621548 2.3418045e-38
0.028333854 -0.12016918 0.036621548 2.3418045e-38
0.029934125 -0.11855899 0.042565621 2.3418045e-38
0.031654246 -0.11855899 0.042565621 2.3418043e-38
0.033730682 -0.12235557 0.028550483 2.3326206e-38
0.035475381 -0.12235557 0.028550483 2.3142535e-38
0.037480503 -0.12479414 0.019548394 2.3234367e-38
0.03942275 -0.12639888 0.013624407 2.3142528e-38
0.041193619 -0.12639888 0.013624407 2.2958852e-38
0.043068394 -0.12722217 0.010585286 2.323436e-38
0.044954486 -0.1280504 0.0075278059 2.2958129e-38
0.046848118 -0.12885578 0.0045547262 1.7334548e-38
0.049106836 -0.13209651 -0.0074086413 1.5766861e-38
0.050914586 -0.13209651 -0.0074086413 1.6596619e-38
0.052722327 -0.13209651 -0.0074086413 1.6596616e-38
0.055246912 -0.13643973 -0.023441695 1.9086254e-38
0.057219326 -0.13723589 -0.0263808 2.2129429e-38
0.059060335 -0.13723589 -0.0263808 2.3418012e-38
0.061103955 -0.13833423 -0.030435346 2.22227e-38
0.063261054 -0.13995247 -0.036409162 2.0470984e-38
0.065280743 -0.14076851 -0.039421581 1.9733418e-38
0.067367926 -0.14186381 -0.043464921 2.0010368e-38
0.069238894 -0.14186381 -0.043464921 2.0102215e-38
0.071282506 -0.14266007 -0.046404265 1.9365376e-38
0.07418967 -0.14727734 -0.063449167 1.8627811e-38
0.07609567 -0.14727734 -0.063449167 1.8074997e-38
0.078189366 -0.14807184 -0.066382073 1.7430347e-38
0.080100514 -0.14807184 -0.066382073 1.6877173e-38
0.082491212 -0.1499963 -0.073486231 1.6509469e-38
-0.088983506 -0.12574057 0.02253411 9.0355249e-39
-0.087228268 -0.12574057 0.02253411 1.7424971e-38
-0.085185364 -0.1249045 0.025600709 2.2587927e-38
-0.083435491 -0.1249045 0.025600709 2.3418047e-38
-0.081685618 -0.1249045 0.025600709 2.341805e-38
-0.079935759 -0.1249045 0.025600709 2.3234379e-38
-0.078185886 -0.1249045 0.025600709 2.3234379e-38
-0.076185182 -0.12410025 0.028550483 2.277376e-38
-0.074440479 -0.12410025 0.028550483 2.3509886e-38
-0.07244876 -0.12327419 0.031580366 2.3509527e-38
-0.070709378 -0.12327419 0.031580366 2.3509527e-38
-0.068969995 -0.12327419 0.031580366 2.3509527e-38
-0.067461699 -0.12410025 0.028550483 2.3509527e-38
-0.065491229 -0.12327419 0.031580366 2.3509527e-38
-0.06353271 -0.12245311 0.034591891 2.3509527e-38
-0.061798617 -0.12245311 0.034591891 2.3509527e-38
-0.06006451 -0.12245311 0.034591891 2.3509527e-38
-0.058330402 -0.12245311 0.034591891 2.3509527e-38
-0.056596294 -0.12245311 0.034591891 2.3509527e-38
-0.054862201 -0.12245311 0.034591891 2.3509527e-38
-0.053128093 -0.12245311 0.034591891 2.3509527e-38
-0.051393986 -0.12245311 0.034591891 2.3509527e-38
-0.049659885 -0.12245311 0.034591891 2.3509527e-38
-0.047925785 -0.12245311 0.034591891 2.3509527e-38
-0.046079576 -0.12189974 0.036621548 2.3509886e-38
-0.04434903 -0.12189974 0.036621548 2.3509886e-38
-0.042153805 -0.11945029 0.045605637 2.3509886e-38
-0.04029274 -0.11865224 0.048532702 2.3509886e-38
-0.038483441 -0.11808877 0.050599374 2.3509886e-38
-0.036638454 -0.11727346 0.053589799 2.3509886e-38
-0.034937665 -0.11727346 0.053589799 2.3509886e-38
-0.033236861 -0.11727346 0.053589799 2.3509886e-38
-0.031536072 -0.11727346 0.053589799 2.3509886e-38
-0.029835274 -0.11727346 0.053589799 2.3509886e-38
-0.028134482 -0.11727346 0.053589799 2.3509886e-38
-0.02643369 -0.11727346 0.053589799 2.3509886e-38
-0.024732893 -0.11727346 0.053589799 2.3509886e-38
-0.023032101 -0.11727346 0.053589799 2.3509886e-38
-0.021331308 -0.11727346 0.053589799 2.3509886e-38
-0.019630512 -0.11727346 0.053589799 2.3509886e-38
-0.017929716 -0.11727346 0.053589799 2.3509886e-38
-0.016153364 -0.11646311 0.056561984 2.3509886e-38
-0.014647832 -0.11865224 0.048532702 2.3509886e-38
-0.01293817 -0.11865224 0.048532702 2.3509886e-38
-0.011228511 -0.11865224 0.048532702 2.3509886e-38
-0.0094808023 -0.11808877 0.050599374 2.3509886e-38
-0.0077747647 -0.11808877 0.050599374 2.3509886e-38
-0.006068727 -0.11808877 0.050599374 2.3509886e-38
-0.0043233689 -0.11727346 0.053589799 2.3509886e-38
-0.0025886986 -0.11646311 0.056561984 2.3509886e-38
-0.00089311786 -0.11646311 0.056561984 2.3509886e-38
0.00080246478 -0.11646311 0.056561984 2.3509886e-38
0.0024980474 -0.11646311 0.056561984 2.3509886e-38
0.0040973295 -0.12245311 0.034591891 2.3509886e-38
0.0058892127 -0.11646311 0.056561984 2.3509886e-38
0.0075847954 -0.11646311 0.056561984 2.3509886e-38
0.0092978608 -0.12189974 0.036621548 2.3509527e-38
0.011028405 -0.12189974 0.036621548 2.3509527e-38
0.012767846 -0.12245311 0.034591891 2.3509886e-38
0.014489494 -0.12189974 0.036621548 2.3509886e-38
0.016220041 -0.12189974 0.036621548 2.3509886e-38
0.017950585 -0.12189974 0.036621548 2.3509886e-38
0.01968113 -0.12189974 0.036621548 2.341805e-38
0.021411676 -0.12189974 0.036621548 2.341805e-38
0.023142219 -0.12189974 0.036621548 2.2404254e-38
0.024872765 -0.12189974 0.036621548 2.30507e-38
0.026603309 -0.12189974 0.036621548 2.2589722e-38
0.02837478 -0.12245311 0.034591891 1.9916767e-38
0.030108882 -0.12245311 0.034591891 1.7888462e-38
0.031842984 -0.12245311 0.034591891 1.7888462e-38
0.033883639 -0.12574057 0.02253411 1.7427484e-38
0.035638884 -0.12574057 0.02253411 1.5860514e-38
0.037480503 -0.12655462 0.019548394 1.6598073e-38
0.03942275 -0.12816976 0.013624407 1.8073561e-38
0.041193619 -0.12816976 0.013624407 1.7150883e-38
0.043068394 -0.12899835 0.010585286 1.733563e-38
0.044954486 -0.12983195 0.0075278059 1.8809678e-38
0.046848118 -0.13064255 0.0045547262 1.7426742e-38
0.048990913 -0.13310309 -0.0044700131 1.8163945e-38
0.050914586 -0.13390426 -0.0074086413 2.010005e-38
0.052722327 -0.13390426 -0.0074086413 2.1298949e-38
0.055246912 -0.13827558 -0.023441695 2.2036514e-38
0.057219326 -0.1390769 -0.0263808 2.2866991e-38
0.059060335 -0.1390769 -0.0263808 2.3050665e-38
0.061103955 -0.14018236 -0.030435346 2.1761366e-38
0.063261054 -0.14181106 -0.036409162 2.0286955e-38
0.065280743 -0.14263238 -0.039421581 1.9733781e-38
0.067367926 -0.14373477 -0.043464921 1.9918175e-38
0.069238894 -0.14373477 -0.043464921 1.9364294e-38
0.071282506 -0.14453618 -0.046404265 1.9364297e-38
0.07418967 -0.14918335 -0.063449167 1.9364297e-38
0.07609567 -0.14918335 -0.063449167 1.8904398e-38
0.078189366 -0.14998297 -0.066382073 1.8167193e-38
0.080100514 -0.14998297 -0.066382073 1.7245953e-38
-0.088983506 -0.12749584 0.02253411 1.0048957e-38
-0.087228268 -0.12749584 0.02253411 1.8715347e-38
-0.085185364 -0.12665437 0.025600709 2.3509523e-38
-0.083435491 -0.12665437 0.025600709 2.3509883e-38
-0.081685618 -0.12665437 0.025600709 2.341805e-38
-0.079674572 -0.12584494 0.028550483 2.2681564e-38
-0.077929869 -0.12584494 0.028550483 2.3234379e-38
-0.076185182 -0.12584494 0.028550483 2.341805e-38
-0.074188143 -0.12501357 0.031580366 2.3509886e-38
-0.07244876 -0.12501357 0.031580366 2.3509527e-38
-0.070709378 -0.12501357 0.031580366 2.3509527e-38
-0.068969995 -0.12501357 0.031580366 2.3509527e-38
-0.067230612 -0.12501357 0.031580366 2.3509527e-38
-0.065266818 -0.12418722 0.034591891 2.3509527e-38
-0.06353271 -0.12418722 0.034591891 2.3509527e-38
-0.061798617 -0.12418722 0.034591891 2.3509527e-38
-0.059923932 -0.12363027 0.036621548 2.3509527e-38
-0.058193401 -0.12363027 0.036621548 2.3509527e-38
-0.056596294 -0.12418722 0.034591891 2.3509527e-38
-0.054862201 -0.12418722 0.034591891 2.3509527e-38
-0.053001761 -0.12363027 0.036621548 2.3509527e-38
-0.051271215 -0.12363027 0.036621548 2.3509527e-38
-0.049540669 -0.12363027 0.036621548 2.3509527e-38
-0.047810122 -0.12363027 0.036621548 2.3509527e-38
-0.045914941 -0.12281232 0.039602555 2.3509886e-38
-0.044031166 -0.12199925 0.042565621 2.3509886e-38
-0.042153805 -0.12116508 0.045605637 2.3509886e-38
-0.04029274 -0.12036191 0.048532702 2.3509886e-38
-0.038483441 -0.1197948 0.050599374 2.3509886e-38
-0.036638454 -0.11897425 0.053589799 2.3509886e-38
-0.034937665 -0.11897425 0.053589799 2.3509886e-38
-0.033236861 -0.11897425 0.053589799 2.3509886e-38
-0.031536072 -0.11897425 0.053589799 2.3509886e-38
-0.029835274 -0.11897425 0.053589799 2.3509886e-38
-0.028134482 -0.11897425 0.053589799 2.3509886e-38
-0.02643369 -0.11897425 0.053589799 2.3509886e-38
-0.024732893 -0.11897425 0.053589799 2.3509886e-38
-0.023032101 -0.11897425 0.053589799 2.3509886e-38
-0.021331308 -0.11897425 0.053589799 2.3509886e-38
-0.019630512 -0.11897425 0.053589799 2.3509886e-38
-0.017848944 -0.11815868 0.056561984 2.3509886e-38
-0.016153364 -0.11815868 0.056561984 2.3509886e-38
-0.014528131 -0.11897425 0.053589799 2.3509886e-38
-0.012827335 -0.11897425 0.053589799 2.3509886e-38
-0.011126542 -0.11897425 0.053589799 2.3509886e-38
-0.0094808023 -0.1197948 0.050599374 2.3509886e-38
-0.0077747647 -0.1197948 0.050599374 2.3509886e-38
-0.006068727 -0.1197948 0.050599374 2.3509886e-38
-0.0043233689 -0.11897425 0.053589799 2.3509886e-38
-0.0025886986 -0.11815868 0.056561984 2.3509886e-38
-0.00086374395 -0.11732288 0.05960796 2.3509886e-38
0.00084171258 -0.11679374 0.061536409 2.3509886e-38
0.0025285743 -0.11679374 0.061536409 2.3509886e-38
0.0042069834 -0.11732288 0.05960796 2.3509886e-38
0.0058972239 -0.11732288 0.05960796 2.3509886e-38
0.0075874664 -0.11732288 0.05960796 2.3509886e-38
0.0092760175 -0.11679374 0.061536409 2.3509527e-38
0.010962879 -0.11679374 0.061536409 2.3509527e-38
0.012649739 -0.11679374 0.061536409 2.3509527e-38
0.014385367 -0.11897425 0.053589799 2.3509527e-38
0.016086161 -0.11897425 0.053589799 2.3509886e-38
0.017950585 -0.12363027 0.036621548 2.3509886e-38
0.01968113 -0.12363027 0.036621548 2.341805e-38
0.021411676 -0.12363027 0.036621548 2.3234379e-38
0.023142219 -0.12363027 0.036621548 2.3234376e-38
0.024872765 -0.12363027 0.036621548 2.2774832e-38
0.026603309 -0.12363027 0.036621548 2.1485172e-38
0.02837478 -0.12418722 0.034591891 1.918028e-38
0.030174885 -0.12501357 0.031580366 1.724489e-38
0.031914271 -0.12501357 0.031580366 1.724489e-38
0.033805676 -0.12665437 0.025600709 1.6691714e-38
0.035638884 -0.12749584 0.02253411 1.4479016e-38
0.037480503 -0.12831511 0.019548394 1.6138529e-38
0.03942275 -0.12994061 0.013624407 1.7890243e-38
0.041292198 -0.13077454 0.010585286 1.6137803e-38
0.043068394 -0.13077454 0.010585286 1.6137083e-38
0.04506135 -0.13242932 0.0045547262 1.7980272e-38
0.046960853 -0.13324992 0.0015641227 1.8625639e-38
0.048990913 -0.13490568 -0.0044700131 1.9454681e-38
0.050793506 -0.13490568 -0.0044700131 2.065358e-38
0.052853838 -0.13655205 -0.010470055 2.3326177e-38
0.055246912 -0.14011143 -0.023441695 2.31425e-38
0.057219326 -0.14091791 -0.0263808 2.3050667e-38
0.059060335 -0.14091791 -0.0263808 2.2958831e-38
0.061103955 -0.14203046 -0.030435346 2.2037956e-38
0.063261054 -0.14366965 -0.036409162 2.0563545e-38
0.065280743 -0.14449625 -0.039421581 1.9364646e-38
0.067144617 -0.14449625 -0.039421581 1.8811475e-38
0.069238894 -0.14560573 -0.043464921 1.881112e-38
0.071109854 -0.14560573 -0.043464921 1.8811123e-38
-0.088983506 -0.12925108 0.02253411 1.0694682e-38
-0.087228268 -0.12925108 0.02253411 2.009828e-38
-0.085185364 -0.12840421 0.025600709 2.350988e-38
-0.083435491 -0.12840421 0.025600709 2.3509523e-38
-0.081685618 -0.12840421 0.025600709 2.31411e-38
-0.079674572 -0.12758966 0.028550483 2.3141822e-38
-0.077929869 -0.12758966 0.028550483 2.341805e-38
-0.076185182 -0.12758966 0.028550483 2.341805e-38
-0.074188143 -0.12675296 0.031580366 2.3509527e-38
-0.07244876 -0.12675296 0.031580366 2.3509527e-38
-0.070469126 -0.12592132 0.034591891 2.3509527e-38
-0.068735018 -0.12592132 0.034591891 2.3509527e-38
-0.067230612 -0.12675296 0.031580366 2.3509527e-38
-0.065266818 -0.12592132 0.034591891 2.3509527e-38
-0.063385025 -0.12536083 0.036621548 2.3509527e-38
-0.061654478 -0.12536083 0.036621548 2.3509527e-38
-0.059923932 -0.12536083 0.036621548 2.3509527e-38
-0.058193401 -0.12536083 0.036621548 2.3509527e-38
-0.056462854 -0.12536083 0.036621548 2.3509527e-38
-0.054732308 -0.12536083 0.036621548 2.3509527e-38
-0.052816212 -0.12453763 0.039602555 2.3509527e-38
-0.051090896 -0.12453763 0.039602555 2.3509883e-38
-0.04936558 -0.12453763 0.039602555 2.3509883e-38
-0.047471412 -0.12371938 0.042565621 2.3509883e-38
-0.045751289 -0.12371938 0.042565621 2.3509886e-38
-0.043868601 -0.12287988 0.045605637 2.3509886e-38
-0.04200241 -0.12207155 0.048532702 2.3509886e-38
-0.04029274 -0.12207155 0.048532702 2.3509886e-38
-0.038483441 -0.12150083 0.050599374 2.3509886e-38
-0.036777399 -0.12150083 0.050599374 2.3509886e-38
-0.034937665 -0.12067504 0.053589799 2.3509886e-38
-0.033236861 -0.12067504 0.053589799 2.3509886e-38
-0.031536072 -0.12067504 0.053589799 2.3509886e-38
-0.029835274 -0.12067504 0.053589799 2.3509886e-38
-0.028134482 -0.12067504 0.053589799 2.3509886e-38
-0.026541175 -0.12150083 0.050599374 2.3509886e-38
-0.024732893 -0.12067504 0.053589799 2.3509886e-38
-0.023032101 -0.12067504 0.053589799 2.3509886e-38
-0.021331308 -0.12067504 0.053589799 2.3509886e-38
-0.019630512 -0.12067504 0.053589799 2.3509886e-38
-0.017848944 -0.11985429 0.056561984 2.3509886e-38
-0.016153364 -0.11985429 0.056561984 2.3509886e-38
-0.014528131 -0.12067504 0.053589799 2.3509886e-38
-0.012827335 -0.12067504 0.053589799 2.3509886e-38
-0.011126542 -0.12067504 0.053589799 2.3509886e-38
-0.00942575 -0.12067504 0.053589799 2.3509886e-38
-0.0077249538 -0.12067504 0.053589799 2.3509886e-38
-0.0060241614 -0.12067504 0.053589799 2.3509886e-38
-0.0042842831 -0.11985429 0.056561984 2.3509886e-38
-0.0025886986 -0.11985429 0.056561984 2.3509886e-38
-0.00086374395 -0.11901312 0.05960796 2.3509886e-38
0.00084171258 -0.11848058 0.061536409 2.3509886e-38
0.0025285743 -0.11848058 0.061536409 2.3509886e-38
0.0042069834 -0.11901312 0.05960796 2.3509886e-38
0.0058972239 -0.11901312 0.05960796 2.3509886e-38
0.0075891577 -0.11848058 0.061536409 2.3509886e-38
0.0092760175 -0.11848058 0.061536409 2.3509527e-38
0.01095495 -0.11764805 0.064551212 2.3509527e-38
0.012636526 -0.11764805 0.064551212 2.3509527e-38
0.014348434 -0.11901312 0.05960796 2.3509527e-38
0.016038677 -0.11901312 0.05960796 2.3509886e-38
0.017786954 -0.12067504 0.053589799 2.341805e-38
0.019647155 -0.12453763 0.039602555 2.3234379e-38
0.021372475 -0.12453763 0.039602555 2.3142541e-38
0.023097793 -0.12453763 0.039602555 2.2682636e-38
0.024823111 -0.12453763 0.039602555 1.8719303e-38
0.026548428 -0.12453763 0.039602555 1.7152695e-38
0.02837478 -0.12592132 0.034591891 1.7798424e-38
0.030108882 -0.12592132 0.034591891 1.7798424e-38
0.031914271 -0.12675296 0.031580366 1.7615112e-38
0.033805676 -0.12840421 0.025600709 1.7246327e-38
0.035555542 -0.12840421 0.025600709 1.6047058e-38
0.037394129 -0.12925108 0.02253411 1.5862658e-38
0.039333142 -0.13090499 0.016544916 1.7614011e-38
0.041193619 -0.1317115 0.013624407 1.742854e-38
0.043068394 -0.13255073 0.010585286 1.991782e-38
0.04506135 -0.13421609 0.0045547262 2.2221268e-38
0.046960853 -0.13504194 0.0015641227 2.3050667e-38
0.048990913 -0.13670824 -0.0044700131 2.3418014e-38
0.050793506 -0.13670824 -0.0044700131 2.3509851e-38
0.052853838 -0.13836516 -0.010470055 2.2866272e-38
0.054976702 -0.14027832 -0.017398022 2.2866275e-38
0.057082765 -0.14194728 -0.023441695 2.2866994e-38
0.059060335 -0.14275892 -0.0263808 2.2498934e-38
0.060901344 -0.14275892 -0.0263808 2.1392589e-38
0.063261054 -0.14552824 -0.036409162 1.9733431e-38
0.065280743 -0.14636014 -0.039421581 1.8443771e-38
0.067144617 -0.14636014 -0.039421581 1.8166827e-38
0.069238894 -0.14747669 -0.043464921 1.8718565e-38
0.071109854 -0.14747669 -0.043464921 1.8533817e-38
-0.08956632 -0.13267075 0.016544916 1.124713e-38
-0.087228268 -0.13100632 0.02253411 2.0097554e-38
-0.085473016 -0.13100632 0.02253411 2.3417679e-38
-0.083435491 -0.13015409 0.025600709 2.2956345e-38
-0.081685618 -0.13015409 0.025600709 2.350988e-38
-0.079674572 -0.12933435 0.028550483 2.3418047e-38
-0.077929869 -0.12933435 0.028550483 2.3418047e-38
-0.075927526 -0.12849234 0.031580366 2.3141822e-38
-0.074188143 -0.12849234 0.031580366 2.3509527e-38
-0.072203234 -0.12765543 0.034591891 2.3509168e-38
-0.070469126 -0.12765543 0.034591891 2.3509168e-38
-0.068735018 -0.12765543 0.034591891 2.3509168e-38
-0.067000926 -0.12765543 0.034591891 2.3509168e-38
-0.065115571 -0.12709136 0.036621548 2.3509168e-38
-0.063385025 -0.12709136 0.036621548 2.3509527e-38
-0.061654478 -0.12709136 0.036621548 2.3509527e-38
-0.059923932 -0.12709136 0.036621548 2.3509527e-38
-0.058193401 -0.12709136 0.036621548 2.3509527e-38
-0.056266844 -0.12626295 0.039602555 2.3509527e-38
-0.054541528 -0.12626295 0.039602555 2.3509883e-38
-0.052816212 -0.12626295 0.039602555 2.3509883e-38
-0.051090896 -0.12626295 0.039602555 2.350988e-38
-0.049191535 -0.12543948 0.042565621 2.350988e-38
-0.047471412 -0.12543948 0.042565621 2.350988e-38
-0.04558339 -0.12459467 0.045605637 2.3509883e-38
-0.043868601 -0.12459467 0.045605637 2.3509886e-38
-0.04200241 -0.12378122 0.048532702 2.3509886e-38
-0.04029274 -0.12378122 0.048532702 2.3509886e-38
-0.038483441 -0.1232069 0.050599374 2.3509886e-38
-0.036638454 -0.12237583 0.053589799 2.3509886e-38
-0.034937665 -0.12237583 0.053589799 2.3509886e-38
-0.033236861 -0.12237583 0.053589799 2.3509886e-38
-0.031536072 -0.12237583 0.053589799 2.3509886e-38
-0.029718025 -0.12154986 0.056561984 2.3509886e-38
-0.02802244 -0.12154986 0.056561984 2.3509886e-38
-0.02643369 -0.12237583 0.053589799 2.3509886e-38
-0.024732893 -0.12237583 0.053589799 2.3509886e-38
-0.022935694 -0.12154986 0.056561984 2.3509886e-38
-0.02124011 -0.12154986 0.056561984 2.3509886e-38
-0.019630512 -0.12237583 0.053589799 2.3509886e-38
-0.017848944 -0.12154986 0.056561984 2.3509886e-38
-0.016153364 -0.12154986 0.056561984 2.3509886e-38
-0.014457779 -0.12154986 0.056561984 2.3509886e-38
-0.012762194 -0.12154986 0.056561984 2.3509886e-38
-0.011066614 -0.12154986 0.056561984 2.3509886e-38
-0.0093149524 -0.12070335 0.05960796 2.3509886e-38
-0.0076247137 -0.12070335 0.05960796 2.3509886e-38
-0.0059798639 -0.12154986 0.056561984 2.3509886e-38
-0.0042842831 -0.12154986 0.056561984 2.3509886e-38
-0.0025539864 -0.12070335 0.05960796 2.3509886e-38
-0.0008451473 -0.12016745 0.061536409 2.3509886e-38
0.00084171258 -0.12016745 0.061536409 2.3509886e-38
0.0025285743 -0.12016745 0.061536409 2.3509886e-38
0.0042154361 -0.12016745 0.061536409 2.3509886e-38
0.0059022959 -0.12016745 0.061536409 2.3509886e-38
0.0075891577 -0.12016745 0.061536409 2.3509886e-38
0.0092733745 -0.11932962 0.064551212 2.3509527e-38
0.01095495 -0.11932962 0.064551212 2.3509168e-38
0.012636526 -0.11932962 0.064551212 2.3509527e-38
0.014336601 -0.12016745 0.061536409 2.3509527e-38
0.016038677 -0.12070335 0.05960796 2.3509886e-38
0.017758291 -0.12154986 0.056561984 2.341805e-38
0.01957874 -0.12459467 0.045605637 2.3234379e-38
0.021293534 -0.12459467 0.045605637 2.3142541e-38
0.023097793 -0.12626295 0.039602555 2.2958867e-38
0.024823111 -0.12626295 0.039602555 1.8443076e-38
0.026548428 -0.12626295 0.039602555 1.641549e-38
0.028333854 -0.12709136 0.036621548 1.724633e-38
0.030108882 -0.12765543 0.034591891 1.696974e-38
0.031914271 -0.12849234 0.031580366 1.6417285e-38
0.033730682 -0.12933435 0.028550483 1.6140698e-38
0.035475381 -0.12933435 0.028550483 1.5218376e-38
0.037394129 -0.13100632 0.02253411 1.6139242e-38
0.039333142 -0.13267075 0.016544916 1.8074983e-38
0.041193619 -0.13348235 0.013624407 1.8904024e-38
0.043068394 -0.13432692 0.010585286 2.1946477e-38
0.04506135 -0.13600285 0.0045547262 2.2406016e-38
0.046960853 -0.13683395 0.0015641227 2.2590404e-38
0.048990913 -0.13851084 -0.0044700131 2.2405294e-38
0.050793506 -0.13851084 -0.0044700131 2.2405294e-38
0.052853838 -0.14017828 -0.010470055 2.3509851e-38
0.054976702 -0.1421036 -0.017398022 2.3418014e-38
0.056941956 -0.14294095 -0.020411156 2.3142507e-38
0.058918625 -0.14378314 -0.023441695 2.2406741e-38
0.060901344 -0.14459993 -0.0263808 2.1115647e-38
