# .PCD v0.7 - Point Cloud Data file format
VERSION 0.7
FIELDS x y z rgb
SIZE 4 4 4 4
TYPE F F F F
COUNT 1 1 1 1
WIDTH 937
HEIGHT 1
VIEWPOINT 0 0 0 1 0 0 0
POINTS 937
DATA ascii
-0.03408318 -0.087345809 -0.010650363 2.3509863e-38
-0.03261229 -0.089369655 -0.01963314 2.3509869e-38
-0.030771282 -0.089369655 -0.01963314 2.3509873e-38
-0.029076006 -0.090283155 -0.023687687 2.3509879e-38
-0.02722789 -0.090283155 -0.023687687 2.3509524e-38
-0.02537977 -0.090283155 -0.023687687 2.3509527e-38
-0.023714948 -0.091629088 -0.029661503 2.3509527e-38
-0.02194351 -0.092307791 -0.032673921 2.3509527e-38
-0.020189516 -0.093218774 -0.036717262 2.3509527e-38
-0.018471319 -0.094572589 -0.042726126 2.3509886e-38
-0.016755514 -0.096149758 -0.049726333 2.3509886e-38
-0.015078895 -0.098382086 -0.059634414 2.3509527e-38
-0.01316775 -0.098382086 -0.059634414 2.3509527e-38
-0.011256605 -0.098382086 -0.059634414 2.3509883e-38
-0.0093454644 -0.098382086 -0.059634414 2.3509883e-38
-0.007434316 -0.098382086 -0.059634414 2.3509883e-38
-0.0055759624 -0.099286526 -0.06364879 2.3509883e-38
-0.003692992 -0.099982664 -0.066738576 2.3509883e-38
-0.0018074512 -0.10087189 -0.070685357 2.3509883e-38
6.779097e-05 -0.1024504 -0.077691525 2.3509886e-38
0.0020105951 -0.1024504 -0.077691525 2.3509886e-38
0.003922835 -0.10402142 -0.084664434 2.3234018e-38
0.0058671441 -0.10494001 -0.088741511 2.2957431e-38
0.0078293234 -0.10494001 -0.088741511 2.2865235e-38
0.0097915009 -0.10494001 -0.088741511 2.2220942e-38
0.011764154 -0.10583721 -0.092723697 2.2128743e-38
0.013746488 -0.10651429 -0.095728964 2.2588643e-38
0.015720919 -0.10651429 -0.095728964 2.2864868e-38
0.0177582 -0.10830905 -0.10369489 2.2496083e-38
0.019784797 -0.10920154 -0.10765609 2.1942549e-38
0.021861017 -0.1108004 -0.11475262 2.1758155e-38
0.023868801 -0.1108004 -0.11475262 2.2126937e-38
0.025934832 -0.11168094 -0.1186609 2.212694e-38
0.028017208 -0.11259718 -0.1227276 2.1942912e-38
0.030038975 -0.11259718 -0.1227276 2.2220942e-38
0.032060742 -0.11259718 -0.1227276 1.5859806e-38
0.034256823 -0.11438908 -0.13068089 1.2634404e-38
0.036387637 -0.11529435 -0.13469884 1.4433374e-42
0.038430396 -0.11529435 -0.13469884 1.8943734e-40
-0.041384213 -0.089171067 -0.010650363 2.2774798e-38
-0.039558955 -0.089171067 -0.010650363 2.3418021e-38
-0.037733696 -0.089171067 -0.010650363 2.350986e-38
-0.035908438 -0.089171067 -0.010650363 2.314216e-38
-0.03408318 -0.089171067 -0.010650363 2.350987e-38
-0.032496344 -0.09054333 -0.016694035 2.3509876e-38
-0.030771282 -0.091210663 -0.01963314 2.3509879e-38
-0.029076006 -0.092131287 -0.023687687 2.3509883e-38
-0.02722789 -0.092131287 -0.023687687 2.3509527e-38
-0.02537977 -0.092131287 -0.023687687 2.3509527e-38
-0.023714948 -0.09348768 -0.029661503 2.3509527e-38
-0.02194351 -0.094171658 -0.032673921 2.3509527e-38
-0.020189516 -0.095089734 -0.036717262 2.3509886e-38
-0.018393282 -0.095757127 -0.039656606 2.3509886e-38
-0.016684629 -0.097363517 -0.046731438 2.3509886e-38
-0.015014619 -0.099627286 -0.056701507 2.3509886e-38
-0.013108611 -0.099627286 -0.056701507 2.3509886e-38
-0.011256605 -0.10029322 -0.059634414 2.3509886e-38
-0.0093454644 -0.10029322 -0.059634414 2.3509886e-38
-0.007434316 -0.10029322 -0.059634414 2.3509886e-38
-0.0055759624 -0.10120471 -0.06364879 2.341769e-38
-0.003692992 -0.10190627 -0.066738576 2.3509886e-38
-0.0018074512 -0.10280241 -0.070685357 2.3509886e-38
6.779097e-05 -0.1043932 -0.077691525 2.3509886e-38
0.0019858871 -0.10530742 -0.081717819 2.3509886e-38
0.003922835 -0.10597645 -0.084664434 2.341769e-38
0.0058671441 -0.1069022 -0.088741511 2.3141103e-38
0.0078293234 -0.1069022 -0.088741511 2.2957431e-38
0.0097915009 -0.1069022 -0.088741511 2.2866311e-38
0.011764154 -0.10780637 -0.092723697 2.259044e-38
0.013746488 -0.10848872 -0.095728964 2.2773034e-38
0.015720919 -0.10848872 -0.095728964 2.2773388e-38
0.0177582 -0.11029746 -0.10369489 2.2495722e-38
0.019784797 -0.11119686 -0.10765609 2.2034742e-38
0.021815307 -0.11189754 -0.11074194 2.2126214e-38
0.023868801 -0.11280818 -0.11475262 2.2494641e-38
0.025876585 -0.11280818 -0.11475262 2.2680114e-38
0.027949471 -0.11369558 -0.1186609 2.2772672e-38
0.029964108 -0.11369558 -0.1186609 2.1666689e-38
0.031978745 -0.11369558 -0.1186609 1.5952005e-38
0.033993386 -0.11369558 -0.1186609 1.0790493e-38
0.036008023 -0.11369558 -0.1186609 1.0888089e-42
-0.041239776 -0.090310872 -0.0076546334 2.3418028e-38
-0.039419763 -0.090310872 -0.0076546334 2.3418031e-38
-0.037733696 -0.090996325 -0.010650363 2.3141804e-38
-0.035908438 -0.090996325 -0.010650363 2.304961e-38
-0.03408318 -0.090996325 -0.010650363 2.3509876e-38
-0.032496344 -0.092379183 -0.016694035 2.3509879e-38
-0.030924127 -0.093979403 -0.023687687 2.350988e-38
-0.029076006 -0.093979403 -0.023687687 2.350988e-38
-0.02722789 -0.093979403 -0.023687687 2.3509883e-38
-0.02537977 -0.093979403 -0.023687687 2.3509527e-38
-0.02380738 -0.09603554 -0.032673921 2.3509527e-38
-0.02194351 -0.09603554 -0.032673921 2.3509527e-38
-0.020189516 -0.096960694 -0.036717262 2.3509886e-38
-0.018393282 -0.097633243 -0.039656606 2.3509886e-38
-0.016684629 -0.099252045 -0.046731438 2.3509886e-38
-0.01494813 -0.10083917 -0.053667869 2.3509886e-38
-0.013108611 -0.10153329 -0.056701507 2.3509886e-38
-0.011202611 -0.10153329 -0.056701507 2.3509886e-38
-0.0093454644 -0.10220437 -0.059634414 2.3509886e-38
-0.0074941441 -0.1031229 -0.06364879 2.3509886e-38
-0.0055759624 -0.1031229 -0.06364879 2.341769e-38
-0.0037379712 -0.10473295 -0.070685357 2.341769e-38
-0.0018457882 -0.10564254 -0.074660748 2.3509886e-38
6.779097e-05 -0.10633601 -0.077691525 2.3509886e-38
0.0020105951 -0.10633601 -0.077691525 2.3509886e-38
0.0039357506 -0.10725726 -0.081717819 2.341769e-38
0.0058778655 -0.10793148 -0.084664434 2.3325494e-38
0.0078293234 -0.10886435 -0.088741511 2.3141822e-38
0.0097915009 -0.10886435 -0.088741511 2.3234376e-38
0.01175368 -0.10886435 -0.088741511 2.2958864e-38
0.013733314 -0.10977553 -0.092723697 2.2865229e-38
0.015720919 -0.11046316 -0.095728964 2.2588997e-38
0.0177582 -0.11228584 -0.10369489 2.2403527e-38
0.019784797 -0.11319222 -0.10765609 2.2034742e-38
0.021815307 -0.11389829 -0.11074194 2.2218054e-38
0.023868801 -0.11481597 -0.11475262 2.2586836e-38
0.025876585 -0.11481597 -0.11475262 2.3141092e-38
0.027949471 -0.11571021 -0.1186609 2.2219499e-38
0.029964108 -0.11571021 -0.1186609 2.3049624e-38
0.031978745 -0.11571021 -0.1186609 1.5491027e-38
0.033993386 -0.11571021 -0.1186609 1.2357819e-38
0.036104281 -0.11664073 -0.1227276 1.4489426e-42
0.038126048 -0.11664073 -0.1227276 1.4503439e-42
-0.044879787 -0.092130885 -0.0076546334 2.341804e-38
-0.043059781 -0.092130885 -0.0076546334 2.2128019e-38
-0.041239776 -0.092130885 -0.0076546334 2.3234367e-38
-0.039419763 -0.092130885 -0.0076546334 2.3234367e-38
-0.037599765 -0.092130885 -0.0076546334 2.3418042e-38
-0.035908438 -0.092821583 -0.010650363 2.3509879e-38
-0.03408318 -0.092821583 -0.010650363 2.350988e-38
-0.032496344 -0.094215035 -0.016694035 2.350988e-38
-0.030924127 -0.09582752 -0.023687687 2.350988e-38
-0.029076006 -0.09582752 -0.023687687 2.350988e-38
-0.027329721 -0.09651424 -0.026666131 2.3509883e-38
-0.025476381 -0.09651424 -0.026666131 2.3509883e-38
-0.02380738 -0.097899407 -0.032673921 2.3509883e-38
-0.02206048 -0.098831654 -0.036717262 2.3509883e-38
-0.020189516 -0.098831654 -0.036717262 2.3509886e-38
-0.018471319 -0.10021709 -0.042726126 2.3509886e-38
-0.016684629 -0.10114056 -0.046731438 2.3509886e-38
-0.01494813 -0.10273984 -0.053667869 2.3509886e-38
-0.013108611 -0.10343929 -0.056701507 2.3509886e-38
-0.011202611 -0.10343929 -0.056701507 2.3509886e-38
-0.0093454644 -0.1041155 -0.059634414 2.3509886e-38
-0.0074941441 -0.10504107 -0.06364879 2.3509886e-38
-0.0055759624 -0.10504107 -0.06364879 2.3325494e-38
-0.0037379712 -0.10666345 -0.070685357 2.341769e-38
-0.0018074512 -0.10666345 -0.070685357 2.3509886e-38
6.779097e-05 -0.10827883 -0.077691525 2.3509886e-38
0.0020105951 -0.10827883 -0.077691525 2.3509886e-38
0.0039357506 -0.10920714 -0.081717819 2.3509886e-38
0.0058778655 -0.10988651 -0.084664434 2.341769e-38
0.0078293234 -0.11082654 -0.088741511 2.3326213e-38
0.0097915009 -0.11082654 -0.088741511 2.3234376e-38
0.01175368 -0.11082654 -0.088741511 2.30507e-38
0.013733314 -0.11174469 -0.092723697 2.2865229e-38
0.015744887 -0.1133381 -0.099634618 2.2589e-38
0.017789453 -0.11518754 -0.10765609 2.2403527e-38
0.019784797 -0.11518754 -0.10765609 2.2126937e-38
0.021815307 -0.11589904 -0.11074194 2.2310249e-38
0.02381606 -0.11589904 -0.11074194 2.2402445e-38
0.025816813 -0.11589904 -0.11074194 2.1481571e-38
0.027884372 -0.11682375 -0.11475262 2.1574129e-38
0.029892156 -0.11682375 -0.11475262 2.0560342e-38
0.031899944 -0.11682375 -0.11475262 1.7980309e-38
0.033993386 -0.11772485 -0.1186609 1.3187579e-38
0.036104281 -0.11866249 -0.1227276 6.6420524e-39
0.038126048 -0.11866249 -0.1227276 3.5081269e-39
0.040147815 -0.11866249 -0.1227276 4.1534963e-39
-0.044879787 -0.093950883 -0.0076546334 2.2957075e-38
-0.043059781 -0.093950883 -0.0076546334 2.341805e-38
-0.041239776 -0.093950883 -0.0076546334 2.341805e-38
-0.039419763 -0.093950883 -0.0076546334 2.341805e-38
-0.037599765 -0.093950883 -0.0076546334 2.3233299e-38
-0.035779752 -0.093950883 -0.0076546334 2.3233299e-38
-0.03408318 -0.094646841 -0.010650363 2.3509886e-38
-0.032496344 -0.096050888 -0.016694035 2.3509883e-38
-0.030924127 -0.097675636 -0.023687687 2.3509883e-38
-0.029076006 -0.097675636 -0.023687687 2.3509883e-38
-0.02722789 -0.097675636 -0.023687687 2.350988e-38
-0.02537977 -0.097675636 -0.023687687 2.350988e-38
-0.02380738 -0.099763289 -0.032673921 2.350988e-38
-0.02206048 -0.10070263 -0.036717262 2.350988e-38
-0.020189516 -0.10070263 -0.036717262 2.3509883e-38
-0.018471319 -0.10209858 -0.042726126 2.3509886e-38
-0.016684629 -0.10302909 -0.046731438 2.3509886e-38
-0.01494813 -0.10464053 -0.053667869 2.3509886e-38
-0.013047446 -0.10464053 -0.053667869 2.3509886e-38
-0.011146761 -0.10464053 -0.053667869 2.3509886e-38
-0.009296611 -0.10534529 -0.056701507 2.3509886e-38
-0.0074941441 -0.10695927 -0.06364879 2.3509886e-38
-0.0055759624 -0.10695927 -0.06364879 2.341769e-38
-0.0037379712 -0.10859399 -0.070685357 2.341769e-38
-0.0018074512 -0.10859399 -0.070685357 2.3509886e-38
9.1703609e-05 -0.10951753 -0.074660748 2.3509886e-38
0.0020105951 -0.11022164 -0.077691525 2.3509886e-38
0.003953401 -0.11022164 -0.077691525 2.3509886e-38
0.0058856159 -0.11115701 -0.081717819 2.3509886e-38
0.007832896 -0.11184154 -0.084664434 2.341805e-38
0.0097915009 -0.11278872 -0.088741511 2.2958507e-38
0.01175368 -0.11278872 -0.088741511 2.2958504e-38
0.013746488 -0.11441202 -0.095728964 2.3049621e-38
0.015769802 -0.11626263 -0.10369489 2.2865587e-38
0.017789453 -0.1171829 -0.10765609 2.2864505e-38
0.019784797 -0.1171829 -0.10765609 2.2680114e-38
0.021815307 -0.11789979 -0.11074194 2.2679035e-38
0.02381606 -0.11789979 -0.11074194 2.2402448e-38
0.025816813 -0.11789979 -0.11074194 2.3232932e-38
0.027884372 -0.11883153 -0.11475262 2.1205348e-38
0.029892156 -0.11883153 -0.11475262 2.2312058e-38
0.031899944 -0.11883153 -0.11475262 1.81647e-38
0.033993386 -0.11973949 -0.1186609 1.8902988e-38
0.036104281 -0.12068425 -0.1227276 1.3280138e-38
0.038126048 -0.12068425 -0.1227276 1.3280864e-38
0.04036396 -0.12253194 -0.13068089 1.2358907e-38
-0.044879787 -0.095770895 -0.0076546334 2.3048914e-38
-0.043059781 -0.095770895 -0.0076546334 2.3417691e-38
-0.041239776 -0.095770895 -0.0076546334 2.3141467e-38
-0.039419763 -0.095770895 -0.0076546334 2.3233662e-38
-0.037599765 -0.095770895 -0.0076546334 2.3509527e-38
-0.035779752 -0.095770895 -0.0076546334 2.2771967e-38
-0.03408318 -0.096472099 -0.010650363 2.3509886e-38
-0.032496344 -0.097886756 -0.016694035 2.3509886e-38
-0.030771282 -0.098574698 -0.01963314 2.3509527e-38
-0.028930273 -0.098574698 -0.01963314 2.3509883e-38
-0.02722789 -0.099523753 -0.023687687 2.3509883e-38
-0.02537977 -0.099523753 -0.023687687 2.350988e-38
-0.02380738 -0.10162716 -0.032673921 2.350988e-38
-0.02206048 -0.10257359 -0.036717262 2.350988e-38
-0.020189516 -0.10257359 -0.036717262 2.3509883e-38
-0.01857315 -0.1049176 -0.046731438 2.3509886e-38
-0.016755514 -0.10561861 -0.049726333 2.3509886e-38
-0.01494813 -0.1065412 -0.053667869 2.3509886e-38
-0.013047446 -0.1065412 -0.053667869 2.3509886e-38
-0.011146761 -0.1065412 -0.053667869 2.3509886e-38
-0.009296611 -0.1072513 -0.056701507 2.3509886e-38
-0.0074941441 -0.10887744 -0.06364879 2.3509886e-38
-0.0055759624 -0.10887744 -0.06364879 2.3509886e-38
-0.0037379712 -0.11052449 -0.070685357 2.3509886e-38
-0.0018457882 -0.11145501 -0.074660748 2.3509886e-38
9.1703609e-05 -0.11145501 -0.074660748 2.3509886e-38
0.0020291954 -0.11145501 -0.074660748 2.3509886e-38
0.003953401 -0.11216442 -0.077691525 2.3509886e-38
0.0058856159 -0.11310686 -0.081717819 2.3509886e-38
0.007832896 -0.11379658 -0.084664434 2.341805e-38
0.0097915009 -0.11475091 -0.088741511 2.3049624e-38
0.01175368 -0.11475091 -0.088741511 2.30507e-38
0.013733314 -0.115683 -0.092723697 2.3326208e-38
0.015744887 -0.11730064 -0.099634618 2.3234369e-38
0.0177582 -0.11825104 -0.10369489 2.3325127e-38
0.019784797 -0.11917825 -0.10765609 2.3325483e-38
0.021780139 -0.11917825 -0.10765609 2.3047817e-38
0.02381606 -0.11990054 -0.11074194 2.2586839e-38
0.025816813 -0.11990054 -0.11074194 2.0835845e-38
0.027884372 -0.12083931 -0.11475262 2.0467783e-38
0.029892156 -0.12083931 -0.11475262 2.0744733e-38
0.031899944 -0.12083931 -0.11475262 2.2497176e-38
0.03408251 -0.12270601 -0.1227276 2.2406422e-38
0.036198083 -0.12363364 -0.1266906 2.2867037e-38
0.038328245 -0.12456764 -0.13068089 2.2407501e-38
-0.046489514 -0.096663594 -0.0037223957 2.3325497e-38
-0.044676401 -0.096663594 -0.0037223957 2.3417691e-38
-0.043059781 -0.097590908 -0.0076546334 2.3417691e-38
-0.041239776 -0.097590908 -0.0076546334 2.3141467e-38
-0.039419763 -0.097590908 -0.0076546334 2.341805e-38
-0.037599765 -0.097590908 -0.0076546334 2.3509527e-38
-0.035908438 -0.098297372 -0.010650363 2.3048554e-38
-0.034207337 -0.099007934 -0.013663497 2.3509886e-38
-0.032496344 -0.099722609 -0.016694035 2.3509886e-38
-0.030771282 -0.10041572 -0.01963314 2.3509527e-38
-0.028930273 -0.10041572 -0.01963314 2.3509883e-38
-0.02722789 -0.10137187 -0.023687687 2.3509883e-38
-0.02537977 -0.10137187 -0.023687687 2.350988e-38
-0.02380738 -0.10349102 -0.032673921 2.350988e-38
-0.02206048 -0.10444455 -0.036717262 2.350988e-38
-0.020189516 -0.10444455 -0.036717262 2.3509883e-38
-0.01857315 -0.10680611 -0.046731438 2.3509886e-38
-0.016755514 -0.1075124 -0.049726333 2.3509886e-38
-0.014861744 -0.1075124 -0.049726333 2.3509886e-38
-0.013047446 -0.1084419 -0.053667869 2.3509886e-38
-0.011146761 -0.1084419 -0.053667869 2.3509886e-38
-0.009296611 -0.10915731 -0.056701507 2.3509886e-38
-0.0074941441 -0.11079563 -0.06364879 2.3509886e-38
-0.0055759624 -0.11079563 -0.06364879 2.3509886e-38
-0.0037379712 -0.11245503 -0.070685357 2.3509886e-38
-0.0018074512 -0.11245503 -0.070685357 2.3509886e-38
9.1703609e-05 -0.11339252 -0.074660748 2.3509886e-38
0.0020291954 -0.11339252 -0.074660748 2.3509886e-38
0.003953401 -0.11410724 -0.077691525 2.3509886e-38
0.0058856159 -0.11505674 -0.081717819 2.3509886e-38
0.0078354795 -0.11505674 -0.081717819 2.341805e-38
0.0097879283 -0.11575161 -0.084664434 2.3234015e-38
0.01175368 -0.11671309 -0.088741511 2.3234374e-38
0.013733314 -0.11765216 -0.092723697 2.3418045e-38
0.015744887 -0.11928193 -0.099634618 2.3234369e-38
0.0177582 -0.12023942 -0.10369489 2.3417323e-38
0.019784797 -0.12117358 -0.10765609 2.3509518e-38
0.021780139 -0.12117358 -0.10765609 2.3048896e-38
0.02381606 -0.12190129 -0.11074194 2.2403527e-38
0.025816813 -0.12190129 -0.11074194 2.304854e-38
0.027817568 -0.12190129 -0.11074194 2.1297544e-38
0.029892156 -0.1228471 -0.11475262 2.2588645e-38
0.031899944 -0.1228471 -0.11475262 2.1483024e-38
0.03408251 -0.1247278 -0.1227276 2.3050708e-38
0.036292534 -0.12660335 -0.13068089 2.2958873e-38
0.038328245 -0.12660335 -0.13068089 2.2867037e-38
0.04036396 -0.12660335 -0.13068089 2.2222395e-38
-0.046489514 -0.098476708 -0.0037223957 2.341805e-38
-0.044676401 -0.098476708 -0.0037223957 2.341805e-38
-0.042863287 -0.098476708 -0.0037223957 2.341805e-38
-0.041239776 -0.099410906 -0.0076546334 2.341805e-38
-0.039419763 -0.099410906 -0.0076546334 2.341805e-38
-0.037599765 -0.099410906 -0.0076546334 2.3509886e-38
-0.035908438 -0.10012263 -0.010650363 2.3509886e-38
-0.034207337 -0.10083848 -0.013663497 2.3509886e-38
-0.032496344 -0.10155846 -0.016694035 2.3509886e-38
-0.030771282 -0.10225673 -0.01963314 2.3509527e-38
-0.028930273 -0.10225673 -0.01963314 2.3509527e-38
-0.02722789 -0.10322 -0.023687687 2.3509527e-38
-0.025476381 -0.1039276 -0.026666131 2.3509883e-38
-0.02380738 -0.10535492 -0.032673921 2.3509883e-38
-0.02206048 -0.10631551 -0.036717262 2.3509883e-38
-0.020269401 -0.10701384 -0.039656606 2.3509886e-38
-0.01857315 -0.10869466 -0.046731438 2.3509886e-38
-0.016755514 -0.10940616 -0.049726333 2.3509886e-38
-0.014861744 -0.10940616 -0.049726333 2.3509886e-38
-0.013047446 -0.11034258 -0.053667869 2.3509886e-38
-0.011146761 -0.11034258 -0.053667869 2.3509886e-38
-0.009296611 -0.11106332 -0.056701507 2.3509886e-38
-0.007434316 -0.11176009 -0.059634414 2.3509886e-38
-0.0055759624 -0.1127138 -0.06364879 2.3509886e-38
-0.003692992 -0.11344786 -0.066738576 2.3509886e-38
-0.0018074512 -0.11438553 -0.070685357 2.3509886e-38
9.1703609e-05 -0.11533 -0.074660748 2.3509886e-38
0.0020291954 -0.11533 -0.074660748 2.3509886e-38
0.0039666854 -0.11533 -0.074660748 2.3509886e-38
0.0058856159 -0.11700659 -0.081717819 2.3509886e-38
0.0078354795 -0.11700659 -0.081717819 2.3509883e-38
0.0097879283 -0.11770664 -0.084664434 2.332621e-38
0.01175368 -0.11867525 -0.088741511 2.3234374e-38
0.013733314 -0.11962132 -0.092723697 2.3326208e-38
0.015744887 -0.12126322 -0.099634618 2.3049261e-38
0.0177582 -0.12222783 -0.10369489 2.3141455e-38
0.019746598 -0.12222783 -0.10369489 2.3325127e-38
0.021780139 -0.12316893 -0.10765609 2.2956345e-38
0.02381606 -0.12390204 -0.11074194 2.2310975e-38
0.025816813 -0.12390204 -0.11074194 2.0835847e-38
0.027817568 -0.12390204 -0.11074194 1.8992653e-38
0.029892156 -0.12485488 -0.11475262 1.8255454e-38
0.031899944 -0.12485488 -0.11475262 1.7978867e-38
0.033993386 -0.1257834 -0.1186609 1.8163981e-38
0.036104281 -0.12674956 -0.1227276 2.2220952e-38
0.038328245 -0.12863909 -0.13068089 2.2590813e-38
0.04036396 -0.12863909 -0.13068089 2.2958873e-38
-0.047804125 -0.098129645 0.0053035356 1.161772e-38
-0.046006836 -0.098129645 0.0053035356 2.3418043e-38
-0.044209547 -0.098129645 0.0053035356 2.3141816e-38
-0.042863287 -0.10028981 -0.0037223957 2.3418045e-38
-0.041050173 -0.10028981 -0.0037223957 2.3141816e-38
-0.03923706 -0.10028981 -0.0037223957 2.3418047e-38
-0.037599765 -0.10123092 -0.0076546334 2.3509883e-38
-0.035908438 -0.10194789 -0.010650363 2.3325492e-38
-0.034207337 -0.10266902 -0.013663497 2.3509883e-38
-0.032496344 -0.10339431 -0.016694035 2.3509886e-38
-0.030771282 -0.10409774 -0.01963314 2.3509527e-38
-0.028930273 -0.10409774 -0.01963314 2.3509527e-38
-0.02722789 -0.1050681 -0.023687687 2.3509527e-38
-0.025476381 -0.10578094 -0.026666131 2.3509527e-38
-0.02380738 -0.10721879 -0.032673921 2.3509527e-38
-0.02206048 -0.10818647 -0.036717262 2.3509527e-38
-0.020269401 -0.10888995 -0.039656606 2.3509886e-38
-0.01857315 -0.11058317 -0.046731438 2.3509886e-38
-0.016755514 -0.11129995 -0.049726333 2.3509886e-38
-0.014861744 -0.11129995 -0.049726333 2.3509886e-38
-0.013047446 -0.11224325 -0.053667869 2.3509886e-38
-0.011146761 -0.11224325 -0.053667869 2.3509886e-38
-0.009296611 -0.11296929 -0.056701507 2.3509886e-38
-0.007434316 -0.11367123 -0.059634414 2.3509886e-38
-0.0055231713 -0.11367123 -0.059634414 2.3509886e-38
-0.0036577806 -0.114632 -0.06364879 2.3509886e-38
-0.0018074512 -0.11631607 -0.070685357 2.3509886e-38
9.1703609e-05 -0.11726747 -0.074660748 2.3509886e-38
0.0020291954 -0.11726747 -0.074660748 2.3509886e-38
0.0039666854 -0.11726747 -0.074660748 2.3509886e-38
0.0058962051 -0.11799283 -0.077691525 2.3509886e-38
0.007832896 -0.11966167 -0.084664434 2.3509883e-38
0.0097915009 -0.12063743 -0.088741511 2.3418047e-38
0.01175368 -0.12063743 -0.088741511 2.3234012e-38
0.013733314 -0.12159048 -0.092723697 2.350988e-38
0.015744887 -0.12324448 -0.099634618 2.350988e-38
0.0177582 -0.12421621 -0.10369489 2.3509879e-38
0.019746598 -0.12421621 -0.10369489 2.240389e-38
0.021780139 -0.12516426 -0.10765609 2.1942193e-38
0.023775481 -0.12516426 -0.10765609 2.2126585e-38
0.025816813 -0.12590279 -0.11074194 2.0559979e-38
0.027817568 -0.12590279 -0.11074194 1.926924e-38
0.029892156 -0.12686269 -0.11475262 1.7333497e-38
0.031899944 -0.12686269 -0.11475262 1.6872519e-38
0.033993386 -0.12779804 -0.1186609 1.8717155e-38
0.036104281 -0.12877132 -0.1227276 2.1575582e-38
0.038328245 -0.13067479 -0.13068089 2.3142544e-38
0.057597153 -0.10409774 -0.01963314 2.3509886e-38
0.060889155 -0.11129995 -0.049726333 2.3509886e-38
0.072251782 -0.11129995 -0.049726333 2.323402e-38
0.084079087 -0.11966167 -0.084664434 2.323402e-38
0.086034119 -0.11966167 -0.084664434 2.3234379e-38
0.087278783 -0.11726747 -0.074660748 2.3234379e-38
0.089216277 -0.11726747 -0.074660748 2.3234379e-38
0.10652035 -0.12779804 -0.1186609 1.7888487e-38
0.10853498 -0.12779804 -0.1186609 1.678214e-38
-0.047637977 -0.099201679 0.008311782 1.1156736e-38
-0.045845963 -0.099201679 0.008311782 2.3418035e-38
-0.044209547 -0.099926919 0.0053035356 2.2957777e-38
-0.042710312 -0.10136487 -0.00066098198 2.3418038e-38
-0.040902562 -0.10136487 -0.00066098198 2.341804e-38
-0.039094813 -0.10136487 -0.00066098198 2.341804e-38
-0.037423946 -0.10210292 -0.0037223957 2.2127303e-38
-0.035908438 -0.10377313 -0.010650363 2.350988e-38
-0.034332201 -0.10523017 -0.016694035 2.350988e-38
-0.032496344 -0.10523017 -0.016694035 2.3509883e-38
-0.030771282 -0.10593875 -0.01963314 2.3509527e-38
-0.029076006 -0.10691623 -0.023687687 2.3509527e-38
-0.027329721 -0.10763429 -0.026666131 2.3509527e-38
-0.025476381 -0.10763429 -0.026666131 2.3509527e-38
-0.02380738 -0.10908265 -0.032673921 2.3509527e-38
-0.02206048 -0.11005743 -0.036717262 2.3509527e-38
-0.020189516 -0.11005743 -0.036717262 2.3509886e-38
-0.018471319 -0.11150609 -0.042726126 2.3509886e-38
-0.016684629 -0.11247168 -0.046731438 2.3509886e-38
-0.014796108 -0.11247168 -0.046731438 2.3509886e-38
-0.01296797 -0.11319371 -0.049726333 2.3509886e-38
-0.011146761 -0.11414395 -0.053667869 2.3509886e-38
-0.009296611 -0.1148753 -0.056701507 2.3509886e-38
-0.007434316 -0.11558239 -0.059634414 2.3509886e-38
-0.0055231713 -0.11558239 -0.059634414 2.3509886e-38
-0.0036577806 -0.11655019 -0.06364879 2.3509886e-38
-0.00176939 -0.11729507 -0.066738576 2.3509886e-38
0.00012306869 -0.11824657 -0.070685357 2.3509886e-38
0.0020291954 -0.11920498 -0.074660748 2.3509886e-38
0.0039666854 -0.11920498 -0.074660748 2.3509886e-38
0.0058962051 -0.11993565 -0.077691525 2.3509886e-38
0.0078354795 -0.12090631 -0.081717819 2.3509883e-38
0.0097879283 -0.12161671 -0.084664434 2.3418047e-38
0.01175368 -0.12259962 -0.088741511 2.3418045e-38
0.013746488 -0.12428416 -0.095728964 2.350988e-38
0.015744887 -0.12522577 -0.099634618 2.3233652e-38
0.0177582 -0.12620462 -0.10369489 2.1574129e-38
0.019746598 -0.12620462 -0.10369489 2.028339e-38
0.021780139 -0.12715961 -0.10765609 2.1020238e-38
0.023775481 -0.12715961 -0.10765609 2.2495368e-38
0.025816813 -0.12790357 -0.11074194 2.3418043e-38
0.027817568 -0.12790357 -0.11074194 2.3417687e-38
0.029892156 -0.12887047 -0.11475262 2.2865235e-38
0.031899944 -0.12887047 -0.11475262 2.2680844e-38
0.03408251 -0.13079311 -0.1227276 2.341805e-38
0.036104281 -0.13079311 -0.1227276 2.3234379e-38
0.038328245 -0.1327105 -0.13068089 2.3234379e-38
0.062782928 -0.11319371 -0.049726333 2.3509886e-38
0.064676702 -0.11319371 -0.049726333 2.3509886e-38
0.066570476 -0.11319371 -0.049726333 2.3509886e-38
0.068464249 -0.11319371 -0.049726333 2.3509886e-38
0.070358016 -0.11319371 -0.049726333 2.3509527e-38
0.072251782 -0.11319371 -0.049726333 2.3509168e-38
0.073964402 -0.11247168 -0.046731438 2.3509168e-38
0.076039329 -0.11319371 -0.049726333 2.3509527e-38
0.077933103 -0.11319371 -0.049726333 2.3509527e-38
0.079826877 -0.11319371 -0.049726333 2.3509527e-38
0.084079087 -0.12161671 -0.084664434 2.3509527e-38
0.086034119 -0.12161671 -0.084664434 2.3509527e-38
0.087278783 -0.11920498 -0.074660748 2.2403185e-38
0.089216277 -0.11920498 -0.074660748 2.3141467e-38
0.091379613 -0.11993565 -0.077691525 2.3325856e-38
0.094165199 -0.12259962 -0.088741511 2.3141467e-38
0.096127383 -0.12259962 -0.088741511 2.3233662e-38
0.10418021 -0.12887047 -0.11475262 2.3234379e-38
0.10618799 -0.12887047 -0.11475262 2.0469965e-38
0.10853498 -0.12981267 -0.1186609 1.7427871e-38
-0.047637977 -0.10099369 0.008311782 7.9302409e-39
-0.045845963 -0.10099369 0.008311782 2.2497506e-38
-0.044209547 -0.10172421 0.0053035356 2.3418031e-38
-0.042710312 -0.10317262 -0.00066098198 2.3142523e-38
-0.040902562 -0.10317262 -0.00066098198 2.3142524e-38
-0.039094813 -0.10317262 -0.00066098198 2.3418038e-38
-0.037423946 -0.10391603 -0.0037223957 2.2680474e-38
-0.035908438 -0.10559841 -0.010650363 2.3509879e-38
-0.034332201 -0.10706602 -0.016694035 2.350988e-38
-0.032496344 -0.10706602 -0.016694035 2.3509883e-38
-0.030771282 -0.10777976 -0.01963314 2.3509527e-38
-0.028930273 -0.10777976 -0.01963314 2.3509527e-38
-0.02722789 -0.10876434 -0.023687687 2.3509527e-38
-0.025476381 -0.10948761 -0.026666131 2.3509168e-38
-0.02380738 -0.11094652 -0.032673921 2.3509168e-38
-0.02194351 -0.11094652 -0.032673921 2.3509168e-38
-0.020189516 -0.11192839 -0.036717262 2.3509886e-38
-0.018393282 -0.11264218 -0.039656606 2.3509886e-38
-0.01658982 -0.11338757 -0.042726126 2.3509886e-38
-0.014796108 -0.1143602 -0.046731438 2.3509886e-38
-0.01296797 -0.11508749 -0.049726333 2.3509886e-38
-0.011146761 -0.11604463 -0.053667869 2.3509886e-38
-0.009296611 -0.11678131 -0.056701507 2.3509886e-38
-0.007434316 -0.11749353 -0.059634414 2.3509886e-38
-0.0055231713 -0.11749353 -0.059634414 2.3509886e-38
-0.0036577806 -0.11846836 -0.06364879 2.3509886e-38
-0.00176939 -0.11921866 -0.066738576 2.3509886e-38
0.00012306869 -0.12017711 -0.070685357 2.3509886e-38
0.0020535905 -0.12017711 -0.070685357 2.3509886e-38
0.0039666854 -0.12114246 -0.074660748 2.3509886e-38
0.0058962051 -0.12187846 -0.077691525 2.3509886e-38
0.0078354795 -0.12285618 -0.081717819 2.3509883e-38
0.0097879283 -0.12357174 -0.084664434 2.3048905e-38
0.01175368 -0.1245618 -0.088741511 2.3418043e-38
0.013746488 -0.1262586 -0.095728964 2.350988e-38
0.015744887 -0.12720706 -0.099634618 2.3049261e-38
0.0177582 -0.12819304 -0.10369489 2.1574131e-38
0.019746598 -0.12819304 -0.10369489 2.0836565e-38
0.021780139 -0.12915494 -0.10765609 2.1942913e-38
0.02381606 -0.12990431 -0.11074194 2.350988e-38
0.025816813 -0.12990431 -0.11074194 2.3509883e-38
0.027817568 -0.12990431 -0.11074194 2.3509883e-38
0.029892156 -0.13087825 -0.11475262 2.3509886e-38
0.031978745 -0.13182731 -0.1186609 2.3509886e-38
0.03408251 -0.13281487 -0.1227276 2.3509886e-38
0.036198083 -0.13377722 -0.1266906 2.341805e-38
0.038328245 -0.13474621 -0.13068089 2.341805e-38
0.055756144 -0.10777976 -0.01963314 2.3509886e-38
0.057597153 -0.10777976 -0.01963314 2.3509886e-38
0.062782928 -0.11508749 -0.049726333 2.3509886e-38
0.064676702 -0.11508749 -0.049726333 2.3509886e-38
0.066410318 -0.1143602 -0.046731438 2.3509886e-38
0.068298832 -0.1143602 -0.046731438 2.3509886e-38
0.069959119 -0.11338757 -0.042726126 2.3509168e-38
0.071840614 -0.11338757 -0.042726126 2.3509168e-38
0.073964402 -0.1143602 -0.046731438 2.3509527e-38
0.076039329 -0.11508749 -0.049726333 2.3509527e-38
0.077933103 -0.11508749 -0.049726333 2.3509527e-38
0.079826877 -0.11508749 -0.049726333 2.3509527e-38
0.084079087 -0.12357174 -0.084664434 2.3509527e-38
0.086034119 -0.12357174 -0.084664434 2.3509527e-38
0.087278783 -0.12114246 -0.074660748 2.3509527e-38
0.089216277 -0.12114246 -0.074660748 2.3509886e-38
0.091379613 -0.12187846 -0.077691525 2.3509886e-38
0.093854241 -0.12357174 -0.084664434 2.3509886e-38
0.095809273 -0.12357174 -0.084664434 2.3509886e-38
0.097764306 -0.12357174 -0.084664434 2.3509886e-38
0.10217243 -0.13087825 -0.11475262 2.3417691e-38
0.10418021 -0.13087825 -0.11475262 2.2589017e-38
0.10618799 -0.13087825 -0.11475262 2.1022781e-38
0.10819577 -0.13087825 -0.11475262 1.8810452e-38
0.10984845 -0.12990431 -0.11074194 1.5122261e-38
-0.047804125 -0.10352151 0.0053035356 8.2068278e-39
-0.046006836 -0.10352151 0.0053035356 2.2958129e-38
-0.044366054 -0.10426159 0.0022776462 2.3418031e-38
-0.042710312 -0.10498036 -0.00066098198 2.3418033e-38
-0.040902562 -0.10498036 -0.00066098198 2.2312763e-38
-0.039094813 -0.10498036 -0.00066098198 2.3418038e-38
-0.037423946 -0.10572915 -0.0037223957 2.3509876e-38
-0.035908438 -0.10742365 -0.010650363 2.2680477e-38
-0.034207337 -0.10816063 -0.013663497 2.350988e-38
-0.032496344 -0.10890187 -0.016694035 2.3509883e-38
-0.030771282 -0.10962076 -0.01963314 2.3509527e-38
-0.028930273 -0.10962076 -0.01963314 2.3509527e-38
-0.02722789 -0.11061247 -0.023687687 2.3509527e-38
-0.025476381 -0.11134095 -0.026666131 2.3509168e-38
-0.02380738 -0.11281042 -0.032673921 2.3509168e-38
-0.02194351 -0.11281042 -0.032673921 2.3509168e-38
-0.020189516 -0.11379938 -0.036717262 2.3509886e-38
-0.018393282 -0.1145183 -0.039656606 2.3509886e-38
-0.01658982 -0.11526908 -0.042726126 2.3509886e-38
-0.014796108 -0.11624874 -0.046731438 2.3509886e-38
-0.01296797 -0.11698125 -0.049726333 2.3509886e-38
-0.011146761 -0.11794533 -0.053667869 2.3509886e-38
-0.009296611 -0.11868732 -0.056701507 2.3509886e-38
-0.0073906071 -0.11868732 -0.056701507 2.3509886e-38
-0.0055231713 -0.11940466 -0.059634414 2.3509886e-38
-0.0036577806 -0.12038656 -0.06364879 2.3509886e-38
-0.0017395951 -0.12038656 -0.06364879 2.3509886e-38
0.00015420839 -0.12114228 -0.066738576 2.3509886e-38
0.0020535905 -0.12210761 -0.070685357 2.3509886e-38
0.0039841104 -0.12210761 -0.070685357 2.3509886e-38
0.0058962051 -0.12382124 -0.077691525 2.3509886e-38
0.0078354795 -0.12480606 -0.081717819 2.3509883e-38
0.0097915009 -0.12652399 -0.088741511 2.31411e-38
0.011764154 -0.12749799 -0.092723697 2.3049261e-38
0.013763608 -0.12918831 -0.099634618 2.3233652e-38
0.015744887 -0.12918831 -0.099634618 2.350988e-38
0.0177582 -0.13018142 -0.10369489 2.3418043e-38
0.019746598 -0.13018142 -0.10369489 2.3233652e-38
0.021780139 -0.13115029 -0.10765609 2.350988e-38
0.023775481 -0.13115029 -0.10765609 2.350988e-38
0.025816813 -0.13190506 -0.11074194 2.3233296e-38
0.026034977 -0.10572915 -0.0037223957 2.3509883e-38
0.027791729 -0.10498036 -0.00066098198 2.341769e-38
0.029599475 -0.10498036 -0.00066098198 2.2956712e-38
0.034169368 -0.13580595 -0.1266906 2.2956712e-38
0.036198083 -0.13580595 -0.1266906 2.341769e-38
0.051953025 -0.10890187 -0.016694035 2.3509886e-38
0.053788878 -0.10890187 -0.016694035 2.3509886e-38
0.055756144 -0.10962076 -0.01963314 2.3509886e-38
0.057597153 -0.10962076 -0.01963314 2.3509886e-38
0.059633657 -0.11061247 -0.023687687 2.3509886e-38
0.062633276 -0.11624874 -0.046731438 2.3509886e-38
0.06452179 -0.11624874 -0.046731438 2.3509886e-38
0.066196129 -0.11526908 -0.042726126 2.3509886e-38
0.068077624 -0.11526908 -0.042726126 2.3509527e-38
0.069784209 -0.1145183 -0.039656606 2.3509527e-38
0.071660325 -0.1145183 -0.039656606 2.3509168e-38
0.073722124 -0.11526908 -0.042726126 2.3509527e-38
0.075603619 -0.11526908 -0.042726126 2.3509524e-38
0.077288672 -0.1145183 -0.039656606 2.3509524e-38
0.079164788 -0.1145183 -0.039656606 2.3509521e-38
0.084079087 -0.12552677 -0.084664434 2.3509524e-38
0.086034119 -0.12552677 -0.084664434 2.3509883e-38
0.087278783 -0.12307997 -0.074660748 2.3417327e-38
0.089216277 -0.12307997 -0.074660748 2.3232936e-38
0.091379613 -0.12382124 -0.077691525 2.3140384e-38
0.093854241 -0.12552677 -0.084664434 2.2955993e-38
0.095265217 -0.12382124 -0.077691525 2.3140387e-38
0.097208031 -0.12382124 -0.077691525 2.3509527e-38
0.099150829 -0.12382124 -0.077691525 2.3325138e-38
0.10418021 -0.13288604 -0.11475262 2.194365e-38
0.10584693 -0.13190506 -0.11074194 2.130009e-38
0.1078477 -0.13190506 -0.11074194 2.0655086e-38
0.10984845 -0.13190506 -0.11074194 1.8810808e-38
0.11121287 -0.13018142 -0.10369489 6.1785646e-39
0.11320127 -0.13018142 -0.10369489 1.1996362e-39
-0.047804125 -0.1053188 0.0053035356 7.376351e-39
-0.046006836 -0.1053188 0.0053035356 2.3418038e-38
-0.044366054 -0.10606419 0.0022776462 2.2588994e-38
-0.042563461 -0.10606419 0.0022776462 2.3418038e-38
-0.040760867 -0.10606419 0.0022776462 2.341804e-38
-0.039094813 -0.10678811 -0.00066098198 2.3234367e-38
-0.037423946 -0.10754226 -0.0037223957 2.3509879e-38
-0.035908438 -0.10924892 -0.010650363 2.3049261e-38
-0.034207337 -0.10999118 -0.013663497 2.3509883e-38
-0.032496344 -0.11073773 -0.016694035 2.3509886e-38
-0.030771282 -0.11146177 -0.01963314 2.3509527e-38
-0.028930273 -0.11146177 -0.01963314 2.3509527e-38
-0.02722789 -0.11246057 -0.023687687 2.3509527e-38
-0.025476381 -0.1131943 -0.026666131 2.3509527e-38
-0.02380738 -0.11467429 -0.032673921 2.3509527e-38
-0.02194351 -0.11467429 -0.032673921 2.3509527e-38
-0.020189516 -0.11567034 -0.036717262 2.3509886e-38
-0.018393282 -0.11639442 -0.039656606 2.3509886e-38
-0.016517166 -0.11639442 -0.039656606 2.3509886e-38
-0.014796108 -0.11813726 -0.046731438 2.3509886e-38
-0.012907583 -0.11813726 -0.046731438 2.3509886e-38
-0.011146761 -0.119846 -0.053667869 2.3509886e-38
-0.009296611 -0.12059332 -0.056701507 2.3509886e-38
-0.0073906071 -0.12059332 -0.056701507 2.3509886e-38
-0.0055231713 -0.12131582 -0.059634414 2.3509886e-38
-0.0036577806 -0.12230472 -0.06364879 2.3509886e-38
-0.0017395951 -0.12230472 -0.06364879 2.3509886e-38
0.00015420839 -0.12306587 -0.066738576 2.3509886e-38
0.0020535905 -0.12403814 -0.070685357 2.3509886e-38
0.0039841104 -0.12403814 -0.070685357 2.3509886e-38
0.0059041753 -0.12501745 -0.074660748 2.3509886e-38
0.0078354795 -0.12675591 -0.081717819 2.3509883e-38
0.0097915009 -0.12848614 -0.088741511 2.3509883e-38
0.011764154 -0.12946714 -0.092723697 2.3325847e-38
0.013763608 -0.1311696 -0.099634618 2.3233652e-38
0.015744887 -0.1311696 -0.099634618 2.350988e-38
0.0177582 -0.13216983 -0.10369489 2.3509883e-38
0.019746598 -0.13216983 -0.10369489 2.3509883e-38
0.021780139 -0.13314565 -0.10765609 2.3417687e-38
0.023775481 -0.13314565 -0.10765609 2.3233296e-38
0.025816813 -0.13390581 -0.11074194 2.3509886e-38
0.026034977 -0.10754226 -0.0037223957 2.3509886e-38
0.027737631 -0.10606419 0.0022776462 2.3509886e-38
0.029540222 -0.10606419 0.0022776462 2.3509886e-38
0.031342812 -0.10606419 0.0022776462 2.3509527e-38
0.033145405 -0.10606419 0.0022776462 2.3509527e-38
0.051953025 -0.11073773 -0.016694035 2.3509886e-38
0.053788878 -0.11073773 -0.016694035 2.3509886e-38
0.055756144 -0.11146177 -0.01963314 2.3509886e-38
0.057923928 -0.1131943 -0.026666131 2.3509886e-38
0.059633657 -0.11246057 -0.023687687 2.3509886e-38
0.061481778 -0.11246057 -0.023687687 2.3509886e-38
0.063483953 -0.1131943 -0.026666131 2.3509886e-38
0.066031978 -0.11639442 -0.039656606 2.3509886e-38
0.067745753 -0.11567034 -0.036717262 2.3509527e-38
0.06961672 -0.11567034 -0.036717262 2.3509527e-38
0.07148768 -0.11567034 -0.036717262 2.3509524e-38
0.073536441 -0.11639442 -0.039656606 2.3509524e-38
0.075603619 -0.11715056 -0.042726126 2.3509521e-38
0.077288672 -0.11639442 -0.039656606 2.3509521e-38
0.079164788 -0.11639442 -0.039656606 2.3509879e-38
0.081518486 -0.11813726 -0.046731438 2.350988e-38
0.083614424 -0.11887501 -0.049726333 2.350988e-38
0.086996496 -0.12403814 -0.070685357 2.350988e-38
0.088927016 -0.12403814 -0.070685357 2.3509883e-38
0.090563431 -0.12306587 -0.066738576 2.3509886e-38
0.09248703 -0.12306587 -0.066738576 2.3509886e-38
0.095028751 -0.12501745 -0.074660748 2.3232944e-38
0.096966244 -0.12501745 -0.074660748 2.341805e-38
0.098903738 -0.12501745 -0.074660748 2.341805e-38
0.10109364 -0.12576406 -0.077691525 2.1759262e-38
0.10524768 -0.13216983 -0.10369489 2.2221678e-38
0.10723608 -0.13216983 -0.10369489 2.0747282e-38
0.10922448 -0.13216983 -0.10369489 1.8810452e-38
0.11121287 -0.13216983 -0.10369489 7.4700264e-39
0.11320127 -0.13216983 -0.10369489 2.766606e-39
0.11518966 -0.13216983 -0.10369489 1.2903899e-39
-0.047637977 -0.10636975 0.008311782 7.1746481e-43
-0.045845963 -0.10636975 0.008311782 2.3418045e-38
-0.044366054 -0.10786678 0.0022776462 2.3141816e-38
-0.042563461 -0.10786678 0.0022776462 2.2404251e-38
-0.040760867 -0.10786678 0.0022776462 2.3418045e-38
-0.039094813 -0.10859586 -0.00066098198 2.332621e-38
-0.037423946 -0.10935538 -0.0037223957 2.3233296e-38
-0.035908438 -0.11107419 -0.010650363 2.3509883e-38
-0.034207337 -0.11182173 -0.013663497 2.3509886e-38
-0.032376789 -0.11182173 -0.013663497 2.3509886e-38
-0.030660488 -0.11257361 -0.016694035 2.3509527e-38
-0.028930273 -0.11330278 -0.01963314 2.3509527e-38
-0.027089264 -0.11330278 -0.01963314 2.3509527e-38
-0.02537977 -0.1143087 -0.023687687 2.3509527e-38
-0.023714948 -0.11579077 -0.029661503 2.3509527e-38
-0.02194351 -0.11653815 -0.032673921 2.3509527e-38
-0.020079635 -0.11653815 -0.032673921 2.3509886e-38
-0.018318556 -0.1175413 -0.036717262 2.3509886e-38
-0.016517166 -0.11827053 -0.039656606 2.3509886e-38
-0.014708322 -0.11903207 -0.042726126 2.3509886e-38
-0.012907583 -0.12002577 -0.046731438 2.3509886e-38
-0.0110742 -0.1207688 -0.049726333 2.3509886e-38
-0.009296611 -0.1224993 -0.056701507 2.3509886e-38
-0.007434316 -0.12322696 -0.059634414 2.3509886e-38
-0.0055231713 -0.12322696 -0.059634414 2.3509886e-38
-0.0036577806 -0.12422292 -0.06364879 2.3509886e-38
-0.0017395951 -0.12422292 -0.06364879 2.3509886e-38
0.00015420839 -0.12498946 -0.066738576 2.3509886e-38
0.0020778105 -0.12498946 -0.066738576 2.3509886e-38
0.0039841104 -0.12596865 -0.070685357 2.3509886e-38
0.0061461199 -0.10413162 0.017332945 2.3509886e-38
0.0079223141 -0.10413162 0.017332945 2.3509883e-38
0.0097915009 -0.13044833 -0.088741511 2.3509883e-38
0.011474704 -0.10413162 0.017332945 2.350988e-38
0.013237579 -0.10337763 0.020372067 2.350988e-38
0.015008446 -0.10337763 0.020372067 2.350988e-38
0.0177582 -0.13415821 -0.10369489 2.3325492e-38
0.019746598 -0.13415821 -0.10369489 2.3233296e-38
0.021780139 -0.13514097 -0.10765609 2.3417687e-38
0.023775481 -0.13514097 -0.10765609 2.3509883e-38
0.025770824 -0.13514097 -0.10765609 2.341769e-38
0.025935037 -0.10786678 0.0022776462 2.341769e-38
0.027681923 -0.10711606 0.0053035356 2.341769e-38
0.029479209 -0.10711606 0.0053035356 2.3509886e-38
0.031276494 -0.10711606 0.0053035356 2.3509527e-38
0.033073783 -0.10711606 0.0053035356 2.3509527e-38
0.046551097 -0.11330278 -0.01963314 2.3509886e-38
0.048392106 -0.11330278 -0.01963314 2.3509886e-38
0.050233115 -0.11330278 -0.01963314 2.3509886e-38
0.052074123 -0.11330278 -0.01963314 2.3509886e-38
0.053915136 -0.11330278 -0.01963314 2.3509886e-38
0.055756144 -0.11330278 -0.01963314 2.3509886e-38
0.057785541 -0.1143087 -0.023687687 2.3509886e-38
0.059633657 -0.1143087 -0.023687687 2.3509886e-38
0.061481778 -0.1143087 -0.023687687 2.3509886e-38
0.06332989 -0.1143087 -0.023687687 2.3509886e-38
0.066031978 -0.11827053 -0.039656606 2.3509886e-38
0.067745753 -0.1175413 -0.036717262 2.3509886e-38
0.06961672 -0.1175413 -0.036717262 2.3509883e-38
0.07148768 -0.1175413 -0.036717262 2.3509883e-38
0.073536441 -0.11827053 -0.039656606 2.3509521e-38
0.075412557 -0.11827053 -0.039656606 2.350988e-38
0.077288672 -0.11827053 -0.039656606 2.3509879e-38
0.079164788 -0.11827053 -0.039656606 2.3509879e-38
0.081248119 -0.11903207 -0.042726126 2.3509879e-38
0.083407015 -0.12002577 -0.046731438 2.350988e-38
0.085788086 -0.12174667 -0.053667869 2.350988e-38
0.088122919 -0.12322696 -0.059634414 2.249645e-38
0.090034053 -0.12322696 -0.059634414 2.2957431e-38
0.091945209 -0.12322696 -0.059634414 2.341805e-38
0.094169565 -0.12422292 -0.06364879 2.341805e-38
0.096649103 -0.12596865 -0.070685357 2.3049991e-38
0.098903738 -0.12695493 -0.074660748 2.0284129e-38
0.10109364 -0.12770687 -0.077691525 1.5674713e-38
0.10303644 -0.12770687 -0.077691525 1.0421371e-38
0.10688368 -0.13315089 -0.099634618 9.3157453e-39
0.10886497 -0.13315089 -0.099634618 9.3150236e-39
0.11121287 -0.13415821 -0.10369489 1.5695061e-39
0.11320127 -0.13415821 -0.10369489 1.5414283e-44
-0.047637977 -0.10816176 0.008311782 4.2413507e-39
-0.045845963 -0.10816176 0.008311782 2.2496099e-38
-0.044366054 -0.10966937 0.0022776462 2.341805e-38
-0.042710312 -0.11040358 -0.00066098198 2.2680491e-38
-0.040902562 -0.11040358 -0.00066098198 2.3049273e-38
-0.039094813 -0.11040358 -0.00066098198 2.341805e-38
-0.037423946 -0.11116849 -0.0037223957 2.2772323e-38
-0.035908438 -0.11289944 -0.010650363 2.3509886e-38
-0.034207337 -0.11365227 -0.013663497 2.3509886e-38
-0.032376789 -0.11365227 -0.013663497 2.3509886e-38
-0.030660488 -0.11440946 -0.016694035 2.3509527e-38
-0.028824631 -0.11440946 -0.016694035 2.3509527e-38
-0.027089264 -0.11514379 -0.01963314 2.3509527e-38
-0.02537977 -0.1161568 -0.023687687 2.3509527e-38
-0.023714948 -0.11764936 -0.029661503 2.3509527e-38
-0.02185636 -0.11764936 -0.029661503 2.3509527e-38
-0.020079635 -0.11840202 -0.032673921 2.3509886e-38
-0.018318556 -0.11941226 -0.036717262 2.3509886e-38
-0.016517166 -0.12014665 -0.039656606 2.3509886e-38
-0.014641047 -0.12014665 -0.039656606 2.3509886e-38
-0.012826823 -0.12091358 -0.042726126 2.3509886e-38
-0.0110742 -0.12266256 -0.049726333 2.3509886e-38
-0.009296611 -0.12440531 -0.056701507 2.3509886e-38
-0.0073906071 -0.12440531 -0.056701507 2.3509886e-38
-0.0055231713 -0.12513812 -0.059634414 2.3509886e-38
-0.0036577806 -0.12614109 -0.06364879 2.3509886e-38
-0.0017395951 -0.12614109 -0.06364879 2.3509886e-38
0.00015420839 -0.12691309 -0.066738576 2.3509886e-38
0.0020778105 -0.12691309 -0.066738576 2.3509886e-38
0.0040014107 -0.12691309 -0.066738576 2.3509886e-38
0.0061461199 -0.10590781 0.017332945 2.3509886e-38
0.0079223141 -0.10590781 0.017332945 2.3509883e-38
0.0097011905 -0.10667174 0.014275465 2.3325492e-38
0.011474704 -0.10590781 0.017332945 2.350988e-38
0.013237579 -0.10514848 0.020372067 2.350988e-38
0.015008446 -0.10514848 0.020372067 2.350988e-38
0.016779311 -0.10514848 0.020372067 2.3233296e-38
0.018550178 -0.10514848 0.020372067 2.3417687e-38
0.020321045 -0.10514848 0.020372067 2.3509886e-38
0.022131875 -0.10590781 0.017332945 2.3509886e-38
0.023908071 -0.10590781 0.017332945 2.3509886e-38
0.025735194 -0.10667174 0.014275465 2.3509886e-38
0.027681923 -0.10891335 0.0053035356 2.3325494e-38
0.029418554 -0.10816176 0.008311782 2.3233299e-38
0.031210566 -0.10816176 0.008311782 2.3417327e-38
0.033145405 -0.10966937 0.0022776462 2.3509883e-38
0.034947999 -0.10966937 0.0022776462 2.3509524e-38
0.037101932 -0.11289944 -0.010650363 2.3509524e-38
0.03892719 -0.11289944 -0.010650363 2.3509883e-38
0.040752448 -0.11289944 -0.010650363 2.3509883e-38
0.042773746 -0.11440946 -0.016694035 2.3509883e-38
0.046551097 -0.11514379 -0.01963314 2.3509883e-38
0.048392106 -0.11514379 -0.01963314 2.3509883e-38
0.050233115 -0.11514379 -0.01963314 2.3509886e-38
0.052074123 -0.11514379 -0.01963314 2.3509886e-38
0.053915136 -0.11514379 -0.01963314 2.3509886e-38
0.055756144 -0.11514379 -0.01963314 2.3509886e-38
0.057785541 -0.1161568 -0.023687687 2.3509886e-38
0.059633657 -0.1161568 -0.023687687 2.3509886e-38
0.061481778 -0.1161568 -0.023687687 2.3509886e-38
0.06332989 -0.1161568 -0.023687687 2.3509886e-38
0.065497473 -0.11764936 -0.029661503 2.3509886e-38
0.067522436 -0.11840202 -0.032673921 2.3509886e-38
0.06961672 -0.11941226 -0.036717262 2.3509883e-38
0.07148768 -0.11941226 -0.036717262 2.3509883e-38
0.07335864 -0.11941226 -0.036717262 2.350988e-38
0.075412557 -0.12014665 -0.039656606 2.350988e-38
0.077288672 -0.12014665 -0.039656606 2.350988e-38
0.079164788 -0.12014665 -0.039656606 2.350988e-38
0.081248119 -0.12091358 -0.042726126 2.350988e-38
0.083407015 -0.12191428 -0.046731438 2.3418045e-38
0.085788086 -0.12364738 -0.053667869 2.3418047e-38
0.087909505 -0.12440531 -0.056701507 2.277376e-38
0.089815512 -0.12440531 -0.056701507 2.3234379e-38
0.091945209 -0.12513812 -0.059634414 2.3234379e-38
0.094169565 -0.12614109 -0.06364879 2.2220237e-38
0.096649103 -0.12789918 -0.070685357 2.1022057e-38
0.098903738 -0.12889244 -0.074660748 1.7887408e-38
0.10109364 -0.12964968 -0.077691525 1.2632982e-38
0.10303644 -0.12964968 -0.077691525 9.4082983e-39
0.1062839 -0.13340546 -0.092723697 8.9469628e-39
0.10825305 -0.13340546 -0.092723697 9.7760018e-39
0.11049358 -0.13415633 -0.095728964 2.7680493e-39
0.11246801 -0.13415633 -0.095728964 1.5414283e-44
-0.047804125 -0.11071064 0.0053035356 2.2495731e-38
-0.046006836 -0.11071064 0.0053035356 2.341805e-38
-0.044366054 -0.11147197 0.0022776462 2.2957079e-38
-0.042563461 -0.11147197 0.0022776462 2.341805e-38
-0.040902562 -0.11221133 -0.00066098198 2.3325856e-38
-0.039094813 -0.11221133 -0.00066098198 2.341805e-38
-0.037423946 -0.1129816 -0.0037223957 2.2864163e-38
-0.035908438 -0.11472471 -0.010650363 2.3509886e-38
-0.034207337 -0.11548282 -0.013663497 2.3509886e-38
-0.032376789 -0.11548282 -0.013663497 2.3509886e-38
-0.030660488 -0.11624531 -0.016694035 2.3509527e-38
-0.028824631 -0.11624531 -0.016694035 2.3509527e-38
-0.026988775 -0.11624531 -0.016694035 2.3509527e-38
-0.025248256 -0.1169848 -0.01963314 2.3509527e-38
-0.023623042 -0.11875431 -0.026666131 2.3509883e-38
-0.02185636 -0.11950795 -0.029661503 2.3509883e-38
-0.020079635 -0.12026589 -0.032673921 2.3509886e-38
-0.018215761 -0.12026589 -0.032673921 2.3509886e-38
-0.016517166 -0.12202276 -0.039656606 2.3509886e-38
-0.014641047 -0.12202276 -0.039656606 2.3509886e-38
-0.012826823 -0.12279506 -0.042726126 2.3509886e-38
-0.0110742 -0.12455635 -0.049726333 2.3509886e-38
-0.009296611 -0.12631132 -0.056701507 2.3509886e-38
-0.0073906071 -0.12631132 -0.056701507 2.3509886e-38
-0.0055231713 -0.12704925 -0.059634414 2.3509886e-38
-0.0036577806 -0.12805928 -0.06364879 2.3509886e-38
-0.0011038445 -0.11147197 0.0022776462 2.3509886e-38
0.00069874711 -0.11147197 0.0022776462 2.3509886e-38
0.0025199093 -0.11071064 0.0053035356 2.3509886e-38
0.0043303818 -0.10995375 0.008311782 2.3509886e-38
0.0061380789 -0.10845329 0.014275465 2.3509886e-38
0.0079196338 -0.10845329 0.014275465 2.3509886e-38
0.0097011905 -0.10845329 0.014275465 2.3509883e-38
0.011474704 -0.107684 0.017332945 2.350988e-38
0.013237579 -0.10691936 0.020372067 2.3509883e-38
0.015008446 -0.10691936 0.020372067 2.3509883e-38
0.01675627 -0.10618456 0.023292575 2.3509883e-38
0.018522015 -0.10618456 0.023292575 2.3509883e-38
0.020321045 -0.10691936 0.020372067 2.341769e-38
0.02209191 -0.10691936 0.020372067 2.3048907e-38
0.023862779 -0.10691936 0.020372067 2.3233299e-38
0.025633644 -0.10691936 0.020372067 2.3417687e-38
0.027571484 -0.10920133 0.011302385 2.3509886e-38
0.029358253 -0.10920133 0.011302385 2.3509883e-38
0.031145021 -0.10920133 0.011302385 2.3509883e-38
0.033073783 -0.11071064 0.0053035356 2.3417327e-38
0.034871072 -0.11071064 0.0053035356 2.3509523e-38
0.037101932 -0.11472471 -0.010650363 2.3509883e-38
0.03892719 -0.11472471 -0.010650363 2.3509883e-38
0.040752448 -0.11472471 -0.010650363 2.3509883e-38
0.042675443 -0.11548282 -0.013663497 2.3509883e-38
0.044710089 -0.1169848 -0.01963314 2.3509883e-38
0.046551097 -0.1169848 -0.01963314 2.3509883e-38
0.048392106 -0.1169848 -0.01963314 2.3509883e-38
0.050233115 -0.1169848 -0.01963314 2.3509886e-38
0.053915136 -0.1169848 -0.01963314 2.3509886e-38
0.055756144 -0.1169848 -0.01963314 2.3509883e-38
0.057785541 -0.11800493 -0.023687687 2.3509886e-38
0.059633657 -0.11800493 -0.023687687 2.3509883e-38
0.06127917 -0.1169848 -0.01963314 2.3509883e-38
0.063120179 -0.1169848 -0.01963314 2.3509883e-38
0.065337285 -0.11875431 -0.026666131 2.3509883e-38
0.067356065 -0.11950795 -0.029661503 2.3509886e-38
0.069386318 -0.12026589 -0.032673921 2.3509886e-38
0.07148768 -0.12128322 -0.036717262 2.341805e-38
0.07335864 -0.12128322 -0.036717262 2.3509886e-38
0.0752296 -0.12128322 -0.036717262 2.3418047e-38
0.077288672 -0.12202276 -0.039656606 2.3418047e-38
0.079164788 -0.12202276 -0.039656606 2.3418047e-38
0.081248119 -0.12279506 -0.042726126 2.3418045e-38
0.083407015 -0.12380283 -0.046731438 2.3234376e-38
