# .PCD v0.7 - Point Cloud Data file format
VERSION 0.7
FIELDS x y z rgb
SIZE 4 4 4 4
TYPE F F F F
COUNT 1 1 1 1
WIDTH 951
HEIGHT 1
VIEWPOINT 0 0 0 1 0 0 0
POINTS 951
DATA ascii
0.045848805 -0.11886616 0.040562984 2.3509886e-38
0.0475935 -0.11886616 0.040562984 2.3509886e-38
0.049338195 -0.11886616 0.040562984 2.3509886e-38
0.05108289 -0.11886616 0.040562984 2.3509883e-38
0.053223167 -0.12047486 0.03454661 2.350988e-38
0.054771405 -0.11965488 0.037613209 2.350988e-38
0.056316983 -0.11886616 0.040562984 2.350988e-38
0.058061678 -0.11886616 0.040562984 2.3509879e-38
0.059806373 -0.11886616 0.040562984 2.3509879e-38
0.061551068 -0.11886616 0.040562984 2.3509521e-38
0.063064672 -0.11805601 0.043592867 2.3509524e-38
0.064804055 -0.11805601 0.043592867 2.3509524e-38
0.066543445 -0.11805601 0.043592867 2.3509527e-38
0.068529852 -0.11886616 0.040562984 2.3509527e-38
0.070520215 -0.11965488 0.037613209 2.3509527e-38
0.072530858 -0.12047486 0.03454661 2.341805e-38
0.074286111 -0.12047486 0.03454661 2.3234379e-38
0.07630571 -0.12127317 0.031560894 2.3234379e-38
0.078066193 -0.12127317 0.031560894 2.3142544e-38
0.079826675 -0.12127317 0.031560894 2.2958873e-38
0.081587158 -0.12127317 0.031560894 2.2774843e-38
0.083062328 -0.12047486 0.03454661 2.2406783e-38
0.084817581 -0.12047486 0.03454661 2.2314589e-38
0.086572818 -0.12047486 0.03454661 1.7059443e-38
0.088328071 -0.12047486 0.03454661 3.7203073e-40
-0.071268335 -0.14807267 -0.061473731 2.3141804e-38
-0.069184922 -0.1472411 -0.058383945 2.3326196e-38
-0.066571034 -0.14349405 -0.044461492 2.3418036e-38
-0.064191736 -0.14078392 -0.034391765 2.3509876e-38
-0.061851211 -0.13809387 -0.024396662 2.3509879e-38
-0.05972553 -0.13648613 -0.018422846 2.350988e-38
-0.057576984 -0.13460387 -0.011429194 2.3509883e-38
-0.055616267 -0.13378824 -0.0083986558 2.341769e-38
-0.053548671 -0.13217102 -0.0023897924 2.3509886e-38
-0.051580429 -0.13111271 0.0015424453 2.3509886e-38
-0.049657281 -0.13028879 0.004603859 2.3509886e-38
-0.047542758 -0.12787388 0.013576623 2.3509883e-38
-0.045653742 -0.12706901 0.016567226 2.3509883e-38
-0.043775748 -0.12626885 0.019540306 2.3417687e-38
-0.041905738 -0.12544595 0.022597786 2.3417687e-38
-0.040046953 -0.12462802 0.025636908 2.3509886e-38
-0.038125478 -0.12303366 0.031560894 2.3509886e-38
-0.036364995 -0.12303366 0.031560894 2.3509886e-38
-0.034539081 -0.1222301 0.03454661 2.3509886e-38
-0.032783836 -0.1222301 0.03454661 2.3509886e-38
-0.030972134 -0.12140475 0.037613209 2.3509886e-38
-0.029222265 -0.12140475 0.037613209 2.3509886e-38
-0.027428437 -0.12061088 0.040562984 2.3509886e-38
-0.025643896 -0.1197954 0.043592867 2.3509886e-38
-0.023904514 -0.1197954 0.043592867 2.3509886e-38
-0.022165131 -0.1197954 0.043592867 2.3509886e-38
-0.020401984 -0.11898489 0.046604391 2.3509886e-38
-0.01866788 -0.11898489 0.046604391 2.3509886e-38
-0.016933776 -0.11898489 0.046604391 2.3509886e-38
-0.015199675 -0.11898489 0.046604391 2.3509886e-38
-0.013465571 -0.11898489 0.046604391 2.3509886e-38
-0.011731467 -0.11898489 0.046604391 2.3509886e-38
-0.0099973632 -0.11898489 0.046604391 2.3509886e-38
-0.0082632611 -0.11898489 0.046604391 2.3509886e-38
-0.006529157 -0.11898489 0.046604391 2.3509886e-38
-0.004795053 -0.11898489 0.046604391 2.3509886e-38
-0.003060949 -0.11898489 0.046604391 2.3509886e-38
-0.001326846 -0.11898489 0.046604391 2.3509886e-38
0.00040725805 -0.11898489 0.046604391 2.3509886e-38
0.0021413611 -0.11898489 0.046604391 2.3509886e-38
0.0038754651 -0.11898489 0.046604391 2.3509886e-38
0.0055722026 -0.11843865 0.048634049 2.3509886e-38
0.0073027471 -0.11843865 0.048634049 2.3509886e-38
0.0090332916 -0.11843865 0.048634049 2.3509886e-38
0.010693277 -0.11763634 0.051615056 2.3509886e-38
0.012343264 -0.11683889 0.054578122 2.3509886e-38
0.014063387 -0.11683889 0.054578122 2.3509886e-38
0.015783511 -0.11683889 0.054578122 2.3509886e-38
0.017503634 -0.11683889 0.054578122 2.3509886e-38
0.019416563 -0.11843865 0.048634049 2.3509886e-38
0.02114711 -0.11843865 0.048634049 2.3509886e-38
0.02305885 -0.1197954 0.043592867 2.3509886e-38
0.024684709 -0.11898489 0.046604391 2.3509886e-38
0.026418813 -0.11898489 0.046604391 2.3509886e-38
0.028152917 -0.11898489 0.046604391 2.3509886e-38
0.029799834 -0.11843865 0.048634049 2.3509886e-38
0.031530377 -0.11843865 0.048634049 2.3509886e-38
0.033260923 -0.11843865 0.048634049 2.3509886e-38
0.034991469 -0.11843865 0.048634049 2.3509886e-38
0.036823433 -0.11898489 0.046604391 2.3509886e-38
0.038557537 -0.11898489 0.046604391 2.3509886e-38
0.040452689 -0.1197954 0.043592867 2.3509886e-38
0.042192072 -0.1197954 0.043592867 2.3509886e-38
0.044104107 -0.12061088 0.040562984 2.3509886e-38
0.045848805 -0.12061088 0.040562984 2.3509886e-38
0.0475935 -0.12061088 0.040562984 2.3509886e-38
0.049338195 -0.12061088 0.040562984 2.3509886e-38
0.05108289 -0.12061088 0.040562984 2.3509883e-38
0.053021539 -0.12140475 0.037613209 2.3509883e-38
0.054572288 -0.12061088 0.040562984 2.350988e-38
0.056316983 -0.12061088 0.040562984 2.350988e-38
0.058061678 -0.12061088 0.040562984 2.3509521e-38
0.059806373 -0.12061088 0.040562984 2.3509879e-38
0.061551068 -0.12061088 0.040562984 2.3509521e-38
0.063295759 -0.12061088 0.040562984 2.3509521e-38
0.065040462 -0.12061088 0.040562984 2.3509524e-38
0.066785157 -0.12061088 0.040562984 2.3509524e-38
0.068529852 -0.12061088 0.040562984 2.3509165e-38
0.070274547 -0.12061088 0.040562984 2.3509524e-38
0.072019242 -0.12061088 0.040562984 2.3509167e-38
0.074286111 -0.1222301 0.03454661 2.3509886e-38
0.076041348 -0.1222301 0.03454661 2.3509886e-38
0.078066193 -0.12303366 0.031560894 2.341805e-38
0.079551838 -0.1222301 0.03454661 2.3234379e-38
0.081307091 -0.1222301 0.03454661 2.3050708e-38
0.083062328 -0.1222301 0.03454661 2.2773767e-38
0.084817581 -0.1222301 0.03454661 2.2681931e-38
0.086572818 -0.1222301 0.03454661 1.770337e-38
0.087416045 -0.1197954 0.043592867 6.4717568e-40
0.088846542 -0.11898489 0.046604391 8.3120541e-40
-0.071268335 -0.1499963 -0.061473731 2.3326189e-38
-0.069184922 -0.1491593 -0.058383945 2.3418032e-38
-0.066767991 -0.14645557 -0.048403028 2.3418033e-38
-0.064532854 -0.14457656 -0.041466597 2.3509876e-38
-0.06231562 -0.14266007 -0.034391765 2.3509879e-38
-0.059992619 -0.13995247 -0.024396662 2.350988e-38
-0.058005355 -0.13914107 -0.02140129 2.3509883e-38
-0.055862226 -0.13723589 -0.014368299 2.3509886e-38
-0.053785719 -0.13561879 -0.0083986558 2.341769e-38
-0.051728662 -0.13399105 -0.0023897924 2.341769e-38
-0.049767319 -0.13292582 0.0015424453 2.341769e-38
-0.04744051 -0.12885578 0.016567226 2.3417687e-38
-0.045458131 -0.12722217 0.022597786 2.3509883e-38
-0.043588683 -0.12639888 0.025636908 2.350988e-38
-0.041733325 -0.12560774 0.028557416 2.350988e-38
-0.039885957 -0.12479414 0.031560894 2.3509883e-38
-0.038049571 -0.12398534 0.03454661 2.3509886e-38
-0.036294326 -0.12398534 0.03454661 2.3509886e-38
-0.034407221 -0.12235557 0.040562984 2.3509886e-38
-0.032662526 -0.12235557 0.040562984 2.3509886e-38
-0.030917831 -0.12235557 0.040562984 2.3509886e-38
-0.029173132 -0.12235557 0.040562984 2.3509886e-38
-0.027383283 -0.12153481 0.043592867 2.3509886e-38
-0.025643896 -0.12153481 0.043592867 2.3509886e-38
-0.023870192 -0.120719 0.046604391 2.3509886e-38
-0.022136088 -0.120719 0.046604391 2.3509886e-38
-0.020401984 -0.120719 0.046604391 2.3509886e-38
-0.018655427 -0.12016918 0.048634049 2.3509886e-38
-0.01692488 -0.12016918 0.048634049 2.3509886e-38
-0.015194337 -0.12016918 0.048634049 2.3509886e-38
-0.013463792 -0.12016918 0.048634049 2.3509886e-38
-0.011733246 -0.12016918 0.048634049 2.3509886e-38
-0.010002702 -0.12016918 0.048634049 2.3509886e-38
-0.0082721571 -0.12016918 0.048634049 2.3509886e-38
-0.006529157 -0.120719 0.046604391 2.3509886e-38
-0.004795053 -0.120719 0.046604391 2.3509886e-38
-0.003060949 -0.120719 0.046604391 2.3509886e-38
-0.001326846 -0.120719 0.046604391 2.3509886e-38
0.00040725805 -0.120719 0.046604391 2.3509886e-38
0.0021413611 -0.120719 0.046604391 2.3509886e-38
0.0037920037 -0.11936165 0.051615056 2.3509886e-38
0.0054627722 -0.11855899 0.054578122 2.3509886e-38
0.0071828952 -0.11855899 0.054578122 2.3509886e-38
0.0089679593 -0.11936165 0.051615056 2.3509886e-38
0.010623141 -0.11855899 0.054578122 2.3509886e-38
0.012343264 -0.11855899 0.054578122 2.3509886e-38
0.01398077 -0.11773549 0.057618137 2.3509886e-38
0.015695564 -0.11773549 0.057618137 2.3509886e-38
0.017503634 -0.11855899 0.054578122 2.3509886e-38
0.019223757 -0.11855899 0.054578122 2.3509886e-38
0.021045186 -0.11936165 0.051615056 2.3509886e-38
0.022770505 -0.11936165 0.051615056 2.3509886e-38
0.024608199 -0.12016918 0.048634049 2.3509886e-38
0.026338741 -0.12016918 0.048634049 2.3509886e-38
0.028069288 -0.12016918 0.048634049 2.3509886e-38
0.029799834 -0.12016918 0.048634049 2.3509886e-38
0.031530377 -0.12016918 0.048634049 2.3509886e-38
0.033260923 -0.12016918 0.048634049 2.3509886e-38
0.034991469 -0.12016918 0.048634049 2.3509886e-38
0.036823433 -0.120719 0.046604391 2.3509886e-38
0.038557537 -0.120719 0.046604391 2.3509886e-38
0.040291641 -0.120719 0.046604391 2.3509886e-38
0.042192072 -0.12153481 0.043592867 2.3509886e-38
0.043931454 -0.12153481 0.043592867 2.3509886e-38
0.045670841 -0.12153481 0.043592867 2.3509886e-38
0.047410224 -0.12153481 0.043592867 2.3509886e-38
0.049149606 -0.12153481 0.043592867 2.3509886e-38
0.050888989 -0.12153481 0.043592867 2.3509883e-38
0.052628372 -0.12153481 0.043592867 2.3509883e-38
0.054367762 -0.12153481 0.043592867 2.3509883e-38
0.056107145 -0.12153481 0.043592867 2.350988e-38
0.057846528 -0.12153481 0.043592867 2.350988e-38
0.05958591 -0.12153481 0.043592867 2.350988e-38
0.061325293 -0.12153481 0.043592867 2.3509521e-38
0.063064672 -0.12153481 0.043592867 2.3509521e-38
0.064804055 -0.12153481 0.043592867 2.3509521e-38
0.066543445 -0.12153481 0.043592867 2.3509521e-38
0.068529852 -0.12235557 0.040562984 2.3509521e-38
0.070274547 -0.12235557 0.040562984 2.3509524e-38
0.072019242 -0.12235557 0.040562984 2.3509164e-38
0.073763944 -0.12235557 0.040562984 2.3509167e-38
0.075769819 -0.12315463 0.037613209 2.3509527e-38
0.077796601 -0.12398534 0.03454661 2.3509527e-38
0.079551838 -0.12398534 0.03454661 2.3509527e-38
0.081307091 -0.12398534 0.03454661 2.3325856e-38
0.083062328 -0.12398534 0.03454661 2.3233303e-38
0.08451917 -0.12315463 0.037613209 2.2957796e-38
0.085976817 -0.12235557 0.040562984 1.8071434e-38
0.087416045 -0.12153481 0.043592867 2.776743e-40
0.088846542 -0.120719 0.046604391 1.0145149e-39
0.09058065 -0.120719 0.046604391 3.6878224e-39
0.092314743 -0.120719 0.046604391 3.780374e-39
-0.068977289 -0.14998297 -0.054369573 2.3418029e-38
-0.066919588 -0.14918335 -0.051436666 2.3509869e-38
-0.06486731 -0.14835624 -0.048403028 2.3509873e-38
-0.06264434 -0.14646508 -0.041466597 2.3509879e-38
-0.060308076 -0.14373477 -0.031452421 2.350988e-38
-0.058134027 -0.14181106 -0.024396662 2.3509883e-38
-0.055862226 -0.1390769 -0.014368299 2.3509886e-38
-0.053905275 -0.13827558 -0.011429194 2.341769e-38
-0.051955178 -0.13744931 -0.0083986558 2.3325494e-38
-0.049908657 -0.13581105 -0.0023897924 2.3325494e-38
-0.047338858 -0.12983195 0.019540306 2.3325492e-38
-0.045359552 -0.12816976 0.025636908 2.3418043e-38
-0.043406919 -0.12655462 0.031560894 2.3509879e-38
-0.041646436 -0.12655462 0.031560894 2.350988e-38
-0.039885957 -0.12655462 0.031560894 2.3417687e-38
-0.038049571 -0.12574057 0.03454661 2.3325494e-38
-0.036151916 -0.12410025 0.040562984 2.3325494e-38
-0.034340814 -0.12327419 0.043592867 2.3325494e-38
-0.032601431 -0.12327419 0.043592867 2.341769e-38
-0.030862048 -0.12327419 0.043592867 2.3509886e-38
-0.029122666 -0.12327419 0.043592867 2.3509886e-38
-0.027383283 -0.12327419 0.043592867 2.3509886e-38
-0.025604296 -0.12245311 0.046604391 2.3509886e-38
-0.023870192 -0.12245311 0.046604391 2.3509886e-38
-0.022136088 -0.12245311 0.046604391 2.3509886e-38
-0.020385969 -0.12189974 0.048634049 2.3509886e-38
-0.018637132 -0.12108697 0.051615056 2.3509886e-38
-0.016911816 -0.12108697 0.051615056 2.3509886e-38
-0.015186497 -0.12108697 0.051615056 2.3509886e-38
-0.013461179 -0.12108697 0.051615056 2.3509886e-38
-0.011738458 -0.12027912 0.054578122 2.3509886e-38
-0.010018335 -0.12027912 0.054578122 2.3509886e-38
-0.0082852235 -0.12108697 0.051615056 2.3509886e-38
-0.0065780887 -0.12027912 0.054578122 2.3509886e-38
-0.0048579657 -0.12027912 0.054578122 2.3509886e-38
-0.0031378428 -0.12027912 0.054578122 2.3509886e-38
-0.0014177198 -0.12027912 0.054578122 2.3509886e-38
0.00038056821 -0.12189974 0.048634049 2.3509886e-38
0.0021111127 -0.12189974 0.048634049 2.3509886e-38
0.0037920037 -0.12108697 0.051615056 2.3509886e-38
0.0054068053 -0.11945029 0.057618137 2.3509886e-38
0.0071215993 -0.11945029 0.057618137 2.3509886e-38
0.0088363914 -0.11945029 0.057618137 2.3509886e-38
0.010623141 -0.12027912 0.054578122 2.3509886e-38
0.012265977 -0.11945029 0.057618137 2.3509886e-38
0.01398077 -0.11945029 0.057618137 2.3509886e-38
0.015695564 -0.11945029 0.057618137 2.3509886e-38
0.017410357 -0.11945029 0.057618137 2.3509886e-38
0.019223757 -0.12027912 0.054578122 2.3509886e-38
0.02094388 -0.12027912 0.054578122 2.3509886e-38
0.022664003 -0.12027912 0.054578122 2.3509886e-38
0.024384126 -0.12027912 0.054578122 2.3509886e-38
0.026221141 -0.12108697 0.051615056 2.3509886e-38
0.028069288 -0.12189974 0.048634049 2.3509886e-38
0.029799834 -0.12189974 0.048634049 2.3509886e-38
0.031530377 -0.12189974 0.048634049 2.3509886e-38
0.033260923 -0.12189974 0.048634049 2.3509886e-38
0.034991469 -0.12189974 0.048634049 2.3509886e-38
0.036823433 -0.12245311 0.046604391 2.3509886e-38
0.038557537 -0.12245311 0.046604391 2.3509886e-38
0.040291641 -0.12245311 0.046604391 2.3509886e-38
0.042025745 -0.12245311 0.046604391 2.3509886e-38
0.043759849 -0.12245311 0.046604391 2.3509886e-38
0.045493953 -0.12245311 0.046604391 2.3509886e-38
0.047228057 -0.12245311 0.046604391 2.3509886e-38
0.048962161 -0.12245311 0.046604391 2.3509886e-38
0.050696265 -0.12245311 0.046604391 2.3509883e-38
0.052430365 -0.12245311 0.046604391 2.3509883e-38
0.054164473 -0.12245311 0.046604391 2.3509883e-38
0.055898573 -0.12245311 0.046604391 2.3509883e-38
0.057632681 -0.12245311 0.046604391 2.3509883e-38
0.05958591 -0.12327419 0.043592867 2.350988e-38
0.061325293 -0.12327419 0.043592867 2.3509883e-38
0.063064672 -0.12327419 0.043592867 2.350988e-38
0.064804055 -0.12327419 0.043592867 2.3509521e-38
0.066543445 -0.12327419 0.043592867 2.350988e-38
0.068282828 -0.12327419 0.043592867 2.3509521e-38
0.07002221 -0.12327419 0.043592867 2.3509521e-38
0.072019242 -0.12410025 0.040562984 2.3508804e-38
0.073763944 -0.12410025 0.040562984 2.3509523e-38
0.075769819 -0.1249045 0.037613209 2.3509527e-38
0.077796601 -0.12574057 0.03454661 2.3509886e-38
0.079551838 -0.12574057 0.03454661 2.3509527e-38
0.081307091 -0.12574057 0.03454661 2.341805e-38
0.083062328 -0.12574057 0.03454661 2.3325856e-38
0.08451917 -0.1249045 0.037613209 2.3325856e-38
0.085976817 -0.12410025 0.040562984 1.8808276e-38
0.087416045 -0.12327419 0.043592867 4.6134389e-40
0.088846542 -0.12245311 0.046604391 1.2907388e-39
0.09058065 -0.12245311 0.046604391 3.780018e-39
0.092314743 -0.12245311 0.046604391 3.3186755e-39
0.09404885 -0.12245311 0.046604391 3.0424418e-39
-0.06264434 -0.14835359 -0.041466597 2.3509876e-38
-0.060439497 -0.1464123 -0.034391765 2.350988e-38
-0.058263429 -0.14449625 -0.02740908 2.3509883e-38
-0.056029297 -0.14203046 -0.018422846 2.3509886e-38
-0.053905275 -0.14011143 -0.011429194 2.3417691e-38
-0.052069418 -0.14011143 -0.011429194 2.3325494e-38
-0.050016332 -0.13845308 -0.0053855218 2.3325494e-38
-0.047130417 -0.12994061 0.025636908 2.3325492e-38
-0.045264818 -0.12913923 0.028557416 2.3325847e-38
-0.043406919 -0.12831511 0.031560894 2.3509879e-38
-0.041560061 -0.12749584 0.03454661 2.350988e-38
-0.039804816 -0.12749584 0.03454661 2.3509883e-38
-0.037971608 -0.12665437 0.037613209 2.3509886e-38
-0.036151916 -0.12584494 0.040562984 2.3509886e-38
-0.034340814 -0.12501357 0.043592867 2.3509886e-38
-0.032601431 -0.12501357 0.043592867 2.3509886e-38
-0.030862048 -0.12501357 0.043592867 2.3509886e-38
-0.029122666 -0.12501357 0.043592867 2.3509886e-38
-0.027383283 -0.12501357 0.043592867 2.3509886e-38
-0.025577605 -0.12363027 0.048634049 2.3509886e-38
-0.023813087 -0.12281232 0.051615056 2.3509886e-38
-0.022087768 -0.12281232 0.051615056 2.3509886e-38
-0.020362452 -0.12281232 0.051615056 2.3509886e-38
-0.018618949 -0.12199925 0.054578122 2.3509886e-38
-0.0168855 -0.12116508 0.057618137 2.3509886e-38
-0.015170709 -0.12116508 0.057618137 2.3509886e-38
-0.01345335 -0.12036191 0.060545202 2.3509886e-38
-0.011743688 -0.12036191 0.060545202 2.3509886e-38
-0.010034028 -0.12036191 0.060545202 2.3509886e-38
-0.008324367 -0.12036191 0.060545202 2.3509886e-38
-0.0066147065 -0.12036191 0.060545202 2.3509886e-38
-0.004905046 -0.12036191 0.060545202 2.3509886e-38
-0.0031953854 -0.12036191 0.060545202 2.3509886e-38
-0.0015092781 -0.1197948 0.062611878 2.3509886e-38
0.00019675959 -0.1197948 0.062611878 2.3509886e-38
0.0019772202 -0.12116508 0.057618137 2.3509886e-38
0.0036920132 -0.12116508 0.057618137 2.3509886e-38
0.0054068053 -0.12116508 0.057618137 2.3509886e-38
0.0071215993 -0.12116508 0.057618137 2.3509886e-38
0.0088363914 -0.12116508 0.057618137 2.3509886e-38
0.010551183 -0.12116508 0.057618137 2.3509886e-38
0.012265977 -0.12116508 0.057618137 2.3509886e-38
0.01398077 -0.12116508 0.057618137 2.3509886e-38
0.015695564 -0.12116508 0.057618137 2.3509886e-38
0.017410357 -0.12116508 0.057618137 2.3509886e-38
0.019125149 -0.12116508 0.057618137 2.3509886e-38
0.020839941 -0.12116508 0.057618137 2.3509886e-38
0.022664003 -0.12199925 0.054578122 2.3509886e-38
0.024384126 -0.12199925 0.054578122 2.3509886e-38
0.026104249 -0.12199925 0.054578122 2.3509886e-38
0.027946461 -0.12281232 0.051615056 2.3509886e-38
0.029671777 -0.12281232 0.051615056 2.3509886e-38
0.031397097 -0.12281232 0.051615056 2.3509886e-38
0.033122417 -0.12281232 0.051615056 2.3509886e-38
0.034847733 -0.12281232 0.051615056 2.3509886e-38
0.036722012 -0.12363027 0.048634049 2.3509886e-38
0.038452558 -0.12363027 0.048634049 2.3509886e-38
0.040291641 -0.12418722 0.046604391 2.3509886e-38
0.042025745 -0.12418722 0.046604391 2.3509886e-38
0.043644194 -0.12363027 0.048634049 2.3509883e-38
0.045374736 -0.12363027 0.048634049 2.3509883e-38
0.047105283 -0.12363027 0.048634049 2.3509883e-38
0.048835829 -0.12363027 0.048634049 2.3509883e-38
0.050696265 -0.12418722 0.046604391 2.3509527e-38
0.052430365 -0.12418722 0.046604391 2.3509527e-38
0.054164473 -0.12418722 0.046604391 2.3509527e-38
0.055898573 -0.12418722 0.046604391 2.3509527e-38
0.057632681 -0.12418722 0.046604391 2.3509886e-38
0.05958591 -0.12501357 0.043592867 2.3509883e-38
0.061325293 -0.12501357 0.043592867 2.3509886e-38
0.063064672 -0.12501357 0.043592867 2.3509883e-38
0.064804055 -0.12501357 0.043592867 2.3509883e-38
0.066543445 -0.12501357 0.043592867 2.3509883e-38
0.068282828 -0.12501357 0.043592867 2.3509883e-38
0.07002221 -0.12501357 0.043592867 2.3509883e-38
0.071761601 -0.12501357 0.043592867 2.350952e-38
0.073763944 -0.12584494 0.040562984 2.3509523e-38
0.075508647 -0.12584494 0.040562984 2.3509883e-38
0.077519692 -0.12665437 0.037613209 2.3509886e-38
0.078998037 -0.12584494 0.040562984 2.3509886e-38
0.080742724 -0.12584494 0.040562984 2.341805e-38
0.082487427 -0.12584494 0.040562984 2.341805e-38
0.084232114 -0.12584494 0.040562984 2.3234379e-38
0.085976817 -0.12584494 0.040562984 1.9270331e-38
0.087416045 -0.12501357 0.043592867 9.2339823e-40
0.088846542 -0.12418722 0.046604391 1.6602374e-39
0.09058065 -0.12418722 0.046604391 4.1495166e-39
0.092314743 -0.12418722 0.046604391 3.5037829e-39
-0.060439497 -0.14828841 -0.034391765 2.350988e-38
-0.058263429 -0.14636014 -0.02740908 2.3509883e-38
-0.056152008 -0.14470108 -0.02140129 2.3509886e-38
-0.054021221 -0.14275892 -0.014368299 2.3417691e-38
-0.052069418 -0.14194728 -0.011429194 2.341769e-38
-0.050124634 -0.14111041 -0.0083986558 2.3325492e-38
-0.047030564 -0.13090499 0.028557416 2.3325492e-38
-0.045167398 -0.13007559 0.031560894 2.3325847e-38
-0.043315306 -0.12925108 0.03454661 2.3325846e-38
-0.041560061 -0.12925108 0.03454661 2.3325847e-38
-0.039804816 -0.12925108 0.03454661 2.3509883e-38
-0.037896611 -0.12758966 0.040562984 2.3509886e-38
-0.036151916 -0.12758966 0.040562984 2.3509886e-38
-0.034340814 -0.12675296 0.043592867 2.3509886e-38
-0.032601431 -0.12675296 0.043592867 2.3509886e-38
-0.030862048 -0.12675296 0.043592867 2.3509886e-38
-0.029072501 -0.12592132 0.046604391 2.341769e-38
-0.0273384 -0.12592132 0.046604391 2.3325494e-38
-0.025499441 -0.12371938 0.054578122 2.3509886e-38
-0.023779318 -0.12371938 0.054578122 2.3509886e-38
-0.022059195 -0.12371938 0.054578122 2.3509886e-38
-0.020315088 -0.12287988 0.057618137 2.3509886e-38
-0.018600293 -0.12287988 0.057618137 2.3509886e-38
-0.016872671 -0.12207155 0.060545202 2.3509886e-38
-0.015157576 -0.12150083 0.062611878 2.3509886e-38
-0.013451538 -0.12150083 0.062611878 2.3509886e-38
-0.011748123 -0.12067504 0.065602303 2.3509886e-38
-0.010047329 -0.12067504 0.065602303 2.3509886e-38
-0.0083465343 -0.12067504 0.065602303 2.3509886e-38
-0.0066273892 -0.12150083 0.062611878 2.3509886e-38
-0.0049213516 -0.12150083 0.062611878 2.3509886e-38
-0.0032153148 -0.12150083 0.062611878 2.3509886e-38
-0.0015433589 -0.12067504 0.065602303 2.3509886e-38
0.00015743542 -0.12067504 0.065602303 2.3509886e-38
0.0019772202 -0.12287988 0.057618137 2.3509886e-38
0.0036432585 -0.12207155 0.060545202 2.3509886e-38
0.005352919 -0.12207155 0.060545202 2.3509886e-38
0.0070625795 -0.12207155 0.060545202 2.3509886e-38
0.00877224 -0.12207155 0.060545202 2.3509886e-38
0.010481901 -0.12207155 0.060545202 2.3509886e-38
0.012265977 -0.12287988 0.057618137 2.3509886e-38
0.013901222 -0.12207155 0.060545202 2.3509886e-38
0.015610882 -0.12207155 0.060545202 2.3509886e-38
0.017410357 -0.12287988 0.057618137 2.3509886e-38
0.019125149 -0.12287988 0.057618137 2.3509886e-38
0.020839941 -0.12287988 0.057618137 2.3509886e-38
0.022554737 -0.12287988 0.057618137 2.3509886e-38
0.024384126 -0.12371938 0.054578122 2.3509886e-38
0.026104249 -0.12371938 0.054578122 2.3509886e-38
0.027824372 -0.12371938 0.054578122 2.3509886e-38
0.029544495 -0.12371938 0.054578122 2.3509886e-38
0.031264618 -0.12371938 0.054578122 2.3509886e-38
0.032984741 -0.12371938 0.054578122 2.3509886e-38
0.034704864 -0.12371938 0.054578122 2.3509886e-38
0.036424987 -0.12371938 0.054578122 2.3509886e-38
0.03814511 -0.12371938 0.054578122 2.3509886e-38
0.040023688 -0.12453763 0.051615056 2.3509886e-38
0.041749008 -0.12453763 0.051615056 2.3509886e-38
0.043474324 -0.12453763 0.051615056 2.3509883e-38
0.045199644 -0.12453763 0.051615056 2.3509883e-38
0.047105283 -0.12536083 0.048634049 2.3509883e-38
0.048835829 -0.12536083 0.048634049 2.3509883e-38
0.050566372 -0.12536083 0.048634049 2.3509527e-38
0.052430365 -0.12592132 0.046604391 2.3509527e-38
0.054164473 -0.12592132 0.046604391 2.3509527e-38
0.055898573 -0.12592132 0.046604391 2.3509527e-38
0.057632681 -0.12592132 0.046604391 2.3509886e-38
0.059366781 -0.12592132 0.046604391 2.3509886e-38
0.061100882 -0.12592132 0.046604391 2.3509886e-38
0.063064672 -0.12675296 0.043592867 2.3509886e-38
0.064804055 -0.12675296 0.043592867 2.3509886e-38
0.066543445 -0.12675296 0.043592867 2.3509883e-38
0.068282828 -0.12675296 0.043592867 2.3509883e-38
0.07002221 -0.12675296 0.043592867 2.3509883e-38
0.071761601 -0.12675296 0.043592867 2.350988e-38
0.073500983 -0.12675296 0.043592867 2.350988e-38
0.075240366 -0.12675296 0.043592867 2.3509883e-38
0.077253334 -0.12758966 0.040562984 2.3418047e-38
0.078998037 -0.12758966 0.040562984 2.341805e-38
0.080742724 -0.12758966 0.040562984 2.3234379e-38
0.082487427 -0.12758966 0.040562984 2.3234379e-38
0.084232114 -0.12758966 0.040562984 2.3142544e-38
0.085976817 -0.12758966 0.040562984 1.9085937e-38
0.087416045 -0.12675296 0.043592867 1.1999823e-39
0.089155428 -0.12675296 0.043592867 1.5691208e-39
0.090894826 -0.12675296 0.043592867 4.0576783e-39
-0.058134027 -0.14738683 -0.024396662 2.3509883e-38
-0.056152008 -0.14655443 -0.02140129 2.3509886e-38
-0.054021221 -0.14459993 -0.014368299 2.3509886e-38
-0.052069418 -0.14378314 -0.011429194 2.3509886e-38
-0.050124634 -0.14294095 -0.0083986558 2.3417687e-38
-0.047030564 -0.13267075 0.028557416 2.3325492e-38
-0.045167398 -0.13183604 0.031560894 2.3233652e-38
-0.043315306 -0.13100632 0.03454661 2.3141455e-38
-0.041560061 -0.13100632 0.03454661 2.3141455e-38
-0.039804816 -0.13100632 0.03454661 2.3233296e-38
-0.037896611 -0.12933435 0.040562984 2.3325494e-38
-0.036151916 -0.12933435 0.040562984 2.3509886e-38
-0.034340814 -0.12849234 0.043592867 2.3509886e-38
-0.032601431 -0.12849234 0.043592867 2.3509886e-38
-0.030862048 -0.12849234 0.043592867 2.3509886e-38
-0.029072501 -0.12765543 0.046604391 2.341769e-38
-0.0273384 -0.12765543 0.046604391 2.3325494e-38
-0.025499441 -0.12543948 0.054578122 2.3509886e-38
-0.023744673 -0.12459467 0.057618137 2.3509886e-38
-0.02202988 -0.12459467 0.057618137 2.3509886e-38
-0.020291992 -0.12378122 0.060545202 2.3509886e-38
-0.018582333 -0.12378122 0.060545202 2.3509886e-38
-0.016863611 -0.1232069 0.062611878 2.3509886e-38
-0.01514971 -0.12237583 0.065602303 2.3509886e-38
-0.013448915 -0.12237583 0.065602303 2.3509886e-38
-0.011748123 -0.12237583 0.065602303 2.3509886e-38
-0.010055144 -0.12154986 0.068574488 2.3509886e-38
-0.0083595635 -0.12154986 0.068574488 2.3509886e-38
-0.00666398 -0.12154986 0.068574488 2.3509886e-38
-0.0049683964 -0.12154986 0.068574488 2.3509886e-38
-0.0032441523 -0.12237583 0.065602303 2.3509886e-38
-0.0015433589 -0.12237583 0.065602303 2.3509886e-38
0.00015743542 -0.12237583 0.065602303 2.3509886e-38
0.0019027963 -0.1232069 0.062611878 2.3509886e-38
0.0036088331 -0.1232069 0.062611878 2.3509886e-38
0.0053148707 -0.1232069 0.062611878 2.3509886e-38
0.0070209084 -0.1232069 0.062611878 2.3509886e-38
0.00877224 -0.12378122 0.060545202 2.3509886e-38
0.010481901 -0.12378122 0.060545202 2.3509886e-38
0.012191561 -0.12378122 0.060545202 2.3509886e-38
0.013901222 -0.12378122 0.060545202 2.3509886e-38
0.015610882 -0.12378122 0.060545202 2.3509886e-38
0.017320544 -0.12378122 0.060545202 2.3509886e-38
0.019030206 -0.12378122 0.060545202 2.3509886e-38
0.020739865 -0.12378122 0.060545202 2.3509886e-38
0.022554737 -0.12459467 0.057618137 2.3509886e-38
0.024269529 -0.12459467 0.057618137 2.3509886e-38
0.025984321 -0.12459467 0.057618137 2.3509886e-38
0.027699113 -0.12459467 0.057618137 2.3509886e-38
0.029413905 -0.12459467 0.057618137 2.3509886e-38
0.031264618 -0.12543948 0.054578122 2.3509886e-38
0.032984741 -0.12543948 0.054578122 2.3509886e-38
0.034704864 -0.12543948 0.054578122 2.3509886e-38
0.036424987 -0.12543948 0.054578122 2.3509886e-38
0.03814511 -0.12543948 0.054578122 2.3509886e-38
0.039865233 -0.12543948 0.054578122 2.3509886e-38
0.041585356 -0.12543948 0.054578122 2.3509886e-38
0.043474324 -0.12626295 0.051615056 2.3509883e-38
0.045199644 -0.12626295 0.051615056 2.3509883e-38
0.047105283 -0.12709136 0.048634049 2.3509883e-38
0.048835829 -0.12709136 0.048634049 2.3509883e-38
0.050566372 -0.12709136 0.048634049 2.3509527e-38
0.052296918 -0.12709136 0.048634049 2.3509527e-38
0.054164473 -0.12765543 0.046604391 2.3509886e-38
0.055898573 -0.12765543 0.046604391 2.3509886e-38
0.057632681 -0.12765543 0.046604391 2.3509886e-38
0.059366781 -0.12765543 0.046604391 2.3509886e-38
0.061100882 -0.12765543 0.046604391 2.341805e-38
0.062834986 -0.12765543 0.046604391 2.341805e-38
0.064569086 -0.12765543 0.046604391 2.341805e-38
0.066543445 -0.12849234 0.043592867 2.341805e-38
0.068282828 -0.12849234 0.043592867 2.341805e-38
0.07002221 -0.12849234 0.043592867 2.3418047e-38
0.071761601 -0.12849234 0.043592867 2.3418045e-38
0.073500983 -0.12849234 0.043592867 2.3418043e-38
0.075240366 -0.12849234 0.043592867 2.3418045e-38
0.077253334 -0.12933435 0.040562984 2.3234376e-38
0.078998037 -0.12933435 0.040562984 2.3234379e-38
0.080742724 -0.12933435 0.040562984 2.3142544e-38
0.082487427 -0.12933435 0.040562984 2.3142544e-38
0.084232114 -0.12933435 0.040562984 2.2958873e-38
0.085976817 -0.12933435 0.040562984 1.8625678e-38
0.087416045 -0.12849234 0.043592867 1.4772881e-39
0.089155428 -0.12849234 0.043592867 1.3850896e-39
0.090894826 -0.12849234 0.043592867 3.5974204e-39
-0.058134027 -0.14924543 -0.024396662 2.350988e-38
-0.056152008 -0.14840777 -0.02140129 2.3509883e-38
-0.054021221 -0.14644094 -0.014368299 2.3509883e-38
-0.052069418 -0.14561899 -0.011429194 2.3509883e-38
-0.050124634 -0.1447715 -0.0083986558 2.3509883e-38
-0.048088651 -0.14309107 -0.0023897924 2.3417687e-38
-0.045264818 -0.13443647 0.028557416 2.3233652e-38
-0.043315306 -0.13276155 0.03454661 2.3049259e-38
-0.041560061 -0.13276155 0.03454661 2.2957065e-38
-0.039804816 -0.13276155 0.03454661 2.231134e-38
-0.037896611 -0.13107903 0.040562984 2.249645e-38
-0.036151916 -0.13107903 0.040562984 2.2956712e-38
-0.034340814 -0.13023172 0.043592867 2.3234015e-38
-0.032601431 -0.13023172 0.043592867 2.3509886e-38
-0.030862048 -0.13023172 0.043592867 2.3418047e-38
-0.029072501 -0.12938951 0.046604391 2.3509886e-38
-0.027219564 -0.12715961 0.054578122 2.332621e-38
-0.025459465 -0.12630944 0.057618137 2.3509886e-38
-0.023744673 -0.12630944 0.057618137 2.3418047e-38
-0.02202988 -0.12630944 0.057618137 2.3509886e-38
-0.020275686 -0.12491293 0.062611878 2.3418047e-38
-0.018569648 -0.12491293 0.062611878 2.3509886e-38
-0.016850505 -0.12407662 0.065602303 2.3418047e-38
-0.01514971 -0.12407662 0.065602303 2.3509886e-38
-0.013446311 -0.12324543 0.068574488 2.3509886e-38
-0.011750727 -0.12324543 0.068574488 2.3509886e-38
-0.010055144 -0.12324543 0.068574488 2.3509886e-38
-0.008372915 -0.12239362 0.071620464 2.3509886e-38
-0.0066826725 -0.12239362 0.071620464 2.3509886e-38
-0.0049924301 -0.12239362 0.071620464 2.3509886e-38
-0.0032728147 -0.12324543 0.068574488 2.3509886e-38
-0.001577232 -0.12324543 0.068574488 2.3509886e-38
0.00011835154 -0.12324543 0.068574488 2.3509886e-38
0.0018139342 -0.12324543 0.068574488 2.3509886e-38
0.0035590241 -0.12407662 0.065602303 2.3509886e-38
0.0052598165 -0.12407662 0.065602303 2.3509886e-38
0.0069606109 -0.12407662 0.065602303 2.3509886e-38
0.0086614052 -0.12407662 0.065602303 2.3509886e-38
0.010432982 -0.12491293 0.062611878 2.3509886e-38
0.01213902 -0.12491293 0.062611878 2.3509886e-38
0.013901222 -0.12549089 0.060545202 2.3509886e-38
0.015610882 -0.12549089 0.060545202 2.3509886e-38
0.017320544 -0.12549089 0.060545202 2.3509886e-38
0.019030206 -0.12549089 0.060545202 2.3509886e-38
0.020739865 -0.12549089 0.060545202 2.3509886e-38
0.022449527 -0.12549089 0.060545202 2.3509886e-38
0.024269529 -0.12630944 0.057618137 2.3509886e-38
0.025984321 -0.12630944 0.057618137 2.3509886e-38
0.027699113 -0.12630944 0.057618137 2.3509886e-38
0.029413905 -0.12630944 0.057618137 2.3509886e-38
0.031128701 -0.12630944 0.057618137 2.3509886e-38
0.032843493 -0.12630944 0.057618137 2.3509886e-38
0.034558285 -0.12630944 0.057618137 2.3509886e-38
0.036273077 -0.12630944 0.057618137 2.3509886e-38
0.03814511 -0.12715961 0.054578122 2.3509886e-38
0.039865233 -0.12715961 0.054578122 2.3509886e-38
0.041585356 -0.12715961 0.054578122 2.3509886e-38
0.043305479 -0.12715961 0.054578122 2.3509883e-38
0.045025602 -0.12715961 0.054578122 2.3509883e-38
0.04692496 -0.12798826 0.051615056 2.3509883e-38
0.04865028 -0.12798826 0.051615056 2.3509883e-38
0.050566372 -0.12882192 0.048634049 2.3509527e-38
0.052296918 -0.12882192 0.048634049 2.3509527e-38
0.054027464 -0.12882192 0.048634049 2.3509886e-38
0.055758003 -0.12882192 0.048634049 2.3509886e-38
0.057632681 -0.12938951 0.046604391 2.3509886e-38
0.059366781 -0.12938951 0.046604391 2.3509886e-38
0.061100882 -0.12938951 0.046604391 2.341805e-38
0.062834986 -0.12938951 0.046604391 2.341805e-38
0.064569086 -0.12938951 0.046604391 2.341805e-38
0.066543445 -0.13023172 0.043592867 2.341805e-38
0.068282828 -0.13023172 0.043592867 2.341805e-38
0.07002221 -0.13023172 0.043592867 2.3418047e-38
0.071761601 -0.13023172 0.043592867 2.3418045e-38
0.073500983 -0.13023172 0.043592867 2.3418045e-38
0.075240366 -0.13023172 0.043592867 2.3418045e-38
0.077253334 -0.13107903 0.040562984 2.3234376e-38
0.078998037 -0.13107903 0.040562984 2.3234379e-38
0.080742724 -0.13107903 0.040562984 2.3234379e-38
0.082487427 -0.13107903 0.040562984 2.3142544e-38
0.084232114 -0.13107903 0.040562984 2.3142544e-38
0.085976817 -0.13107903 0.040562984 1.8810069e-38
0.087721519 -0.13107903 0.040562984 2.1226575e-39
0.089466207 -0.13107903 0.040562984 1.753512e-39
0.091210909 -0.13107903 0.040562984 3.5974218e-39
-0.056029297 -0.14942293 -0.018422846 2.341804e-38
-0.054021221 -0.14828195 -0.014368299 2.3326206e-38
-0.052069418 -0.14745484 -0.011429194 2.3326206e-38
-0.050124634 -0.14660202 -0.0083986558 2.3326208e-38
-0.048088651 -0.14491107 -0.0023897924 2.3418047e-38
-0.046268642 -0.14491107 -0.0023897924 2.3418047e-38
-0.043315306 -0.13451682 0.03454661 2.3418047e-38
-0.041560061 -0.13451682 0.03454661 2.3418047e-38
-0.039885957 -0.13535701 0.031560894 2.2035472e-38
-0.037971608 -0.13365383 0.037613209 2.1944352e-38
-0.036221739 -0.13365383 0.037613209 2.2404254e-38
-0.034407221 -0.13282375 0.040562984 2.2774113e-38
-0.032601431 -0.13197111 0.043592867 2.3418047e-38
-0.030806608 -0.13112362 0.046604391 2.3234374e-38
-0.029038697 -0.13055246 0.048634049 2.3418047e-38
-0.027219564 -0.12887974 0.054578122 2.2958504e-38
-0.025459465 -0.12802424 0.057618137 2.1390102e-38
-0.023744673 -0.12802424 0.057618137 2.30507e-38
-0.022001654 -0.12720053 0.060545202 2.3418047e-38
-0.020275686 -0.12661897 0.062611878 2.3142537e-38
-0.018569648 -0.12661897 0.062611878 2.3418047e-38
-0.016850505 -0.12577744 0.065602303 2.3234374e-38
-0.015141894 -0.12494104 0.068574488 2.3418047e-38
-0.013446311 -0.12494104 0.068574488 2.3141819e-38
-0.011750727 -0.12494104 0.068574488 2.3509886e-38
-0.010055144 -0.12494104 0.068574488 2.3509886e-38
-0.008372915 -0.12408386 0.071620464 2.3509886e-38
-0.0066826725 -0.12408386 0.071620464 2.3509886e-38
-0.0049924301 -0.12408386 0.071620464 2.3509886e-38
-0.0033021877 -0.12408386 0.071620464 2.3509886e-38
-0.001577232 -0.12494104 0.068574488 2.3509886e-38
0.00011835154 -0.12494104 0.068574488 2.3509886e-38
0.0018139342 -0.12494104 0.068574488 2.3509886e-38
0.0035590241 -0.12577744 0.065602303 2.3509886e-38
0.0052598165 -0.12577744 0.065602303 2.3509886e-38
0.0069606109 -0.12577744 0.065602303 2.3509886e-38
0.0086614052 -0.12577744 0.065602303 2.3509886e-38
0.0103622 -0.12577744 0.065602303 2.3509886e-38
0.01213902 -0.12661897 0.062611878 2.3509886e-38
0.013845057 -0.12661897 0.062611878 2.3509886e-38
0.015551093 -0.12661897 0.062611878 2.3509886e-38
0.017257132 -0.12661897 0.062611878 2.3509886e-38
0.019030206 -0.12720053 0.060545202 2.3509886e-38
0.020739865 -0.12720053 0.060545202 2.3509886e-38
0.022449527 -0.12720053 0.060545202 2.3509886e-38
0.024269529 -0.12802424 0.057618137 2.3509886e-38
0.025984321 -0.12802424 0.057618137 2.3509886e-38
0.027699113 -0.12802424 0.057618137 2.3509886e-38
0.029413905 -0.12802424 0.057618137 2.3509886e-38
0.031128701 -0.12802424 0.057618137 2.3509886e-38
0.032843493 -0.12802424 0.057618137 2.3509886e-38
0.034558285 -0.12802424 0.057618137 2.3509886e-38
0.036273077 -0.12802424 0.057618137 2.3509886e-38
0.037987869 -0.12802424 0.057618137 2.3509886e-38
0.039865233 -0.12887974 0.054578122 2.3509886e-38
0.041585356 -0.12887974 0.054578122 2.3509886e-38
0.043305479 -0.12887974 0.054578122 2.3509886e-38
0.045025602 -0.12887974 0.054578122 2.3509886e-38
0.04692496 -0.12971358 0.051615056 2.3509886e-38
0.04865028 -0.12971358 0.051615056 2.3509886e-38
0.050566372 -0.13055246 0.048634049 2.3509886e-38
0.052296918 -0.13055246 0.048634049 2.3509886e-38
0.054027464 -0.13055246 0.048634049 2.3509886e-38
0.055758003 -0.13055246 0.048634049 2.3509886e-38
0.05748855 -0.13055246 0.048634049 2.3509886e-38
0.059366781 -0.13112362 0.046604391 2.3509886e-38
0.061100882 -0.13112362 0.046604391 2.3509886e-38
0.062834986 -0.13112362 0.046604391 2.3509886e-38
0.064569086 -0.13112362 0.046604391 2.3509886e-38
0.066543445 -0.13197111 0.043592867 2.3509886e-38
0.068282828 -0.13197111 0.043592867 2.3509886e-38
0.07002221 -0.13197111 0.043592867 2.3509886e-38
0.071761601 -0.13197111 0.043592867 2.3509883e-38
0.073500983 -0.13197111 0.043592867 2.3509883e-38
0.075240366 -0.13197111 0.043592867 2.3509883e-38
0.077253334 -0.13282375 0.040562984 2.3418047e-38
0.078998037 -0.13282375 0.040562984 2.3418047e-38
0.080742724 -0.13282375 0.040562984 2.341805e-38
0.082487427 -0.13282375 0.040562984 2.341805e-38
0.08451917 -0.13365383 0.037613209 2.341805e-38
0.086269028 -0.13365383 0.037613209 1.9453997e-38
0.087721519 -0.13282375 0.040562984 2.5821965e-39
0.089466207 -0.13282375 0.040562984 2.4900009e-39
0.091210909 -0.13282375 0.040562984 5.4402582e-39
-0.053905275 -0.14929073 -0.011429194 2.3326201e-38
-0.052069418 -0.14929073 -0.011429194 2.3234367e-38
-0.050016332 -0.14757936 -0.0053855218 2.3326206e-38
-0.048088651 -0.14673109 -0.0023897924 2.3418045e-38
-0.046268642 -0.14673109 -0.0023897924 2.3418047e-38
-0.044234049 -0.14475073 0.004603859 2.341805e-38
-0.042253748 -0.1430618 0.010568377 2.341805e-38
-0.040212635 -0.14052127 0.019540306 2.2866311e-38
-0.038353346 -0.13965552 0.022597786 2.3234374e-38
-0.036364995 -0.13711749 0.031560894 2.3142537e-38
-0.034539081 -0.13627206 0.03454661 2.2220939e-38
-0.032662526 -0.13456844 0.040562984 2.0745809e-38
-0.030806608 -0.13285773 0.046604391 1.9823853e-38
-0.029038697 -0.13228302 0.048634049 1.9823853e-38
-0.027219564 -0.13059987 0.054578122 2.0284831e-38
-0.025459465 -0.12973903 0.057618137 1.9823853e-38
-0.023711313 -0.1289102 0.060545202 2.2313135e-38
-0.022001654 -0.1289102 0.060545202 2.3234374e-38
-0.020275686 -0.128325 0.062611878 2.3142537e-38
-0.018551297 -0.12747823 0.065602303 2.3234374e-38
-0.016837474 -0.12663661 0.068574488 2.3234374e-38
-0.015141894 -0.12663661 0.068574488 2.3234374e-38
-0.01344364 -0.1257741 0.071620464 2.3234374e-38
-0.011753398 -0.1257741 0.071620464 2.3509886e-38
-0.010063156 -0.1257741 0.071620464 2.3509886e-38
-0.0083813677 -0.12522803 0.073548913 2.3509886e-38
-0.0066945059 -0.12522803 0.073548913 2.3509886e-38
-0.0049924301 -0.1257741 0.071620464 2.3509886e-38
-0.0033021877 -0.1257741 0.071620464 2.3509886e-38
-0.0016119452 -0.1257741 0.071620464 2.3509886e-38
7.8296289e-05 -0.1257741 0.071620464 2.3509886e-38
0.0017685387 -0.1257741 0.071620464 2.3509886e-38
0.0035095168 -0.12663661 0.068574488 2.3509886e-38
0.0052050995 -0.12663661 0.068574488 2.3509886e-38
0.0069606109 -0.12747823 0.065602303 2.3509886e-38
0.0086614052 -0.12747823 0.065602303 2.3509886e-38
0.0103622 -0.12747823 0.065602303 2.3509886e-38
0.01213902 -0.128325 0.062611878 2.3509886e-38
0.013845057 -0.128325 0.062611878 2.3509886e-38
0.015551093 -0.128325 0.062611878 2.3509886e-38
0.017257132 -0.128325 0.062611878 2.3509886e-38
0.018963169 -0.128325 0.062611878 2.3509886e-38
0.020739865 -0.1289102 0.060545202 2.3509886e-38
0.022449527 -0.1289102 0.060545202 2.3509886e-38
0.024269529 -0.12973903 0.057618137 2.3509886e-38
0.025984321 -0.12973903 0.057618137 2.3509886e-38
0.027699113 -0.12973903 0.057618137 2.3509886e-38
0.029413905 -0.12973903 0.057618137 2.3509886e-38
0.031128701 -0.12973903 0.057618137 2.3509886e-38
0.032843493 -0.12973903 0.057618137 2.3509886e-38
0.034558285 -0.12973903 0.057618137 2.3509886e-38
0.036273077 -0.12973903 0.057618137 2.3509886e-38
0.037987869 -0.12973903 0.057618137 2.3509886e-38
0.039865233 -0.13059987 0.054578122 2.3509886e-38
0.041585356 -0.13059987 0.054578122 2.3509886e-38
0.043305479 -0.13059987 0.054578122 2.3509886e-38
0.045199644 -0.1314389 0.051615056 2.3509886e-38
0.04692496 -0.1314389 0.051615056 2.3509886e-38
0.04865028 -0.1314389 0.051615056 2.3509886e-38
0.050566372 -0.13228302 0.048634049 2.3509886e-38
0.052296918 -0.13228302 0.048634049 2.3509886e-38
0.054027464 -0.13228302 0.048634049 2.3509886e-38
0.055758003 -0.13228302 0.048634049 2.3509886e-38
0.05748855 -0.13228302 0.048634049 2.3509886e-38
0.059366781 -0.13285773 0.046604391 2.3509886e-38
0.061100882 -0.13285773 0.046604391 2.3509886e-38
0.062834986 -0.13285773 0.046604391 2.3509886e-38
0.064569086 -0.13285773 0.046604391 2.3509886e-38
0.066543445 -0.13371049 0.043592867 2.3509886e-38
0.068282828 -0.13371049 0.043592867 2.3509886e-38
0.07002221 -0.13371049 0.043592867 2.3509886e-38
0.071761601 -0.13371049 0.043592867 2.3509883e-38
0.073500983 -0.13371049 0.043592867 2.3509883e-38
0.075240366 -0.13371049 0.043592867 2.3509883e-38
0.077253334 -0.13456844 0.040562984 2.3509883e-38
0.078998037 -0.13456844 0.040562984 2.3509883e-38
0.081019424 -0.13540371 0.037613209 2.3509883e-38
0.082769297 -0.13540371 0.037613209 2.3509883e-38
0.08451917 -0.13540371 0.037613209 2.3509883e-38
0.086269028 -0.13540371 0.037613209 1.9176691e-38
0.088018902 -0.13540371 0.037613209 1.751717e-39
0.089768775 -0.13540371 0.037613209 1.5673257e-39
0.091518633 -0.13540371 0.037613209 5.2551509e-39
-0.050016332 -0.14940463 -0.0053855218 2.3234369e-38
-0.048088651 -0.14855109 -0.0023897924 2.3418045e-38
-0.046268642 -0.14855109 -0.0023897924 2.3418047e-38
-0.044234049 -0.14655848 0.004603859 2.341805e-38
-0.042253748 -0.14485909 0.010568377 2.341805e-38
-0.040293433 -0.14314993 0.016567226 2.3234376e-38
-0.038431078 -0.14230286 0.019540306 2.3234374e-38
-0.036649525 -0.14230286 0.019540306 2.3234374e-38
-0.034800958 -0.1414317 0.022597786 2.240533e-38
-0.032904595 -0.13973372 0.028557416 2.0745809e-38
-0.030972134 -0.13715358 0.037613209 1.945507e-38
-0.029072501 -0.13459183 0.046604391 1.9178483e-38
-0.027219564 -0.13231997 0.054578122 1.9362875e-38
-0.025459465 -0.13145383 0.057618137 1.8717505e-38
-0.023711313 -0.13061987 0.060545202 2.157557e-38
-0.022001654 -0.13061987 0.060545202 2.3234374e-38
-0.020275686 -0.13003103 0.062611878 2.3142537e-38
-0.018551297 -0.12917902 0.065602303 2.3142537e-38
-0.016837474 -0.12833218 0.068574488 2.3142537e-38
-0.015141894 -0.12833218 0.068574488 2.30507e-38
-0.013441949 -0.1269149 0.073548913 2.3234374e-38
-0.011755089 -0.1269149 0.073548913 2.3509886e-38
-0.010068228 -0.1269149 0.073548913 2.3509886e-38
-0.0083813677 -0.1269149 0.073548913 2.3509886e-38
-0.0066945059 -0.1269149 0.073548913 2.3509886e-38
-0.0050076451 -0.1269149 0.073548913 2.3509886e-38
-0.0033207843 -0.1269149 0.073548913 2.3509886e-38
-0.0016119452 -0.12746434 0.071620464 2.3509886e-38
7.8296289e-05 -0.12746434 0.071620464 2.3509886e-38
0.0017685387 -0.12746434 0.071620464 2.3509886e-38
0.0035095168 -0.12833218 0.068574488 2.3509886e-38
0.0052050995 -0.12833218 0.068574488 2.3509886e-38
0.0069006821 -0.12833218 0.068574488 2.3509886e-38
0.0085962648 -0.12833218 0.068574488 2.3509886e-38
0.0103622 -0.12917902 0.065602303 2.3509886e-38
0.012062994 -0.12917902 0.065602303 2.3509886e-38
0.013763786 -0.12917902 0.065602303 2.3509886e-38
0.015464581 -0.12917902 0.065602303 2.3509886e-38
0.017257132 -0.13003103 0.062611878 2.3509886e-38
0.018963169 -0.13003103 0.062611878 2.3509886e-38
0.020669207 -0.13003103 0.062611878 2.3509886e-38
0.022449527 -0.13061987 0.060545202 2.3509886e-38
0.024269529 -0.13145383 0.057618137 2.3509886e-38
0.025984321 -0.13145383 0.057618137 2.3509886e-38
0.027699113 -0.13145383 0.057618137 2.3509886e-38
0.029413905 -0.13145383 0.057618137 2.3509886e-38
0.031128701 -0.13145383 0.057618137 2.3509886e-38
0.032843493 -0.13145383 0.057618137 2.3509886e-38
0.034558285 -0.13145383 0.057618137 2.3509886e-38
0.036273077 -0.13145383 0.057618137 2.3509886e-38
0.037987869 -0.13145383 0.057618137 2.3509886e-38
0.039702665 -0.13145383 0.057618137 2.3509886e-38
0.041585356 -0.13231997 0.054578122 2.3509886e-38
0.043474324 -0.13316421 0.051615056 2.3509886e-38
0.045199644 -0.13316421 0.051615056 2.3509886e-38
0.04692496 -0.13316421 0.051615056 2.3509886e-38
0.04865028 -0.13316421 0.051615056 2.3509886e-38
0.050566372 -0.13401355 0.048634049 2.3509886e-38
0.052296918 -0.13401355 0.048634049 2.3509886e-38
0.054027464 -0.13401355 0.048634049 2.3509886e-38
0.055758003 -0.13401355 0.048634049 2.3509886e-38
0.05748855 -0.13401355 0.048634049 2.3509886e-38
0.059366781 -0.13459183 0.046604391 2.3509886e-38
0.061100882 -0.13459183 0.046604391 2.3509886e-38
0.062834986 -0.13459183 0.046604391 2.3509886e-38
0.064569086 -0.13459183 0.046604391 2.3509886e-38
0.066543445 -0.13544987 0.043592867 2.3509886e-38
0.068282828 -0.13544987 0.043592867 2.3509886e-38
0.07002221 -0.13544987 0.043592867 2.3509886e-38
0.071761601 -0.13544987 0.043592867 2.3509883e-38
0.073500983 -0.13544987 0.043592867 2.3509883e-38
0.075240366 -0.13544987 0.043592867 2.3509883e-38
0.077253334 -0.13631313 0.040562984 2.3509883e-38
0.078998037 -0.13631313 0.040562984 2.3509883e-38
0.081019424 -0.13715358 0.037613209 2.3509883e-38
0.082769297 -0.13715358 0.037613209 2.3509883e-38
0.084817581 -0.1380273 0.03454661 2.3509883e-38
0.086572818 -0.1380273 0.03454661 1.9637666e-38
0.088328071 -0.1380273 0.03454661 1.290736e-39
0.090083309 -0.1380273 0.03454661 5.5317378e-40
0.091838561 -0.1380273 0.03454661 4.7019771e-39
-0.044327982 -0.14924385 0.0015424453 2.341805e-38
-0.042253748 -0.14665638 0.010568377 2.341805e-38
-0.040293433 -0.1449367 0.016567226 2.3234376e-38
-0.038431078 -0.14408441 0.019540306 2.30507e-38
-0.036649525 -0.14408441 0.019540306 2.2958504e-38
-0.034867968 -0.14408441 0.019540306 2.3142537e-38
-0.032963485 -0.14233668 0.025636908 2.3142537e-38
-0.031028591 -0.13978253 0.03454661 2.2497526e-38
-0.029122666 -0.13718925 0.043592867 2.1298983e-38
-0.027219564 -0.1340401 0.054578122 2.0377026e-38
-0.025459465 -0.13316862 0.057618137 1.9086288e-38
-0.023744673 -0.13316862 0.057618137 2.157557e-38
-0.022001654 -0.13232954 0.060545202 2.30507e-38
-0.020275686 -0.13173707 0.062611878 2.30507e-38
-0.018569648 -0.13173707 0.062611878 2.3142537e-38
-0.016837474 -0.13002776 0.068574488 2.30507e-38
-0.015141894 -0.13002776 0.068574488 2.30507e-38
-0.013441949 -0.12860174 0.073548913 2.3234374e-38
-0.011755089 -0.12860174 0.073548913 2.3509886e-38
-0.010068228 -0.12860174 0.073548913 2.3509886e-38
-0.0083813677 -0.12860174 0.073548913 2.3509886e-38
-0.0066945059 -0.12860174 0.073548913 2.3509886e-38
-0.0050076451 -0.12860174 0.073548913 2.3509886e-38
-0.0033207843 -0.12860174 0.073548913 2.3509886e-38
-0.0016119452 -0.12915458 0.071620464 2.3509886e-38
7.8296289e-05 -0.12915458 0.071620464 2.3509886e-38
0.0017685387 -0.12915458 0.071620464 2.3509886e-38
0.0035095168 -0.13002776 0.068574488 2.3509886e-38
0.0052050995 -0.13002776 0.068574488 2.3509886e-38
0.0069006821 -0.13002776 0.068574488 2.3509886e-38
0.0085962648 -0.13002776 0.068574488 2.3509886e-38
0.0103622 -0.1308798 0.065602303 2.3509886e-38
0.012062994 -0.1308798 0.065602303 2.3509886e-38
0.013763786 -0.1308798 0.065602303 2.3509886e-38
0.015464581 -0.1308798 0.065602303 2.3509886e-38
0.017165374 -0.1308798 0.065602303 2.3509886e-38
0.018963169 -0.13173707 0.062611878 2.3509886e-38
0.020669207 -0.13173707 0.062611878 2.3509886e-38
0.022449527 -0.13232954 0.060545202 2.3509886e-38
0.024269529 -0.13316862 0.057618137 2.3509886e-38
0.025984321 -0.13316862 0.057618137 2.3509886e-38
0.027699113 -0.13316862 0.057618137 2.3509886e-38
0.029413905 -0.13316862 0.057618137 2.3509886e-38
0.031128701 -0.13316862 0.057618137 2.3509886e-38
0.032843493 -0.13316862 0.057618137 2.3509886e-38
0.034558285 -0.13316862 0.057618137 2.3509886e-38
0.036273077 -0.13316862 0.057618137 2.3509886e-38
0.037987869 -0.13316862 0.057618137 2.3509886e-38
0.039702665 -0.13316862 0.057618137 2.3509886e-38
0.041585356 -0.1340401 0.054578122 2.3509886e-38
0.043474324 -0.13488953 0.051615056 2.3509886e-38
0.045199644 -0.13488953 0.051615056 2.3509886e-38
0.04692496 -0.13488953 0.051615056 2.3509886e-38
0.04865028 -0.13488953 0.051615056 2.3509886e-38
0.050566372 -0.13574408 0.048634049 2.3509886e-38
0.052296918 -0.13574408 0.048634049 2.3509886e-38
0.054164473 -0.13632594 0.046604391 2.3509886e-38
0.055758003 -0.13574408 0.048634049 2.3509886e-38
0.05748855 -0.13574408 0.048634049 2.3509886e-38
0.059366781 -0.13632594 0.046604391 2.3509886e-38
