# .PCD v0.7 - Point Cloud Data file format
VERSION 0.7
FIELDS x y z rgb
SIZE 4 4 4 4
TYPE F F F F
COUNT 1 1 1 1
WIDTH 942
HEIGHT 1
VIEWPOINT 0 0 0 1 0 0 0
POINTS 942
DATA ascii
0.0303392 -0.12364738 -0.026179399 2.3509886e-38
0.032239884 -0.12364738 -0.026179399 2.3509886e-38
0.033998895 -0.12266256 -0.022237863 2.3509886e-38
0.035892669 -0.12266256 -0.022237863 2.3509886e-38
0.037668291 -0.12191428 -0.019242968 2.3509886e-38
0.039556812 -0.12191428 -0.019242968 2.3509886e-38
0.041445337 -0.12191428 -0.019242968 2.3509886e-38
0.043333858 -0.12191428 -0.019242968 2.3509886e-38
0.045222379 -0.12191428 -0.019242968 2.3509886e-38
0.0471109 -0.12191428 -0.019242968 2.3509886e-38
0.048799276 -0.12091358 -0.015237655 2.3509886e-38
0.050522007 -0.12014665 -0.012168135 2.3509886e-38
0.052398127 -0.12014665 -0.012168135 2.3509886e-38
0.054111902 -0.11941226 -0.009228792 2.3509886e-38
0.055752464 -0.11840202 -0.0051854514 2.341805e-38
0.057616338 -0.11840202 -0.0051854514 2.341805e-38
0.059480213 -0.11840202 -0.0051854514 2.3141822e-38
0.061344087 -0.11840202 -0.0051854514 2.341805e-38
0.063207962 -0.11840202 -0.0051854514 2.3049626e-38
0.064873762 -0.11764936 -0.0021730326 2.3050347e-38
0.066732354 -0.11764936 -0.0021730326 2.3234379e-38
0.068590946 -0.11764936 -0.0021730326 2.1944718e-38
0.070663452 -0.11840202 -0.0051854514 2.148374e-38
0.072527327 -0.11840202 -0.0051854514 2.1853601e-38
0.074692495 -0.11941226 -0.009228792 2.2406775e-38
0.076787643 -0.12014665 -0.012168135 2.2223103e-38
0.078663751 -0.12014665 -0.012168135 2.2038711e-38
0.10088597 -0.11941226 -0.009228792 5.537144e-39
0.10275695 -0.11941226 -0.009228792 3.6928685e-39
0.10462791 -0.11941226 -0.009228792 9.2556044e-40
-0.1231028 -0.13334687 -0.05717596 1.668811e-38
-0.12114777 -0.13334687 -0.05717596 2.0284104e-38
-0.11919273 -0.13334687 -0.05717596 2.2588997e-38
-0.11694063 -0.13260551 -0.054229345 2.2957425e-38
-0.11499077 -0.13260551 -0.054229345 2.3049624e-38
-0.11264911 -0.13159247 -0.050203051 2.341805e-38
-0.1104167 -0.13082992 -0.047172274 2.341805e-38
-0.1084792 -0.13082992 -0.047172274 2.3325856e-38
-0.10654171 -0.13082992 -0.047172274 2.3141822e-38
-0.10424526 -0.12982969 -0.043196883 2.2957431e-38
-0.10231473 -0.12982969 -0.043196883 2.2865232e-38
-0.10038421 -0.12982969 -0.043196883 2.2680844e-38
-0.098453686 -0.12982969 -0.043196883 2.2497173e-38
-0.096194476 -0.12883668 -0.039250102 2.3234379e-38
-0.094018966 -0.12805928 -0.036160316 2.3234379e-38
-0.092100769 -0.12805928 -0.036160316 2.3234379e-38
-0.090182588 -0.12805928 -0.036160316 2.3234379e-38
-0.087958232 -0.12704925 -0.032145943 2.341805e-38
-0.086047083 -0.12704925 -0.032145943 2.341805e-38
-0.083922535 -0.12631132 -0.029213037 2.3509886e-38
-0.082016528 -0.12631132 -0.029213037 2.3509886e-38
-0.079627454 -0.12455635 -0.022237863 2.3509886e-38
-0.077531517 -0.12380283 -0.019242968 2.3509886e-38
-0.07537964 -0.12279506 -0.015237655 2.3509527e-38
-0.073301703 -0.12202276 -0.012168135 2.3509527e-38
-0.071425587 -0.12202276 -0.012168135 2.3509527e-38
-0.069549471 -0.12202276 -0.012168135 2.3509527e-38
-0.06750071 -0.12128322 -0.009228792 2.3509527e-38
-0.06562975 -0.12128322 -0.009228792 2.3509527e-38
-0.063921124 -0.12202276 -0.012168135 2.3509527e-38
-0.062045004 -0.12202276 -0.012168135 2.3509527e-38
-0.060327653 -0.12279506 -0.015237655 2.3509527e-38
-0.05844615 -0.12279506 -0.015237655 2.3509527e-38
-0.056416657 -0.12202276 -0.012168135 2.3509527e-38
-0.054540541 -0.12202276 -0.012168135 2.3509527e-38
-0.052664418 -0.12202276 -0.012168135 2.3509527e-38
-0.050788302 -0.12202276 -0.012168135 2.3509527e-38
-0.048791077 -0.12128322 -0.009228792 2.3509527e-38
-0.04664176 -0.11950795 -0.0021730326 2.3509527e-38
-0.044557977 -0.11800493 0.0038007833 2.3509527e-38
-0.042564124 -0.1169848 0.0078553297 2.3509527e-38
-0.040723115 -0.1169848 0.0078553297 2.3509527e-38
-0.038786773 -0.11624531 0.010794435 2.3509527e-38
-0.036950916 -0.11624531 0.010794435 2.3509527e-38
-0.035115059 -0.11624531 0.010794435 2.3509527e-38
-0.033279207 -0.11624531 0.010794435 2.3509886e-38
-0.0313663 -0.11548282 0.013824973 2.3509886e-38
-0.029535759 -0.11548282 0.013824973 2.3509886e-38
-0.027771637 -0.11624531 0.010794435 2.3509886e-38
-0.02593578 -0.11624531 0.010794435 2.3509886e-38
-0.024099927 -0.11624531 0.010794435 2.3509886e-38
-0.022264067 -0.11624531 0.010794435 2.3509886e-38
-0.020472016 -0.1169848 0.0078553297 2.3509886e-38
-0.018631008 -0.1169848 0.0078553297 2.3509886e-38
-0.016789999 -0.1169848 0.0078553297 2.3509886e-38
-0.014948988 -0.1169848 0.0078553297 2.3509886e-38
-0.013139971 -0.11800493 0.0038007833 2.3509886e-38
-0.01131013 -0.11875431 0.00082233921 2.3509886e-38
-0.0094437338 -0.11800493 0.0038007833 2.3509886e-38
-0.0075956155 -0.11800493 0.0038007833 2.3509886e-38
-0.0057474971 -0.11800493 0.0038007833 2.3509886e-38
-0.0039029345 -0.1169848 0.0078553297 2.3509886e-38
-0.0020619258 -0.1169848 0.0078553297 2.3509886e-38
-0.00023379922 -0.11624531 0.010794435 2.3509886e-38
0.0015834589 -0.11548282 0.013824973 2.3509886e-38
0.0034140013 -0.11548282 0.013824973 2.3509886e-38
0.0052445438 -0.11548282 0.013824973 2.3509886e-38
0.0070750862 -0.11548282 0.013824973 2.3509886e-38
0.0088660056 -0.11472471 0.016838107 2.3509886e-38
0.010691265 -0.11472471 0.016838107 2.3509886e-38
0.013399301 -0.12805928 -0.036160316 2.3509886e-38
0.015317485 -0.12805928 -0.036160316 2.3509886e-38
0.017235667 -0.12805928 -0.036160316 2.3509886e-38
0.01900159 -0.12631132 -0.029213037 2.3509886e-38
0.020907592 -0.12631132 -0.029213037 2.3509886e-38
0.022990217 -0.12805928 -0.036160316 2.3509886e-38
0.024719596 -0.12631132 -0.029213037 2.3509886e-38
0.026537836 -0.12554805 -0.026179399 2.3509886e-38
0.02843852 -0.12554805 -0.026179399 2.3509886e-38
0.030211352 -0.12455635 -0.022237863 2.3509886e-38
0.032105125 -0.12455635 -0.022237863 2.3509886e-38
0.033998895 -0.12455635 -0.022237863 2.3509886e-38
0.035892669 -0.12455635 -0.022237863 2.3509886e-38
0.037668291 -0.12380283 -0.019242968 2.3509886e-38
0.039556812 -0.12380283 -0.019242968 2.3509886e-38
0.041445337 -0.12380283 -0.019242968 2.3509886e-38
0.043333858 -0.12380283 -0.019242968 2.3509886e-38
0.045222379 -0.12380283 -0.019242968 2.3509886e-38
0.046917778 -0.12279506 -0.015237655 2.3509886e-38
0.048799276 -0.12279506 -0.015237655 2.3509886e-38
0.050522007 -0.12202276 -0.012168135 2.3509886e-38
0.052398127 -0.12202276 -0.012168135 2.3509886e-38
0.054111902 -0.12128322 -0.009228792 2.3509886e-38
0.055752464 -0.12026589 -0.0051854514 2.3141822e-38
0.057616338 -0.12026589 -0.0051854514 2.341805e-38
0.059480213 -0.12026589 -0.0051854514 2.341805e-38
0.061344087 -0.12026589 -0.0051854514 2.341805e-38
0.063207962 -0.12026589 -0.0051854514 2.3234018e-38
0.064873762 -0.11950795 -0.0021730326 2.3050347e-38
0.066732354 -0.11950795 -0.0021730326 2.2589368e-38
0.068590946 -0.11950795 -0.0021730326 2.0561065e-38
0.070449539 -0.11950795 -0.0021730326 2.0653979e-38
0.072527327 -0.12026589 -0.0051854514 2.2036914e-38
0.074391201 -0.12026589 -0.0051854514 2.2498971e-38
0.076255076 -0.12026589 -0.0051854514 2.2683362e-38
0.07811895 -0.12026589 -0.0051854514 2.2958873e-38
0.079982817 -0.12026589 -0.0051854514 2.2867037e-38
0.10048543 -0.12026589 -0.0051854514 2.1762133e-38
0.10234931 -0.12026589 -0.0051854514 2.2130915e-38
0.10421318 -0.12026589 -0.0051854514 1.9825663e-38
-0.1231028 -0.1353019 -0.05717596 1.6136745e-38
-0.12114777 -0.1353019 -0.05717596 1.9362875e-38
-0.11919273 -0.1353019 -0.05717596 2.2958507e-38
-0.11694063 -0.13455538 -0.054229345 2.3142542e-38
-0.11499077 -0.13455538 -0.054229345 2.2865955e-38
-0.11264911 -0.13353528 -0.050203051 2.3234379e-38
-0.1104167 -0.13276742 -0.047172274 2.3234379e-38
-0.1084792 -0.13276742 -0.047172274 2.341805e-38
-0.10654171 -0.13276742 -0.047172274 2.341805e-38
-0.10424526 -0.13176022 -0.043196883 2.332621e-38
-0.10231473 -0.13176022 -0.043196883 2.3234012e-38
-0.10038421 -0.13176022 -0.043196883 2.3141819e-38
-0.098118067 -0.13076027 -0.039250102 2.3049624e-38
-0.095937148 -0.12997745 -0.036160316 2.2866674e-38
-0.094018966 -0.12997745 -0.036160316 2.3050707e-38
-0.091780528 -0.12896039 -0.032145943 2.3142544e-38
-0.08986938 -0.12896039 -0.032145943 2.3234379e-38
-0.087958232 -0.12896039 -0.032145943 2.341805e-38
-0.085828543 -0.12821732 -0.029213037 2.341805e-38
-0.083922535 -0.12821732 -0.029213037 2.3509886e-38
-0.082016528 -0.12821732 -0.029213037 2.3509527e-38
-0.079627454 -0.12645011 -0.022237863 2.3509527e-38
-0.077531517 -0.12569134 -0.019242968 2.3509527e-38
-0.07537964 -0.12467657 -0.015237655 2.3509886e-38
-0.073301703 -0.12389888 -0.012168135 2.3509886e-38
-0.07124263 -0.12315418 -0.009228792 2.3509886e-38
-0.06937167 -0.12315418 -0.009228792 2.3509886e-38
-0.06750071 -0.12315418 -0.009228792 2.3509886e-38
-0.06562975 -0.12315418 -0.009228792 2.3509886e-38
-0.063758776 -0.12315418 -0.009228792 2.3509886e-38
-0.062045004 -0.12389888 -0.012168135 2.3509886e-38
-0.060168888 -0.12389888 -0.012168135 2.3509886e-38
-0.058292773 -0.12389888 -0.012168135 2.3509886e-38
-0.056274932 -0.12315418 -0.009228792 2.3509886e-38
-0.054403964 -0.12315418 -0.009228792 2.3509886e-38
-0.052532997 -0.12315418 -0.009228792 2.3509886e-38
-0.050662037 -0.12315418 -0.009228792 2.3509886e-38
-0.048624475 -0.12212978 -0.0051854514 2.3509886e-38
-0.046523593 -0.12060766 0.00082233921 2.3509886e-38
-0.044557977 -0.11985306 0.0038007833 2.3509886e-38
-0.042564124 -0.11882581 0.0078553297 2.3509886e-38
-0.040622625 -0.11808117 0.010794435 2.3509886e-38
-0.038786773 -0.11808117 0.010794435 2.3509886e-38
-0.036857929 -0.11731337 0.013824973 2.3509886e-38
-0.035027388 -0.11731337 0.013824973 2.3509886e-38
-0.033196844 -0.11731337 0.013824973 2.3509886e-38
-0.0312897 -0.11654995 0.016838107 2.3509886e-38
-0.029464439 -0.11654995 0.016838107 2.3509886e-38
-0.027705219 -0.11731337 0.013824973 2.3509886e-38
-0.025874674 -0.11731337 0.013824973 2.3509886e-38
-0.02404413 -0.11731337 0.013824973 2.3509886e-38
-0.022213589 -0.11731337 0.013824973 2.3509886e-38
-0.020428214 -0.11808117 0.010794435 2.3509886e-38
-0.018592358 -0.11808117 0.010794435 2.3509886e-38
-0.016756501 -0.11808117 0.010794435 2.3509886e-38
-0.014948988 -0.11882581 0.0078553297 2.3509886e-38
-0.01310798 -0.11882581 0.0078553297 2.3509886e-38
-0.011266971 -0.11882581 0.0078553297 2.3509886e-38
-0.0094130784 -0.11808117 0.010794435 2.3509886e-38
-0.0075772218 -0.11808117 0.010794435 2.3509886e-38
-0.0057474971 -0.11985306 0.0038007833 2.3509886e-38
-0.0039029345 -0.11882581 0.0078553297 2.3509886e-38
-0.0020855498 -0.11654995 0.016838107 2.3509886e-38
-0.00027342141 -0.11579098 0.019833837 2.3509886e-38
0.0015465841 -0.11579098 0.019833837 2.3509886e-38
0.0033665914 -0.11579098 0.019833837 2.3509886e-38
0.0051486781 -0.11479472 0.023766074 2.3509886e-38
0.0069617908 -0.11479472 0.023766074 2.3509886e-38
0.0088266116 -0.11579098 0.019833837 2.3509886e-38
0.010646619 -0.11579098 0.019833837 2.3509886e-38
0.012466624 -0.11579098 0.019833837 2.3509886e-38
0.014286632 -0.11579098 0.019833837 2.3509886e-38
0.017095586 -0.12821732 -0.029213037 2.3509886e-38
0.01900159 -0.12821732 -0.029213037 2.3509886e-38
0.020907592 -0.12821732 -0.029213037 2.3509886e-38
0.022990217 -0.12997745 -0.036160316 2.3509886e-38
0.024719596 -0.12821732 -0.029213037 2.3509886e-38
0.026537836 -0.12744872 -0.026179399 2.3509886e-38
0.02843852 -0.12744872 -0.026179399 2.3509886e-38
0.030211352 -0.12645011 -0.022237863 2.3509886e-38
0.032105125 -0.12645011 -0.022237863 2.3509886e-38
0.033998895 -0.12645011 -0.022237863 2.3509886e-38
0.035892669 -0.12645011 -0.022237863 2.3509886e-38
0.037668291 -0.12569134 -0.019242968 2.3509886e-38
0.039556812 -0.12569134 -0.019242968 2.3509886e-38
0.041445337 -0.12569134 -0.019242968 2.3509886e-38
0.043333858 -0.12569134 -0.019242968 2.3509886e-38
0.045222379 -0.12569134 -0.019242968 2.3509886e-38
0.046917778 -0.12467657 -0.015237655 2.3509886e-38
0.048799276 -0.12467657 -0.015237655 2.3509886e-38
0.050522007 -0.12389888 -0.012168135 2.3509886e-38
0.052398127 -0.12389888 -0.012168135 2.3509886e-38
0.054111902 -0.12315418 -0.009228792 2.3509886e-38
0.055752464 -0.12212978 -0.0051854514 2.341769e-38
0.057616338 -0.12212978 -0.0051854514 2.3509886e-38
0.059480213 -0.12212978 -0.0051854514 2.3509886e-38
0.061344087 -0.12212978 -0.0051854514 2.3509886e-38
0.063207962 -0.12212978 -0.0051854514 2.3509886e-38
0.064873762 -0.12136655 -0.0021730326 2.3326213e-38
0.066732354 -0.12136655 -0.0021730326 2.3049626e-38
0.068590946 -0.12136655 -0.0021730326 2.2773039e-38
0.070449539 -0.12136655 -0.0021730326 2.3141822e-38
0.072308131 -0.12136655 -0.0021730326 2.3141822e-38
0.074166723 -0.12136655 -0.0021730326 2.3234018e-38
0.075796857 -0.12060766 0.00082233921 2.3326213e-38
0.077650204 -0.12060766 0.00082233921 2.341805e-38
0.079503536 -0.12060766 0.00082233921 2.3234379e-38
0.081356883 -0.12060766 0.00082233921 2.3234379e-38
0.095898986 -0.11985306 0.0038007833 2.3142544e-38
0.097747102 -0.11985306 0.0038007833 2.3142544e-38
0.099890277 -0.12060766 0.00082233921 2.3142544e-38
0.10204561 -0.12136655 -0.0021730326 2.3142544e-38
0.1039042 -0.12136655 -0.0021730326 2.2958873e-38
0.10576279 -0.12136655 -0.0021730326 2.2221308e-38
0.10762139 -0.12136655 -0.0021730326 2.1944002e-38
0.10980479 -0.12212978 -0.0051854514 2.0561067e-38
0.11166868 -0.12212978 -0.0051854514 1.7149826e-38
-0.1231028 -0.13725694 -0.05717596 1.5861238e-38
-0.12114777 -0.13725694 -0.05717596 1.9271042e-38
-0.11919273 -0.13725694 -0.05717596 2.295887e-38
-0.1172377 -0.13725694 -0.05717596 2.3142544e-38
-0.11499077 -0.13650523 -0.054229345 2.2866677e-38
-0.11264911 -0.13547809 -0.050203051 2.3234379e-38
-0.1107063 -0.13547809 -0.050203051 2.3234379e-38
-0.1084792 -0.1347049 -0.047172274 2.341805e-38
-0.10654171 -0.1347049 -0.047172274 2.341805e-38
-0.10424526 -0.13369073 -0.043196883 2.3418047e-38
-0.10231473 -0.13369073 -0.043196883 2.3326208e-38
-0.10038421 -0.13369073 -0.043196883 2.3325847e-38
-0.098118067 -0.13268389 -0.039250102 2.3141816e-38
-0.095937148 -0.13189565 -0.036160316 2.2866674e-38
-0.094018966 -0.13189565 -0.036160316 2.2683362e-38
-0.091780528 -0.13087155 -0.032145943 2.2866674e-38
-0.08986938 -0.13087155 -0.032145943 2.295887e-38
-0.087958232 -0.13087155 -0.032145943 2.3326213e-38
-0.085828543 -0.13012333 -0.029213037 2.341805e-38
-0.083922535 -0.13012333 -0.029213037 2.3509527e-38
-0.082016528 -0.13012333 -0.029213037 2.3509527e-38
-0.079627454 -0.1283439 -0.022237863 2.3509527e-38
-0.077531517 -0.12757985 -0.019242968 2.3509527e-38
-0.07537964 -0.12655805 -0.015237655 2.3509886e-38
-0.073301703 -0.12577499 -0.012168135 2.3509886e-38
-0.07124263 -0.12502514 -0.009228792 2.341805e-38
-0.06937167 -0.12502514 -0.009228792 2.341805e-38
-0.06750071 -0.12502514 -0.009228792 2.341805e-38
-0.06562975 -0.12502514 -0.009228792 2.341805e-38
-0.063758776 -0.12502514 -0.009228792 2.3509886e-38
-0.061887812 -0.12502514 -0.009228792 2.3509886e-38
-0.060168888 -0.12577499 -0.012168135 2.3509886e-38
-0.058292773 -0.12577499 -0.012168135 2.3509886e-38
-0.056274932 -0.12502514 -0.009228792 2.3509886e-38
-0.054216098 -0.12399365 -0.0051854514 2.3509886e-38
-0.052352224 -0.12399365 -0.0051854514 2.3509886e-38
-0.050488349 -0.12399365 -0.0051854514 2.3509886e-38
-0.048500355 -0.12322514 -0.0021730326 2.3509886e-38
-0.046406094 -0.12170117 0.0038007833 2.3509886e-38
-0.044405133 -0.12066682 0.0078553297 2.3509886e-38
-0.042458482 -0.11991702 0.010794435 2.3509886e-38
-0.040622625 -0.11991702 0.010794435 2.3509886e-38
-0.03868847 -0.11914389 0.013824973 2.3509886e-38
-0.036765475 -0.11837523 0.016838107 2.3509886e-38
-0.034940217 -0.11837523 0.016838107 2.3509886e-38
-0.033114959 -0.11837523 0.016838107 2.3509886e-38
-0.031213537 -0.11761098 0.019833837 2.3509886e-38
-0.029393528 -0.11761098 0.019833837 2.3509886e-38
-0.027573522 -0.11761098 0.019833837 2.3509886e-38
-0.025753517 -0.11761098 0.019833837 2.3509886e-38
-0.023933511 -0.11761098 0.019833837 2.3509886e-38
-0.022113502 -0.11761098 0.019833837 2.3509886e-38
-0.020293497 -0.11761098 0.019833837 2.3509886e-38
-0.018473487 -0.11761098 0.019833837 2.3509886e-38
-0.016653482 -0.11761098 0.019833837 2.3509886e-38
-0.014891421 -0.11914389 0.013824973 2.3509886e-38
-0.01308479 -0.11991702 0.010794435 2.3509886e-38
-0.011132512 -0.11507715 0.029766116 2.3509886e-38
-0.0093299188 -0.11507715 0.029766116 2.3509886e-38
-0.0075273272 -0.11507715 0.029766116 2.3509886e-38
-0.0057247356 -0.11507715 0.029766116 2.3509886e-38
-0.0039221421 -0.11507715 0.029766116 2.3509886e-38
-0.0020855498 -0.11837523 0.016838107 2.3509886e-38
-0.00030407682 -0.11582683 0.026827488 2.3509886e-38
0.0015036669 -0.11582683 0.026827488 2.3509886e-38
0.0032882262 -0.11507715 0.029766116 2.3509886e-38
0.0050908178 -0.11507715 0.029766116 2.3509886e-38
0.0069617908 -0.11660783 0.023766074 2.3509886e-38
0.0088266116 -0.11761098 0.019833837 2.3509886e-38
0.010646619 -0.11761098 0.019833837 2.3509886e-38
0.012466624 -0.11761098 0.019833837 2.3509886e-38
0.015906371 -0.11507715 0.029766116 2.3509886e-38
0.017708963 -0.11507715 0.029766116 2.3509886e-38
0.019511554 -0.11507715 0.029766116 2.3509886e-38
0.021314148 -0.11507715 0.029766116 2.3509886e-38
0.023034506 -0.11430521 0.032792006 2.3509886e-38
0.024831792 -0.11430521 0.032792006 2.3509886e-38
0.026629079 -0.11430521 0.032792006 2.3509886e-38
0.030211352 -0.1283439 -0.022237863 2.3509886e-38
0.032105125 -0.1283439 -0.022237863 2.3509886e-38
0.034140568 -0.12934943 -0.026179399 2.3509886e-38
0.035892669 -0.1283439 -0.022237863 2.3509886e-38
0.037786443 -0.1283439 -0.022237863 2.3509886e-38
0.039680213 -0.1283439 -0.022237863 2.3509886e-38
0.041573986 -0.1283439 -0.022237863 2.3509886e-38
0.043333858 -0.12757985 -0.019242968 2.3509886e-38
0.045222379 -0.12757985 -0.019242968 2.3509886e-38
0.0471109 -0.12757985 -0.019242968 2.3509886e-38
0.048799276 -0.12655805 -0.015237655 2.3509886e-38
0.050680775 -0.12655805 -0.015237655 2.3509886e-38
0.052562274 -0.12655805 -0.015237655 2.3509886e-38
0.054111902 -0.12502514 -0.009228792 2.3509886e-38
0.055752464 -0.12399365 -0.0051854514 2.3509886e-38
0.057616338 -0.12399365 -0.0051854514 2.3509886e-38
0.059480213 -0.12399365 -0.0051854514 2.3509886e-38
0.061156578 -0.12322514 -0.0021730326 2.3509886e-38
0.06301517 -0.12322514 -0.0021730326 2.3509886e-38
0.064873762 -0.12322514 -0.0021730326 2.341769e-38
0.066530161 -0.12246101 0.00082233921 2.3233299e-38
0.0683835 -0.12246101 0.00082233921 2.3048907e-38
0.070236839 -0.12246101 0.00082233921 2.3325494e-38
0.071873456 -0.12170117 0.0038007833 2.3325494e-38
0.07372158 -0.12170117 0.0038007833 2.341769e-38
0.075569697 -0.12170117 0.0038007833 2.341769e-38
0.077417813 -0.12170117 0.0038007833 2.3509886e-38
0.079503536 -0.12246101 0.00082233921 2.3509886e-38
0.081356883 -0.12246101 0.00082233921 2.3509886e-38
0.090354636 -0.12170117 0.0038007833 2.3509883e-38
0.092202753 -0.12170117 0.0038007833 2.3509886e-38
0.093394846 -0.11991702 0.010794435 2.3509886e-38
0.095230699 -0.11991702 0.010794435 2.341805e-38
0.097352564 -0.12066682 0.0078553297 2.341805e-38
0.099595219 -0.12170117 0.0038007833 2.341805e-38
0.10144335 -0.12170117 0.0038007833 2.341805e-38
0.10329147 -0.12170117 0.0038007833 2.3142544e-38
0.1054503 -0.12246101 0.00082233921 2.1667415e-38
0.10730363 -0.12246101 0.00082233921 2.1206437e-38
0.10947998 -0.12322514 -0.0021730326 2.0837654e-38
0.11133857 -0.12322514 -0.0021730326 1.8256177e-38
0.11353254 -0.12399365 -0.0051854514 7.5621996e-39
0.11726029 -0.12399365 -0.0051854514 9.5429827e-41
0.11912417 -0.12399365 -0.0051854514 5.5533178e-40
-0.1231028 -0.13921197 -0.05717596 1.5676846e-38
-0.12114777 -0.13921197 -0.05717596 1.9087007e-38
-0.11919273 -0.13921197 -0.05717596 2.2774476e-38
-0.1172377 -0.13921197 -0.05717596 2.3050704e-38
-0.11499077 -0.13845511 -0.054229345 2.2866674e-38
-0.11304091 -0.13845511 -0.054229345 2.3234379e-38
-0.1107063 -0.13742088 -0.050203051 2.3234379e-38
-0.1087635 -0.13742088 -0.050203051 2.3234379e-38
-0.10654171 -0.13664238 -0.047172274 2.3234379e-38
-0.10460421 -0.13664238 -0.047172274 2.3418047e-38
-0.10231473 -0.13562126 -0.043196883 2.3418047e-38
-0.10038421 -0.13562126 -0.043196883 2.3326208e-38
-0.098118067 -0.13460748 -0.039250102 2.30507e-38
-0.095937148 -0.13381381 -0.036160316 2.2774479e-38
-0.094018966 -0.13381381 -0.036160316 2.2406775e-38
-0.091780528 -0.13278268 -0.032145943 2.2590087e-38
-0.08986938 -0.13278268 -0.032145943 2.2682283e-38
-0.087958232 -0.13278268 -0.032145943 2.3326213e-38
-0.085828543 -0.13202934 -0.029213037 2.341805e-38
-0.083922535 -0.13202934 -0.029213037 2.3509527e-38
-0.081801116 -0.1312501 -0.026179399 2.3416971e-38
-0.079627454 -0.13023765 -0.022237863 2.3509527e-38
-0.077531517 -0.1294684 -0.019242968 2.3509527e-38
-0.07537964 -0.12843956 -0.015237655 2.3509886e-38
-0.073301703 -0.12765111 -0.012168135 2.3509886e-38
-0.07124263 -0.1268961 -0.009228792 2.341805e-38
-0.06937167 -0.1268961 -0.009228792 2.341805e-38
-0.06750071 -0.1268961 -0.009228792 2.341805e-38
-0.065399349 -0.12585752 -0.0051854514 2.341805e-38
-0.063535467 -0.12585752 -0.0051854514 2.3509886e-38
-0.061887812 -0.1268961 -0.009228792 2.3509886e-38
-0.060016852 -0.1268961 -0.009228792 2.3509886e-38
-0.058145892 -0.1268961 -0.009228792 2.3509886e-38
-0.056079973 -0.12585752 -0.0051854514 2.3509886e-38
-0.054076131 -0.12508373 -0.0021730326 2.3509886e-38
-0.052217539 -0.12508373 -0.0021730326 2.3509886e-38
-0.050230276 -0.12431435 0.00082233921 2.3509886e-38
-0.048254218 -0.1235493 0.0038007833 2.3509886e-38
-0.046246141 -0.12250783 0.0078553297 2.3509886e-38
-0.044294339 -0.12175287 0.010794435 2.3509886e-38
-0.042458482 -0.12175287 0.010794435 2.3509886e-38
-0.040519014 -0.12097444 0.013824973 2.3509886e-38
-0.038590737 -0.12020047 0.016838107 2.3509886e-38
-0.036673557 -0.11943097 0.019833837 2.3509886e-38
-0.034853552 -0.11943097 0.019833837 2.3509886e-38
-0.033033542 -0.11943097 0.019833837 2.3509886e-38
-0.031113569 -0.11842094 0.023766074 2.3509886e-38
-0.029300455 -0.11842094 0.023766074 2.3509886e-38
-0.027487341 -0.11842094 0.023766074 2.3509886e-38
-0.025674228 -0.11842094 0.023766074 2.3509886e-38
-0.023804758 -0.11763458 0.026827488 2.3509886e-38
-0.021997012 -0.11763458 0.026827488 2.3509886e-38
-0.020189267 -0.11763458 0.026827488 2.3509886e-38
-0.01842178 -0.11842094 0.023766074 2.3509886e-38
-0.016573779 -0.11763458 0.026827488 2.3509886e-38
-0.014766034 -0.11763458 0.026827488 2.3509886e-38
-0.012935104 -0.11687975 0.029766116 2.3509886e-38
-0.011132512 -0.11687975 0.029766116 2.3509886e-38
-0.0093299188 -0.11687975 0.029766116 2.3509886e-38
-0.0075193681 -0.1161025 0.032792006 2.3509886e-38
-0.005716823 -0.11456163 0.038790856 2.3509886e-38
-0.0039300546 -0.11456163 0.038790856 2.3509886e-38
-0.0021432862 -0.11456163 0.038790856 2.3509886e-38
-0.00031695887 -0.11687975 0.029766116 2.3509886e-38
0.001467065 -0.1161025 0.032792006 2.3509886e-38
0.0032643517 -0.1161025 0.032792006 2.3509886e-38
0.0050616385 -0.1161025 0.032792006 2.3509886e-38
0.0068589253 -0.1161025 0.032792006 2.3509886e-38
0.0086562121 -0.1161025 0.032792006 2.3509886e-38
0.010453499 -0.1161025 0.032792006 2.3509886e-38
0.012250785 -0.1161025 0.032792006 2.3509886e-38
0.015664455 -0.11379795 0.041763935 2.3509886e-38
0.017708963 -0.11687975 0.029766116 2.3509886e-38
0.019511554 -0.11687975 0.029766116 2.3509886e-38
0.021237219 -0.1161025 0.032792006 2.3509886e-38
0.022952752 -0.11532979 0.035800252 2.3509886e-38
0.024744764 -0.11532979 0.035800252 2.3509886e-38
0.026536778 -0.11532979 0.035800252 2.3509886e-38
0.028328788 -0.11532979 0.035800252 2.3509886e-38
0.030120801 -0.11532979 0.035800252 2.3509886e-38
0.031698458 -0.11379795 0.041763935 2.3509886e-38
0.033364758 -0.1130126 0.044821415 2.3509886e-38
0.035140954 -0.1130126 0.044821415 2.3509886e-38
0.036917146 -0.1130126 0.044821415 2.3509886e-38
0.038693342 -0.1130126 0.044821415 2.3509886e-38
0.04346776 -0.13023765 -0.022237863 2.3509886e-38
0.04536153 -0.13023765 -0.022237863 2.3509886e-38
0.0471109 -0.1294684 -0.019242968 2.3509886e-38
0.048999421 -0.1294684 -0.019242968 2.3509886e-38
0.050680775 -0.12843956 -0.015237655 2.3509886e-38
0.052562274 -0.12843956 -0.015237655 2.3509886e-38
0.053888589 -0.12585752 -0.0051854514 2.3509886e-38
0.055580806 -0.12508373 -0.0021730326 2.3509886e-38
0.057439398 -0.12508373 -0.0021730326 2.3509886e-38
0.059297986 -0.12508373 -0.0021730326 2.3509886e-38
0.061156578 -0.12508373 -0.0021730326 2.3509886e-38
0.062823482 -0.12431435 0.00082233921 2.3509886e-38
0.064676821 -0.12431435 0.00082233921 2.3509886e-38
0.066329107 -0.1235493 0.0038007833 2.341769e-38
0.068177223 -0.1235493 0.0038007833 2.3325494e-38
0.069737427 -0.12250783 0.0078553297 2.341769e-38
0.071364574 -0.12175287 0.010794435 2.341769e-38
0.073200434 -0.12175287 0.010794435 2.341769e-38
0.075036287 -0.12175287 0.010794435 2.3509886e-38
0.077417813 -0.1235493 0.0038007833 2.3509886e-38
0.078225851 -0.12020047 0.016838107 2.3509886e-38
0.080051109 -0.12020047 0.016838107 2.3509886e-38
0.081876367 -0.12020047 0.016838107 2.3509886e-38
0.083701625 -0.12020047 0.016838107 2.3509886e-38
0.085526884 -0.12020047 0.016838107 2.3509886e-38
0.087352157 -0.12020047 0.016838107 2.3509886e-38
0.08944948 -0.12097444 0.013824973 2.3509886e-38
0.091558993 -0.12175287 0.010794435 2.3509886e-38
0.093394846 -0.12175287 0.010794435 2.3509886e-38
0.095230699 -0.12175287 0.010794435 2.341805e-38
0.097066551 -0.12175287 0.010794435 2.341805e-38
0.099193573 -0.12250783 0.0078553297 2.3141822e-38
0.10103458 -0.12250783 0.0078553297 2.341805e-38
0.10329147 -0.1235493 0.0038007833 2.277376e-38
0.10513958 -0.1235493 0.0038007833 2.0745456e-38
0.10730363 -0.12431435 0.00082233921 2.0284478e-38
0.10915698 -0.12431435 0.00082233921 2.0745456e-38
0.11133857 -0.12508373 -0.0021730326 1.917813e-38
0.11353254 -0.12585752 -0.0051854514 9.1295254e-39
-0.12505782 -0.141167 -0.05717596 8.4859398e-39
-0.1231028 -0.141167 -0.05717596 1.530806e-38
-0.12114777 -0.141167 -0.05717596 1.8718223e-38
-0.11919273 -0.141167 -0.05717596 2.2498245e-38
-0.1172377 -0.141167 -0.05717596 2.2958864e-38
-0.11499077 -0.14040495 -0.054229345 2.2866671e-38
-0.11264911 -0.13936369 -0.050203051 2.3234379e-38
-0.1107063 -0.13936369 -0.050203051 2.3234379e-38
-0.1087635 -0.13936369 -0.050203051 2.3234379e-38
-0.10654171 -0.13857989 -0.047172274 2.3234379e-38
-0.10460421 -0.13857989 -0.047172274 2.3418047e-38
-0.10231473 -0.1375518 -0.043196883 2.3418047e-38
-0.10038421 -0.1375518 -0.043196883 2.3418045e-38
-0.098118067 -0.13653107 -0.039250102 2.3142537e-38
-0.095937148 -0.13573201 -0.036160316 2.2866674e-38
-0.094018966 -0.13573201 -0.036160316 2.2406775e-38
-0.091780528 -0.13469382 -0.032145943 2.2405696e-38
-0.08986938 -0.13469382 -0.032145943 2.2682283e-38
-0.087958232 -0.13469382 -0.032145943 2.341805e-38
-0.085828543 -0.13393532 -0.029213037 2.341805e-38
-0.083922535 -0.13393532 -0.029213037 2.3509527e-38
-0.081801116 -0.13315077 -0.026179399 2.3324775e-38
-0.079627454 -0.13213144 -0.022237863 2.3509527e-38
-0.077531517 -0.13135691 -0.019242968 2.3509527e-38
-0.07537964 -0.13032107 -0.015237655 2.3509886e-38
-0.073301703 -0.12952723 -0.012168135 2.3509886e-38
-0.07124263 -0.12876706 -0.009228792 2.341805e-38
-0.06937167 -0.12876706 -0.009228792 2.341805e-38
-0.06750071 -0.12876706 -0.009228792 2.341805e-38
-0.065399349 -0.12772138 -0.0051854514 2.341805e-38
-0.063535467 -0.12772138 -0.0051854514 2.3509886e-38
-0.061671596 -0.12772138 -0.0051854514 2.3509886e-38
-0.059807714 -0.12772138 -0.0051854514 2.3509886e-38
-0.057943847 -0.12772138 -0.0051854514 2.3509886e-38
-0.055934723 -0.12694232 -0.0021730326 2.3509886e-38
-0.053936955 -0.12616767 0.00082233921 2.3509886e-38
-0.051950451 -0.1253974 0.0038007833 2.3509886e-38
-0.049928162 -0.12434883 0.0078553297 2.3509886e-38
-0.048087146 -0.12434883 0.0078553297 2.3509886e-38
-0.046130195 -0.12358873 0.010794435 2.3509886e-38
-0.044294339 -0.12358873 0.010794435 2.3509886e-38
-0.042458482 -0.12358873 0.010794435 2.3509886e-38
-0.040519014 -0.12280498 0.013824973 2.3509886e-38
-0.038590737 -0.12202574 0.016838107 2.3509886e-38
-0.036673557 -0.121251 0.019833837 2.3509886e-38
-0.034739789 -0.12023406 0.023766074 2.3509886e-38
-0.032926679 -0.12023406 0.023766074 2.3509886e-38
-0.031035732 -0.11944233 0.026827488 2.3509886e-38
-0.029227991 -0.11944233 0.026827488 2.3509886e-38
-0.027420245 -0.11944233 0.026827488 2.3509886e-38
-0.025553249 -0.11868234 0.029766116 2.3509886e-38
-0.023750659 -0.11868234 0.029766116 2.3509886e-38
-0.021948066 -0.11868234 0.029766116 2.3509886e-38
-0.020145472 -0.11868234 0.029766116 2.3509886e-38
-0.018342879 -0.11868234 0.029766116 2.3509886e-38
-0.016540289 -0.11868234 0.029766116 2.3509886e-38
-0.014737695 -0.11868234 0.029766116 2.3509886e-38
-0.01291123 -0.11789979 0.032792006 2.3509886e-38
-0.011113942 -0.11789979 0.032792006 2.3509886e-38
-0.0092903599 -0.1163484 0.038790856 2.3509886e-38
-0.0075035915 -0.1163484 0.038790856 2.3509886e-38
-0.005716823 -0.1163484 0.038790856 2.3509886e-38
-0.0039300546 -0.1163484 0.038790856 2.3509886e-38
-0.0021432862 -0.1163484 0.038790856 2.3509886e-38
-0.00034340844 -0.1171218 0.035800252 2.3509886e-38
0.0014486043 -0.1171218 0.035800252 2.3509886e-38
0.0032406161 -0.1171218 0.035800252 2.3509886e-38
0.0049751187 -0.1155795 0.041763935 2.3509886e-38
0.00672183 -0.11478879 0.044821415 2.3509886e-38
0.0084980251 -0.11478879 0.044821415 2.3509886e-38
0.010453499 -0.11789979 0.032792006 2.3509886e-38
0.012250785 -0.11789979 0.032792006 2.3509886e-38
0.013826611 -0.11478879 0.044821415 2.3509886e-38
0.015664455 -0.1155795 0.041763935 2.3509886e-38
0.017446011 -0.1155795 0.041763935 2.3509886e-38
0.019227566 -0.1155795 0.041763935 2.3509886e-38
0.021160739 -0.1171218 0.035800252 2.3509886e-38
0.022871478 -0.1163484 0.038790856 2.3509886e-38
0.024658246 -0.1163484 0.038790856 2.3509886e-38
0.026353791 -0.1155795 0.041763935 2.3509886e-38
0.028135348 -0.1155795 0.041763935 2.3509886e-38
0.030120801 -0.1171218 0.035800252 2.3509886e-38
0.031698458 -0.1155795 0.041763935 2.3509886e-38
0.033364758 -0.11478879 0.044821415 2.3509886e-38
0.035140954 -0.11478879 0.044821415 2.3509886e-38
0.036917146 -0.11478879 0.044821415 2.3509886e-38
0.038562793 -0.11400281 0.047860537 2.3509886e-38
0.040333658 -0.11400281 0.047860537 2.3509886e-38
0.042245734 -0.11478879 0.044821415 2.3509886e-38
0.043875393 -0.11400281 0.047860537 2.3509886e-38
0.045500319 -0.11324753 0.050781045 2.3509886e-38
0.047110718 -0.11247079 0.053784523 2.3509886e-38
0.048871197 -0.11247079 0.053784523 2.3509886e-38
0.050466776 -0.11169861 0.056770239 2.3509886e-38
0.052222021 -0.11169861 0.056770239 2.3509886e-38
0.057439398 -0.12694232 -0.0021730326 2.3509886e-38
0.059297986 -0.12694232 -0.0021730326 2.341769e-38
0.060970142 -0.12616767 0.00082233921 2.341769e-38
0.062632866 -0.1253974 0.0038007833 2.341769e-38
0.06448099 -0.1253974 0.0038007833 2.3509886e-38
0.066329107 -0.1253974 0.0038007833 2.3509886e-38
0.067896418 -0.12434883 0.0078553297 2.3509886e-38
0.06909956 -0.12202574 0.016838107 2.3509886e-38
0.070924819 -0.12202574 0.016838107 2.3509886e-38
0.072974607 -0.12280498 0.013824973 2.3509886e-38
0.074575342 -0.12202574 0.016838107 2.3509886e-38
0.0764006 -0.12202574 0.016838107 2.3509886e-38
0.077986866 -0.121251 0.019833837 2.3509886e-38
0.079806864 -0.121251 0.019833837 2.3509886e-38
0.081626877 -0.121251 0.019833837 2.3509886e-38
0.08344689 -0.121251 0.019833837 2.3509886e-38
0.085266888 -0.121251 0.019833837 2.3509886e-38
0.087086901 -0.121251 0.019833837 2.3509886e-38
0.089177415 -0.12202574 0.016838107 2.3509886e-38
0.091280028 -0.12280498 0.013824973 2.3509886e-38
0.093110576 -0.12280498 0.013824973 2.3509886e-38
0.094941109 -0.12280498 0.013824973 2.341805e-38
0.096771657 -0.12280498 0.013824973 2.341805e-38
0.098902404 -0.12358873 0.010794435 2.3049626e-38
0.10073827 -0.12358873 0.010794435 2.2957431e-38
0.10287559 -0.12434883 0.0078553297 2.1943999e-38
0.1047166 -0.12434883 0.0078553297 2.0192282e-38
0.1069877 -0.1253974 0.0038007833 1.9639108e-38
0.10883582 -0.1253974 0.0038007833 1.9916051e-38
0.11101033 -0.12616767 0.00082233921 1.917813e-38
-0.1231028 -0.14312203 -0.05717596 1.5308414e-38
-0.12114777 -0.14312203 -0.05717596 1.8534184e-38
-0.11919273 -0.14312203 -0.05717596 2.2314208e-38
-0.11694063 -0.14235483 -0.054229345 2.2958864e-38
-0.11499077 -0.14235483 -0.054229345 2.3142538e-38
-0.11264911 -0.1413065 -0.050203051 2.3142541e-38
-0.1107063 -0.1413065 -0.050203051 2.3142541e-38
-0.1084792 -0.14051737 -0.047172274 2.3234376e-38
-0.10654171 -0.14051737 -0.047172274 2.3234376e-38
-0.10424526 -0.1394823 -0.043196883 2.3234376e-38
-0.10231473 -0.1394823 -0.043196883 2.3234376e-38
-0.10004167 -0.13845469 -0.039250102 2.3234374e-38
-0.09785533 -0.13765021 -0.036160316 2.3234374e-38
-0.095937148 -0.13765021 -0.036160316 2.3050707e-38
-0.093691662 -0.13660498 -0.032145943 2.2591166e-38
-0.091780528 -0.13660498 -0.032145943 2.2590087e-38
-0.08986938 -0.13660498 -0.032145943 2.2774479e-38
-0.087958232 -0.13660498 -0.032145943 2.341805e-38
-0.085828543 -0.13584132 -0.029213037 2.341805e-38
-0.083922535 -0.13584132 -0.029213037 2.3509527e-38
-0.081801116 -0.13505147 -0.026179399 2.3416971e-38
-0.079627454 -0.1340252 -0.022237863 2.3509527e-38
-0.077531517 -0.13324542 -0.019242968 2.3509527e-38
-0.07537964 -0.13220255 -0.015237655 2.3509886e-38
-0.073301703 -0.13140334 -0.012168135 2.3509886e-38
-0.071425587 -0.13140334 -0.012168135 2.341805e-38
-0.069549471 -0.13140334 -0.012168135 2.341805e-38
-0.06750071 -0.13063805 -0.009228792 2.341805e-38
-0.06562975 -0.13063805 -0.009228792 2.341805e-38
-0.063758776 -0.13063805 -0.009228792 2.3509886e-38
-0.061671596 -0.12958528 -0.0051854514 2.3509886e-38
-0.059807714 -0.12958528 -0.0051854514 2.3509886e-38
-0.057943847 -0.12958528 -0.0051854514 2.3509886e-38
-0.055934723 -0.12880091 -0.0021730326 2.3509886e-38
-0.053936955 -0.12802102 0.00082233921 2.3509886e-38
-0.051950451 -0.12724553 0.0038007833 2.3509886e-38
-0.049928162 -0.12618984 0.0078553297 2.3509886e-38
-0.048087146 -0.12618984 0.0078553297 2.3509886e-38
-0.046130195 -0.12542458 0.010794435 2.3509886e-38
-0.044294339 -0.12542458 0.010794435 2.3509886e-38
-0.042349555 -0.12463553 0.013824973 2.3509886e-38
-0.040415995 -0.12385099 0.016838107 2.3509886e-38
-0.038493562 -0.123071 0.019833837 2.3509886e-38
-0.036552902 -0.12204717 0.023766074 2.3509886e-38
-0.034739789 -0.12204717 0.023766074 2.3509886e-38
-0.032763619 -0.12048493 0.029766116 2.3509886e-38
-0.030961026 -0.12048493 0.029766116 2.3509886e-38
-0.029158432 -0.12048493 0.029766116 2.3509886e-38
-0.027355839 -0.12048493 0.029766116 2.3509886e-38
-0.025553249 -0.12048493 0.029766116 2.3509886e-38
-0.023750659 -0.12048493 0.029766116 2.3509886e-38
-0.021948066 -0.12048493 0.029766116 2.3509886e-38
-0.020145472 -0.12048493 0.029766116 2.3509886e-38
-0.018303089 -0.11969708 0.032792006 2.3509886e-38
-0.016505804 -0.11969708 0.032792006 2.3509886e-38
-0.014679506 -0.11891381 0.035800252 2.3509886e-38
-0.012887493 -0.11891381 0.035800252 2.3509886e-38
-0.011095483 -0.11891381 0.035800252 2.3509886e-38
-0.0092903599 -0.11813517 0.038790856 2.3509886e-38
-0.0075035915 -0.11813517 0.038790856 2.3509886e-38
-0.005716823 -0.11813517 0.038790856 2.3509886e-38
-0.0039300546 -0.11813517 0.038790856 2.3509886e-38
-0.0021432862 -0.11813517 0.038790856 2.3509886e-38
-0.00035651773 -0.11813517 0.038790856 2.3509886e-38
0.0014302516 -0.11813517 0.038790856 2.3509886e-38
0.003217021 -0.11813517 0.038790856 2.3509886e-38
0.0049751187 -0.11736105 0.041763935 2.3509886e-38
0.00672183 -0.11656497 0.044821415 2.3509886e-38
0.0084980251 -0.11656497 0.044821415 2.3509886e-38
0.010319787 -0.11736105 0.041763935 2.3509886e-38
0.012101343 -0.11736105 0.041763935 2.3509886e-38
0.013826611 -0.11656497 0.044821415 2.3509886e-38
0.01548264 -0.11501329 0.050781045 2.3509886e-38
0.017248387 -0.11501329 0.050781045 2.3509886e-38
0.01908326 -0.11577369 0.047860537 2.3509886e-38
0.021009123 -0.11736105 0.041763935 2.3509886e-38
0.022707587 -0.11656497 0.044821415 2.3509886e-38
0.024483781 -0.11656497 0.044821415 2.3509886e-38
0.026353791 -0.11736105 0.041763935 2.3509886e-38
0.028135348 -0.11736105 0.041763935 2.3509886e-38
0.030018553 -0.11813517 0.038790856 2.3509886e-38
0.031698458 -0.11736105 0.041763935 2.3509886e-38
0.033480015 -0.11736105 0.041763935 2.3509886e-38
0.035261571 -0.11736105 0.041763935 2.3509886e-38
0.037043128 -0.11736105 0.041763935 2.3509886e-38
0.038562793 -0.11577369 0.047860537 2.3509886e-38
0.040333658 -0.11577369 0.047860537 2.3509886e-38
0.042245734 -0.11656497 0.044821415 2.3509886e-38
0.043875393 -0.11577369 0.047860537 2.3509886e-38
0.045500319 -0.11501329 0.050781045 2.3509886e-38
0.047110718 -0.11423124 0.053784523 2.3509886e-38
0.048711531 -0.11345388 0.056770239 2.3509886e-38
0.050466776 -0.11345388 0.056770239 2.3509886e-38
0.052222021 -0.11345388 0.056770239 2.3509886e-38
0.056677733 -0.12542458 0.010794435 2.3509886e-38
0.058936633 -0.12724553 0.0038007833 2.341769e-38
0.060532384 -0.12618984 0.0078553297 2.341769e-38
0.06179852 -0.12385099 0.016838107 2.341769e-38
0.063426815 -0.123071 0.019833837 2.3509886e-38
0.06524682 -0.123071 0.019833837 2.3509886e-38
0.066794492 -0.12204717 0.023766074 2.3509886e-38
0.068607606 -0.12204717 0.023766074 2.3509886e-38
0.07042072 -0.12204717 0.023766074 2.3509886e-38
0.07252685 -0.123071 0.019833837 2.3509886e-38
0.074346855 -0.123071 0.019833837 2.3509886e-38
0.076166861 -0.123071 0.019833837 2.3509886e-38
0.077986866 -0.123071 0.019833837 2.341769e-38
0.079806864 -0.123071 0.019833837 2.341769e-38
0.081626877 -0.123071 0.019833837 2.341769e-38
0.08344689 -0.123071 0.019833837 2.3509886e-38
0.085266888 -0.123071 0.019833837 2.3509886e-38
0.087086901 -0.123071 0.019833837 2.3509527e-38
0.088906899 -0.123071 0.019833837 2.3509886e-38
0.091002673 -0.12385099 0.016838107 2.3509886e-38
0.092827931 -0.12385099 0.016838107 2.3509886e-38
0.094653189 -0.12385099 0.016838107 2.341805e-38
0.096478447 -0.12385099 0.016838107 2.341805e-38
0.098602191 -0.12463553 0.013824973 2.332621e-38
0.10043274 -0.12463553 0.013824973 2.2127667e-38
0.10257412 -0.12542458 0.010794435 2.1022399e-38
0.1047166 -0.12618984 0.0078553297 2.0284834e-38
0.10655761 -0.12618984 0.0078553297 1.9639464e-38
0.10839862 -0.12618984 0.0078553297 1.8901896e-38
0.11068393 -0.12724553 0.0038007833 1.8625312e-38
0.11253205 -0.12724553 0.0038007833 1.1342218e-38
-0.1231028 -0.14507706 -0.05717596 1.5677195e-38
-0.12114777 -0.14507706 -0.05717596 1.8626377e-38
-0.11919273 -0.14507706 -0.05717596 2.2314205e-38
-0.11694063 -0.14430468 -0.054229345 2.30507e-38
-0.11459191 -0.14324932 -0.050203051 2.3142538e-38
-0.11264911 -0.14324932 -0.050203051 2.3142538e-38
-0.1104167 -0.14245488 -0.047172274 2.3142541e-38
-0.1084792 -0.14245488 -0.047172274 2.3234376e-38
-0.10654171 -0.14245488 -0.047172274 2.3234376e-38
-0.10424526 -0.14141284 -0.043196883 2.3234376e-38
-0.10231473 -0.14141284 -0.043196883 2.3234376e-38
-0.10004167 -0.14037828 -0.039250102 2.3234374e-38
-0.09785533 -0.13956837 -0.036160316 2.3142541e-38
-0.095937148 -0.13956837 -0.036160316 2.2958873e-38
-0.093691662 -0.13851611 -0.032145943 2.2867036e-38
-0.091780528 -0.13851611 -0.032145943 2.2866674e-38
-0.08986938 -0.13851611 -0.032145943 2.3050707e-38
-0.087958232 -0.13851611 -0.032145943 2.341805e-38
-0.085828543 -0.13774733 -0.029213037 2.341805e-38
-0.083922535 -0.13774733 -0.029213037 2.3509527e-38
-0.081801116 -0.13695215 -0.026179399 2.3509527e-38
-0.079627454 -0.13591899 -0.022237863 2.3509527e-38
-0.077531517 -0.13513394 -0.019242968 2.3509527e-38
-0.07537964 -0.13408406 -0.015237655 2.3509886e-38
-0.073498145 -0.13408406 -0.015237655 2.3509886e-38
-0.071425587 -0.13327946 -0.012168135 2.341805e-38
-0.069549471 -0.13327946 -0.012168135 2.341805e-38
-0.067673355 -0.13327946 -0.012168135 2.341805e-38
-0.06562975 -0.13250901 -0.009228792 2.341805e-38
-0.063758776 -0.13250901 -0.009228792 2.3509886e-38
-0.061671596 -0.13144915 -0.0051854514 2.3509886e-38
-0.059807714 -0.13144915 -0.0051854514 2.3509886e-38
-0.057943847 -0.13144915 -0.0051854514 2.3509886e-38
-0.055934723 -0.13065951 -0.0021730326 2.3509886e-38
-0.053936955 -0.12987436 0.00082233921 2.3509886e-38
-0.051950451 -0.12909363 0.0038007833 2.3509886e-38
-0.049928162 -0.12803085 0.0078553297 2.3509886e-38
-0.048087146 -0.12803085 0.0078553297 2.3509886e-38
-0.046130195 -0.12726043 0.010794435 2.3509886e-38
-0.044294339 -0.12726043 0.010794435 2.3509886e-38
-0.042349555 -0.12646608 0.013824973 2.3509886e-38
-0.040415995 -0.12567626 0.016838107 2.3509886e-38
-0.038493562 -0.124891 0.019833837 2.3509886e-38
-0.036552902 -0.12386028 0.023766074 2.3509886e-38
-0.034739789 -0.12386028 0.023766074 2.3509886e-38
-0.032763619 -0.12228753 0.029766116 2.3509886e-38
-0.030961026 -0.12228753 0.029766116 2.3509886e-38
-0.029158432 -0.12228753 0.029766116 2.3509886e-38
-0.027355839 -0.12228753 0.029766116 2.3509886e-38
-0.025492236 -0.12149437 0.032792006 2.3509886e-38
-0.023694951 -0.12149437 0.032792006 2.3509886e-38
-0.021897662 -0.12149437 0.032792006 2.3509886e-38
-0.020100378 -0.12149437 0.032792006 2.3509886e-38
-0.018303089 -0.12149437 0.032792006 2.3509886e-38
-0.01647152 -0.12070583 0.035800252 2.3509886e-38
-0.014650667 -0.11992194 0.038790856 2.3509886e-38
-0.012863899 -0.11992194 0.038790856 2.3509886e-38
-0.011077128 -0.11992194 0.038790856 2.3509886e-38
-0.0092903599 -0.11992194 0.038790856 2.3509886e-38
-0.0074957721 -0.11914261 0.041763935 2.3509886e-38
-0.0057142172 -0.11914261 0.041763935 2.3509886e-38
-0.0039326604 -0.11914261 0.041763935 2.3509886e-38
-0.0021511056 -0.11914261 0.041763935 2.3509886e-38
-0.0003695488 -0.11914261 0.041763935 2.3509886e-38
0.001412007 -0.11914261 0.041763935 2.3509886e-38
0.0031935629 -0.11914261 0.041763935 2.3509886e-38
0.0049456349 -0.11834116 0.044821415 2.3509886e-38
0.00672183 -0.11834116 0.044821415 2.3509886e-38
0.0084980251 -0.11834116 0.044821415 2.3509886e-38
0.01027422 -0.11834116 0.044821415 2.3509886e-38
0.012050416 -0.11834116 0.044821415 2.3509886e-38
0.01377066 -0.11754455 0.047860537 2.3509886e-38
0.01548264 -0.11677901 0.050781045 2.3509886e-38
0.017248387 -0.11677901 0.050781045 2.3509886e-38
0.01908326 -0.11754455 0.047860537 2.3509886e-38
0.020854127 -0.11754455 0.047860537 2.3509886e-38
0.022624994 -0.11754455 0.047860537 2.3509886e-38
0.024483781 -0.11834116 0.044821415 2.3509886e-38
0.026259977 -0.11834116 0.044821415 2.3509886e-38
0.028036173 -0.11834116 0.044821415 2.3509886e-38
0.029916901 -0.11914261 0.041763935 2.3509886e-38
0.031588562 -0.11834116 0.044821415 2.3509886e-38
0.033364758 -0.11834116 0.044821415 2.3509886e-38
0.035140954 -0.11834116 0.044821415 2.3509886e-38
0.036917146 -0.11834116 0.044821415 2.3509886e-38
0.038693342 -0.11834116 0.044821415 2.3509886e-38
0.040333658 -0.11754455 0.047860537 2.3509886e-38
0.042104527 -0.11754455 0.047860537 2.3509886e-38
0.043734577 -0.11677901 0.050781045 2.3509886e-38
0.045500319 -0.11677901 0.050781045 2.3509886e-38
0.047110718 -0.11599173 0.053784523 2.3509886e-38
0.048711531 -0.11520912 0.056770239 2.3509886e-38
0.050466776 -0.11520912 0.056770239 2.3509886e-38
0.052222021 -0.11520912 0.056770239 2.3509886e-38
0.056677733 -0.12726043 0.010794435 2.3509886e-38
0.058936633 -0.12909363 0.0038007833 2.341769e-38
0.060532384 -0.12803085 0.0078553297 2.341769e-38
0.061355159 -0.12386028 0.023766074 2.341769e-38
0.061984912 -0.11914261 0.041763935 2.3509886e-38
0.063766465 -0.11914261 0.041763935 2.3509886e-38
0.065548025 -0.11914261 0.041763935 2.3509886e-38
0.067329578 -0.11914261 0.041763935 2.3509886e-38
0.069111131 -0.11914261 0.041763935 2.3509886e-38
0.070892692 -0.11914261 0.041763935 2.3509886e-38
0.072674245 -0.11914261 0.041763935 2.3509886e-38
0.074455805 -0.11914261 0.041763935 2.3509886e-38
0.077194504 -0.12228753 0.029766116 2.341769e-38
0.07899709 -0.12228753 0.029766116 2.341769e-38
0.081299394 -0.12386028 0.023766074 2.3417691e-38
0.08344689 -0.124891 0.019833837 2.3509527e-38
0.085266888 -0.124891 0.019833837 2.3509527e-38
0.087086901 -0.124891 0.019833837 2.3509527e-38
0.088906899 -0.124891 0.019833837 2.3509527e-38
0.091002673 -0.12567626 0.016838107 2.3509886e-38
0.092827931 -0.12567626 0.016838107 2.3509886e-38
0.094653189 -0.12567626 0.016838107 2.341805e-38
0.096478447 -0.12567626 0.016838107 2.341805e-38
0.098602191 -0.12646608 0.013824973 2.3418047e-38
0.10043274 -0.12646608 0.013824973 2.1574493e-38
0.10257412 -0.12726043 0.010794435 2.0377029e-38
0.10440998 -0.12726043 0.010794435 2.0192635e-38
0.10655761 -0.12803085 0.0078553297 1.9639461e-38
0.10839862 -0.12803085 0.0078553297 1.8440917e-38
0.11068393 -0.12909363 0.0038007833 1.8348723e-38
0.11253205 -0.12909363 0.0038007833 1.1895029e-38
-0.1231028 -0.1470321 -0.05717596 1.5769746e-38
-0.12114777 -0.1470321 -0.05717596 1.8718573e-38
-0.11889049 -0.14625455 -0.054229345 2.222201e-38
-0.11694063 -0.14625455 -0.054229345 2.2775186e-38
-0.11459191 -0.1451921 -0.050203051 2.2867026e-38
-0.11235417 -0.14439236 -0.047172274 2.2958864e-38
-0.1104167 -0.14439236 -0.047172274 2.3050701e-38
-0.1084792 -0.14439236 -0.047172274 2.3050704e-38
-0.10617578 -0.14334334 -0.043196883 2.3142541e-38
-0.10424526 -0.14334334 -0.043196883 2.3142541e-38
-0.10196528 -0.14230187 -0.039250102 2.3142541e-38
-0.10004167 -0.14230187 -0.039250102 2.3050704e-38
-0.09785533 -0.14148657 -0.036160316 2.3050704e-38
-0.095937148 -0.14148657 -0.036160316 2.2958873e-38
-0.093691662 -0.14042725 -0.032145943 2.2958873e-38
-0.091780528 -0.14042725 -0.032145943 2.3142544e-38
-0.08986938 -0.14042725 -0.032145943 2.3142544e-38
-0.087958232 -0.14042725 -0.032145943 2.341805e-38
-0.085828543 -0.13965334 -0.029213037 2.341805e-38
-0.083922535 -0.13965334 -0.029213037 2.3509527e-38
-0.081801116 -0.13885282 -0.026179399 2.3509527e-38
-0.079627454 -0.13781275 -0.022237863 2.3509527e-38
-0.077733681 -0.13781275 -0.022237863 2.3509527e-38
-0.075642988 -0.13702248 -0.019242968 2.3509886e-38
-0.073498145 -0.13596557 -0.015237655 2.3509886e-38
-0.07161665 -0.13596557 -0.015237655 2.341805e-38
-0.069735155 -0.13596557 -0.015237655 2.341805e-38
-0.067673355 -0.13515557 -0.012168135 2.341805e-38
-0.06562975 -0.13437997 -0.009228792 2.341805e-38
-0.063758776 -0.13437997 -0.009228792 2.3509886e-38
-0.061671596 -0.13331302 -0.0051854514 2.3509886e-38
-0.059807714 -0.13331302 -0.0051854514 2.3509886e-38
-0.057943847 -0.13331302 -0.0051854514 2.3509886e-38
-0.055790294 -0.13172771 0.00082233921 2.3509886e-38
-0.053798568 -0.13094176 0.0038007833 2.3509886e-38
-0.051950451 -0.13094176 0.0038007833 2.3509886e-38
-0.049928162 -0.12987186 0.0078553297 2.3509886e-38
-0.048087146 -0.12987186 0.0078553297 2.3509886e-38
-0.046246141 -0.12987186 0.0078553297 2.3509886e-38
-0.044294339 -0.12909628 0.010794435 2.3509886e-38
-0.042458482 -0.12909628 0.010794435 2.3509886e-38
-0.040415995 -0.1275015 0.016838107 2.3509886e-38
-0.038590737 -0.1275015 0.016838107 2.3509886e-38
-0.036552902 -0.1256734 0.023766074 2.3509886e-38
-0.034739789 -0.1256734 0.023766074 2.3509886e-38
-0.032681383 -0.12329166 0.032792006 2.3509886e-38
-0.030884098 -0.12329166 0.032792006 2.3509886e-38
-0.029158432 -0.12409012 0.029766116 2.3509886e-38
-0.027289521 -0.12329166 0.032792006 2.3509886e-38
-0.025492236 -0.12329166 0.032792006 2.3509886e-38
-0.023694951 -0.12329166 0.032792006 2.3509886e-38
-0.021897662 -0.12329166 0.032792006 2.3509886e-38
-0.020055544 -0.12249784 0.035800252 2.3509886e-38
-0.01826353 -0.12249784 0.035800252 2.3509886e-38
-0.016437437 -0.12170871 0.038790856 2.3509886e-38
-0.014650667 -0.12170871 0.038790856 2.3509886e-38
-0.012863899 -0.12170871 0.038790856 2.3509886e-38
-0.011077128 -0.12170871 0.038790856 2.3509886e-38
-0.0092773288 -0.12092416 0.041763935 2.3509886e-38
-0.0074957721 -0.12092416 0.041763935 2.3509886e-38
-0.0057142172 -0.12092416 0.041763935 2.3509886e-38
-0.0039326604 -0.12092416 0.041763935 2.3509886e-38
-0.0021591466 -0.12011738 0.044821415 2.3509886e-38
-0.00038295053 -0.12011738 0.044821415 2.3509886e-38
