# .PCD v0.7 - Point Cloud Data file format
VERSION 0.7
FIELDS x y z rgb
SIZE 4 4 4 4
TYPE F F F F
COUNT 1 1 1 1
WIDTH 935
HEIGHT 1
VIEWPOINT 0 0 0 1 0 0 0
POINTS 935
DATA ascii
0.063500188 -0.115683 -0.060439102 2.3509886e-38
0.065469347 -0.115683 -0.060439102 2.3509886e-38
0.067438513 -0.115683 -0.060439102 2.3509886e-38
0.069407672 -0.115683 -0.060439102 2.3325494e-38
0.071542814 -0.11638646 -0.063444369 1.5304837e-38
0.073517248 -0.11638646 -0.063444369 4.6115864e-39
0.073371604 -0.1079378 -0.027349824 7.1019488e-39
0.075282745 -0.1079378 -0.027349824 1.2448216e-38
0.077011339 -0.1072513 -0.024416918 1.8072148e-38
0.078917339 -0.1072513 -0.024416918 2.1759974e-38
0.08082334 -0.1072513 -0.024416918 2.2958514e-38
0.082927324 -0.1079378 -0.027349824 2.2958514e-38
0.084838472 -0.1079378 -0.027349824 2.3050708e-38
-0.080099173 -0.11152427 -0.034453981 2.341769e-38
-0.078175567 -0.11152427 -0.034453981 2.3509886e-38
-0.076251976 -0.11152427 -0.034453981 2.3325494e-38
-0.07432837 -0.11152427 -0.034453981 2.3509886e-38
-0.072404765 -0.11152427 -0.034453981 2.341769e-38
-0.070481174 -0.11152427 -0.034453981 2.3509886e-38
-0.068557568 -0.11152427 -0.034453981 2.3509886e-38
-0.066633962 -0.11152427 -0.034453981 2.3509886e-38
-0.064710371 -0.11152427 -0.034453981 2.3509886e-38
-0.062786765 -0.11152427 -0.034453981 2.3509886e-38
-0.06086316 -0.11152427 -0.034453981 2.3509886e-38
-0.058939569 -0.11152427 -0.034453981 2.3509886e-38
-0.057015963 -0.11152427 -0.034453981 2.3509886e-38
-0.055092357 -0.11152427 -0.034453981 2.3509886e-38
-0.053168766 -0.11152427 -0.034453981 2.3509886e-38
-0.051463149 -0.11245503 -0.038400762 2.3509886e-38
-0.049532622 -0.11245503 -0.038400762 2.3509886e-38
-0.047602102 -0.11245503 -0.038400762 2.3509886e-38
-0.045671582 -0.11245503 -0.038400762 2.3509886e-38
-0.043932743 -0.11339252 -0.042376153 2.3509886e-38
-0.041810542 -0.11245503 -0.038400762 2.3509886e-38
-0.039880015 -0.11245503 -0.038400762 2.3509886e-38
-0.037949495 -0.11245503 -0.038400762 2.3509886e-38
-0.036018975 -0.11245503 -0.038400762 2.3509886e-38
-0.034088455 -0.11245503 -0.038400762 2.3509886e-38
-0.032157935 -0.11245503 -0.038400762 2.3509886e-38
-0.030227417 -0.11245503 -0.038400762 2.3509886e-38
-0.028296893 -0.11245503 -0.038400762 2.3509886e-38
-0.026366374 -0.11245503 -0.038400762 2.3509886e-38
-0.024435854 -0.11245503 -0.038400762 2.3509886e-38
-0.022505334 -0.11245503 -0.038400762 2.3509886e-38
-0.020765217 -0.11410724 -0.04540693 2.3509886e-38
-0.018924775 -0.11505674 -0.049433224 2.3509886e-38
-0.016974909 -0.11505674 -0.049433224 2.3509886e-38
-0.015025048 -0.11505674 -0.049433224 2.3509886e-38
-0.013075182 -0.11505674 -0.049433224 2.3509886e-38
-0.011125317 -0.11505674 -0.049433224 2.3509886e-38
-0.0091754552 -0.11505674 -0.049433224 2.3509886e-38
-0.0071655866 -0.11410724 -0.04540693 2.3509886e-38
-0.0052227806 -0.11410724 -0.04540693 2.3509886e-38
-0.0033258628 -0.11505674 -0.049433224 2.3509886e-38
-0.0013759974 -0.11505674 -0.049433224 2.3509886e-38
0.00057386793 -0.11505674 -0.049433224 2.3509886e-38
0.0025237314 -0.11505674 -0.049433224 2.3509886e-38
0.0044735949 -0.11505674 -0.049433224 2.3509886e-38
0.0064157099 -0.11575161 -0.052379839 2.3509886e-38
0.0083707403 -0.11575161 -0.052379839 2.3509886e-38
0.010325773 -0.11575161 -0.052379839 2.3509886e-38
0.012280803 -0.11575161 -0.052379839 2.3509886e-38
0.014235833 -0.11575161 -0.052379839 2.3509886e-38
0.016215883 -0.11671309 -0.056456916 2.3509886e-38
0.018178063 -0.11671309 -0.056456916 2.3509886e-38
0.020140242 -0.11671309 -0.056456916 2.3509886e-38
0.022102419 -0.11671309 -0.056456916 2.3509886e-38
0.024010986 -0.11575161 -0.052379839 2.3509886e-38
0.025966017 -0.11575161 -0.052379839 2.3509886e-38
0.027988957 -0.11671309 -0.056456916 2.3509886e-38
0.029951137 -0.11671309 -0.056456916 2.3509886e-38
0.031913318 -0.11671309 -0.056456916 2.3509886e-38
0.033875495 -0.11671309 -0.056456916 2.3509886e-38
0.035837673 -0.11671309 -0.056456916 2.3509886e-38
0.03779985 -0.11671309 -0.056456916 2.3509886e-38
0.039762031 -0.11671309 -0.056456916 2.3509886e-38
0.041724212 -0.11671309 -0.056456916 2.3509886e-38
0.043808579 -0.11765216 -0.060439102 2.3509886e-38
0.045777738 -0.11765216 -0.060439102 2.3509886e-38
0.047746897 -0.11765216 -0.060439102 2.3509886e-38
0.049716063 -0.11765216 -0.060439102 2.3509886e-38
0.051685221 -0.11765216 -0.060439102 2.3509886e-38
0.05365438 -0.11765216 -0.060439102 2.3509886e-38
0.055623546 -0.11765216 -0.060439102 2.3509886e-38
0.057592705 -0.11765216 -0.060439102 2.3509886e-38
0.059561864 -0.11765216 -0.060439102 2.3233299e-38
0.06153103 -0.11765216 -0.060439102 2.3509886e-38
0.063500188 -0.11765216 -0.060439102 2.3509886e-38
0.065270357 -0.11671309 -0.056456916 2.341769e-38
0.067232542 -0.11671309 -0.056456916 2.2864516e-38
0.069407672 -0.11765216 -0.060439102 2.3509886e-38
0.07137683 -0.11765216 -0.060439102 1.8439845e-38
0.071460456 -0.10984896 -0.027349824 1.5951286e-38
0.073371604 -0.10984896 -0.027349824 1.8440931e-38
0.075282745 -0.10984896 -0.027349824 2.1759613e-38
0.077011339 -0.10915731 -0.024416918 2.3234379e-38
0.078917339 -0.10915731 -0.024416918 2.3234379e-38
0.08082334 -0.10915731 -0.024416918 2.3142544e-38
0.082927324 -0.10984896 -0.027349824 2.286632e-38
0.084838472 -0.10984896 -0.027349824 2.2867037e-38
0.086749613 -0.10984896 -0.027349824 2.2867037e-38
0.088660762 -0.10984896 -0.027349824 1.5677224e-38
0.090571903 -0.10984896 -0.027349824 8.8554734e-39
-0.080099173 -0.11344786 -0.034453981 2.341769e-38
-0.078175567 -0.11344786 -0.034453981 2.3509886e-38
-0.076251976 -0.11344786 -0.034453981 2.3325494e-38
-0.07432837 -0.11344786 -0.034453981 2.3509886e-38
-0.072404765 -0.11344786 -0.034453981 2.341769e-38
-0.070481174 -0.11344786 -0.034453981 2.3509886e-38
-0.068557568 -0.11344786 -0.034453981 2.341769e-38
-0.066633962 -0.11344786 -0.034453981 2.3509886e-38
-0.064710371 -0.11344786 -0.034453981 2.3509886e-38
-0.062786765 -0.11344786 -0.034453981 2.3509886e-38
-0.061115749 -0.11438553 -0.038400762 2.3509886e-38
-0.059185229 -0.11438553 -0.038400762 2.3509886e-38
-0.057254709 -0.11438553 -0.038400762 2.3509886e-38
-0.055324189 -0.11438553 -0.038400762 2.3509886e-38
-0.053393669 -0.11438553 -0.038400762 2.3509886e-38
-0.051463149 -0.11438553 -0.038400762 2.3509886e-38
-0.049532622 -0.11438553 -0.038400762 2.3509886e-38
-0.047602102 -0.11438553 -0.038400762 2.3509886e-38
-0.045671582 -0.11438553 -0.038400762 2.3509886e-38
-0.043741062 -0.11438553 -0.038400762 2.3509886e-38
-0.041810542 -0.11438553 -0.038400762 2.3509886e-38
-0.039880015 -0.11438553 -0.038400762 2.3509886e-38
-0.037949495 -0.11438553 -0.038400762 2.3509886e-38
-0.036018975 -0.11438553 -0.038400762 2.3509886e-38
-0.034088455 -0.11438553 -0.038400762 2.3509886e-38
-0.032157935 -0.11438553 -0.038400762 2.3509886e-38
-0.030227417 -0.11438553 -0.038400762 2.3509886e-38
-0.028296893 -0.11438553 -0.038400762 2.3509886e-38
-0.026366374 -0.11438553 -0.038400762 2.3509886e-38
-0.024435854 -0.11438553 -0.038400762 2.3509886e-38
-0.022505334 -0.11438553 -0.038400762 2.3509886e-38
-0.020574814 -0.11438553 -0.038400762 2.3509886e-38
-0.018999686 -0.11770664 -0.052379839 2.3509886e-38
-0.016974909 -0.11700659 -0.049433224 2.3509886e-38
-0.015025048 -0.11700659 -0.049433224 2.3509886e-38
-0.013075182 -0.11700659 -0.049433224 2.3509886e-38
-0.011125317 -0.11700659 -0.049433224 2.3509886e-38
-0.0091754552 -0.11700659 -0.049433224 2.3509886e-38
-0.0072255898 -0.11700659 -0.049433224 2.3509886e-38
-0.0052757245 -0.11700659 -0.049433224 2.3509886e-38
-0.0033258628 -0.11700659 -0.049433224 2.3509886e-38
-0.0013759974 -0.11700659 -0.049433224 2.3509886e-38
0.00057386793 -0.11700659 -0.049433224 2.3509886e-38
0.0025237314 -0.11700659 -0.049433224 2.3509886e-38
0.0044735949 -0.11700659 -0.049433224 2.3509886e-38
0.0064157099 -0.11770664 -0.052379839 2.3509886e-38
0.0083707403 -0.11770664 -0.052379839 2.3509886e-38
0.010325773 -0.11770664 -0.052379839 2.3509886e-38
0.012280803 -0.11770664 -0.052379839 2.3509886e-38
0.014253704 -0.11867525 -0.056456916 2.3509886e-38
0.016215883 -0.11867525 -0.056456916 2.3509886e-38
0.018178063 -0.11867525 -0.056456916 2.3509886e-38
0.020140242 -0.11867525 -0.056456916 2.3509886e-38
0.022102419 -0.11867525 -0.056456916 2.3509886e-38
0.0240646 -0.11867525 -0.056456916 2.3509886e-38
0.026026778 -0.11867525 -0.056456916 2.3509886e-38
0.027988957 -0.11867525 -0.056456916 2.3509886e-38
0.029951137 -0.11867525 -0.056456916 2.3509886e-38
0.031913318 -0.11867525 -0.056456916 2.3509886e-38
0.033875495 -0.11867525 -0.056456916 2.3509886e-38
0.035837673 -0.11867525 -0.056456916 2.3509886e-38
0.03779985 -0.11867525 -0.056456916 2.3509886e-38
0.039762031 -0.11867525 -0.056456916 2.3509886e-38
0.041724212 -0.11867525 -0.056456916 2.3509886e-38
0.04368639 -0.11867525 -0.056456916 2.3509886e-38
0.045777738 -0.11962132 -0.060439102 2.3509886e-38
0.047746897 -0.11962132 -0.060439102 2.3509886e-38
0.049716063 -0.11962132 -0.060439102 2.3509886e-38
0.051685221 -0.11962132 -0.060439102 2.3509886e-38
0.05365438 -0.11962132 -0.060439102 2.3509886e-38
0.055623546 -0.11962132 -0.060439102 2.3509886e-38
0.057592705 -0.11962132 -0.060439102 2.3509886e-38
0.059561864 -0.11962132 -0.060439102 2.2587929e-38
0.061346002 -0.11867525 -0.056456916 2.3048907e-38
0.063308179 -0.11867525 -0.056456916 2.3509886e-38
0.065270357 -0.11867525 -0.056456916 2.3509886e-38
0.067232542 -0.11867525 -0.056456916 2.2956712e-38
0.069194719 -0.11867525 -0.056456916 2.3509886e-38
0.069549315 -0.11176009 -0.027349824 2.2403538e-38
0.071460456 -0.11176009 -0.027349824 2.3233662e-38
0.073199332 -0.11106332 -0.024416918 2.3234379e-38
0.074921831 -0.11034258 -0.02138328 2.3234379e-38
0.076822512 -0.11034258 -0.02138328 2.3142544e-38
0.078917339 -0.11106332 -0.024416918 2.2958154e-38
0.08082334 -0.11106332 -0.024416918 2.3142544e-38
0.082927324 -0.11176009 -0.027349824 2.3142544e-38
0.084838472 -0.11176009 -0.027349824 2.2958873e-38
0.086749613 -0.11176009 -0.027349824 2.2683366e-38
0.088660762 -0.11176009 -0.027349824 2.2775202e-38
0.090353355 -0.11106332 -0.024416918 2.1947247e-38
-0.080420949 -0.11631607 -0.038400762 2.2495734e-38
-0.078175567 -0.11537148 -0.034453981 2.3509886e-38
-0.076251976 -0.11537148 -0.034453981 2.3509886e-38
-0.07432837 -0.11537148 -0.034453981 2.3325494e-38
-0.072404765 -0.11537148 -0.034453981 2.3509886e-38
-0.070481174 -0.11537148 -0.034453981 2.3509886e-38
-0.068557568 -0.11537148 -0.034453981 2.3509886e-38
-0.066633962 -0.11537148 -0.034453981 2.3509886e-38
-0.064710371 -0.11537148 -0.034453981 2.3509886e-38
-0.062786765 -0.11537148 -0.034453981 2.3509886e-38
-0.061115749 -0.11631607 -0.038400762 2.3509886e-38
-0.059185229 -0.11631607 -0.038400762 2.3509886e-38
-0.057254709 -0.11631607 -0.038400762 2.3509886e-38
-0.055324189 -0.11631607 -0.038400762 2.3509886e-38
-0.053393669 -0.11631607 -0.038400762 2.3509886e-38
-0.051463149 -0.11631607 -0.038400762 2.3509886e-38
-0.049532622 -0.11631607 -0.038400762 2.3509886e-38
-0.047602102 -0.11631607 -0.038400762 2.3509886e-38
-0.045671582 -0.11631607 -0.038400762 2.3509886e-38
-0.043741062 -0.11631607 -0.038400762 2.3509886e-38
-0.041810542 -0.11631607 -0.038400762 2.3509886e-38
-0.039880015 -0.11631607 -0.038400762 2.3509886e-38
-0.037949495 -0.11631607 -0.038400762 2.3509886e-38
-0.036018975 -0.11631607 -0.038400762 2.3509886e-38
-0.034088455 -0.11631607 -0.038400762 2.3509886e-38
-0.032157935 -0.11631607 -0.038400762 2.3509886e-38
-0.030227417 -0.11631607 -0.038400762 2.3509886e-38
-0.028296893 -0.11631607 -0.038400762 2.3509886e-38
-0.026366374 -0.11631607 -0.038400762 2.3509886e-38
-0.024557831 -0.11726747 -0.042376153 2.3509886e-38
-0.022620341 -0.11726747 -0.042376153 2.3509886e-38
-0.019187381 -0.10409774 0.012651449 2.3509886e-38
-0.017677916 -0.10721879 -0.00038933195 2.3509886e-38
-0.015814042 -0.10721879 -0.00038933195 2.3509886e-38
-0.013950167 -0.10721879 -0.00038933195 2.3509886e-38
-0.012086293 -0.10721879 -0.00038933195 2.3509886e-38
-0.011125317 -0.11895646 -0.049433224 2.3509886e-38
-0.0091754552 -0.11895646 -0.049433224 2.3509886e-38
-0.0071655866 -0.11799283 -0.04540693 2.3509886e-38
-0.0052227806 -0.11799283 -0.04540693 2.3509886e-38
-0.0033258628 -0.11895646 -0.049433224 2.3509886e-38
-0.0013371687 -0.11799283 -0.04540693 2.3509886e-38
0.00060563534 -0.11799283 -0.04540693 2.3509886e-38
0.0025237314 -0.11895646 -0.049433224 2.3509886e-38
0.0044735949 -0.11895646 -0.049433224 2.3509886e-38
0.0064157099 -0.11966167 -0.052379839 2.3509886e-38
0.0083707403 -0.11966167 -0.052379839 2.3509886e-38
0.010325773 -0.11966167 -0.052379839 2.3509886e-38
0.012291525 -0.12063743 -0.056456916 2.3509886e-38
0.014253704 -0.12063743 -0.056456916 2.3509886e-38
0.016215883 -0.12063743 -0.056456916 2.3509886e-38
0.018178063 -0.12063743 -0.056456916 2.3509886e-38
0.020140242 -0.12063743 -0.056456916 2.3509886e-38
0.022102419 -0.12063743 -0.056456916 2.3509886e-38
0.0240646 -0.12063743 -0.056456916 2.3509886e-38
0.026026778 -0.12063743 -0.056456916 2.3509886e-38
0.027988957 -0.12063743 -0.056456916 2.3509886e-38
0.029951137 -0.12063743 -0.056456916 2.3509886e-38
0.031913318 -0.12063743 -0.056456916 2.3509886e-38
0.033875495 -0.12063743 -0.056456916 2.3509886e-38
0.035837673 -0.12063743 -0.056456916 2.3509886e-38
0.03779985 -0.12063743 -0.056456916 2.3509886e-38
0.039762031 -0.12063743 -0.056456916 2.3509886e-38
0.041724212 -0.12063743 -0.056456916 2.3509886e-38
0.04368639 -0.12063743 -0.056456916 2.3509886e-38
0.045777738 -0.12159048 -0.060439102 2.3509886e-38
0.047610745 -0.12063743 -0.056456916 2.3509886e-38
0.04957293 -0.12063743 -0.056456916 2.3509886e-38
0.051685221 -0.12159048 -0.060439102 2.3509886e-38
0.05365438 -0.12159048 -0.060439102 2.3509886e-38
0.055623546 -0.12159048 -0.060439102 2.3509886e-38
0.057592705 -0.12159048 -0.060439102 2.3509886e-38
0.059383824 -0.12063743 -0.056456916 2.3509886e-38
0.061156563 -0.11966167 -0.052379839 2.3509886e-38
0.063111596 -0.11966167 -0.052379839 2.3509886e-38
0.065270357 -0.12063743 -0.056456916 2.3509886e-38
0.065727025 -0.11367123 -0.027349824 2.3509886e-38
0.067638166 -0.11367123 -0.027349824 2.3509886e-38
0.069549315 -0.11367123 -0.027349824 2.3509886e-38
0.071293332 -0.11296929 -0.024416918 2.341805e-38
0.073021151 -0.11224325 -0.02138328 2.341805e-38
0.074921831 -0.11224325 -0.02138328 2.341805e-38
0.076822512 -0.11224325 -0.02138328 2.341805e-38
0.078917339 -0.11296929 -0.024416918 2.3234379e-38
0.08082334 -0.11296929 -0.024416918 2.3234379e-38
0.082927324 -0.11367123 -0.027349824 2.3142544e-38
0.084838472 -0.11367123 -0.027349824 2.2958873e-38
0.086541347 -0.11296929 -0.024416918 2.2499336e-38
0.088447355 -0.11296929 -0.024416918 2.2499695e-38
0.090353355 -0.11296929 -0.024416918 2.2591531e-38
0.092027985 -0.11224325 -0.02138328 2.0473566e-38
0.093928657 -0.11224325 -0.02138328 1.4574128e-38
-0.080420949 -0.11824657 -0.038400762 2.2956712e-38
-0.078175567 -0.11729507 -0.034453981 2.3509886e-38
-0.07601089 -0.11655019 -0.031364195 2.3325494e-38
-0.074092709 -0.11655019 -0.031364195 2.3509886e-38
-0.072404765 -0.11729507 -0.034453981 2.3509886e-38
-0.070481174 -0.11729507 -0.034453981 2.3509886e-38
-0.068557568 -0.11729507 -0.034453981 2.3509886e-38
-0.066633962 -0.11729507 -0.034453981 2.3509886e-38
-0.064710371 -0.11729507 -0.034453981 2.3509886e-38
-0.062786765 -0.11729507 -0.034453981 2.3509886e-38
-0.061115749 -0.11824657 -0.038400762 2.3509886e-38
-0.059185229 -0.11824657 -0.038400762 2.3509886e-38
-0.057254709 -0.11824657 -0.038400762 2.3509886e-38
-0.055324189 -0.11824657 -0.038400762 2.3509886e-38
-0.053393669 -0.11824657 -0.038400762 2.3509886e-38
-0.051463149 -0.11824657 -0.038400762 2.3509886e-38
-0.049532622 -0.11824657 -0.038400762 2.3509886e-38
-0.047602102 -0.11824657 -0.038400762 2.3509886e-38
-0.045671582 -0.11824657 -0.038400762 2.3509886e-38
-0.043741062 -0.11824657 -0.038400762 2.3509886e-38
-0.041810542 -0.11824657 -0.038400762 2.3509886e-38
-0.039880015 -0.11824657 -0.038400762 2.3509886e-38
-0.037949495 -0.11824657 -0.038400762 2.3509886e-38
-0.036018975 -0.11824657 -0.038400762 2.3509886e-38
-0.034088455 -0.11824657 -0.038400762 2.3509886e-38
-0.029518252 -0.10136487 0.031623609 2.3509886e-38
-0.027710507 -0.10136487 0.031623609 2.3509886e-38
-0.028296893 -0.11824657 -0.038400762 2.3509886e-38
-0.026366374 -0.11824657 -0.038400762 2.3509886e-38
-0.024435854 -0.11824657 -0.038400762 2.3509886e-38
-0.02102839 -0.10593875 0.012651449 2.3509886e-38
-0.019187381 -0.10593875 0.012651449 2.3509886e-38
-0.017525179 -0.10763429 0.0056184586 2.3509886e-38
-0.01574274 -0.1083564 0.0026230868 2.3509886e-38
-0.013950167 -0.10908265 -0.00038933195 2.3509886e-38
-0.012086293 -0.10908265 -0.00038933195 2.3509886e-38
-0.010222418 -0.10908265 -0.00038933195 2.3509886e-38
-0.0091754552 -0.12090631 -0.049433224 2.3509886e-38
-0.0071655866 -0.11993565 -0.04540693 2.3509886e-38
-0.0052227806 -0.11993565 -0.04540693 2.3509886e-38
-0.0033258628 -0.12090631 -0.049433224 2.3509886e-38
-0.0013371687 -0.11993565 -0.04540693 2.3509886e-38
0.00060563534 -0.11993565 -0.04540693 2.3509886e-38
0.0025237314 -0.12090631 -0.049433224 2.3509886e-38
0.0044735949 -0.12090631 -0.049433224 2.3509886e-38
0.0064157099 -0.12161671 -0.052379839 2.3509886e-38
0.0083707403 -0.12161671 -0.052379839 2.3509886e-38
0.010325773 -0.12161671 -0.052379839 2.3509886e-38
0.012291525 -0.12259962 -0.056456916 2.3509886e-38
0.014253704 -0.12259962 -0.056456916 2.3509886e-38
0.016240321 -0.12355967 -0.060439102 2.3509886e-38
0.018209482 -0.12355967 -0.060439102 2.3509886e-38
0.020178642 -0.12355967 -0.060439102 2.3509886e-38
0.022147804 -0.12355967 -0.060439102 2.3509886e-38
0.0240646 -0.12259962 -0.056456916 2.3509886e-38
0.026026778 -0.12259962 -0.056456916 2.3509886e-38
0.027988957 -0.12259962 -0.056456916 2.3509886e-38
0.029951137 -0.12259962 -0.056456916 2.3509886e-38
0.031913318 -0.12259962 -0.056456916 2.3509886e-38
0.033875495 -0.12259962 -0.056456916 2.3509886e-38
0.035837673 -0.12259962 -0.056456916 2.3509886e-38
0.03779985 -0.12259962 -0.056456916 2.3509886e-38
0.039762031 -0.12259962 -0.056456916 2.3509886e-38
0.041724212 -0.12259962 -0.056456916 2.3509886e-38
0.04368639 -0.12259962 -0.056456916 2.3509886e-38
0.045648567 -0.12259962 -0.056456916 2.3509886e-38
0.047610745 -0.12259962 -0.056456916 2.3509886e-38
0.04957293 -0.12259962 -0.056456916 2.3509886e-38
0.051535107 -0.12259962 -0.056456916 2.3509886e-38
0.053497285 -0.12259962 -0.056456916 2.3509886e-38
0.055459462 -0.12259962 -0.056456916 2.3509886e-38
0.05742164 -0.12259962 -0.056456916 2.3509886e-38
0.05906979 -0.12090631 -0.049433224 2.3509886e-38
0.061019659 -0.12090631 -0.049433224 2.3509886e-38
0.062247269 -0.11729507 -0.034453981 2.3509886e-38
0.063815877 -0.11558239 -0.027349824 2.3509886e-38
0.065727025 -0.11558239 -0.027349824 2.3509886e-38
0.067638166 -0.11558239 -0.027349824 2.3509886e-38
0.069549315 -0.11558239 -0.027349824 2.3509886e-38
0.071293332 -0.1148753 -0.024416918 2.341805e-38
0.073021151 -0.11414395 -0.02138328 2.341805e-38
0.074921831 -0.11414395 -0.02138328 2.341805e-38
0.076822512 -0.11414395 -0.02138328 2.341805e-38
0.078917339 -0.1148753 -0.024416918 2.341805e-38
0.08082334 -0.1148753 -0.024416918 2.3234379e-38
0.082729347 -0.1148753 -0.024416918 2.3234379e-38
0.084635347 -0.1148753 -0.024416918 2.3142544e-38
0.086541347 -0.1148753 -0.024416918 2.2958873e-38
0.088447355 -0.1148753 -0.024416918 2.2867037e-38
0.090127297 -0.11414395 -0.02138328 2.2775202e-38
0.092027985 -0.11414395 -0.02138328 2.2499695e-38
0.093928657 -0.11414395 -0.02138328 2.1764652e-38
-0.080420949 -0.12017711 -0.038400762 2.3509886e-38
-0.077929072 -0.11846836 -0.031364195 2.3509886e-38
-0.07601089 -0.11846836 -0.031364195 2.3233299e-38
-0.074092709 -0.11846836 -0.031364195 2.3509886e-38
-0.072174527 -0.11846836 -0.031364195 2.3509886e-38
-0.070256345 -0.11846836 -0.031364195 2.341769e-38
-0.068338163 -0.11846836 -0.031364195 2.3509886e-38
-0.066419981 -0.11846836 -0.031364195 2.3509886e-38
-0.0645018 -0.11846836 -0.031364195 2.3509886e-38
-0.062786765 -0.11921866 -0.034453981 2.3509886e-38
-0.061115749 -0.12017711 -0.038400762 2.3509886e-38
-0.059185229 -0.12017711 -0.038400762 2.3509886e-38
-0.057254709 -0.12017711 -0.038400762 2.3509886e-38
-0.055324189 -0.12017711 -0.038400762 2.3509886e-38
-0.053393669 -0.12017711 -0.038400762 2.3509886e-38
-0.051463149 -0.12017711 -0.038400762 2.3509886e-38
-0.049532622 -0.12017711 -0.038400762 2.3509886e-38
-0.047602102 -0.12017711 -0.038400762 2.3509886e-38
-0.045671582 -0.12017711 -0.038400762 2.3509886e-38
-0.043741062 -0.12017711 -0.038400762 2.3509886e-38
-0.041810542 -0.12017711 -0.038400762 2.3509886e-38
-0.039880015 -0.12017711 -0.038400762 2.3509886e-38
-0.034427576 -0.10026747 0.043586977 2.3509886e-38
-0.032640807 -0.10026747 0.043586977 2.3509886e-38
-0.030972021 -0.10099369 0.040596373 2.3509886e-38
-0.029518252 -0.10317262 0.031623609 2.3509886e-38
-0.027710507 -0.10317262 0.031623609 2.3509886e-38
-0.025902761 -0.10317262 0.031623609 2.3509886e-38
-0.024095016 -0.10317262 0.031623609 2.3509886e-38
-0.022779221 -0.10706602 0.015590554 2.3509886e-38
-0.020943364 -0.10706602 0.015590554 2.3509886e-38
-0.019187381 -0.10777976 0.012651449 2.3509886e-38
-0.017525179 -0.10948761 0.0056184586 2.3509886e-38
-0.01574274 -0.11021499 0.0026230868 2.3509886e-38
-0.013884148 -0.11021499 0.0026230868 2.3509886e-38
-0.012086293 -0.11094652 -0.00038933195 2.3509886e-38
-0.010222418 -0.11094652 -0.00038933195 2.3509886e-38
-0.0084258933 -0.11192839 -0.0044326726 2.3509886e-38
-0.0065549295 -0.11192839 -0.0044326726 2.3509886e-38
-0.0046839695 -0.11192839 -0.0044326726 2.3509886e-38
-0.0028130021 -0.11192839 -0.0044326726 2.3509886e-38
-0.0009420421 -0.11192839 -0.0044326726 2.3509886e-38
0.0010082256 -0.10948761 0.0056184586 2.3509886e-38
0.0028798431 -0.10876434 0.0085969027 2.3509886e-38
0.0047457349 -0.10777976 0.012651449 2.3509886e-38
0.0065867435 -0.10777976 0.012651449 2.3509886e-38
0.0084277522 -0.10777976 0.012651449 2.3509886e-38
0.010268761 -0.10777976 0.012651449 2.3509886e-38
0.01210977 -0.10777976 0.012651449 2.3509886e-38
0.014271159 -0.12552883 -0.060439102 2.3509886e-38
0.016240321 -0.12552883 -0.060439102 2.3509886e-38
0.018209482 -0.12552883 -0.060439102 2.3509886e-38
0.020178642 -0.12552883 -0.060439102 2.3509886e-38
0.022147804 -0.12552883 -0.060439102 2.3509886e-38
0.0240646 -0.1245618 -0.056456916 2.3509886e-38
0.026026778 -0.1245618 -0.056456916 2.3509886e-38
0.027988957 -0.1245618 -0.056456916 2.3509886e-38
0.029951137 -0.1245618 -0.056456916 2.3509886e-38
0.031913318 -0.1245618 -0.056456916 2.3509886e-38
0.033875495 -0.1245618 -0.056456916 2.3509886e-38
0.035837673 -0.1245618 -0.056456916 2.3509886e-38
0.03779985 -0.1245618 -0.056456916 2.3509886e-38
0.039762031 -0.1245618 -0.056456916 2.3509886e-38
0.041724212 -0.1245618 -0.056456916 2.3509886e-38
0.04368639 -0.1245618 -0.056456916 2.3509886e-38
0.045648567 -0.1245618 -0.056456916 2.3509886e-38
0.047610745 -0.1245618 -0.056456916 2.3509886e-38
0.04957293 -0.1245618 -0.056456916 2.3509886e-38
0.051535107 -0.1245618 -0.056456916 2.3509886e-38
0.053497285 -0.1245618 -0.056456916 2.3509886e-38
0.055459462 -0.1245618 -0.056456916 2.3509886e-38
0.057246506 -0.12357174 -0.052379839 2.3509886e-38
0.058576532 -0.12017711 -0.038400762 2.3509886e-38
0.060180113 -0.11846836 -0.031364195 2.3509886e-38
0.062098294 -0.11846836 -0.031364195 2.3509886e-38
0.063815877 -0.11749353 -0.027349824 2.3509886e-38
0.065727025 -0.11749353 -0.027349824 2.3509886e-38
0.067638166 -0.11749353 -0.027349824 2.3509886e-38
0.069549315 -0.11749353 -0.027349824 2.3509886e-38
0.071293332 -0.11678131 -0.024416918 2.341805e-38
0.073021151 -0.11604463 -0.02138328 2.341805e-38
0.074921831 -0.11604463 -0.02138328 2.3509886e-38
0.076822512 -0.11604463 -0.02138328 2.3509886e-38
0.0787232 -0.11604463 -0.02138328 2.3509886e-38
0.08082334 -0.11678131 -0.024416918 2.341805e-38
0.082729347 -0.11678131 -0.024416918 2.341805e-38
0.084635347 -0.11678131 -0.024416918 2.3234379e-38
0.086541347 -0.11678131 -0.024416918 2.2958155e-38
0.088226616 -0.11604463 -0.02138328 2.2775202e-38
0.090127297 -0.11604463 -0.02138328 2.2498978e-38
0.091727361 -0.11508749 -0.017441744 2.2315307e-38
0.093621127 -0.11508749 -0.017441744 2.2499695e-38
0.095514901 -0.11508749 -0.017441744 2.2316024e-38
-0.076022871 -0.10352151 0.037588127 2.341805e-38
-0.074225582 -0.10352151 0.037588127 2.3509886e-38
-0.072428294 -0.10352151 0.037588127 2.341769e-38
-0.070631005 -0.10352151 0.037588127 2.341769e-38
-0.074092709 -0.12038656 -0.031364195 2.3509886e-38
-0.072174527 -0.12038656 -0.031364195 2.3509886e-38
-0.070256345 -0.12038656 -0.031364195 2.3233299e-38
-0.068053104 -0.11940466 -0.027349824 2.3509886e-38
-0.066141956 -0.11940466 -0.027349824 2.3509886e-38
-0.064230807 -0.11940466 -0.027349824 2.3509886e-38
-0.062319674 -0.11940466 -0.027349824 2.3509886e-38
-0.06086316 -0.12114228 -0.034453981 2.3509886e-38
-0.059185229 -0.12210761 -0.038400762 2.3509886e-38
-0.057254709 -0.12210761 -0.038400762 2.3509886e-38
-0.055324189 -0.12210761 -0.038400762 2.3509886e-38
-0.053393669 -0.12210761 -0.038400762 2.3509886e-38
-0.051463149 -0.12210761 -0.038400762 2.3509886e-38
-0.049532622 -0.12210761 -0.038400762 2.3509886e-38
-0.047602102 -0.12210761 -0.038400762 2.3509886e-38
-0.041724093 -0.10278571 0.040596373 2.3509886e-38
-0.03993208 -0.10278571 0.040596373 2.3509886e-38
-0.038140066 -0.10278571 0.040596373 2.3509886e-38
-0.03634806 -0.10278571 0.040596373 2.3509886e-38
-0.034427576 -0.10205424 0.043586977 2.3509886e-38
-0.032640807 -0.10205424 0.043586977 2.3509886e-38
-0.030972021 -0.10278571 0.040596373 2.3509886e-38
-0.029407473 -0.10426159 0.034562238 2.3509886e-38
-0.027710507 -0.10498036 0.031623609 2.3509886e-38
-0.025902761 -0.10498036 0.031623609 2.3509886e-38
-0.024321867 -0.10669093 0.024629956 2.3509886e-38
-0.022779221 -0.10890187 0.015590554 2.3509886e-38
-0.020943364 -0.10890187 0.015590554 2.3509886e-38
-0.019187381 -0.10962076 0.012651449 2.3509886e-38
-0.017449455 -0.11061247 0.0085969027 2.3509886e-38
-0.015671836 -0.11134095 0.0056184586 2.3509886e-38
-0.013884148 -0.11207359 0.0026230868 2.3509886e-38
-0.011965154 -0.11134095 0.0056184586 2.3509886e-38
-0.010111814 -0.11134095 0.0056184586 2.3509886e-38
-0.0083585437 -0.11281042 -0.00038933195 2.3509886e-38
-0.0064946692 -0.11281042 -0.00038933195 2.3509886e-38
-0.0046307985 -0.11281042 -0.00038933195 2.3509886e-38
-0.0027325917 -0.11207359 0.0026230868 2.3509886e-38
-0.00087399967 -0.11207359 0.0026230868 2.3509886e-38
0.0010082256 -0.11134095 0.0056184586 2.3509886e-38
0.0028798431 -0.11061247 0.0085969027 2.3509886e-38
0.0047457349 -0.10962076 0.012651449 2.3509886e-38
0.0065867435 -0.10962076 0.012651449 2.3509886e-38
0.0084277522 -0.10962076 0.012651449 2.3509886e-38
0.010268761 -0.10962076 0.012651449 2.3509886e-38
0.01210977 -0.10962076 0.012651449 2.3509886e-38
0.014284332 -0.12823303 -0.063444369 2.3509886e-38
0.016258763 -0.12823303 -0.063444369 2.3509886e-38
0.018233193 -0.12823303 -0.063444369 2.3509886e-38
0.020207625 -0.12823303 -0.063444369 2.3509886e-38
0.022182055 -0.12823303 -0.063444369 2.3509886e-38
0.024116965 -0.12749799 -0.060439102 2.3509886e-38
0.026086126 -0.12749799 -0.060439102 2.3509886e-38
0.028055288 -0.12749799 -0.060439102 2.3509886e-38
0.030024448 -0.12749799 -0.060439102 2.3509886e-38
0.031993609 -0.12749799 -0.060439102 2.3509886e-38
0.033962771 -0.12749799 -0.060439102 2.3509886e-38
0.03593193 -0.12749799 -0.060439102 2.3509886e-38
0.037901092 -0.12749799 -0.060439102 2.3509886e-38
0.039870255 -0.12749799 -0.060439102 2.3509886e-38
0.041839413 -0.12749799 -0.060439102 2.3509886e-38
0.043808579 -0.12749799 -0.060439102 2.3509886e-38
0.045648567 -0.12652399 -0.056456916 2.3509886e-38
0.047610745 -0.12652399 -0.056456916 2.3509886e-38
0.04957293 -0.12652399 -0.056456916 2.3509886e-38
0.051381417 -0.12552677 -0.052379839 2.3509886e-38
0.053336442 -0.12552677 -0.052379839 2.3509886e-38
0.055459462 -0.12652399 -0.056456916 2.3509886e-38
0.057246506 -0.12552677 -0.052379839 2.3509886e-38
0.058576532 -0.12210761 -0.038400762 2.3509886e-38
0.060180113 -0.12038656 -0.031364195 2.3509886e-38
0.061904736 -0.11940466 -0.027349824 2.3509886e-38
0.063669324 -0.11868732 -0.024416918 2.3509886e-38
0.065575324 -0.11868732 -0.024416918 2.3509886e-38
0.067481324 -0.11868732 -0.024416918 2.3509886e-38
0.069387324 -0.11868732 -0.024416918 2.3509886e-38
0.071293332 -0.11868732 -0.024416918 2.341805e-38
0.073021151 -0.11794533 -0.02138328 2.341805e-38
0.074921831 -0.11794533 -0.02138328 2.3509886e-38
0.076577179 -0.11698125 -0.017441744 2.3509886e-38
0.078470953 -0.11698125 -0.017441744 2.3509886e-38
0.08082334 -0.11868732 -0.024416918 2.3509886e-38
0.082524568 -0.11794533 -0.02138328 2.3509886e-38
0.084425248 -0.11794533 -0.02138328 2.341805e-38
0.086325929 -0.11794533 -0.02138328 2.341805e-38
0.088226616 -0.11794533 -0.02138328 2.3050349e-38
0.089833587 -0.11698125 -0.017441744 2.3142544e-38
0.091727361 -0.11698125 -0.017441744 2.2774843e-38
0.093621127 -0.11698125 -0.017441744 2.2222395e-38
0.095514901 -0.11698125 -0.017441744 2.2407142e-38
-0.07935635 -0.10457774 0.040596373 2.3234379e-38
-0.077564336 -0.10457774 0.040596373 2.3234379e-38
-0.075772323 -0.10457774 0.040596373 2.341805e-38
-0.074225582 -0.1053188 0.037588127 2.3509886e-38
-0.072428294 -0.1053188 0.037588127 2.3509886e-38
-0.070631005 -0.1053188 0.037588127 2.3509886e-38
-0.069288634 -0.10678811 0.031623609 2.3509886e-38
-0.067480884 -0.10678811 0.031623609 2.341769e-38
-0.06567315 -0.10678811 0.031623609 2.3141103e-38
-0.068053104 -0.12131582 -0.027349824 2.3509886e-38
-0.066141956 -0.12131582 -0.027349824 2.3509886e-38
-0.064230807 -0.12131582 -0.027349824 2.3509886e-38
-0.062319674 -0.12131582 -0.027349824 2.3509886e-38
-0.06086316 -0.12306587 -0.034453981 2.3509886e-38
-0.059185229 -0.12403814 -0.038400762 2.3509886e-38
-0.057254709 -0.12403814 -0.038400762 2.3509886e-38
-0.055324189 -0.12403814 -0.038400762 2.3509886e-38
-0.053393669 -0.12403814 -0.038400762 2.3509886e-38
-0.047100134 -0.10457774 0.040596373 2.3509886e-38
-0.045308121 -0.10457774 0.040596373 2.3509886e-38
-0.043516107 -0.10457774 0.040596373 2.3509886e-38
-0.041574657 -0.10384102 0.043586977 2.3509886e-38
-0.039787881 -0.10384102 0.043586977 2.3509886e-38
-0.038001113 -0.10384102 0.043586977 2.3509886e-38
-0.03634806 -0.10457774 0.040596373 2.3509886e-38
-0.034427576 -0.10384102 0.043586977 2.3509886e-38
-0.032640807 -0.10384102 0.043586977 2.3509886e-38
-0.030972021 -0.10457774 0.040596373 2.3509886e-38
-0.029407473 -0.10606419 0.034562238 2.3509886e-38
-0.027710507 -0.10678811 0.031623609 2.3509886e-38
-0.025902761 -0.10678811 0.031623609 2.3509886e-38
-0.024194321 -0.10754226 0.028562194 2.3509886e-38
-0.022593779 -0.10924892 0.021634227 2.3509886e-38
-0.020943364 -0.11073773 0.015590554 2.3509886e-38
-0.019107511 -0.11073773 0.015590554 2.3509886e-38
-0.017346373 -0.11146177 0.012651449 2.3509886e-38
-0.015601335 -0.11246057 0.0085969027 2.3509886e-38
-0.013818497 -0.1131943 0.0056184586 2.3509886e-38
-0.011965154 -0.1131943 0.0056184586 2.3509886e-38
-0.010111814 -0.1131943 0.0056184586 2.3509886e-38
-0.0083083678 -0.11393218 0.0026230868 2.3509886e-38
-0.0064497758 -0.11393218 0.0026230868 2.3509886e-38
-0.0046307985 -0.11467429 -0.00038933195 2.3509886e-38
-0.0026984569 -0.1131943 0.0056184586 2.3509886e-38
-0.00084511377 -0.1131943 0.0056184586 2.3509886e-38
0.0010082256 -0.1131943 0.0056184586 2.3509886e-38
0.0028798431 -0.11246057 0.0085969027 2.3509886e-38
0.0047457349 -0.11146177 0.012651449 2.3509886e-38
0.0065867435 -0.11146177 0.012651449 2.3509886e-38
0.0084277522 -0.11146177 0.012651449 2.3509886e-38
0.010268761 -0.11146177 0.012651449 2.3509886e-38
0.01210977 -0.11146177 0.012651449 2.3509886e-38
0.013968552 -0.11246057 0.0085969027 2.3509886e-38
0.01581667 -0.11246057 0.0085969027 2.3509886e-38
0.017664786 -0.11246057 0.0085969027 2.3509886e-38
0.019512907 -0.11246057 0.0085969027 2.3509886e-38
0.021361023 -0.11246057 0.0085969027 2.3509886e-38
0.023209142 -0.11246057 0.0085969027 2.3509886e-38
0.02495303 -0.11073773 0.015590554 2.3509886e-38
0.026788887 -0.11073773 0.015590554 2.3509886e-38
0.030024448 -0.12946714 -0.060439102 2.3509886e-38
0.031993609 -0.12946714 -0.060439102 2.3509886e-38
0.033962771 -0.12946714 -0.060439102 2.3509886e-38
0.03593193 -0.12946714 -0.060439102 2.3509886e-38
0.037901092 -0.12946714 -0.060439102 2.3509886e-38
0.039870255 -0.12946714 -0.060439102 2.3509886e-38
0.041839413 -0.12946714 -0.060439102 2.3509886e-38
0.043808579 -0.12946714 -0.060439102 2.3509886e-38
0.045648567 -0.12848614 -0.056456916 2.3509886e-38
0.047610745 -0.12848614 -0.056456916 2.3509886e-38
0.04957293 -0.12848614 -0.056456916 2.3509886e-38
0.049082793 -0.11246057 0.0085969027 2.3509886e-38
0.05093091 -0.11246057 0.0085969027 2.3509886e-38
0.052779034 -0.11246057 0.0085969027 2.3509886e-38
0.05462715 -0.11246057 0.0085969027 2.3509886e-38
0.059383824 -0.12848614 -0.056456916 2.3509886e-38
0.061346002 -0.12848614 -0.056456916 2.3509886e-38
0.061904736 -0.12131582 -0.027349824 2.3509886e-38
0.063669324 -0.12059332 -0.024416918 2.3509886e-38
0.065575324 -0.12059332 -0.024416918 2.3509886e-38
0.067319095 -0.119846 -0.02138328 2.3509886e-38
0.069219783 -0.119846 -0.02138328 2.3509886e-38
0.071120463 -0.119846 -0.02138328 2.341805e-38
0.072789632 -0.11887501 -0.017441744 2.341805e-38
0.074683405 -0.11887501 -0.017441744 2.3509886e-38
0.076390766 -0.11813726 -0.014446849 2.3509886e-38
0.078279287 -0.11813726 -0.014446849 2.3509527e-38
0.080364726 -0.11887501 -0.017441744 2.3509527e-38
0.082524568 -0.119846 -0.02138328 2.3509883e-38
0.084152274 -0.11887501 -0.017441744 2.3509883e-38
0.08604604 -0.11887501 -0.017441744 2.3509527e-38
0.087939814 -0.11887501 -0.017441744 2.3233299e-38
0.089833587 -0.11887501 -0.017441744 2.341805e-38
0.091727361 -0.11887501 -0.017441744 2.3234379e-38
0.093621127 -0.11887501 -0.017441744 2.3142544e-38
0.095514901 -0.11887501 -0.017441744 2.2590813e-38
0.097408675 -0.11887501 -0.017441744 2.2958873e-38
-0.11245637 -0.12422292 -0.031364195 2.341805e-38
-0.11009828 -0.12322696 -0.027349824 2.341805e-38
-0.10754377 -0.12174667 -0.02138328 2.3325856e-38
-0.10522497 -0.1207688 -0.017441744 2.3325856e-38
-0.077564336 -0.10636975 0.040596373 2.3233299e-38
-0.075772323 -0.10636975 0.040596373 2.3141103e-38
-0.074225582 -0.10711606 0.037588127 2.3509886e-38
-0.072428294 -0.10711606 0.037588127 2.3509886e-38
-0.070867099 -0.10786678 0.034562238 2.3509886e-38
-0.069288634 -0.10859586 0.031623609 2.3509886e-38
-0.067480884 -0.10859586 0.031623609 2.341769e-38
-0.066399999 -0.11107419 0.021634227 2.3141103e-38
-0.065712027 -0.11504765 0.0056184586 2.3509886e-38
-0.06385868 -0.11504765 0.0056184586 2.3509886e-38
-0.062410884 -0.11653815 -0.00038933195 2.3509886e-38
-0.060812868 -0.1175413 -0.0044326726 2.3509886e-38
-0.061370157 -0.12695493 -0.042376153 2.3509886e-38
-0.059432663 -0.12695493 -0.042376153 2.3509886e-38
-0.057495184 -0.12695493 -0.042376153 2.3509886e-38
-0.055557691 -0.12695493 -0.042376153 2.3509886e-38
-0.053620197 -0.12695493 -0.042376153 2.3509886e-38
-0.047100134 -0.10636975 0.040596373 2.3509886e-38
-0.045308121 -0.10636975 0.040596373 2.3509886e-38
-0.043516107 -0.10636975 0.040596373 2.3509886e-38
-0.041574657 -0.10562779 0.043586977 2.3509886e-38
-0.039787881 -0.10562779 0.043586977 2.3509886e-38
-0.038001113 -0.10562779 0.043586977 2.3509886e-38
-0.03634806 -0.10636975 0.040596373 2.3509886e-38
-0.034556046 -0.10636975 0.040596373 2.3509886e-38
-0.032764032 -0.10636975 0.040596373 2.3509886e-38
-0.030972021 -0.10636975 0.040596373 2.3509886e-38
-0.029293409 -0.10711606 0.037588127 2.3509886e-38
-0.027604884 -0.10786678 0.034562238 2.3509886e-38
-0.02580229 -0.10786678 0.034562238 2.3509886e-38
-0.024095016 -0.10859586 0.031623609 2.3509886e-38
-0.022381207 -0.10935538 0.028562194 2.3509886e-38
-0.020681856 -0.11033095 0.024629956 2.3509886e-38
-0.019025149 -0.11182173 0.018621093 2.3509886e-38
-0.017271651 -0.11257361 0.015590554 2.3509886e-38
-0.015601335 -0.1143087 0.0085969027 2.3509886e-38
-0.013818497 -0.11504765 0.0056184586 2.3509886e-38
-0.011965154 -0.11504765 0.0056184586 2.3509886e-38
-0.010111814 -0.11504765 0.0056184586 2.3509886e-38
-0.0083083678 -0.11579077 0.0026230868 2.3509886e-38
-0.0064497758 -0.11579077 0.0026230868 2.3509886e-38
-0.0045517962 -0.11504765 0.0056184586 2.3509886e-38
-0.0026984569 -0.11504765 0.0056184586 2.3509886e-38
-0.00081639178 -0.1143087 0.0085969027 2.3509886e-38
0.0010317247 -0.1143087 0.0085969027 2.3509886e-38
0.0028798431 -0.1143087 0.0085969027 2.3509886e-38
0.0047457349 -0.11330278 0.012651449 2.3509886e-38
0.0065867435 -0.11330278 0.012651449 2.3509886e-38
0.0084277522 -0.11330278 0.012651449 2.3509886e-38
0.010268761 -0.11330278 0.012651449 2.3509886e-38
0.01210977 -0.11330278 0.012651449 2.3509886e-38
0.013968552 -0.1143087 0.0085969027 2.3509886e-38
0.01581667 -0.1143087 0.0085969027 2.3509886e-38
0.017664786 -0.1143087 0.0085969027 2.3509886e-38
0.019512907 -0.1143087 0.0085969027 2.3509886e-38
0.021361023 -0.1143087 0.0085969027 2.3509886e-38
0.023209142 -0.1143087 0.0085969027 2.3509886e-38
0.02495303 -0.11257361 0.015590554 2.3509886e-38
0.026788887 -0.11257361 0.015590554 2.3509886e-38
0.028678851 -0.11330278 0.012651449 2.3509886e-38
0.03051986 -0.11330278 0.012651449 2.3509886e-38
0.03236087 -0.11330278 0.012651449 2.3509886e-38
0.03593193 -0.1314363 -0.060439102 2.3509886e-38
0.037901092 -0.1314363 -0.060439102 2.3509886e-38
0.039870255 -0.1314363 -0.060439102 2.3509886e-38
0.041839413 -0.1314363 -0.060439102 2.3509886e-38
0.043900788 -0.1321819 -0.063444369 2.3509886e-38
0.045875221 -0.1321819 -0.063444369 2.3509886e-38
0.047746897 -0.1314363 -0.060439102 2.3509886e-38
0.049716063 -0.1314363 -0.060439102 2.3509886e-38
0.049082793 -0.1143087 0.0085969027 2.3509886e-38
0.05093091 -0.1143087 0.0085969027 2.3509886e-38
0.052779034 -0.1143087 0.0085969027 2.3509886e-38
0.05462715 -0.1143087 0.0085969027 2.3509886e-38
0.056475267 -0.1143087 0.0085969027 2.3509886e-38
0.058323383 -0.1143087 0.0085969027 2.3509886e-38
0.0601715 -0.1143087 0.0085969027 2.3509886e-38
0.063669324 -0.1224993 -0.024416918 2.3509886e-38
0.065575324 -0.1224993 -0.024416918 2.3509886e-38
0.067108318 -0.1207688 -0.017441744 2.3509886e-38
0.068836682 -0.12002577 -0.014446849 2.3509886e-38
0.070725203 -0.12002577 -0.014446849 2.341805e-38
0.072378464 -0.11903207 -0.010441536 2.341805e-38
0.074259967 -0.11903207 -0.010441536 2.3509527e-38
0.075950406 -0.11827053 -0.0073720161 2.3509886e-38
0.077826522 -0.11827053 -0.0073720161 2.3509527e-38
0.079702638 -0.11827053 -0.0073720161 2.3509527e-38
0.081578754 -0.11827053 -0.0073720161 2.3509524e-38
0.083667457 -0.11903207 -0.010441536 2.3509524e-38
0.085833378 -0.12002577 -0.014446849 2.3509164e-38
0.087721899 -0.12002577 -0.014446849 2.3232936e-38
0.08961042 -0.12002577 -0.014446849 2.3416971e-38
0.091498941 -0.12002577 -0.014446849 2.341769e-38
0.093387462 -0.12002577 -0.014446849 2.3141466e-38
0.095275976 -0.12002577 -0.014446849 2.341805e-38
0.097164504 -0.12002577 -0.014446849 2.3234379e-38
-0.11629275 -0.12614109 -0.031364195 1.0142238e-38
-0.11437456 -0.12614109 -0.031364195 2.2865235e-38
-0.11245637 -0.12614109 -0.031364195 2.3509883e-38
-0.11009828 -0.12513812 -0.027349824 2.3509883e-38
-0.10754377 -0.12364738 -0.02138328 2.3417687e-38
-0.10522497 -0.12266256 -0.017441744 2.3325492e-38
-0.098528467 -0.12014665 -0.0073720161 2.3418045e-38
-0.096652351 -0.12014665 -0.0073720161 2.3418045e-38
-0.094776236 -0.12014665 -0.0073720161 2.3326206e-38
-0.09290012 -0.12014665 -0.0073720161 2.3325846e-38
-0.078838773 -0.10667174 0.046560057 2.3509879e-38
-0.077057205 -0.10667174 0.046560057 2.3509879e-38
-0.075275652 -0.10667174 0.046560057 2.31411e-38
-0.074225582 -0.10891335 0.037588127 2.3509886e-38
-0.072428294 -0.10891335 0.037588127 2.3509886e-38
-0.070867099 -0.10966937 0.034562238 2.3325494e-38
-0.069288634 -0.11040358 0.031623609 2.3509886e-38
-0.067480884 -0.11040358 0.031623609 2.3509886e-38
-0.066399999 -0.11289944 0.021634227 2.3325494e-38
-0.065212615 -0.11514379 0.012651449 2.3509886e-38
-0.063371606 -0.11514379 0.012651449 2.3509886e-38
-0.062005349 -0.11690097 0.0056184586 2.3509886e-38
-0.060547017 -0.11840202 -0.00038933195 2.3509886e-38
-0.05868315 -0.11840202 -0.00038933195 2.3509886e-38
-0.053517513 -0.10514848 0.052656658 2.3509886e-38
-0.051746644 -0.10514848 0.052656658 2.3509886e-38
-0.049975775 -0.10514848 0.052656658 2.3509886e-38
-0.048204906 -0.10514848 0.052656658 2.3509886e-38
-0.047100134 -0.10816176 0.040596373 2.3509886e-38
-0.045308121 -0.10816176 0.040596373 2.3509886e-38
-0.043516107 -0.10816176 0.040596373 2.3509886e-38
-0.041574657 -0.10741456 0.043586977 2.3509886e-38
-0.039787881 -0.10741456 0.043586977 2.3509886e-38
-0.038001113 -0.10741456 0.043586977 2.3509886e-38
-0.03634806 -0.10816176 0.040596373 2.3509886e-38
-0.034556046 -0.10816176 0.040596373 2.3509886e-38
-0.032764032 -0.10816176 0.040596373 2.3509886e-38
-0.030972021 -0.10816176 0.040596373 2.3509886e-38
-0.029293409 -0.10891335 0.037588127 2.3509886e-38
-0.027604884 -0.10966937 0.034562238 2.3509886e-38
-0.02580229 -0.10966937 0.034562238 2.3509886e-38
-0.024095016 -0.11040358 0.031623609 2.3509886e-38
-0.022381207 -0.11116849 0.028562194 2.3509886e-38
-0.020681856 -0.11215095 0.024629956 2.3509886e-38
-0.018943263 -0.11289944 0.021634227 2.3509886e-38
-0.017194605 -0.11365227 0.018621093 2.3509886e-38
-0.015505364 -0.11514379 0.012651449 2.3509886e-38
-0.013753219 -0.1161568 0.0085969027 2.3509886e-38
-0.011905102 -0.1161568 0.0085969027 2.3509886e-38
-0.010056982 -0.1161568 0.0085969027 2.3509886e-38
-0.0082088653 -0.1161568 0.0085969027 2.3509886e-38
-0.0063607451 -0.1161568 0.0085969027 2.3509886e-38
-0.0045126285 -0.1161568 0.0085969027 2.3509886e-38
-0.002664512 -0.1161568 0.0085969027 2.3509886e-38
-0.00081639178 -0.1161568 0.0085969027 2.3509886e-38
0.0010317247 -0.1161568 0.0085969027 2.3509886e-38
0.0029047243 -0.11514379 0.012651449 2.3509886e-38
0.0047586169 -0.11440946 0.015590554 2.3509886e-38
0.0065944735 -0.11440946 0.015590554 2.3509886e-38
0.0084329862 -0.11365227 0.018621093 2.3509886e-38
0.010263527 -0.11365227 0.018621093 2.3509886e-38
0.012086146 -0.11289944 0.021634227 2.3509886e-38
0.013911406 -0.11289944 0.021634227 2.3509886e-38
0.015755154 -0.11365227 0.018621093 2.3509886e-38
0.017585697 -0.11365227 0.018621093 2.3509886e-38
0.019416239 -0.11365227 0.018621093 2.3509886e-38
0.021281321 -0.11440946 0.015590554 2.3509886e-38
0.023117175 -0.11440946 0.015590554 2.3509886e-38
0.02495303 -0.11440946 0.015590554 2.3509886e-38
0.026788887 -0.11440946 0.015590554 2.3509886e-38
0.028624743 -0.11440946 0.015590554 2.3509886e-38
0.030460598 -0.11440946 0.015590554 2.3509886e-38
0.032230034 -0.11365227 0.018621093 2.3509886e-38
0.034060575 -0.11365227 0.018621093 2.3509886e-38
0.035891119 -0.11365227 0.018621093 2.3509886e-38
0.037804022 -0.11440946 0.015590554 2.3509886e-38
0.039639875 -0.11440946 0.015590554 2.3509886e-38
0.041475736 -0.11440946 0.015590554 2.3509886e-38
0.046133608 -0.13614662 -0.071410291 2.3509886e-38
0.045147441 -0.11440946 0.015590554 2.3509886e-38
0.046983302 -0.11440946 0.015590554 2.3509886e-38
0.048929952 -0.11514379 0.012651449 2.3509886e-38
0.05093091 -0.1161568 0.0085969027 2.3509886e-38
0.052611969 -0.11514379 0.012651449 2.3509886e-38
0.054452978 -0.11514379 0.012651449 2.3509886e-38
0.056475267 -0.1161568 0.0085969027 2.3509886e-38
0.058323383 -0.1161568 0.0085969027 2.3509886e-38
0.06031511 -0.11690097 0.0056184586 2.3509886e-38
0.062168457 -0.11690097 0.0056184586 2.3509886e-38
0.064176723 -0.11764936 0.0026230868 2.3509886e-38
0.066412635 -0.11941226 -0.0044326726 2.3509886e-38
0.068283595 -0.11941226 -0.0044326726 2.3509886e-38
0.070154563 -0.11941226 -0.0044326726 2.341805e-38
0.072025523 -0.11941226 -0.0044326726 2.341805e-38
0.07389649 -0.11941226 -0.0044326726 2.3509527e-38
0.07576745 -0.11941226 -0.0044326726 2.3509886e-38
0.077638417 -0.11941226 -0.0044326726 2.3509527e-38
0.079509377 -0.11941226 -0.0044326726 2.3509527e-38
0.081380345 -0.11941226 -0.0044326726 2.3509165e-38
0.083251305 -0.11941226 -0.0044326726 2.3509521e-38
0.085122265 -0.11941226 -0.0044326726 2.3509161e-38
0.087207109 -0.12014665 -0.0073720161 2.3509521e-38
0.089083225 -0.12014665 -0.0073720161 2.3509165e-38
0.09095934 -0.12014665 -0.0073720161 2.3509164e-38
0.093074955 -0.12091358 -0.010441536 2.2863797e-38
0.095275976 -0.12191428 -0.014446849 2.3509527e-38
0.097164504 -0.12191428 -0.014446849 2.3509527e-38
0.099053018 -0.12191428 -0.014446849 2.341805e-38
-0.11710084 -0.12982969 -0.038400762 1.0327706e-38
-0.11437456 -0.12805928 -0.031364195 2.2219863e-38
-0.11245637 -0.12805928 -0.031364195 2.3418043e-38
-0.11009828 -0.12704925 -0.027349824 2.350988e-38
-0.10754377 -0.12554805 -0.02138328 2.350988e-38
-0.10522497 -0.12455635 -0.017441744 2.350988e-38
-0.10301877 -0.12380283 -0.014446849 2.3418043e-38
-0.10071943 -0.12279506 -0.010441536 2.3326206e-38
-0.098528467 -0.12202276 -0.0073720161 2.3142174e-38
-0.096652351 -0.12202276 -0.0073720161 2.3049978e-38
-0.094776236 -0.12202276 -0.0073720161 2.3509879e-38
-0.09290012 -0.12202276 -0.0073720161 2.3509879e-38
-0.090368994 -0.12026589 -0.00038933195 2.3509876e-38
-0.088505127 -0.12026589 -0.00038933195 2.3509876e-38
-0.086641245 -0.12026589 -0.00038933195 2.3509876e-38
-0.084510647 -0.11950795 0.0026230868 2.3509876e-38
-0.078838773 -0.10845329 0.046560057 2.3509876e-38
-0.077057205 -0.10845329 0.046560057 2.3417323e-38
-0.075275652 -0.10845329 0.046560057 2.3417687e-38
-0.074472286 -0.11147197 0.034562238 2.3509886e-38
-0.072669692 -0.11147197 0.034562238 2.3509886e-38
-0.070867099 -0.11147197 0.034562238 2.2956712e-38
-0.069288634 -0.11221133 0.031623609 2.3509886e-38
-0.067709021 -0.1129816 0.028562194 2.3509886e-38
-0.066619255 -0.11548282 0.018621093 2.3509886e-38
-0.065212615 -0.1169848 0.012651449 2.341769e-38
-0.063371606 -0.1169848 0.012651449 2.3509886e-38
-0.061804287 -0.11800493 0.0085969027 2.3509886e-38
-0.06034895 -0.11950795 0.0026230868 2.3509886e-38
-0.05868315 -0.12026589 -0.00038933195 2.3509886e-38
-0.056819268 -0.12026589 -0.00038933195 2.3509886e-38
-0.051746644 -0.10691936 0.052656658 2.3509886e-38
-0.049975775 -0.10691936 0.052656658 2.3509527e-38
-0.048552312 -0.10845329 0.046560057 2.3509886e-38
-0.046934962 -0.10920133 0.043586977 2.3509886e-38
-0.045308121 -0.10995375 0.040596373 2.3509886e-38
-0.043361425 -0.10920133 0.043586977 2.3509886e-38
-0.041574657 -0.10920133 0.043586977 2.3509886e-38
-0.039787881 -0.10920133 0.043586977 2.3509886e-38
-0.038001113 -0.10920133 0.043586977 2.3509886e-38
-0.036214344 -0.10920133 0.043586977 2.3509886e-38
-0.034427576 -0.10920133 0.043586977 2.3509886e-38
-0.032640807 -0.10920133 0.043586977 2.3509886e-38
-0.030854041 -0.10920133 0.043586977 2.3509886e-38
-0.029180007 -0.10995375 0.040596373 2.3509886e-38
-0.027496124 -0.11071064 0.037588127 2.3509886e-38
-0.025698835 -0.11071064 0.037588127 2.3509886e-38
-0.023999697 -0.11147197 0.034562238 2.3509886e-38
-0.022287274 -0.11221133 0.031623609 2.3509886e-38
-0.020568093 -0.1129816 0.028562194 2.3509886e-38
-0.018861847 -0.11397095 0.024629956 2.3509886e-38
-0.017118005 -0.11472471 0.021634227 2.3509886e-38
-0.015505364 -0.1169848 0.012651449 2.3509886e-38
-0.013664356 -0.1169848 0.012651449 2.3509886e-38
-0.011823347 -0.1169848 0.012651449 2.3509886e-38
-0.0099823382 -0.1169848 0.012651449 2.3509886e-38
-0.0081413295 -0.1169848 0.012651449 2.3509886e-38
-0.0063003208 -0.1169848 0.012651449 2.3509886e-38
-0.0044593122 -0.1169848 0.012651449 2.3509886e-38
-0.0026183035 -0.1169848 0.012651449 2.3509886e-38
-0.000777293 -0.1169848 0.012651449 2.3509886e-38
0.0010637157 -0.1169848 0.012651449 2.3509886e-38
0.0029227603 -0.11624531 0.015590554 2.3509886e-38
0.0047719013 -0.11548282 0.018621093 2.3509886e-38
0.0066103674 -0.11472471 0.021634227 2.3509886e-38
0.0084356274 -0.11472471 0.021634227 2.3509886e-38
