# .PCD v0.7 - Point Cloud Data file format
VERSION 0.7
FIELDS x y z rgb
SIZE 4 4 4 4
TYPE F F F F
COUNT 1 1 1 1
WIDTH 927
HEIGHT 1
VIEWPOINT 0 0 0 1 0 0 0
POINTS 927
DATA ascii
-0.025693489 -0.11441202 -0.10685471 2.3509886e-38
-0.023719059 -0.11441202 -0.10685471 2.3509886e-38
-0.021744629 -0.11441202 -0.10685471 2.3509886e-38
-0.019770196 -0.11441202 -0.10685471 2.3509886e-38
-0.017750977 -0.11371385 -0.10384944 2.3509886e-38
-0.015781818 -0.11371385 -0.10384944 2.3509886e-38
-0.013767274 -0.11278872 -0.099867254 2.3509886e-38
-0.011765776 -0.11184154 -0.095790178 2.3509886e-38
-0.009787498 -0.11115701 -0.092843562 2.2956712e-38
-0.0078376345 -0.11115701 -0.092843562 2.2772321e-38
-0.0058701206 -0.11022164 -0.088817269 2.3048907e-38
-0.0039273165 -0.11022164 -0.088817269 2.3233299e-38
-0.0019818544 -0.10951753 -0.085786492 2.3140384e-38
-4.4364482e-05 -0.10951753 -0.085786492 2.3231504e-38
0.0019010976 -0.11022164 -0.088817269 2.3508809e-38
0.0038439017 -0.11022164 -0.088817269 2.3509527e-38
0.0057867076 -0.11022164 -0.088817269 2.3509527e-38
0.0077295117 -0.11022164 -0.088817269 2.3234379e-38
0.0096723167 -0.11022164 -0.088817269 2.3142544e-38
0.011991786 -0.11789979 -0.12186769 2.2958873e-38
0.014045279 -0.11883153 -0.12587836 2.2867037e-38
0.016053064 -0.11883153 -0.12587836 2.1946527e-38
0.018125949 -0.11973949 -0.12978664 2.2130915e-38
-0.049086496 -0.11475091 -0.099867254 2.3418043e-38
-0.047124319 -0.11475091 -0.099867254 2.3509883e-38
-0.045162141 -0.11475091 -0.099867254 2.3509883e-38
-0.043199956 -0.11475091 -0.099867254 2.3509883e-38
-0.041237779 -0.11475091 -0.099867254 2.3509883e-38
-0.039275602 -0.11475091 -0.099867254 2.3509883e-38
-0.037313424 -0.11475091 -0.099867254 2.3509883e-38
-0.035351239 -0.11475091 -0.099867254 2.3509527e-38
-0.033389062 -0.11475091 -0.099867254 2.3509527e-38
-0.031426884 -0.11475091 -0.099867254 2.3509886e-38
-0.029642349 -0.11638646 -0.10685471 2.3509886e-38
-0.027667919 -0.11638646 -0.10685471 2.3509886e-38
-0.025779089 -0.11730064 -0.11076036 2.3509886e-38
-0.023719059 -0.11638646 -0.10685471 2.3509886e-38
-0.021744629 -0.11638646 -0.10685471 2.3509886e-38
-0.019770196 -0.11638646 -0.10685471 2.3509886e-38
-0.017750977 -0.115683 -0.10384944 2.3509886e-38
-0.015729452 -0.11475091 -0.099867254 2.2956712e-38
-0.013767274 -0.11475091 -0.099867254 2.3233299e-38
-0.011737363 -0.11310686 -0.092843562 2.3325494e-38
-0.0097557306 -0.11216442 -0.088817269 2.3233299e-38
-0.0078129265 -0.11216442 -0.088817269 2.3233299e-38
-0.0058701206 -0.11216442 -0.088817269 2.3509886e-38
-0.0039273165 -0.11216442 -0.088817269 2.3509886e-38
-0.0019818544 -0.11145501 -0.085786492 2.3509527e-38
-4.4364482e-05 -0.11145501 -0.085786492 2.3509165e-38
0.0019010976 -0.11216442 -0.088817269 2.341445e-38
0.0038439017 -0.11216442 -0.088817269 2.240138e-38
0.0057867076 -0.11216442 -0.088817269 2.3509527e-38
0.0077612791 -0.11310686 -0.092843562 2.3509886e-38
0.0097111436 -0.11310686 -0.092843562 2.2680488e-38
0.011661008 -0.11310686 -0.092843562 2.2128396e-38
0.014045279 -0.12083931 -0.12587836 2.3142544e-38
0.016053064 -0.12083931 -0.12587836 2.3142544e-38
0.018125949 -0.12175412 -0.12978664 2.3142544e-38
0.020140586 -0.12175412 -0.12978664 2.3234379e-38
-0.051048681 -0.11671309 -0.099867254 6.0845486e-39
-0.049086496 -0.11671309 -0.099867254 2.3325131e-38
-0.047124319 -0.11671309 -0.099867254 2.3509883e-38
-0.045162141 -0.11671309 -0.099867254 2.3509883e-38
-0.043199956 -0.11671309 -0.099867254 2.3509883e-38
-0.041237779 -0.11671309 -0.099867254 2.3509883e-38
-0.039275602 -0.11671309 -0.099867254 2.3509524e-38
-0.037313424 -0.11671309 -0.099867254 2.3509524e-38
-0.035351239 -0.11671309 -0.099867254 2.3509524e-38
-0.033389062 -0.11671309 -0.099867254 2.3509883e-38
-0.031426884 -0.11671309 -0.099867254 2.3509886e-38
-0.029565943 -0.11765216 -0.10384944 2.3509886e-38
-0.027596785 -0.11765216 -0.10384944 2.3509886e-38
-0.025627626 -0.11765216 -0.10384944 2.3509886e-38
-0.02365846 -0.11765216 -0.10384944 2.3509886e-38
-0.021689301 -0.11765216 -0.10384944 2.3509886e-38
-0.019720143 -0.11765216 -0.10384944 2.3509886e-38
-0.017750977 -0.11765216 -0.10384944 2.3509886e-38
-0.015729452 -0.11671309 -0.099867254 2.3509886e-38
-0.013767274 -0.11671309 -0.099867254 2.3509886e-38
-0.011737363 -0.11505674 -0.092843562 2.3509886e-38
-0.0097557306 -0.11410724 -0.088817269 2.3509886e-38
-0.0077943262 -0.11339252 -0.085786492 2.3509886e-38
-0.0058568362 -0.11339252 -0.085786492 2.3141103e-38
-0.0039273165 -0.11410724 -0.088817269 2.2772321e-38
-0.0019818544 -0.11339252 -0.085786492 2.2771958e-38
-4.4364482e-05 -0.11339252 -0.085786492 2.2677241e-38
0.0018931273 -0.11339252 -0.085786492 2.3509163e-38
0.0038306173 -0.11339252 -0.085786492 2.3509163e-38
0.0057867076 -0.11410724 -0.088817269 2.3509165e-38
0.0077295117 -0.11410724 -0.088817269 2.3508446e-38
0.0096723167 -0.11410724 -0.088817269 2.3509527e-38
0.011615122 -0.11410724 -0.088817269 2.3509886e-38
0.013795119 -0.11836089 -0.10685471 2.3326213e-38
0.015769549 -0.11836089 -0.10685471 2.3141822e-38
0.01806085 -0.1228471 -0.12587836 2.2958507e-38
0.020068634 -0.1228471 -0.12587836 2.3141819e-38
-0.051048681 -0.11867525 -0.099867254 5.4391792e-39
-0.049086496 -0.11867525 -0.099867254 2.2956349e-38
-0.046956331 -0.11770664 -0.095790178 2.3509883e-38
-0.045001298 -0.11770664 -0.095790178 2.3509883e-38
-0.043199956 -0.11867525 -0.099867254 2.3509883e-38
-0.041237779 -0.11867525 -0.099867254 2.3509883e-38
-0.039275602 -0.11867525 -0.099867254 2.3509524e-38
-0.037313424 -0.11867525 -0.099867254 2.3509524e-38
-0.035226144 -0.11770664 -0.095790178 2.3509524e-38
-0.033271112 -0.11770664 -0.095790178 2.3509883e-38
-0.031316087 -0.11770664 -0.095790178 2.3509527e-38
-0.029464705 -0.11867525 -0.099867254 2.3509886e-38
-0.027502527 -0.11867525 -0.099867254 2.3509886e-38
-0.025627626 -0.11962132 -0.10384944 2.3509886e-38
-0.023578169 -0.11867525 -0.099867254 2.3509886e-38
-0.021615988 -0.11867525 -0.099867254 2.3509886e-38
-0.019720143 -0.11962132 -0.10384944 2.3509886e-38
-0.017691633 -0.11867525 -0.099867254 2.3509886e-38
-0.015729452 -0.11867525 -0.099867254 2.3509886e-38
-0.013720809 -0.11770664 -0.095790178 2.3048907e-38
-0.011698535 -0.11605005 -0.088817269 2.2864516e-38
-0.009731818 -0.11533 -0.085786492 2.341769e-38
-0.0077699311 -0.11438553 -0.0818111 2.3509886e-38
-0.0058394112 -0.11438553 -0.0818111 2.3509886e-38
-0.0039193463 -0.11533 -0.085786492 2.3509886e-38
-0.0019783694 -0.11438553 -0.0818111 2.3509883e-38
-4.7849491e-05 -0.11438553 -0.0818111 2.3509521e-38
0.0018931273 -0.11533 -0.085786492 2.3508082e-38
0.0038306173 -0.11533 -0.085786492 2.3507362e-38
0.0057681082 -0.11533 -0.085786492 2.3508445e-38
0.0077295117 -0.11605005 -0.088817269 2.3509164e-38
0.0096723167 -0.11605005 -0.088817269 2.3325131e-38
0.011615122 -0.11605005 -0.088817269 2.3233299e-38
0.01364962 -0.11770664 -0.095790178 2.341805e-38
0.015665412 -0.11867525 -0.099867254 2.341805e-38
0.017693922 -0.11962132 -0.10384944 2.3418047e-38
0.019663082 -0.11962132 -0.10384944 2.3509883e-38
-0.051048681 -0.12063743 -0.099867254 2.3970836e-39
-0.049086496 -0.12063743 -0.099867254 2.0467427e-38
-0.046956331 -0.11966167 -0.095790178 2.3325131e-38
-0.045001298 -0.11966167 -0.095790178 2.3232936e-38
-0.043199956 -0.12063743 -0.099867254 2.3325131e-38
-0.041091233 -0.11966167 -0.095790178 2.3509883e-38
-0.039136209 -0.11966167 -0.095790178 2.3509524e-38
-0.037181176 -0.11966167 -0.095790178 2.3509524e-38
-0.035226144 -0.11966167 -0.095790178 2.3509164e-38
-0.033271112 -0.11966167 -0.095790178 2.3509883e-38
-0.031316087 -0.11966167 -0.095790178 2.3509527e-38
-0.029464705 -0.12063743 -0.099867254 2.3509886e-38
-0.027502527 -0.12063743 -0.099867254 2.3509886e-38
-0.025627626 -0.12159048 -0.10384944 2.3509886e-38
-0.023578169 -0.12063743 -0.099867254 2.3509886e-38
-0.021615988 -0.12063743 -0.099867254 2.3509886e-38
-0.019720143 -0.12159048 -0.10384944 2.3509886e-38
-0.01763087 -0.11966167 -0.095790178 2.3509886e-38
-0.01563709 -0.11895646 -0.092843562 2.3509886e-38
-0.013641341 -0.11799283 -0.088817269 2.3509886e-38
-0.011630973 -0.11631607 -0.0818111 2.3509886e-38
-0.0097004529 -0.11631607 -0.0818111 2.3509886e-38
-0.0077457111 -0.11537148 -0.077864319 2.3509886e-38
-0.0058221109 -0.11537148 -0.077864319 2.3509886e-38
-0.0039088894 -0.11631607 -0.0818111 2.3509886e-38
-0.0019783694 -0.11631607 -0.0818111 2.3509527e-38
-4.7849491e-05 -0.11631607 -0.0818111 2.3509524e-38
0.0018826704 -0.11631607 -0.0818111 2.3509524e-38
0.0038306173 -0.11726747 -0.085786492 2.3509524e-38
0.0057681082 -0.11726747 -0.085786492 2.3509527e-38
0.0077295117 -0.11799283 -0.088817269 2.3509527e-38
0.0096723167 -0.11799283 -0.088817269 2.3509886e-38
0.011615122 -0.11799283 -0.088817269 2.3509886e-38
0.013610872 -0.11895646 -0.092843562 2.341805e-38
0.015560737 -0.11895646 -0.092843562 2.341805e-38
0.0175106 -0.11895646 -0.092843562 2.3050703e-38
0.019589771 -0.12063743 -0.099867254 2.3234015e-38
0.021632243 -0.12159048 -0.10384944 2.3418045e-38
-0.051048681 -0.12259962 -0.099867254 3.9644093e-39
-0.049086496 -0.12259962 -0.099867254 1.364495e-38
-0.046956331 -0.12161671 -0.095790178 2.3509883e-38
-0.045001298 -0.12161671 -0.095790178 2.3509883e-38
-0.043199956 -0.12259962 -0.099867254 2.3509883e-38
-0.041091233 -0.12161671 -0.095790178 2.3509883e-38
-0.039136209 -0.12161671 -0.095790178 2.3508804e-38
-0.037181176 -0.12161671 -0.095790178 2.3509164e-38
-0.035226144 -0.12161671 -0.095790178 2.3509524e-38
-0.033271112 -0.12161671 -0.095790178 2.3509883e-38
-0.031316087 -0.12161671 -0.095790178 2.3509886e-38
-0.029361052 -0.12161671 -0.095790178 2.3509886e-38
-0.026579035 -0.11319371 -0.060852081 2.3509886e-38
-0.024685265 -0.11319371 -0.060852081 2.3509886e-38
-0.022791492 -0.11319371 -0.060852081 2.3509886e-38
-0.020970283 -0.11414395 -0.064793617 2.3509886e-38
-0.019003948 -0.11319371 -0.060852081 2.3509886e-38
-0.017110175 -0.11319371 -0.060852081 2.3509886e-38
-0.015216401 -0.11319371 -0.060852081 2.3509886e-38
-0.01336755 -0.11414395 -0.064793617 2.3509886e-38
-0.011524403 -0.11558239 -0.070760161 2.3509886e-38
-0.0096132606 -0.11558239 -0.070760161 2.3509886e-38
-0.0077267494 -0.11655019 -0.074774534 2.3509886e-38
-0.0058085676 -0.11655019 -0.074774534 2.3509886e-38
-0.003890384 -0.11655019 -0.074774534 2.3509886e-38
-0.0019749105 -0.11729507 -0.077864319 2.3509886e-38
-5.1308423e-05 -0.11729507 -0.077864319 2.3509527e-38
0.0018826704 -0.11824657 -0.0818111 2.3509527e-38
0.0038306173 -0.11920498 -0.085786492 2.3509527e-38
0.0057681082 -0.11920498 -0.085786492 2.3509886e-38
0.0077295117 -0.11993565 -0.088817269 2.3509886e-38
0.0096723167 -0.11993565 -0.088817269 2.341805e-38
0.011615122 -0.11993565 -0.088817269 2.341805e-38
0.013557926 -0.11993565 -0.088817269 2.341805e-38
0.015560737 -0.12090631 -0.092843562 2.3234379e-38
0.0175106 -0.12090631 -0.092843562 2.3050347e-38
0.019460464 -0.12090631 -0.092843562 2.3234018e-38
0.021469742 -0.12161671 -0.095790178 2.3418047e-38
-0.051048681 -0.1245618 -0.099867254 1.9368271e-39
-0.049086496 -0.1245618 -0.099867254 1.2539325e-38
-0.047124319 -0.1245618 -0.099867254 2.2956712e-38
-0.045162141 -0.1245618 -0.099867254 2.3509886e-38
-0.043199956 -0.1245618 -0.099867254 2.3509883e-38
-0.041237779 -0.1245618 -0.099867254 2.3509883e-38
-0.039275602 -0.1245618 -0.099867254 2.3325131e-38
-0.037313424 -0.1245618 -0.099867254 2.3509883e-38
-0.035226144 -0.12357174 -0.095790178 2.3509883e-38
-0.032173716 -0.1143602 -0.057857186 2.3509883e-38
-0.030285193 -0.1143602 -0.057857186 2.3509886e-38
-0.028396672 -0.1143602 -0.057857186 2.3509886e-38
-0.026508151 -0.1143602 -0.057857186 2.3509886e-38
-0.02461963 -0.1143602 -0.057857186 2.3509886e-38
-0.022791492 -0.11508749 -0.060852081 2.3509886e-38
-0.020897722 -0.11508749 -0.060852081 2.3509886e-38
-0.019003948 -0.11508749 -0.060852081 2.3509886e-38
-0.017110175 -0.11508749 -0.060852081 2.3509886e-38
-0.015216401 -0.11508749 -0.060852081 2.3509886e-38
-0.013322631 -0.11508749 -0.060852081 2.3509886e-38
-0.011466866 -0.11604463 -0.064793617 2.3509886e-38
-0.0095661841 -0.11604463 -0.064793617 2.3509886e-38
-0.0076655019 -0.11604463 -0.064793617 2.3509886e-38
-0.0057648178 -0.11604463 -0.064793617 2.3509886e-38
-0.0038721133 -0.11678131 -0.067827255 2.3509886e-38
-0.0019722003 -0.11846836 -0.074774534 2.3509886e-38
-5.4018572e-05 -0.11846836 -0.074774534 2.3509886e-38
0.0018722918 -0.11921866 -0.077864319 2.341805e-38
0.0038131922 -0.12017711 -0.0818111 2.341805e-38
0.0057681082 -0.12114246 -0.085786492 2.341805e-38
0.0077055991 -0.12114246 -0.085786492 2.341805e-38
0.0096723167 -0.12187846 -0.088817269 2.3234379e-38
0.011615122 -0.12187846 -0.088817269 2.3234379e-38
0.013557926 -0.12187846 -0.088817269 2.3234379e-38
0.015560737 -0.12285618 -0.092843562 2.3234379e-38
0.0175106 -0.12285618 -0.092843562 2.3050349e-38
0.019460464 -0.12285618 -0.092843562 2.3142544e-38
0.021410329 -0.12285618 -0.092843562 2.3234379e-38
-0.05122672 -0.12749799 -0.10384944 1.1077867e-39
-0.049086496 -0.12652399 -0.099867254 4.8870872e-39
-0.047124319 -0.12652399 -0.099867254 2.1205714e-38
-0.045162141 -0.12652399 -0.099867254 2.2864516e-38
-0.043199956 -0.12652399 -0.099867254 2.3509883e-38
-0.041237779 -0.12652399 -0.099867254 2.3509883e-38
-0.039275602 -0.12652399 -0.099867254 2.3509523e-38
-0.037313424 -0.12652399 -0.099867254 2.3509883e-38
-0.033939339 -0.11526908 -0.053851873 2.3509883e-38
-0.032057837 -0.11526908 -0.053851873 2.3232936e-38
-0.030285193 -0.11624874 -0.057857186 2.3509886e-38
-0.028396672 -0.11624874 -0.057857186 2.3509886e-38
-0.026508151 -0.11624874 -0.057857186 2.3509886e-38
-0.02461963 -0.11624874 -0.057857186 2.3509886e-38
-0.022731105 -0.11624874 -0.057857186 2.3509886e-38
-0.020842584 -0.11624874 -0.057857186 2.3509886e-38
-0.018954063 -0.11624874 -0.057857186 2.3509886e-38
-0.017065542 -0.11624874 -0.057857186 2.3509886e-38
-0.015177021 -0.11624874 -0.057857186 2.3509886e-38
-0.013322631 -0.11698125 -0.060852081 2.3509886e-38
-0.011428857 -0.11698125 -0.060852081 2.3509886e-38
-0.0095350854 -0.11698125 -0.060852081 2.3509886e-38
-0.0076655019 -0.11794533 -0.064793617 2.3509886e-38
-0.0057648178 -0.11794533 -0.064793617 2.3509886e-38
-0.0038641337 -0.11794533 -0.064793617 2.3509886e-38
-0.0019686818 -0.11940466 -0.070760161 2.3509886e-38
-5.4018572e-05 -0.12038656 -0.074774534 2.341805e-38
0.0018722918 -0.12114228 -0.077864319 2.341805e-38
0.0038131922 -0.12210761 -0.0818111 2.3234379e-38
0.0057681082 -0.12307997 -0.085786492 2.3234379e-38
0.0077055991 -0.12307997 -0.085786492 2.3234379e-38
0.0096723167 -0.12382124 -0.088817269 2.3234379e-38
0.011615122 -0.12382124 -0.088817269 2.3234379e-38
0.013557926 -0.12382124 -0.088817269 2.3234379e-38
0.015500732 -0.12382124 -0.088817269 2.341805e-38
0.017443536 -0.12382124 -0.088817269 2.3050349e-38
0.01938634 -0.12382124 -0.088817269 2.3325856e-38
0.021329146 -0.12382124 -0.088817269 2.3234379e-38
0.02327195 -0.12382124 -0.088817269 2.341805e-38
-0.049257562 -0.12946714 -0.10384944 7.1926983e-39
-0.047124319 -0.12848614 -0.099867254 2.0745456e-38
-0.045162141 -0.12848614 -0.099867254 2.2588648e-38
-0.043199956 -0.12848614 -0.099867254 2.3418047e-38
-0.041237779 -0.12848614 -0.099867254 2.3418047e-38
-0.039275602 -0.12848614 -0.099867254 2.3325492e-38
-0.037313424 -0.12848614 -0.099867254 2.3509883e-38
-0.033845156 -0.11639442 -0.050782353 2.3509883e-38
-0.031969041 -0.11639442 -0.050782353 2.31411e-38
-0.030285193 -0.11813726 -0.057857186 2.3509886e-38
-0.028396672 -0.11813726 -0.057857186 2.3509886e-38
-0.026508151 -0.11813726 -0.057857186 2.3509886e-38
-0.02461963 -0.11813726 -0.057857186 2.3509886e-38
-0.022731105 -0.11813726 -0.057857186 2.3509886e-38
-0.020842584 -0.11813726 -0.057857186 2.3509886e-38
-0.018954063 -0.11813726 -0.057857186 2.3509886e-38
-0.017065542 -0.11813726 -0.057857186 2.3509886e-38
-0.015177021 -0.11813726 -0.057857186 2.3509886e-38
-0.0132885 -0.11813726 -0.057857186 2.3509886e-38
-0.011428857 -0.11887501 -0.060852081 2.3509886e-38
-0.0095350854 -0.11887501 -0.060852081 2.3509886e-38
-0.0076413136 -0.11887501 -0.060852081 2.3509886e-38
-0.0057475399 -0.11887501 -0.060852081 2.3509886e-38
-0.0038537681 -0.11887501 -0.060852081 2.3509886e-38
-0.0019599963 -0.11887501 -0.060852081 2.3509886e-38
-6.0107559e-05 -0.12059332 -0.067827255 2.341805e-38
0.0018722918 -0.12306587 -0.077864319 2.341805e-38
0.0038131922 -0.12403814 -0.0818111 2.341805e-38
0.0057681082 -0.12501745 -0.085786492 2.3418047e-38
0.0077055991 -0.12501745 -0.085786492 2.341805e-38
0.00964309 -0.12501745 -0.085786492 2.3418047e-38
0.011615122 -0.12576406 -0.088817269 2.341805e-38
0.013557926 -0.12576406 -0.088817269 2.3418047e-38
0.015500732 -0.12576406 -0.088817269 2.3509886e-38
0.017443536 -0.12576406 -0.088817269 2.3326213e-38
0.01938634 -0.12576406 -0.088817269 2.341769e-38
0.021329146 -0.12576406 -0.088817269 2.341805e-38
0.02327195 -0.12576406 -0.088817269 2.3509886e-38
0.025214754 -0.12576406 -0.088817269 2.341805e-38
-0.046419948 -0.11504765 -0.037791878 2.1668131e-38
-0.044566602 -0.11504765 -0.037791878 2.2220586e-38
-0.042713262 -0.11504765 -0.037791878 2.3050347e-38
-0.040972836 -0.11579077 -0.04078725 2.3418047e-38
-0.039114244 -0.11579077 -0.04078725 2.3141819e-38
-0.037358649 -0.11653815 -0.043799669 2.3048905e-38
-0.035494775 -0.11653815 -0.043799669 2.3509883e-38
-0.0336309 -0.11653815 -0.043799669 2.3509883e-38
-0.031969041 -0.11827053 -0.050782353 2.3509883e-38
-0.03017634 -0.11903207 -0.053851873 2.3509886e-38
-0.028294841 -0.11903207 -0.053851873 2.3509886e-38
-0.026508151 -0.12002577 -0.057857186 2.3509886e-38
-0.02461963 -0.12002577 -0.057857186 2.3509886e-38
-0.022731105 -0.12002577 -0.057857186 2.3509886e-38
-0.020842584 -0.12002577 -0.057857186 2.3509886e-38
-0.018954063 -0.12002577 -0.057857186 2.3509886e-38
-0.017065542 -0.12002577 -0.057857186 2.3509886e-38
-0.015177021 -0.12002577 -0.057857186 2.3509886e-38
-0.0132885 -0.12002577 -0.057857186 2.3509886e-38
-0.011399977 -0.12002577 -0.057857186 2.3509886e-38
-0.0095114559 -0.12002577 -0.057857186 2.3509886e-38
-0.0076229349 -0.12002577 -0.057857186 2.3509886e-38
-0.0057168566 -0.11903207 -0.053851873 2.3509886e-38
-0.0038353577 -0.11903207 -0.053851873 2.3509886e-38
-0.0019538589 -0.11903207 -0.053851873 2.3509886e-38
-8.9051202e-05 -0.1143087 -0.034813434 2.3418047e-38
0.0017590672 -0.1143087 -0.034813434 2.3418047e-38
0.0035765301 -0.11257361 -0.027819782 2.3418047e-38
0.0053937882 -0.11182173 -0.024789244 2.350988e-38
0.0072243307 -0.11182173 -0.024789244 2.3509883e-38
0.00964309 -0.12695493 -0.085786492 2.350988e-38
0.011580581 -0.12695493 -0.085786492 2.3509883e-38
0.013518072 -0.12695493 -0.085786492 2.350988e-38
0.015455563 -0.12695493 -0.085786492 2.3509883e-38
0.017393053 -0.12695493 -0.085786492 2.3509523e-38
0.019330544 -0.12695493 -0.085786492 2.3509523e-38
0.021268034 -0.12695493 -0.085786492 2.3509883e-38
0.023205526 -0.12695493 -0.085786492 2.3509527e-38
0.025214754 -0.12770687 -0.088817269 2.3509886e-38
-0.050126627 -0.11690097 -0.037791878 7.2870547e-39
-0.048273288 -0.11690097 -0.037791878 1.6229671e-38
-0.046419948 -0.11690097 -0.037791878 2.2958873e-38
-0.04444389 -0.1161568 -0.034813434 2.3142544e-38
-0.042595766 -0.1161568 -0.034813434 2.3142544e-38
-0.040859923 -0.11690097 -0.037791878 2.3234376e-38
-0.039114244 -0.11764936 -0.04078725 2.3234376e-38
-0.037255652 -0.11764936 -0.04078725 2.3234015e-38
-0.03539706 -0.11764936 -0.04078725 2.332621e-38
-0.033538468 -0.11764936 -0.04078725 2.3418045e-38
-0.031679884 -0.11764936 -0.04078725 2.3418047e-38
-0.030013038 -0.11941226 -0.047843009 2.3509886e-38
-0.028142078 -0.11941226 -0.047843009 2.3509886e-38
-0.02627111 -0.11941226 -0.047843009 2.3509886e-38
-0.02440015 -0.11941226 -0.047843009 2.3509886e-38
-0.022588452 -0.12014665 -0.050782353 2.3509886e-38
-0.020712337 -0.12014665 -0.050782353 2.3509886e-38
-0.018887347 -0.12091358 -0.053851873 2.3509886e-38
-0.017005851 -0.12091358 -0.053851873 2.3509886e-38
-0.015124349 -0.12091358 -0.053851873 2.3509886e-38
-0.0132885 -0.12191428 -0.057857186 2.3509886e-38
-0.011399977 -0.12191428 -0.057857186 2.3509886e-38
-0.0095114559 -0.12191428 -0.057857186 2.3509886e-38
-0.0075983554 -0.12091358 -0.053851873 2.3509886e-38
-0.0056334045 -0.1161568 -0.034813434 2.3509886e-38
-0.0037852861 -0.1161568 -0.034813434 2.3509886e-38
-0.0019371677 -0.1161568 -0.034813434 2.3509883e-38
-8.9051202e-05 -0.1161568 -0.034813434 2.350988e-38
0.0017484035 -0.11514379 -0.030758888 2.350988e-38
0.0035632458 -0.11365227 -0.024789244 2.350988e-38
0.0053937882 -0.11365227 -0.024789244 2.3509879e-38
0.0072243307 -0.11365227 -0.024789244 2.350988e-38
0.0090548731 -0.11365227 -0.024789244 2.3509879e-38
0.011580581 -0.12889244 -0.085786492 2.350988e-38
0.013518072 -0.12889244 -0.085786492 2.3509879e-38
0.015455563 -0.12889244 -0.085786492 2.3509161e-38
0.017326836 -0.12789918 -0.0818111 2.3509521e-38
0.019257357 -0.12789918 -0.0818111 2.3509161e-38
0.021187877 -0.12789918 -0.0818111 2.350952e-38
0.023118397 -0.12789918 -0.0818111 2.3509164e-38
-0.04998824 -0.11800493 -0.034813434 2.1669213e-38
-0.048140123 -0.11800493 -0.034813434 2.3142544e-38
-0.046292007 -0.11800493 -0.034813434 2.2590087e-38
-0.044276819 -0.1169848 -0.030758888 2.3234379e-38
-0.04243581 -0.1169848 -0.030758888 2.3234379e-38
-0.04074765 -0.11800493 -0.034813434 2.3418047e-38
-0.039006583 -0.11875431 -0.037791878 2.3418047e-38
-0.037153244 -0.11875431 -0.037791878 2.3418047e-38
-0.035299905 -0.11875431 -0.037791878 2.3418047e-38
-0.033538468 -0.11950795 -0.04078725 2.3234012e-38
-0.031679884 -0.11950795 -0.04078725 2.3326208e-38
-0.030013038 -0.12128322 -0.047843009 2.3509886e-38
-0.028142078 -0.12128322 -0.047843009 2.3509886e-38
-0.02627111 -0.12128322 -0.047843009 2.3509886e-38
-0.02440015 -0.12128322 -0.047843009 2.3509886e-38
-0.022588452 -0.12202276 -0.050782353 2.3509886e-38
-0.020712337 -0.12202276 -0.050782353 2.3509886e-38
-0.018887347 -0.12279506 -0.053851873 2.3509886e-38
-0.016916296 -0.12128322 -0.047843009 2.3509886e-38
-0.015045336 -0.12128322 -0.047843009 2.3509886e-38
-0.012946172 -0.11624531 -0.027819782 2.3509886e-38
-0.011110315 -0.11624531 -0.027819782 2.3509886e-38
-0.0092976503 -0.1169848 -0.030758888 2.3509886e-38
-0.0074815229 -0.11800493 -0.034813434 2.3509886e-38
-0.0056334045 -0.11800493 -0.034813434 2.3509886e-38
-0.0037746225 -0.1169848 -0.030758888 2.3509886e-38
-0.0019336138 -0.1169848 -0.030758888 2.3509883e-38
-9.2605129e-05 -0.1169848 -0.030758888 2.350988e-38
0.0017484035 -0.1169848 -0.030758888 2.350988e-38
0.0035632458 -0.11548282 -0.024789244 2.350988e-38
0.0053937882 -0.11548282 -0.024789244 2.350988e-38
0.0072243307 -0.11548282 -0.024789244 2.350988e-38
0.0090548731 -0.11548282 -0.024789244 2.350988e-38
0.011580581 -0.13082992 -0.085786492 2.3509521e-38
0.013518072 -0.13082992 -0.085786492 2.3509521e-38
0.015455563 -0.13082992 -0.085786492 2.3509161e-38
0.017326836 -0.12982969 -0.0818111 2.3509521e-38
0.019257357 -0.12982969 -0.0818111 2.3509161e-38
0.021187877 -0.12982969 -0.0818111 2.3417324e-38
0.023118397 -0.12982969 -0.0818111 2.3508804e-38
-0.04998824 -0.11985306 -0.034813434 2.3050349e-38
-0.047958843 -0.11882581 -0.030758888 2.304927e-38
-0.045991577 -0.11808117 -0.027819782 2.3325494e-38
-0.044155724 -0.11808117 -0.027819782 2.3509886e-38
-0.04243581 -0.11882581 -0.030758888 2.3509883e-38
-0.040594801 -0.11882581 -0.030758888 2.3509883e-38
-0.038899526 -0.11985306 -0.034813434 2.3509883e-38
-0.037153244 -0.12060766 -0.037791878 2.3418045e-38
-0.035299905 -0.12060766 -0.037791878 2.3418045e-38
-0.033446565 -0.12060766 -0.037791878 2.3234374e-38
-0.031593226 -0.12060766 -0.037791878 2.3418045e-38
-0.029903157 -0.12212978 -0.043799669 2.3509886e-38
-0.028039282 -0.12212978 -0.043799669 2.3509886e-38
-0.02627111 -0.12315418 -0.047843009 2.3509886e-38
-0.02440015 -0.12315418 -0.047843009 2.3509886e-38
-0.022588452 -0.12389888 -0.050782353 2.3509886e-38
-0.020233801 -0.11731337 -0.024789244 2.3509886e-38
-0.018353073 -0.11654995 -0.02177611 2.3509886e-38
-0.016483167 -0.11579098 -0.01878038 2.3509886e-38
-0.014663158 -0.11579098 -0.01878038 2.3509886e-38
-0.012843153 -0.11579098 -0.01878038 2.3509886e-38
-0.011023147 -0.11579098 -0.01878038 2.3509886e-38
-0.0092031397 -0.11579098 -0.01878038 2.3509886e-38
-0.0074386057 -0.11808117 -0.027819782 2.3509886e-38
-0.0056156311 -0.11882581 -0.030758888 2.3509886e-38
-0.0037668925 -0.11808117 -0.027819782 2.3509886e-38
-0.0019310378 -0.11808117 -0.027819782 2.3509886e-38
-9.5181167e-05 -0.11808117 -0.027819782 2.3509883e-38
0.0017327033 -0.11731337 -0.024789244 2.3509883e-38
0.0035632458 -0.11731337 -0.024789244 2.3509883e-38
0.0053752977 -0.11654995 -0.02177611 2.3509883e-38
0.0072005568 -0.11654995 -0.02177611 2.3509883e-38
0.0090258168 -0.11654995 -0.02177611 2.3509883e-38
0.010851076 -0.11654995 -0.02177611 2.3509883e-38
0.012676335 -0.11654995 -0.02177611 2.3509883e-38
0.014501594 -0.11654995 -0.02177611 2.3509883e-38
0.016326854 -0.11654995 -0.02177611 2.3509883e-38
0.018871501 -0.12645011 -0.060852081 2.3509883e-38
0.020765273 -0.12645011 -0.060852081 2.3509883e-38
0.022659047 -0.12645011 -0.060852081 2.3509527e-38
-0.050584391 -0.11507715 -0.0088481009 2.268157e-38
-0.048781805 -0.11507715 -0.0088481009 2.341805e-38
-0.047423288 -0.11761098 -0.01878038 2.323258e-38
-0.045731962 -0.11837523 -0.02177611 2.3509527e-38
-0.043906704 -0.11837523 -0.02177611 2.3509883e-38
-0.042200312 -0.11914389 -0.024789244 2.3509883e-38
-0.040369771 -0.11914389 -0.024789244 2.3509883e-38
-0.038648151 -0.11991702 -0.027819782 2.3509883e-38
-0.036912784 -0.12066682 -0.030758888 2.350988e-38
-0.035071775 -0.12066682 -0.030758888 2.3418045e-38
-0.033230767 -0.12066682 -0.030758888 2.3418045e-38
-0.031389758 -0.12066682 -0.030758888 2.3418045e-38
-0.02982129 -0.12322514 -0.04078725 2.3509886e-38
-0.027962698 -0.12322514 -0.04078725 2.3509886e-38
-0.026175408 -0.12399365 -0.043799669 2.3509886e-38
-0.024311533 -0.12399365 -0.043799669 2.3509886e-38
-0.02180217 -0.11582683 -0.011786729 2.3509886e-38
-0.019994428 -0.11582683 -0.011786729 2.3509886e-38
-0.018237675 -0.11660783 -0.014848143 2.3509886e-38
-0.016483167 -0.11761098 -0.01878038 2.3509886e-38
-0.014663158 -0.11761098 -0.01878038 2.3509886e-38
-0.012843153 -0.11761098 -0.01878038 2.3509886e-38
-0.011023147 -0.11761098 -0.01878038 2.3509886e-38
-0.0092031397 -0.11761098 -0.01878038 2.3509886e-38
-0.0074015167 -0.11837523 -0.02177611 2.3509886e-38
-0.0055894647 -0.11914389 -0.024789244 2.3509886e-38
-0.0037589222 -0.11914389 -0.024789244 2.3509886e-38
-0.0019283798 -0.11914389 -0.024789244 2.3509886e-38
-9.7839162e-05 -0.11914389 -0.024789244 2.3509886e-38
0.0017327033 -0.11914389 -0.024789244 2.3509886e-38
0.0035500396 -0.11837523 -0.02177611 2.3509886e-38
0.0053752977 -0.11837523 -0.02177611 2.3509886e-38
0.0072005568 -0.11837523 -0.02177611 2.3509886e-38
0.0090258168 -0.11837523 -0.02177611 2.3509886e-38
0.010851076 -0.11837523 -0.02177611 2.3509886e-38
0.012676335 -0.11837523 -0.02177611 2.3509886e-38
0.014501594 -0.11837523 -0.02177611 2.3509886e-38
0.018742627 -0.12655805 -0.053851873 2.3509886e-38
0.020624125 -0.12655805 -0.053851873 2.3509886e-38
0.022505624 -0.12655805 -0.053851873 2.3509886e-38
-0.050584391 -0.11687975 -0.0088481009 2.3234379e-38
-0.048781805 -0.11687975 -0.0088481009 2.341805e-38
-0.047247469 -0.11842094 -0.014848143 2.3324775e-38
-0.045434356 -0.11842094 -0.014848143 2.3324775e-38
-0.04378327 -0.11943097 -0.01878038 2.3509883e-38
-0.041808136 -0.11842094 -0.014848143 2.3509883e-38
-0.039995022 -0.11842094 -0.014848143 2.3509883e-38
-0.038323246 -0.11943097 -0.01878038 2.3509883e-38
-0.03650324 -0.11943097 -0.01878038 2.3509883e-38
-0.034683235 -0.11943097 -0.01878038 2.3418047e-38
-0.032558471 -0.11687975 -0.0088481009 2.3418045e-38
-0.030755879 -0.11687975 -0.0088481009 2.3418045e-38
-0.02895329 -0.11687975 -0.0088481009 2.3509886e-38
-0.027073769 -0.1161025 -0.0058222115 2.3509886e-38
-0.02527648 -0.1161025 -0.0058222115 2.3509886e-38
-0.023545509 -0.11687975 -0.0088481009 2.3509886e-38
-0.021742919 -0.11687975 -0.0088481009 2.3509886e-38
-0.019994428 -0.11763458 -0.011786729 2.3509886e-38
-0.018186683 -0.11763458 -0.011786729 2.3509886e-38
-0.016378937 -0.11763458 -0.011786729 2.3509886e-38
-0.014611451 -0.11842094 -0.014848143 2.3509886e-38
-0.012798337 -0.11842094 -0.014848143 2.3509886e-38
-0.011023147 -0.11943097 -0.01878038 2.3509886e-38
-0.0092031397 -0.11943097 -0.01878038 2.3509886e-38
-0.0074015167 -0.12020047 -0.02177611 2.3509886e-38
-0.0055762585 -0.12020047 -0.02177611 2.3509886e-38
-0.0037509985 -0.12020047 -0.02177611 2.3509886e-38
-0.0019257385 -0.12020047 -0.02177611 2.3509886e-38
-0.00010048039 -0.12020047 -0.02177611 2.3509886e-38
0.0017247796 -0.12020047 -0.02177611 2.3509886e-38
0.003536908 -0.11943097 -0.01878038 2.3509886e-38
0.0053569134 -0.11943097 -0.01878038 2.3509886e-38
0.0071769208 -0.11943097 -0.01878038 2.3509886e-38
0.0089969272 -0.11943097 -0.01878038 2.3509886e-38
0.010816935 -0.11943097 -0.01878038 2.3509886e-38
0.012636941 -0.11943097 -0.01878038 2.3509886e-38
0.014456948 -0.11943097 -0.01878038 2.3509886e-38
0.018742627 -0.12843956 -0.053851873 2.3509886e-38
0.020624125 -0.12843956 -0.053851873 2.3509886e-38
0.022505624 -0.12843956 -0.053851873 2.3509886e-38
0.029190838 -0.12097444 -0.024789244 2.3509886e-38
0.031021381 -0.12097444 -0.024789244 2.3509886e-38
0.032657012 -0.11943097 -0.01878038 2.3509886e-38
0.034477025 -0.11943097 -0.01878038 2.3509886e-38
0.064587861 -0.1161025 -0.0058222115 2.3509866e-38
0.066385143 -0.1161025 -0.0058222115 1.2908442e-38
-0.050584391 -0.11868234 -0.0088481009 2.3141466e-38
-0.048781805 -0.11868234 -0.0088481009 2.304927e-38
-0.047110602 -0.11944233 -0.011786729 2.3509886e-38
-0.045302853 -0.11944233 -0.011786729 2.2955993e-38
-0.043495104 -0.11944233 -0.011786729 2.3509883e-38
-0.041571431 -0.11868234 -0.0088481009 2.3509883e-38
-0.039768837 -0.11868234 -0.0088481009 2.3509883e-38
-0.037966251 -0.11868234 -0.0088481009 2.3509883e-38
-0.036264129 -0.11944233 -0.011786729 2.3509883e-38
-0.03445638 -0.11944233 -0.011786729 2.3509883e-38
-0.032558471 -0.11868234 -0.0088481009 2.3418045e-38
-0.030755879 -0.11868234 -0.0088481009 2.3418045e-38
-0.028871054 -0.11789979 -0.0058222115 2.3509886e-38
-0.027073769 -0.11789979 -0.0058222115 2.3509886e-38
-0.02527648 -0.11789979 -0.0058222115 2.3509886e-38
-0.023479192 -0.11789979 -0.0058222115 2.3509886e-38
-0.021681907 -0.11789979 -0.0058222115 2.3509886e-38
-0.01994033 -0.11868234 -0.0088481009 2.3509886e-38
-0.018137736 -0.11868234 -0.0088481009 2.3509886e-38
-0.016335143 -0.11868234 -0.0088481009 2.3509886e-38
-0.014571195 -0.11944233 -0.011786729 2.3509886e-38
-0.01276345 -0.11944233 -0.011786729 2.3509886e-38
-0.010985227 -0.12023406 -0.014848143 2.3509886e-38
-0.0091721136 -0.12023406 -0.014848143 2.3509886e-38
-0.0073402151 -0.11944233 -0.011786729 2.3509886e-38
-0.0055324715 -0.11944233 -0.011786729 2.3509886e-38
-0.0037431195 -0.121251 -0.01878038 2.3509886e-38
-0.0019231122 -0.121251 -0.01878038 2.3509886e-38
-0.00010310672 -0.121251 -0.01878038 2.3509886e-38
0.0017169006 -0.121251 -0.01878038 2.3509886e-38
0.003519671 -0.12023406 -0.014848143 2.3509886e-38
0.0053327829 -0.12023406 -0.014848143 2.3509886e-38
0.0071458956 -0.12023406 -0.014848143 2.3509886e-38
0.0089590074 -0.12023406 -0.014848143 2.3509886e-38
0.01073723 -0.11944233 -0.011786729 2.3509886e-38
0.012544975 -0.11944233 -0.011786729 2.3509886e-38
0.014352719 -0.11944233 -0.011786729 2.3509886e-38
0.016160464 -0.11944233 -0.011786729 2.3509886e-38
0.018392129 -0.1253974 -0.034813434 2.3509886e-38
0.020240247 -0.1253974 -0.034813434 2.3509886e-38
0.029103668 -0.12202574 -0.02177611 2.3509886e-38
0.030928927 -0.12202574 -0.02177611 2.3509886e-38
0.032657012 -0.121251 -0.01878038 2.3509886e-38
0.03434258 -0.12023406 -0.014848143 2.3509886e-38
0.036155693 -0.12023406 -0.014848143 2.3509886e-38
0.054123096 -0.11944233 -0.011786729 2.3509886e-38
0.055930845 -0.11944233 -0.011786729 2.3509886e-38
0.057738587 -0.11944233 -0.011786729 2.3509527e-38
0.059373729 -0.11868234 -0.0088481009 2.3233302e-38
0.061176322 -0.11868234 -0.0088481009 2.350988e-38
0.062978916 -0.11868234 -0.0088481009 2.3049612e-38
0.064587861 -0.11789979 -0.0058222115 2.3418032e-38
0.066385143 -0.11789979 -0.0058222115 1.1433312e-38
-0.052386984 -0.12048493 -0.0088481009 2.3234379e-38
-0.050438493 -0.11969708 -0.0058222115 2.341805e-38
-0.048641205 -0.11969708 -0.0058222115 2.341805e-38
-0.046843924 -0.11969708 -0.0058222115 2.3509886e-38
-0.045046635 -0.11969708 -0.0058222115 2.341769e-38
-0.043249354 -0.11969708 -0.0058222115 2.3509527e-38
-0.041333385 -0.11891381 -0.0028139651 2.3509527e-38
-0.039541371 -0.11891381 -0.0028139651 2.3509883e-38
-0.037641868 -0.11813517 0.00017663836 2.3509883e-38
-0.0358551 -0.11813517 0.00017663836 2.3509883e-38
-0.034165338 -0.11891381 -0.0028139651 2.3509883e-38
-0.032373324 -0.11891381 -0.0028139651 2.3418045e-38
-0.030581312 -0.11891381 -0.0028139651 2.3418045e-38
-0.028789302 -0.11891381 -0.0028139651 2.3509886e-38
-0.026921256 -0.11813517 0.00017663836 2.3509886e-38
-0.025134487 -0.11813517 0.00017663836 2.3509886e-38
-0.023413261 -0.11891381 -0.0028139651 2.3509886e-38
-0.021621251 -0.11891381 -0.0028139651 2.3509886e-38
-0.019829238 -0.11891381 -0.0028139651 2.3509886e-38
-0.018037228 -0.11891381 -0.0028139651 2.3509886e-38
-0.016245214 -0.11891381 -0.0028139651 2.3509886e-38
-0.014492759 -0.11969708 -0.0058222115 2.3509886e-38
-0.012695475 -0.11969708 -0.0058222115 2.3509886e-38
-0.010898186 -0.11969708 -0.0058222115 2.3509886e-38
-0.009100901 -0.11969708 -0.0058222115 2.3509886e-38
-0.0073036123 -0.11969708 -0.0058222115 2.3509886e-38
-0.0055063274 -0.11969708 -0.0058222115 2.3509886e-38
-0.0037169978 -0.12048493 -0.0088481009 2.3509886e-38
-0.0019169822 -0.12125005 -0.011786729 2.3509886e-38
-0.00010923669 -0.12125005 -0.011786729 2.3509886e-38
0.0016907789 -0.12048493 -0.0088481009 2.3509886e-38
0.0034933705 -0.12048493 -0.0088481009 2.3509886e-38
0.0053139962 -0.12125005 -0.011786729 2.3509886e-38
0.0071217408 -0.12125005 -0.011786729 2.3509886e-38
0.0089011472 -0.12048493 -0.0088481009 2.3509886e-38
0.01070374 -0.12048493 -0.0088481009 2.3509886e-38
0.012506331 -0.12048493 -0.0088481009 2.3509886e-38
0.014352719 -0.12125005 -0.011786729 2.3509886e-38
0.020240247 -0.12724553 -0.034813434 2.3509886e-38
0.027442656 -0.12542458 -0.027819782 2.3509886e-38
0.028903242 -0.12204717 -0.014848143 2.3509886e-38
0.030716354 -0.12204717 -0.014848143 2.3509886e-38
0.032430165 -0.12125005 -0.011786729 2.3509886e-38
0.034137435 -0.12048493 -0.0088481009 2.3509886e-38
0.035940029 -0.12048493 -0.0088481009 2.3509886e-38
0.045914859 -0.11577369 0.0092463195 2.3509886e-38
0.04768572 -0.11577369 0.0092463195 2.3509886e-38
0.053965949 -0.12048493 -0.0088481009 2.3509886e-38
0.055768542 -0.12048493 -0.0088481009 2.3509886e-38
0.057571135 -0.12048493 -0.0088481009 2.3509527e-38
0.059373729 -0.12048493 -0.0088481009 2.3233302e-38
0.061176322 -0.12048493 -0.0088481009 2.350988e-38
0.062978916 -0.12048493 -0.0088481009 2.3234004e-38
0.064587861 -0.11969708 -0.0058222115 2.3509869e-38
0.066385143 -0.11969708 -0.0058222115 1.1064529e-38
-0.054033071 -0.12149437 -0.0058222115 2.3234379e-38
-0.052235782 -0.12149437 -0.0058222115 2.2958151e-38
-0.050293446 -0.12070583 -0.0028139651 2.304927e-38
-0.048501432 -0.12070583 -0.0028139651 2.341805e-38
-0.046709426 -0.12070583 -0.0028139651 2.2311342e-38
-0.044917412 -0.12070583 -0.0028139651 2.3509886e-38
-0.043125398 -0.12070583 -0.0028139651 2.3509527e-38
-0.041215405 -0.11992194 0.00017663836 2.3509527e-38
-0.039428636 -0.11992194 0.00017663836 2.3509886e-38
-0.037535004 -0.11914261 0.003149718 2.3509883e-38
-0.035753451 -0.11914261 0.003149718 2.3509883e-38
-0.034068331 -0.11992194 0.00017663836 2.3509883e-38
-0.032281563 -0.11992194 0.00017663836 2.3418045e-38
-0.030494792 -0.11992194 0.00017663836 2.3418047e-38
-0.028708024 -0.11992194 0.00017663836 2.3509886e-38
-0.026921256 -0.11992194 0.00017663836 2.3509886e-38
-0.025134487 -0.11992194 0.00017663836 2.3509886e-38
-0.023347719 -0.11992194 0.00017663836 2.3509886e-38
-0.02156095 -0.11992194 0.00017663836 2.3509886e-38
-0.019774182 -0.11992194 0.00017663836 2.3509886e-38
-0.017987413 -0.11992194 0.00017663836 2.3509886e-38
-0.016200645 -0.11992194 0.00017663836 2.3509886e-38
-0.014453201 -0.12070583 -0.0028139651 2.3509886e-38
-0.012661191 -0.12070583 -0.0028139651 2.3509886e-38
-0.010840338 -0.11992194 0.00017663836 2.3509886e-38
-0.0090535693 -0.11992194 0.00017663836 2.3509886e-38
-0.007266799 -0.11992194 0.00017663836 2.3509886e-38
-0.0054931398 -0.12070583 -0.0028139651 2.3509886e-38
-0.0037011281 -0.12070583 -0.0028139651 2.3509886e-38
-0.0019117538 -0.12149437 -0.0058222115 2.3509886e-38
-0.00011181273 -0.12228753 -0.0088481009 2.3509886e-38
0.0016907789 -0.12228753 -0.0088481009 2.3509886e-38
0.0034933705 -0.12228753 -0.0088481009 2.3509886e-38
0.0053139962 -0.1230578 -0.011786729 2.3509886e-38
0.0071217408 -0.1230578 -0.011786729 2.3509886e-38
0.0089011472 -0.12228753 -0.0088481009 2.3509886e-38
0.01070374 -0.12228753 -0.0088481009 2.3509886e-38
0.012506331 -0.12228753 -0.0088481009 2.3509886e-38
0.014352719 -0.1230578 -0.011786729 2.3509886e-38
0.016160464 -0.1230578 -0.011786729 2.3509886e-38
0.018392129 -0.12909363 -0.034813434 2.3509886e-38
0.020240247 -0.12909363 -0.034813434 2.3509886e-38
0.021999504 -0.12803085 -0.030758888 2.3509886e-38
0.023770943 -0.12726043 -0.027819782 2.3509886e-38
0.0256068 -0.12726043 -0.027819782 2.3509886e-38
0.027442656 -0.12726043 -0.027819782 2.3509886e-38
0.028903242 -0.12386028 -0.014848143 2.3509886e-38
0.030716354 -0.12386028 -0.014848143 2.3509886e-38
0.032334842 -0.12228753 -0.0088481009 2.3509886e-38
0.034137435 -0.12228753 -0.0088481009 2.3509886e-38
0.035940029 -0.12228753 -0.0088481009 2.3509886e-38
0.04250367 -0.11834116 0.0062071979 2.3509886e-38
0.04414399 -0.11754455 0.0092463195 2.3509886e-38
0.045914859 -0.11754455 0.0092463195 2.3509886e-38
0.04768572 -0.11754455 0.0092463195 2.3509886e-38
0.049456589 -0.11754455 0.0092463195 2.3509886e-38
0.051227458 -0.11754455 0.0092463195 2.3509886e-38
0.053324349 -0.11914261 0.003149718 2.3509886e-38
0.055270106 -0.11992194 0.00017663836 2.3509886e-38
0.057398707 -0.12149437 -0.0058222115 2.3509886e-38
0.059195995 -0.12149437 -0.0058222115 2.3325494e-38
0.061176322 -0.12228753 -0.0088481009 2.350988e-38
0.062978916 -0.12228753 -0.0088481009 2.3509873e-38
0.064781502 -0.12228753 -0.0088481009 2.3234355e-38
-0.053722791 -0.12170871 0.00017663836 2.2312058e-38
-0.051936023 -0.12170871 0.00017663836 2.3049624e-38
-0.050005898 -0.12092416 0.003149718 2.3509886e-38
-0.048082285 -0.12011738 0.0062071979 2.3509886e-38
-0.046306089 -0.12011738 0.0062071979 2.341769e-38
-0.044529893 -0.12011738 0.0062071979 2.3509886e-38
-0.042879678 -0.12092416 0.003149718 2.3509886e-38
-0.041098118 -0.12092416 0.003149718 2.3509886e-38
-0.039316565 -0.12092416 0.003149718 2.3509886e-38
-0.037425108 -0.12011738 0.0062071979 2.3509886e-38
-0.035648912 -0.12011738 0.0062071979 2.3509883e-38
-0.033971898 -0.12092416 0.003149718 2.3509883e-38
-0.032190338 -0.12092416 0.003149718 2.3509883e-38
-0.030408783 -0.12092416 0.003149718 2.3509883e-38
-0.028627226 -0.12092416 0.003149718 2.3509886e-38
-0.026845669 -0.12092416 0.003149718 2.3509886e-38
-0.025064116 -0.12092416 0.003149718 2.3509886e-38
-0.023347719 -0.12170871 0.00017663836 2.3509886e-38
-0.021501003 -0.12092416 0.003149718 2.3509886e-38
-0.01971945 -0.12092416 0.003149718 2.3509886e-38
-0.017937889 -0.12092416 0.003149718 2.3509886e-38
-0.016156336 -0.12092416 0.003149718 2.3509886e-38
-0.014413876 -0.12170871 0.00017663836 2.3509886e-38
-0.012627108 -0.12170871 0.00017663836 2.3509886e-38
-0.010811666 -0.12092416 0.003149718 2.3509886e-38
-0.0090301111 -0.12092416 0.003149718 2.3509886e-38
-0.0072485562 -0.12092416 0.003149718 2.3509886e-38
-0.0054669995 -0.12092416 0.003149718 2.3509886e-38
-0.0036774017 -0.12011738 0.0062071979 2.3509886e-38
-0.0019012075 -0.12011738 0.0062071979 2.3509886e-38
-0.00011972524 -0.12170871 0.00017663836 2.3509886e-38
0.0016670432 -0.12170871 0.00017663836 2.3509886e-38
0.0034669209 -0.12249784 -0.0028139651 2.3509886e-38
0.0052773943 -0.12329166 -0.0058222115 2.3509886e-38
0.0070746811 -0.12329166 -0.0058222115 2.3509886e-38
0.0089011472 -0.12409012 -0.0088481009 2.3509886e-38
0.01070374 -0.12409012 -0.0088481009 2.3509886e-38
0.012506331 -0.12409012 -0.0088481009 2.3509886e-38
0.014308924 -0.12409012 -0.0088481009 2.3509886e-38
0.016111515 -0.12409012 -0.0088481009 2.3509886e-38
0.018392129 -0.13094176 -0.034813434 2.3509886e-38
0.020240247 -0.13094176 -0.034813434 2.3509886e-38
0.021999504 -0.12987186 -0.030758888 2.3509886e-38
0.023770943 -0.12909628 -0.027819782 2.3509886e-38
0.0256068 -0.12909628 -0.027819782 2.3509886e-38
0.027442656 -0.12909628 -0.027819782 2.3509886e-38
0.028814675 -0.12486555 -0.011786729 2.3509886e-38
0.030622421 -0.12486555 -0.011786729 2.3509886e-38
0.032236695 -0.12329166 -0.0058222115 2.3509886e-38
0.034033984 -0.12329166 -0.0058222115 2.3509886e-38
0.035831273 -0.12329166 -0.0058222115 2.3509886e-38
0.037628554 -0.12329166 -0.0058222115 2.3509886e-38
0.04250367 -0.12011738 0.0062071979 2.3509886e-38
0.04414399 -0.11931543 0.0092463195 2.3509886e-38
0.045914859 -0.11931543 0.0092463195 2.3509886e-38
0.047832258 -0.12011738 0.0062071979 2.3509886e-38
0.049456589 -0.11931543 0.0092463195 2.3509886e-38
0.051227458 -0.11931543 0.0092463195 2.3509886e-38
0.053324349 -0.12092416 0.003149718 2.3509886e-38
0.055270106 -0.12170871 0.00017663836 2.3509886e-38
0.057227291 -0.12249784 -0.0028139651 2.3233662e-38
0.059195995 -0.12329166 -0.0058222115 2.341805e-38
-0.054548085 -0.11871959 0.018156022 2.2957782e-38
-0.053569011 -0.12270571 0.003149718 2.350988e-38
-0.051787451 -0.12270571 0.003149718 2.3509883e-38
-0.049858481 -0.12189357 0.0062071979 2.3509883e-38
-0.048082285 -0.12189357 0.0062071979 2.2034756e-38
-0.046170205 -0.12108628 0.0092463195 2.3509886e-38
-0.044399343 -0.12108628 0.0092463195 2.3325494e-38
-0.042628475 -0.12108628 0.0092463195 2.3509886e-38
-0.040857606 -0.12108628 0.0092463195 2.3509886e-38
-0.039086744 -0.12108628 0.0092463195 2.3509886e-38
-0.037210904 -0.1203105 0.012166828 2.3509886e-38
-0.035445154 -0.1203105 0.012166828 2.3509886e-38
-0.033872724 -0.12189357 0.0062071979 2.3509883e-38
-0.032096528 -0.12189357 0.0062071979 2.3509883e-38
-0.030408783 -0.12270571 0.003149718 2.3509883e-38
-0.028627226 -0.12270571 0.003149718 2.3509886e-38
-0.026767937 -0.12189357 0.0062071979 2.3509886e-38
-0.024991745 -0.12189357 0.0062071979 2.3509886e-38
-0.02328256 -0.12270571 0.003149718 2.3509886e-38
-0.021501003 -0.12270571 0.003149718 2.3509886e-38
-0.019663161 -0.12189357 0.0062071979 2.3509886e-38
-0.017886965 -0.12189357 0.0062071979 2.3509886e-38
-0.016110769 -0.12189357 0.0062071979 2.3509886e-38
-0.01437478 -0.12270571 0.003149718 2.3509886e-38
-0.012593223 -0.12270571 0.003149718 2.3509886e-38
-0.010811666 -0.12270571 0.003149718 2.3509886e-38
-0.0090301111 -0.12270571 0.003149718 2.3509886e-38
-0.007229792 -0.12189357 0.0062071979 2.3509886e-38
-0.0054535978 -0.12189357 0.0062071979 2.3509886e-38
-0.0036774017 -0.12189357 0.0062071979 2.3509886e-38
-0.0019012075 -0.12189357 0.0062071979 2.3509886e-38
-0.00012501143 -0.12189357 0.0062071979 2.3509886e-38
0.0016511828 -0.12189357 0.0062071979 2.3509886e-38
0.0034273788 -0.12189357 0.0062071979 2.3509886e-38
0.0052589336 -0.12428986 -0.0028139651 2.3509886e-38
0.0070509454 -0.12428986 -0.0028139651 2.3509886e-38
0.0089011472 -0.12589271 -0.0088481009 2.3509886e-38
0.01070374 -0.12589271 -0.0088481009 2.3509886e-38
0.012506331 -0.12589271 -0.0088481009 2.3509886e-38
0.014308924 -0.12589271 -0.0088481009 2.3509886e-38
0.016111515 -0.12589271 -0.0088481009 2.3509886e-38
0.018557567 -0.13517688 -0.043799669 2.3509886e-38
0.02042144 -0.13517688 -0.043799669 2.3509886e-38
0.022088366 -0.13278987 -0.034813434 2.3509886e-38
0.023936484 -0.13278987 -0.034813434 2.3509886e-38
0.025784602 -0.13278987 -0.034813434 2.3509886e-38
0.027006932 -0.1266733 -0.011786729 2.3509886e-38
0.028814675 -0.1266733 -0.011786729 2.3509886e-38
0.030622421 -0.1266733 -0.011786729 2.3509886e-38
0.032236695 -0.12508895 -0.0058222115 2.3509886e-38
0.034033984 -0.12508895 -0.0058222115 2.3509886e-38
0.035831273 -0.12508895 -0.0058222115 2.3509886e-38
0.040853456 -0.12270571 0.003149718 2.3509886e-38
0.042635009 -0.12270571 0.003149718 2.3509886e-38
0.044279866 -0.12189357 0.0062071979 2.3509886e-38
0.046056062 -0.12189357 0.0062071979 2.3509886e-38
0.047832258 -0.12189357 0.0062071979 2.3509886e-38
0.049456589 -0.12108628 0.0092463195 2.3509886e-38
0.051227458 -0.12108628 0.0092463195 2.3509886e-38
0.053160846 -0.12189357 0.0062071979 2.3509886e-38
0.055270106 -0.12349547 0.00017663836 2.3509886e-38
0.057227291 -0.12428986 -0.0028139651 2.304927e-38
0.059019305 -0.12428986 -0.0028139651 2.341805e-38
-0.054548085 -0.12047486 0.018156022 2.2957061e-38
-0.052792832 -0.12047486 0.018156022 2.3509879e-38
-0.051037595 -0.12047486 0.018156022 2.3049259e-38
-0.049711943 -0.12285714 0.0092463195 2.3233296e-38
-0.047805384 -0.12207626 0.012166828 2.3325494e-38
-0.045905352 -0.12127317 0.015170306 2.341769e-38
-0.044016615 -0.12047486 0.018156022 2.3509886e-38
-0.042261362 -0.12047486 0.018156022 2.3509886e-38
-0.040623903 -0.12127317 0.015170306 2.3509886e-38
-0.038863428 -0.12127317 0.015170306 2.3509886e-38
-0.037102945 -0.12127317 0.015170306 2.3509886e-38
-0.03534247 -0.12127317 0.015170306 2.3509886e-38
-0.033679411 -0.12207626 0.012166828 2.3509886e-38
-0.032096528 -0.12366976 0.0062071979 2.3509883e-38
-0.03032033 -0.12366976 0.0062071979 2.3509883e-38
-0.028627226 -0.1244873 0.003149718 2.3509886e-38
-0.026767937 -0.12366976 0.0062071979 2.3509886e-38
-0.024991745 -0.12366976 0.0062071979 2.3509886e-38
-0.023215549 -0.12366976 0.0062071979 2.3509886e-38
-0.021439357 -0.12366976 0.0062071979 2.3509886e-38
-0.019663161 -0.12366976 0.0062071979 2.3509886e-38
-0.017836342 -0.12285714 0.0092463195 2.3509886e-38
-0.016065476 -0.12285714 0.0092463195 2.3509886e-38
-0.014294608 -0.12285714 0.0092463195 2.3509886e-38
-0.012558376 -0.12366976 0.0062071979 2.3509886e-38
-0.010752875 -0.12285714 0.0092463195 2.3509886e-38
-0.0089820083 -0.12285714 0.0092463195 2.3509886e-38
-0.0071932208 -0.12207626 0.012166828 2.3509886e-38
-0.005414309 -0.12127317 0.015170306 2.3509886e-38
-0.0036538299 -0.12127317 0.015170306 2.3509886e-38
-0.001893349 -0.12127317 0.015170306 2.3509886e-38
-0.00013286993 -0.12127317 0.015170306 2.3509886e-38
0.0016355086 -0.12207626 0.012166828 2.3509886e-38
0.0034012552 -0.12207626 0.012166828 2.3509886e-38
0.0052589336 -0.12608187 -0.0028139651 2.3509886e-38
0.0070509454 -0.12608187 -0.0028139651 2.3509886e-38
0.0088429581 -0.12608187 -0.0028139651 2.3509886e-38
0.010634971 -0.12608187 -0.0028139651 2.3509886e-38
0.011965978 -0.11670811 0.03224346 2.3509886e-38
0.013607936 -0.11511876 0.038187534 2.3509886e-38
0.015328059 -0.11511876 0.038187534 2.3509886e-38
0.017048182 -0.11511876 0.038187534 2.3509886e-38
0.018768305 -0.11511876 0.038187534 2.3509886e-38
0.020488428 -0.11511876 0.038187534 2.3509886e-38
0.022208551 -0.11511876 0.038187534 2.3509886e-38
0.023928674 -0.11511876 0.038187534 2.3509886e-38
0.025648797 -0.11511876 0.038187534 2.3509886e-38
0.02736892 -0.11511876 0.038187534 2.3509886e-38
0.029271428 -0.11670811 0.03224346 2.3509886e-38
0.031001972 -0.11670811 0.03224346 2.3509886e-38
0.034536012 -0.11725079 0.030213803 2.3509886e-38
0.036193609 -0.11670811 0.03224346 2.3509886e-38
0.037924148 -0.11670811 0.03224346 2.3509886e-38
0.040853456 -0.1244873 0.003149718 2.3509886e-38
0.042635009 -0.1244873 0.003149718 2.3509886e-38
0.044279866 -0.12366976 0.0062071979 2.3509886e-38
0.046056062 -0.12366976 0.0062071979 2.3509886e-38
0.047256127 -0.12047486 0.018156022 2.3509886e-38
0.049011372 -0.12047486 0.018156022 2.3509886e-38
0.050921045 -0.12127317 0.015170306 2.3509886e-38
