# .PCD v0.7 - Point Cloud Data file format
VERSION 0.7
FIELDS x y z rgb
SIZE 4 4 4 4
TYPE F F F F
COUNT 1 1 1 1
WIDTH 939
HEIGHT 1
VIEWPOINT 0 0 0 1 0 0 0
POINTS 939
DATA ascii
-0.028890371 -0.11808117 0.011078635 3.6809742e-39
-0.027158745 -0.11985306 0.0040849838 2.5728288e-39
-0.025389183 -0.12136655 -0.0018888321 2.9401708e-39
-0.022858836 -0.1064329 0.057054438 2.2485986e-38
-0.021103591 -0.1064329 0.057054438 2.3505177e-38
-0.019348346 -0.1064329 0.057054438 2.0643869e-38
-0.017593101 -0.1064329 0.057054438 1.9171262e-38
-0.015837856 -0.1064329 0.057054438 2.3507338e-38
-0.014090464 -0.10718934 0.054068722 2.3509866e-38
-0.012329983 -0.10718934 0.054068722 2.2865221e-38
-0.01056431 -0.10869022 0.048144735 2.3418045e-38
-0.0087854508 -0.10946019 0.045105614 2.3418047e-38
-0.0070092548 -0.10946019 0.045105614 2.3418047e-38
-0.0052142972 -0.11023484 0.042048134 2.3418047e-38
-0.0033856882 -0.11174576 0.036084451 2.3509883e-38
-0.0015646657 -0.11250792 0.033076204 2.3509883e-38
0.00026710611 -0.11327456 0.030050317 2.3509883e-38
0.0021083411 -0.11401908 0.027111689 2.3509883e-38
0.0040203147 -0.11579098 0.020118037 2.3509886e-38
0.0059404094 -0.11731337 0.014109174 2.3509886e-38
0.0078267436 -0.11808117 0.011078635 2.3509886e-38
0.0097218603 -0.11882581 0.0081395302 2.3509886e-38
0.011562871 -0.11882581 0.0081395302 2.3509886e-38
0.01357035 -0.12060766 0.0011065397 2.3509527e-38
0.015576428 -0.12212978 -0.0049012508 2.3509527e-38
0.017713487 -0.12467657 -0.014953455 2.341805e-38
0.019594986 -0.12467657 -0.014953455 2.3234379e-38
0.021812215 -0.12744872 -0.025895199 2.3142544e-38
0.023811299 -0.12821732 -0.028928837 2.3234379e-38
0.025817577 -0.12896039 -0.031861745 2.3234379e-38
0.027728721 -0.12896039 -0.031861745 2.341805e-38
0.029791195 -0.12997745 -0.035876118 2.3509886e-38
0.03198697 -0.13176022 -0.042912684 2.3509883e-38
0.034081291 -0.13276742 -0.046888076 2.3509883e-38
0.036148973 -0.13353528 -0.049918853 2.3509521e-38
0.038091779 -0.13353528 -0.049918853 2.350988e-38
0.040034581 -0.13353528 -0.049918853 2.350988e-38
0.042510182 -0.13633488 -0.060968839 2.350988e-38
0.044821523 -0.1381052 -0.067956291 2.3509879e-38
0.046795953 -0.1381052 -0.067956291 2.3509879e-38
0.049196374 -0.14012341 -0.075922213 2.3418043e-38
0.05118477 -0.14012341 -0.075922213 2.3234376e-38
0.053803276 -0.14292495 -0.086979948 2.286632e-38
0.055811059 -0.14292495 -0.086979948 1.2356744e-38
0.058055256 -0.14391513 -0.090888225 6.9164813e-39
0.060069893 -0.14391513 -0.090888225 6.6391728e-39
-0.04797164 -0.11201639 0.042048134 1.4010482e-38
-0.046190083 -0.11201639 0.042048134 1.4840234e-38
-0.04440853 -0.11201639 0.042048134 1.1429348e-38
-0.042902261 -0.11430521 0.033076204 8.8482231e-39
-0.041192513 -0.11507715 0.030050317 7.55785e-39
-0.039389923 -0.11507715 0.030050317 7.2823533e-39
-0.037739873 -0.11660783 0.024050275 5.6239194e-39
-0.036019832 -0.11761098 0.020118037 4.6086913e-39
-0.034265481 -0.11837523 0.017122308 3.5945422e-39
-0.032500979 -0.11914389 0.014109174 2.9484539e-39
-0.030780338 -0.12066682 0.0081395302 3.2235988e-39
-0.029006865 -0.12170117 0.0040849838 3.037044e-39
-0.027203135 -0.12246101 0.0011065397 1.8374274e-39
-0.025389183 -0.12322514 -0.0018888321 3.3107414e-39
-0.023611002 -0.12502514 -0.0089445915 1.7968761e-38
-0.021103591 -0.10818814 0.057054438 2.147255e-38
-0.019348346 -0.10818814 0.057054438 1.9814108e-38
-0.017593101 -0.10818814 0.057054438 1.9262376e-38
-0.015837856 -0.10818814 0.057054438 2.3044202e-38
-0.014082611 -0.10818814 0.057054438 2.3509863e-38
-0.012327366 -0.10818814 0.057054438 2.3509869e-38
-0.01056687 -0.10971604 0.051065244 2.3509879e-38
-0.0087934434 -0.11046107 0.048144735 2.3234376e-38
-0.0070092548 -0.11123641 0.045105614 2.3418047e-38
-0.0052330606 -0.11123641 0.045105614 2.3418047e-38
-0.0034092832 -0.11277486 0.039075054 2.3509883e-38
-0.0015646657 -0.11430521 0.033076204 2.3509883e-38
0.0002326211 -0.11430521 0.033076204 2.3509883e-38
0.0020696977 -0.11507715 0.030050317 2.3509883e-38
0.0039617112 -0.11660783 0.024050275 2.3509886e-38
0.0058902204 -0.11837523 0.017122308 2.3509886e-38
0.0078267436 -0.11991702 0.011078635 2.3509886e-38
0.0096625984 -0.11991702 0.011078635 2.3509886e-38
0.011562871 -0.12066682 0.0081395302 2.3509527e-38
0.01357035 -0.12246101 0.0011065397 2.3509527e-38
0.015423691 -0.12246101 0.0011065397 2.3509527e-38
0.017550187 -0.12502514 -0.0089445915 2.341805e-38
0.019421149 -0.12502514 -0.0089445915 2.3142544e-38
0.021812215 -0.12934943 -0.025895199 2.3142544e-38
0.023811299 -0.13012333 -0.028928837 2.3142544e-38
0.025717299 -0.13012333 -0.028928837 2.3234379e-38
0.027623303 -0.13012333 -0.028928837 2.341805e-38
0.029791195 -0.13189565 -0.035876118 2.3509886e-38
0.031831268 -0.13268389 -0.038965903 2.3509524e-38
0.034081291 -0.1347049 -0.046888076 2.3509524e-38
0.036148973 -0.13547809 -0.049918853 2.3509524e-38
0.038091779 -0.13547809 -0.049918853 2.3509521e-38
0.040034581 -0.13547809 -0.049918853 2.350988e-38
0.042510182 -0.13829704 -0.060968839 2.350988e-38
0.044671349 -0.13931294 -0.064951025 2.350988e-38
0.046795953 -0.14007963 -0.067956291 2.3418043e-38
0.049196374 -0.14211179 -0.075922213 2.3418045e-38
0.05118477 -0.14211179 -0.075922213 2.3234379e-38
0.053803276 -0.14493273 -0.086979948 2.3142544e-38
0.055811059 -0.14493273 -0.086979948 1.4753833e-38
0.058055256 -0.14592977 -0.090888225 9.1288205e-39
0.060069893 -0.14592977 -0.090888225 6.4547843e-39
0.06208453 -0.14592977 -0.090888225 7.0994292e-39
-0.049753197 -0.11379795 0.042048134 9.8616842e-39
-0.04797164 -0.11379795 0.042048134 1.3918286e-38
-0.046190083 -0.11379795 0.042048134 1.4379256e-38
-0.04440853 -0.11379795 0.042048134 1.0783981e-38
-0.042902261 -0.1161025 0.033076204 8.9400628e-39
-0.041192513 -0.11687975 0.030050317 7.7422413e-39
-0.039389923 -0.11687975 0.030050317 7.2823533e-39
-0.037739873 -0.11842094 0.024050275 5.715392e-39
-0.036019832 -0.11943097 0.020118037 4.6083283e-39
-0.034331523 -0.12097444 0.014109174 3.6860161e-39
-0.032500979 -0.12097444 0.014109174 2.8562554e-39
-0.030854981 -0.1235493 0.0040849838 3.0392048e-39
-0.029056475 -0.12431435 0.0011065397 2.8526527e-39
-0.027247775 -0.12508373 -0.0018888321 1.8374274e-39
-0.025428798 -0.12585752 -0.0049012508 3.1263529e-39
-0.023564924 -0.12585752 -0.0049012508 1.3819957e-38
-0.021103591 -0.10994337 0.057054438 2.1195245e-38
-0.019348346 -0.10994337 0.057054438 2.1197042e-38
-0.017593101 -0.10994337 0.057054438 1.8893594e-38
-0.015837856 -0.10994337 0.057054438 2.0462721e-38
-0.014082611 -0.10994337 0.057054438 2.3137838e-38
-0.012327366 -0.10994337 0.057054438 2.3509869e-38
-0.010569504 -0.11071031 0.054068722 2.3509879e-38
-0.0087934434 -0.11223195 0.048144735 2.341805e-38
-0.0070092548 -0.1130126 0.045105614 2.341805e-38
-0.0052330606 -0.1130126 0.045105614 2.341805e-38
-0.0034092832 -0.11456163 0.039075054 2.3509886e-38
-0.0015646657 -0.1161025 0.033076204 2.3509886e-38
0.0002326211 -0.1161025 0.033076204 2.3509886e-38
0.0020299079 -0.1161025 0.033076204 2.3509886e-38
0.0039160857 -0.11763458 0.027111689 2.3509886e-38
0.0058403201 -0.11943097 0.020118037 2.3509886e-38
0.0078267436 -0.12175287 0.011078635 2.3509886e-38
0.0096625984 -0.12175287 0.011078635 2.3509886e-38
0.011562871 -0.12250783 0.0081395302 2.3509886e-38
0.01357035 -0.12431435 0.0011065397 2.3509886e-38
0.015423691 -0.12431435 0.0011065397 2.3509886e-38
0.017440302 -0.12585752 -0.0049012508 2.341805e-38
0.019421149 -0.1268961 -0.0089445915 2.3234379e-38
0.021691274 -0.13023765 -0.021953663 2.3142544e-38
0.023811299 -0.13202934 -0.028928837 2.3234379e-38
0.025717299 -0.13202934 -0.028928837 2.341805e-38
0.027623303 -0.13202934 -0.028928837 2.3509886e-38
0.029639866 -0.13278268 -0.031861745 2.3509886e-38
0.031709377 -0.13381381 -0.035876118 2.3509527e-38
0.03375487 -0.13460748 -0.038965903 2.3509524e-38
0.03584801 -0.13562126 -0.042912684 2.3509524e-38
0.038091779 -0.13742088 -0.049918853 2.3509524e-38
0.040221658 -0.13845511 -0.053945147 2.3509883e-38
0.042510182 -0.14025922 -0.060968839 2.3509883e-38
0.044671349 -0.1412821 -0.064951025 2.3509883e-38
0.046795953 -0.14205404 -0.067956291 2.3418045e-38
0.049196374 -0.1441002 -0.075922213 2.3418047e-38
0.05118477 -0.1441002 -0.075922213 2.3234379e-38
0.053574737 -0.14591034 -0.082969271 2.3142544e-38
0.055811059 -0.14694051 -0.086979948 1.7427506e-38
0.058055256 -0.14794444 -0.090888225 1.1895045e-38
0.060069893 -0.14794444 -0.090888225 5.9016077e-39
0.06208453 -0.14794444 -0.090888225 6.3618642e-39
-0.04797164 -0.1155795 0.042048134 1.4379264e-38
-0.046190083 -0.1155795 0.042048134 1.4102313e-38
-0.04440853 -0.1155795 0.042048134 1.0230807e-38
-0.042995106 -0.11868234 0.030050317 8.8478672e-39
-0.041192513 -0.11868234 0.030050317 8.1103049e-39
-0.039469786 -0.11944233 0.027111689 7.1890759e-39
-0.037739873 -0.12023406 0.024050275 5.7139514e-39
-0.036019832 -0.121251 0.020118037 4.6072465e-39
-0.034331523 -0.12280498 0.014109174 3.8696843e-39
-0.032500979 -0.12280498 0.014109174 3.1321193e-39
-0.030854981 -0.1253974 0.0040849838 3.0392048e-39
-0.029056475 -0.12616767 0.0011065397 3.1292396e-39
-0.027247775 -0.12694232 -0.0018888321 2.2983985e-39
-0.025481969 -0.12876706 -0.0089445915 2.1122164e-39
-0.023644503 -0.12952723 -0.011883935 9.4867626e-39
-0.021103591 -0.11169861 0.057054438 2.045768e-38
-0.019348346 -0.11169861 0.057054438 2.3500851e-38
-0.017593101 -0.11169861 0.057054438 1.9814468e-38
-0.015837856 -0.11169861 0.057054438 1.8802477e-38
-0.014082611 -0.11169861 0.057054438 2.1661986e-38
-0.012327366 -0.11169861 0.057054438 2.3509866e-38
-0.010572121 -0.11169861 0.057054438 2.3509879e-38
-0.008801125 -0.11324753 0.051065244 2.341805e-38
-0.0070225764 -0.11400281 0.048144735 2.341805e-38
-0.0052330606 -0.11478879 0.045105614 2.341805e-38
-0.0034092832 -0.1163484 0.039075054 2.3509886e-38
-0.0015936755 -0.1171218 0.036084451 2.3509886e-38
0.0002326211 -0.11789979 0.033076204 2.3509886e-38
0.0020299079 -0.11789979 0.033076204 2.3509886e-38
0.0038722903 -0.11868234 0.030050317 2.3509886e-38
0.0057748221 -0.12023406 0.024050275 2.3509886e-38
0.00777095 -0.12280498 0.014109174 2.3509886e-38
0.0097218603 -0.12434883 0.0081395302 2.3509886e-38
0.011562871 -0.12434883 0.0081395302 2.3509886e-38
0.01357035 -0.12616767 0.0011065397 2.3509886e-38
0.015423691 -0.12616767 0.0011065397 2.3509886e-38
0.017358435 -0.12694232 -0.0018888321 2.341805e-38
0.019304177 -0.12772138 -0.0049012508 2.3234379e-38
0.021476485 -0.13032107 -0.014953455 2.3234379e-38
0.023811299 -0.13393532 -0.028928837 2.341805e-38
0.025717299 -0.13393532 -0.028928837 2.341805e-38
0.027623303 -0.13393532 -0.028928837 2.3509886e-38
0.029639866 -0.13469382 -0.031861745 2.3509527e-38
0.031551011 -0.13469382 -0.031861745 2.3509527e-38
0.033462156 -0.13469382 -0.031861745 2.3509527e-38
0.035545744 -0.13573201 -0.035876118 2.3509527e-38
0.037956271 -0.13857989 -0.046888076 2.3509883e-38
0.040221658 -0.14040495 -0.053945147 2.3509527e-38
0.042510182 -0.14222141 -0.060968839 2.3509883e-38
0.044821523 -0.14402847 -0.067956291 2.341805e-38
0.046795953 -0.14402847 -0.067956291 2.3418047e-38
0.048979245 -0.14503856 -0.071861945 2.3234379e-38
0.051403549 -0.14711304 -0.079883419 2.3234379e-38
0.053574737 -0.14791109 -0.082969271 2.286632e-38
0.055575486 -0.14791109 -0.082969271 1.9639478e-38
0.058055256 -0.14995907 -0.090888225 1.4383606e-38
0.059826631 -0.14894833 -0.086979948 5.4399079e-39
0.061834414 -0.14894833 -0.086979948 5.9927187e-39
-0.049753197 -0.11736105 0.042048134 1.0598533e-38
-0.04797164 -0.11736105 0.042048134 1.5116469e-38
-0.046190083 -0.11736105 0.042048134 1.4009397e-38
-0.04440853 -0.11736105 0.042048134 9.7683927e-39
-0.042995106 -0.12048493 0.030050317 8.5702041e-39
-0.041277528 -0.12125005 0.027111689 8.0181093e-39
-0.039469786 -0.12125005 0.027111689 7.464581e-39
-0.037739873 -0.12204717 0.024050275 5.8057813e-39
-0.036019832 -0.123071 0.020118037 4.6990806e-39
-0.034331523 -0.12463553 0.014109174 4.0533539e-39
-0.032562084 -0.12542458 0.011078635 3.223596e-39
-0.030909814 -0.12802102 0.0011065397 3.1306815e-39
-0.029156543 -0.12958528 -0.0049012508 3.4051062e-39
-0.027352929 -0.13063805 -0.0089445915 2.666458e-39
-0.024573755 -0.11265542 0.060121037 2.0203809e-39
-0.022823885 -0.11265542 0.060121037 4.0468603e-39
-0.021074018 -0.11265542 0.060121037 1.5570592e-38
-0.019348346 -0.11345388 0.057054438 2.3503014e-38
-0.017593101 -0.11345388 0.057054438 2.2026803e-38
-0.015837856 -0.11345388 0.057054438 1.8064193e-38
-0.014074545 -0.11265542 0.060121037 1.9817352e-38
-0.012324678 -0.11265542 0.060121037 2.3506984e-38
-0.010572121 -0.11345388 0.057054438 2.3509879e-38
-0.0088090226 -0.11423124 0.054068722 2.3509886e-38
-0.0070353784 -0.11501329 0.051065244 2.3509886e-38
-0.0052517094 -0.11577369 0.048144735 2.3509886e-38
-0.0034327414 -0.11736105 0.042048134 2.3509886e-38
-0.0015936755 -0.11891381 0.036084451 2.3509886e-38
0.00019833725 -0.11891381 0.036084451 2.3509886e-38
0.0020299079 -0.11969708 0.033076204 2.3509886e-38
0.0038722903 -0.12048493 0.030050317 2.3509886e-38
0.0057238303 -0.12125005 0.027111689 2.3509886e-38
0.00777095 -0.12463553 0.014109174 2.3509883e-38
0.0097218603 -0.12618984 0.0081395302 2.3509883e-38
0.011562871 -0.12618984 0.0081395302 2.3509883e-38
0.01357035 -0.12802102 0.0011065397 2.3509883e-38
0.015423691 -0.12802102 0.0011065397 2.3509886e-38
0.017358435 -0.12880091 -0.0018888321 2.3509886e-38
0.019217027 -0.12880091 -0.0018888321 2.341805e-38
0.021292113 -0.13063805 -0.0089445915 2.341805e-38
0.023487903 -0.13324542 -0.018958768 2.3509886e-38
0.02561358 -0.13505147 -0.025895199 2.3509886e-38
0.027623303 -0.13584132 -0.028928837 2.3509527e-38
0.029529307 -0.13584132 -0.028928837 2.3509527e-38
0.031435307 -0.13584132 -0.028928837 2.3509527e-38
0.033462156 -0.13660498 -0.031861745 2.3509527e-38
0.035545744 -0.13765021 -0.035876118 2.3509527e-38
0.03777853 -0.1394823 -0.042912684 2.3509527e-38
0.040221658 -0.14235483 -0.053945147 2.3509527e-38
0.042702187 -0.14522041 -0.064951025 2.3509886e-38
0.044821523 -0.1460029 -0.067956291 2.341805e-38
0.046795953 -0.1460029 -0.067956291 2.341805e-38
0.048979245 -0.14701982 -0.071861945 2.3234379e-38
0.051403549 -0.14910837 -0.079883419 2.3234379e-38
0.053574737 -0.14991184 -0.082969271 2.3050349e-38
0.055575486 -0.14991184 -0.082969271 2.120644e-38
-0.049753197 -0.11914261 0.042048134 1.2073663e-38
-0.04797164 -0.11914261 0.042048134 1.5116113e-38
-0.046190083 -0.11914261 0.042048134 1.3640615e-38
-0.04440853 -0.11914261 0.042048134 9.215219e-39
-0.043179207 -0.12386028 0.024050275 7.9248375e-39
-0.041366093 -0.12386028 0.024050275 7.7404434e-39
-0.039552983 -0.12386028 0.024050275 7.8326418e-39
-0.037916005 -0.12567626 0.017122308 5.9894509e-39
-0.036090743 -0.12567626 0.017122308 4.8827502e-39
-0.034397941 -0.12726043 0.011078635 4.1459069e-39
-0.032621346 -0.12803085 0.0081395302 3.2235932e-39
-0.030964959 -0.13065951 -0.0018888321 2.9462903e-39
-0.029156543 -0.13144915 -0.0049012508 3.220715e-39
-0.027352929 -0.13250901 -0.0089445915 2.7586536e-39
-0.024573755 -0.11440529 0.060121037 2.8483353e-39
-0.022823885 -0.11440529 0.060121037 1.9285454e-39
-0.021074018 -0.11440529 0.060121037 1.0960811e-38
-0.019348346 -0.11520912 0.057054438 2.3505174e-38
-0.017593101 -0.11520912 0.057054438 2.3502293e-38
-0.015837856 -0.11520912 0.057054438 1.6587621e-38
-0.014074545 -0.11440529 0.060121037 1.7971998e-38
-0.012324678 -0.11440529 0.060121037 2.3509146e-38
-0.010572121 -0.11520912 0.057054438 2.350952e-38
-0.0088090226 -0.11599173 0.054068722 2.3509527e-38
-0.0070353784 -0.11677901 0.051065244 2.3509527e-38
-0.0052696317 -0.11677901 0.051065244 2.3509886e-38
-0.0034568645 -0.11834116 0.045105614 2.3509886e-38
-0.0016225148 -0.11992194 0.039075054 2.3509886e-38
0.00019833725 -0.12070583 0.036084451 2.3509886e-38
0.001990349 -0.12070583 0.036084451 2.3509886e-38
0.0038271947 -0.12149437 0.033076204 2.3509886e-38
0.0057238303 -0.1230578 0.027111689 2.3509886e-38
0.00777095 -0.12646608 0.014109174 2.3509883e-38
0.0097218603 -0.12803085 0.0081395302 2.3509883e-38
0.011562871 -0.12803085 0.0081395302 2.3509883e-38
0.01357035 -0.12987436 0.0011065397 2.3509883e-38
0.015423691 -0.12987436 0.0011065397 2.3509883e-38
0.017358435 -0.13065951 -0.0018888321 2.3509883e-38
0.019217027 -0.13065951 -0.0018888321 2.3509886e-38
0.021292113 -0.13250901 -0.0089445915 2.3509886e-38
0.023357984 -0.13408406 -0.014953455 2.3509527e-38
0.025239483 -0.13408406 -0.014953455 2.3509527e-38
0.027372591 -0.13591899 -0.021953663 2.3509527e-38
0.029529307 -0.13774733 -0.028928837 2.3509527e-38
0.031435307 -0.13774733 -0.028928837 2.3509527e-38
0.033341311 -0.13774733 -0.028928837 2.3509527e-38
0.0353733 -0.13851611 -0.031861745 2.3509527e-38
0.037602071 -0.14037828 -0.038965903 2.3509527e-38
0.040358566 -0.14507706 -0.056891762 2.3509886e-38
0.042510182 -0.14614578 -0.060968839 2.3509886e-38
0.044671349 -0.1471896 -0.064951025 2.341805e-38
0.046795953 -0.14797734 -0.067956291 2.341805e-38
0.048770383 -0.14797734 -0.067956291 2.3234379e-38
-0.049978007 -0.12249784 0.036084451 1.3271127e-38
-0.04797164 -0.12092416 0.042048134 1.4562219e-38
-0.046190083 -0.12092416 0.042048134 1.3178921e-38
-0.044893015 -0.12486555 0.027111689 9.3066985e-39
-0.043085273 -0.12486555 0.027111689 8.0163156e-39
-0.041366093 -0.1256734 0.024050275 7.9241158e-39
-0.039552983 -0.1256734 0.024050275 7.6478848e-39
-0.037916005 -0.1275015 0.017122308 5.9880076e-39
-0.036162063 -0.1282966 0.014109174 4.8820244e-39
-0.034397941 -0.12909628 0.011078635 4.1451852e-39
-0.032621346 -0.12987186 0.0081395302 3.2232331e-39
-0.030909814 -0.13172771 0.0011065397 2.94557e-39
-0.029156543 -0.13331302 -0.0049012508 3.037044e-39
-0.027352929 -0.13437997 -0.0089445915 2.9430449e-39
-0.024614081 -0.11696436 0.057054438 3.4936949e-39
-0.022823885 -0.11615516 0.060121037 1.9285454e-39
-0.021074018 -0.11615516 0.060121037 8.2871376e-39
-0.019348346 -0.11696436 0.057054438 2.3503014e-38
-0.017574281 -0.11615516 0.060121037 2.3504093e-38
-0.015824413 -0.11615516 0.060121037 1.6587261e-38
-0.014074545 -0.11615516 0.060121037 1.7141874e-38
-0.012324678 -0.11615516 0.060121037 2.3508063e-38
-0.010572121 -0.11696436 0.057054438 2.3509161e-38
-0.0088168755 -0.11696436 0.057054438 2.3509527e-38
-0.0070485435 -0.11775221 0.054068722 2.3509527e-38
-0.0052696317 -0.11854477 0.051065244 2.3509527e-38
-0.0034568645 -0.12011738 0.045105614 2.3509527e-38
-0.0016511856 -0.12092416 0.042048134 2.3509527e-38
0.00019833725 -0.12249784 0.036084451 2.3509886e-38
0.001990349 -0.12249784 0.036084451 2.3509886e-38
0.0038271947 -0.12329166 0.033076204 2.341805e-38
0.0056748819 -0.12409012 0.030050317 2.341805e-38
0.0077154785 -0.1275015 0.017122308 2.3509883e-38
0.0096625984 -0.12909628 0.011078635 2.3509883e-38
0.011562871 -0.12987186 0.0081395302 2.350988e-38
0.01357035 -0.13172771 0.0011065397 2.350988e-38
0.015423691 -0.13172771 0.0011065397 2.350988e-38
0.017358435 -0.1325181 -0.0018888321 2.350988e-38
0.019304177 -0.13331302 -0.0049012508 2.3509883e-38
0.021292113 -0.13437997 -0.0089445915 2.3509527e-38
0.023258418 -0.13515557 -0.011883935 2.3509527e-38
0.025134537 -0.13515557 -0.011883935 2.3509527e-38
0.027120981 -0.13596557 -0.014953455 2.3509527e-38
0.029266365 -0.13781275 -0.021953663 2.3509527e-38
0.031160139 -0.13781275 -0.021953663 2.3509527e-38
0.033216313 -0.13885282 -0.025895199 2.3509527e-38
0.035247311 -0.13965334 -0.028928837 2.3509527e-38
0.037463926 -0.14148657 -0.035876118 2.3509527e-38
0.040221658 -0.14625455 -0.053945147 2.3509527e-38
0.042510182 -0.14810793 -0.060968839 2.3509527e-38
0.044671349 -0.14915876 -0.064951025 2.341805e-38
0.046795953 -0.14995177 -0.067956291 2.341805e-38
0.048770383 -0.14995177 -0.067956291 2.341805e-38
-0.05177002 -0.12428986 0.036084451 1.2810874e-38
-0.049978007 -0.12428986 0.036084451 1.3547714e-38
-0.048078503 -0.12349547 0.039075054 1.3732459e-38
-0.046291735 -0.12349547 0.039075054 1.2717942e-38
-0.044797696 -0.12589271 0.030050317 9.675481e-39
-0.043085273 -0.1266733 0.027111689 8.2929025e-39
-0.041366093 -0.12748651 0.024050275 8.4765693e-39
-0.039552983 -0.12748651 0.024050275 7.3702162e-39
-0.037916005 -0.12932678 0.017122308 5.7106976e-39
-0.036162063 -0.13012715 0.014109174 4.6050759e-39
-0.034462355 -0.13171287 0.0081395302 4.1444649e-39
-0.032703102 -0.13278987 0.0040849838 3.1310375e-39
-0.030909814 -0.13358103 0.0011065397 3.0377656e-39
-0.029156543 -0.13517688 -0.0049012508 3.2214352e-39
-0.027396739 -0.13703169 -0.011883935 3.1277991e-39
-0.024653342 -0.11951269 0.054068722 3.3103855e-39
-0.022858836 -0.11871959 0.057054438 2.1122164e-39
-0.021103591 -0.11871959 0.057054438 5.70566e-39
-0.019348346 -0.11871959 0.057054438 2.2116838e-38
-0.017574281 -0.11790501 0.060121037 2.3505535e-38
-0.015824413 -0.11790501 0.060121037 1.9352048e-38
-0.014074545 -0.11790501 0.060121037 1.8062751e-38
-0.012324678 -0.11790501 0.060121037 2.2028971e-38
-0.010572121 -0.11871959 0.057054438 2.35088e-38
-0.0088168755 -0.11871959 0.057054438 2.3509165e-38
-0.0070485435 -0.11951269 0.054068722 2.3509168e-38
-0.0052696317 -0.1203105 0.051065244 2.3509527e-38
-0.0034568645 -0.12189357 0.045105614 2.3509527e-38
-0.0016511856 -0.12270571 0.042048134 2.3509527e-38
0.00016425364 -0.12349547 0.039075054 2.3509886e-38
0.001990349 -0.12428986 0.036084451 2.3509886e-38
0.0038271947 -0.12508895 0.033076204 2.341805e-38
0.0056748819 -0.12589271 0.030050317 2.341805e-38
0.007531574 -0.1266733 0.027111689 2.3509883e-38
0.0096014924 -0.13012715 0.014109174 2.3509883e-38
0.011432035 -0.13012715 0.014109174 2.350988e-38
0.01349985 -0.13278987 0.0040849838 2.3509879e-38
0.015499843 -0.13437669 -0.0018888321 2.3509879e-38
0.017358435 -0.13437669 -0.0018888321 2.350988e-38
0.019304177 -0.13517688 -0.0049012508 2.3509524e-38
0.021292113 -0.13625093 -0.0089445915 2.3509527e-38
0.023258418 -0.13703169 -0.011883935 2.3509527e-38
0.025134537 -0.13703169 -0.011883935 2.3509527e-38
0.027120981 -0.13784705 -0.014953455 2.3509527e-38
0.029153466 -0.13891099 -0.018958768 2.3509527e-38
0.031160139 -0.13970654 -0.021953663 2.3509527e-38
0.033053908 -0.13970654 -0.021953663 2.3509527e-38
0.035116997 -0.14075352 -0.025895199 2.3509527e-38
0.037284445 -0.14233841 -0.031861745 2.3509527e-38
0.040034581 -0.14713491 -0.049918853 2.3509527e-38
0.042313598 -0.14898713 -0.056891762 2.3509527e-38
-0.051888693 -0.12688623 0.033076204 1.3364045e-38
-0.050091408 -0.12688623 0.033076204 1.4377472e-38
-0.048294123 -0.12688623 0.033076204 1.2809781e-38
-0.046496835 -0.12688623 0.033076204 1.2255885e-38
-0.044797696 -0.12769531 0.030050317 8.9371957e-39
-0.043085273 -0.12848105 0.027111689 8.4762148e-39
-0.041366093 -0.1292996 0.024050275 8.2914592e-39
-0.039659847 -0.13035102 0.020118037 7.5535284e-39
-0.037916005 -0.13115202 0.017122308 5.6181391e-39
-0.036233798 -0.13276802 0.011078635 4.4199616e-39
-0.034462355 -0.13355388 0.0081395302 3.683484e-39
-0.032703102 -0.134638 0.0040849838 2.9466462e-39
-0.030909814 -0.13543437 0.0011065397 2.8533744e-39
-0.029223893 -0.13812189 -0.0089445915 2.7604599e-39
-0.027442485 -0.13972856 -0.014953455 2.2980398e-39
-0.025560983 -0.13972856 -0.014953455 2.5731876e-39
-0.023679484 -0.13972856 -0.014953455 1.8367099e-39
-0.021103591 -0.12047486 0.057054438 3.2163948e-39
-0.01932415 -0.11965488 0.060121037 2.2946243e-38
-0.017574281 -0.11965488 0.060121037 2.3500493e-38
-0.015824413 -0.11965488 0.060121037 1.9443525e-38
-0.014074545 -0.11965488 0.060121037 1.8431171e-38
-0.012327366 -0.12047486 0.057054438 2.0184695e-38
-0.010572121 -0.12047486 0.057054438 2.3506636e-38
-0.0088168755 -0.12047486 0.057054438 2.3509163e-38
-0.0070485435 -0.12127317 0.054068722 2.3509165e-38
-0.0052696317 -0.12207626 0.051065244 2.3509524e-38
-0.0034568645 -0.12366976 0.045105614 2.3140384e-38
-0.0016511856 -0.1244873 0.042048134 2.2955993e-38
0.00016425364 -0.12528224 0.039075054 2.3509886e-38
0.001951023 -0.12528224 0.039075054 2.3233662e-38
0.0037823617 -0.12608187 0.036084451 2.341805e-38
0.0056244805 -0.12688623 0.033076204 2.341805e-38
0.007531574 -0.12848105 0.027111689 2.3418047e-38
0.0095407385 -0.13115202 0.017122308 2.3509883e-38
0.011365997 -0.13115202 0.017122308 2.350988e-38
0.01333431 -0.13276802 0.011078635 2.3509879e-38
0.015347969 -0.134638 0.0040849838 2.3509879e-38
0.017358435 -0.13623528 -0.0018888321 2.3509879e-38
0.019304177 -0.13704078 -0.0049012508 2.3509524e-38
0.021292113 -0.13812189 -0.0089445915 2.3509527e-38
0.023258418 -0.13890781 -0.011883935 2.3509527e-38
0.025239483 -0.13972856 -0.014953455 2.3509527e-38
0.027120981 -0.13972856 -0.014953455 2.3509527e-38
0.029153466 -0.14079951 -0.018958768 2.3509527e-38
0.031160139 -0.1416003 -0.021953663 2.3509527e-38
0.033053908 -0.1416003 -0.021953663 2.3509527e-38
0.035116997 -0.1426542 -0.025895199 2.3509527e-38
0.037284445 -0.14424954 -0.031861745 2.3509168e-38
0.039709054 -0.14720438 -0.042912684 2.2679409e-38
0.041831255 -0.14826734 -0.046888076 2.3509527e-38
-0.05177002 -0.12787388 0.036084451 1.4561866e-38
-0.049978007 -0.12787388 0.036084451 1.520687e-38
-0.048185997 -0.12787388 0.036084451 1.2901976e-38
-0.046496835 -0.12868352 0.033076204 1.216369e-38
-0.04469955 -0.12868352 0.033076204 9.121587e-39
-0.042995106 -0.1294979 0.030050317 8.8442784e-39
-0.041277528 -0.13028879 0.027111689 8.382936e-39
-0.039552983 -0.13111271 0.024050275 8.1059791e-39
-0.037916005 -0.13297729 0.017122308 5.9861999e-39
-0.036233798 -0.13460387 0.011078635 4.4199616e-39
-0.034462355 -0.13539489 0.0081395302 3.7756796e-39
-0.032703102 -0.13648613 0.0040849838 3.0388418e-39
-0.030964959 -0.13809387 -0.0018888321 2.8540946e-39
-0.029272854 -0.14078392 -0.011883935 2.7608228e-39
-0.027442485 -0.14161004 -0.014953455 2.2062071e-39
-0.025560983 -0.14161004 -0.014953455 3.3118302e-39
-0.023725133 -0.14268802 -0.018958768 1.8367099e-39
-0.021103591 -0.1222301 0.057054438 2.4795584e-39
-0.01932415 -0.12140475 0.060121037 1.7967679e-38
-0.017574281 -0.12140475 0.060121037 2.165586e-38
-0.015824413 -0.12140475 0.060121037 2.0088894e-38
-0.014074545 -0.12140475 0.060121037 1.9444244e-38
-0.012327366 -0.1222301 0.057054438 2.0644955e-38
-0.010572121 -0.1222301 0.057054438 2.2214452e-38
-0.0088168755 -0.1222301 0.057054438 2.3507362e-38
-0.0070485435 -0.12303366 0.054068722 2.3508802e-38
-0.0052696317 -0.12384202 0.051065244 2.3509165e-38
-0.0034568645 -0.12544595 0.045105614 2.3509524e-38
-0.0016511856 -0.12626885 0.042048134 2.3416971e-38
0.00016425364 -0.12706901 0.039075054 2.3509886e-38
0.001951023 -0.12706901 0.039075054 2.2957075e-38
0.0037823617 -0.12787388 0.036084451 2.341805e-38
0.0056244805 -0.12868352 0.033076204 2.341805e-38
0.007531574 -0.13028879 0.027111689 2.341805e-38
0.0095407385 -0.13297729 0.017122308 2.3418047e-38
0.011365997 -0.13297729 0.017122308 2.350988e-38
0.013262577 -0.13378824 0.014109174 2.3509879e-38
0.015244888 -0.13539489 0.0081395302 2.3509879e-38
0.017196087 -0.13648613 0.0040849838 2.3509879e-38
0.019217027 -0.13809387 -0.0018888321 2.3509524e-38
0.021168049 -0.13890465 -0.0049012508 2.3509527e-38
0.023163076 -0.13999285 -0.0089445915 2.3509527e-38
0.025134537 -0.14078392 -0.011883935 2.3509527e-38
0.027010653 -0.14078392 -0.011883935 2.3509527e-38
0.029153466 -0.14268802 -0.018958768 2.3509527e-38
0.031160139 -0.14349405 -0.021953663 2.3509527e-38
0.033053908 -0.14349405 -0.021953663 2.3509527e-38
0.035247311 -0.14537133 -0.028928837 2.2771602e-38
0.037284445 -0.14616071 -0.031861745 2.3509527e-38
0.039709054 -0.14913492 -0.042912684 2.3509527e-38
-0.05356203 -0.1296659 0.036084451 1.1243903e-38
-0.05177002 -0.1296659 0.036084451 1.483845e-38
-0.049978007 -0.1296659 0.036084451 1.5114674e-38
-0.048185997 -0.1296659 0.036084451 1.2440277e-38
-0.046393983 -0.1296659 0.036084451 1.1610153e-38
-0.04469955 -0.13048081 0.033076204 9.0286725e-39
-0.042995106 -0.13130049 0.030050317 8.9361139e-39
-0.041277528 -0.13209651 0.027111689 8.0141534e-39
-0.039552983 -0.13292582 0.024050275 8.3825646e-39
-0.037916005 -0.13480256 0.017122308 6.1698695e-39
-0.036303364 -0.13723589 0.0081395302 4.3277632e-39
-0.034551218 -0.13833423 0.0040849838 3.4990927e-39
-0.032763153 -0.13914107 0.0011065397 2.9466462e-39
-0.031020418 -0.14076851 -0.0049012508 2.7619018e-39
-0.029272854 -0.14266007 -0.011883935 2.3931221e-39
-0.027442485 -0.14349155 -0.014953455 1.8385064e-39
-0.025560983 -0.14349155 -0.014953455 1.6530389e-39
-0.023725133 -0.14457656 -0.018958768 1.5612034e-39
-0.021103591 -0.12398534 0.057054438 2.848694e-39
-0.019348346 -0.12398534 0.057054438 1.3266423e-38
-0.017574281 -0.12315463 0.060121037 2.1286721e-38
-0.015824413 -0.12315463 0.060121037 2.2578176e-38
-0.014082611 -0.12398534 0.057054438 1.9905222e-38
-0.012327366 -0.12398534 0.057054438 1.8615928e-38
-0.010572121 -0.12398534 0.057054438 2.0923351e-38
-0.0088168755 -0.12398534 0.057054438 2.3507716e-38
-0.0070485435 -0.12479414 0.054068722 2.3509158e-38
-0.0052696317 -0.12560774 0.051065244 2.3509161e-38
-0.0034568645 -0.12722217 0.045105614 2.3509524e-38
-0.0016806694 -0.12722217 0.045105614 2.3509527e-38
0.00013037026 -0.1280504 0.042048134 2.3509886e-38
0.001951023 -0.12885578 0.039075054 2.304927e-38
0.0038271947 -0.13048081 0.033076204 2.3234379e-38
0.0056244805 -0.13048081 0.033076204 2.3234379e-38
0.007531574 -0.13209651 0.027111689 2.341805e-38
0.0094803348 -0.13399105 0.020118037 2.3418047e-38
0.011365997 -0.13480256 0.017122308 2.350988e-38
0.013262577 -0.13561879 0.014109174 2.3509879e-38
0.015170166 -0.13643973 0.011078635 2.3509879e-38
0.017085897 -0.13723589 0.0081395302 2.3509521e-38
0.019217027 -0.13995247 -0.0018888321 2.3509883e-38
0.021168049 -0.14076851 -0.0049012508 2.3509527e-38
0.023163076 -0.14186381 -0.0089445915 2.3509527e-38
0.02503404 -0.14186381 -0.0089445915 2.3509527e-38
0.027010653 -0.14266007 -0.011883935 2.3509527e-38
0.02900248 -0.14349155 -0.014953455 2.3509886e-38
0.031041987 -0.14457656 -0.018958768 2.3509883e-38
0.033216313 -0.14645557 -0.025895199 2.3509883e-38
0.035247311 -0.14727734 -0.028928837 2.3417327e-38
0.037463926 -0.1491593 -0.035876118 2.3509883e-38
-0.055097863 -0.12983195 0.042048134 9.9538798e-39
-0.05356203 -0.13145791 0.036084451 1.0874038e-38
-0.05177002 -0.13145791 0.036084451 1.4470024e-38
-0.049978007 -0.13145791 0.036084451 1.4837364e-38
-0.048185997 -0.13145791 0.036084451 1.1887103e-38
-0.046393983 -0.13145791 0.036084451 1.1149172e-38
-0.04469955 -0.1322781 0.033076204 9.0286697e-39
-0.042995106 -0.13310309 0.030050317 9.0283082e-39
-0.041192513 -0.13310309 0.030050317 8.0134304e-39
-0.039552983 -0.13473894 0.024050275 8.4740414e-39
-0.037916005 -0.13662781 0.017122308 6.0776739e-39
-0.036399335 -0.14018236 0.0040849838 4.0511763e-39
-0.034682147 -0.14181106 -0.0018888321 3.2225058e-39
-0.032884292 -0.14263238 -0.0049012508 2.486031e-39
-0.031094857 -0.14373477 -0.0089445915 2.3012866e-39
-0.02932398 -0.14537306 -0.014953455 1.9325055e-39
-0.027502175 -0.14646508 -0.018958768 1.2856969e-39
-0.025613654 -0.14646508 -0.018958768 1.9296216e-39
-0.023725133 -0.14646508 -0.018958768 1.6530389e-39
-0.021836611 -0.14646508 -0.018958768 2.5717526e-39
-0.019971719 -0.1472816 -0.021953663 6.9967645e-39
-0.017574281 -0.1249045 0.060121037 1.8059874e-38
-0.015824413 -0.1249045 0.060121037 2.3501933e-38
-0.014082611 -0.12574057 0.057054438 2.1287437e-38
-0.012327366 -0.12574057 0.057054438 1.8247145e-38
-0.010574808 -0.1249045 0.060121037 2.0185063e-38
-0.0088249408 -0.1249045 0.060121037 2.3508794e-38
-0.0070616305 -0.12574057 0.057054438 2.3508797e-38
-0.0052696317 -0.1273735 0.051065244 2.3508437e-38
-0.0034808433 -0.12816976 0.048144735 2.3509521e-38
-0.0016806694 -0.12899835 0.045105614 2.3509523e-38
9.5525756e-05 -0.12899835 0.045105614 2.3509886e-38
0.001911927 -0.12983195 0.042048134 2.341805e-38
0.0037377914 -0.13064255 0.039075054 2.3234379e-38
0.0055245608 -0.13064255 0.039075054 2.3234379e-38
0.0073663853 -0.13145791 0.036084451 2.341805e-38
0.0094803348 -0.13581105 0.020118037 2.341805e-38
0.011365997 -0.13662781 0.017122308 2.3509883e-38
0.013262577 -0.13744931 0.014109174 2.350988e-38
0.015170166 -0.13827558 0.011078635 2.3509521e-38
0.017085897 -0.1390769 0.0081395302 2.3509521e-38
0.019217027 -0.14181106 -0.0018888321 2.3509527e-38
0.021075618 -0.14181106 -0.0018888321 2.3509527e-38
0.023031924 -0.14263238 -0.0049012508 2.3509527e-38
0.02503404 -0.14373477 -0.0089445915 2.3509886e-38
0.026905004 -0.14373477 -0.0089445915 2.3509886e-38
0.02900248 -0.14537306 -0.014953455 2.3509886e-38
0.031041987 -0.14646508 -0.018958768 2.3509883e-38
0.033053908 -0.1472816 -0.021953663 2.3509883e-38
0.035247311 -0.14918335 -0.028928837 2.3509883e-38
-0.055097863 -0.13161351 0.042048134 1.0507051e-38
-0.05331631 -0.13161351 0.042048134 1.1058785e-38
-0.051534753 -0.13161351 0.042048134 1.4562217e-38
-0.049753197 -0.13161351 0.042048134 1.4929559e-38
-0.048078503 -0.13242932 0.039075054 1.18871e-38
-0.046393983 -0.13324992 0.036084451 1.133356e-38
-0.04469955 -0.13407536 0.033076204 9.3970907e-39
-0.042995106 -0.13490568 0.030050317 9.3038161e-39
-0.041192513 -0.13490568 0.030050317 8.105626e-39
-0.039552983 -0.13655205 0.024050275 8.2896501e-39
-0.037992604 -0.13927986 0.014109174 5.9854782e-39
-0.036399335 -0.14203046 0.0040849838 3.9589807e-39
-0.034682147 -0.14366965 -0.0018888321 3.0381146e-39
-0.032884292 -0.14449625 -0.0049012508 2.2094441e-39
-0.031094857 -0.14560573 -0.0089445915 1.9332244e-39
-0.02932398 -0.14725454 -0.014953455 1.5640859e-39
-0.027502175 -0.14835359 -0.018958768 9.1835496e-40
-0.025613654 -0.14835359 -0.018958768 1.5619209e-39
-0.023725133 -0.14835359 -0.018958768 1.6530389e-39
-0.021865491 -0.14917539 -0.021953663 1.9285454e-39
-0.019971719 -0.14917539 -0.021953663 2.848694e-39
-0.017556179 -0.12584494 0.063070811 1.3911793e-38
-0.015811484 -0.12584494 0.063070811 2.3503016e-38
-0.014082611 -0.12749584 0.057054438 2.2301592e-38
-0.012327366 -0.12749584 0.057054438 1.7877644e-38
-0.010574808 -0.12665437 0.060121037 1.852482e-38
-0.0088249408 -0.12665437 0.060121037 2.3505547e-38
-0.0070616305 -0.12749584 0.057054438 2.3509151e-38
-0.0052880635 -0.12831511 0.054068722 2.3508435e-38
-0.0035038861 -0.12913923 0.051065244 2.350952e-38
-0.0017099772 -0.12994061 0.048144735 2.3232933e-38
9.5525756e-05 -0.13077454 0.045105614 2.341769e-38
0.0018717209 -0.13077454 0.045105614 2.341805e-38
0.0037377914 -0.13242932 0.039075054 2.3234379e-38
0.0055245608 -0.13242932 0.039075054 2.3234379e-38
0.0073663853 -0.13324992 0.036084451 2.341805e-38
0.0094010476 -0.13655205 0.024050275 2.341805e-38
0.01130034 -0.13763104 0.020118037 2.3509527e-38
0.013191257 -0.13845308 0.017122308 2.3509883e-38
0.01509312 -0.13927986 0.014109174 2.3509521e-38
0.017006023 -0.14011143 0.011078635 2.3509521e-38
0.019130372 -0.14284773 0.0011065397 2.3509527e-38
0.021075618 -0.14366965 -0.0018888321 2.3509886e-38
0.023031924 -0.14449625 -0.0049012508 2.3509886e-38
0.02503404 -0.14560573 -0.0089445915 2.3509886e-38
0.026905004 -0.14560573 -0.0089445915 2.3509886e-38
0.02900248 -0.14725454 -0.014953455 2.341805e-38
0.031041987 -0.14835359 -0.018958768 2.3418047e-38
0.033053908 -0.14917539 -0.021953663 2.350988e-38
-0.055097863 -0.13339506 0.042048134 1.0506688e-38
-0.053190328 -0.13255073 0.045105614 1.1796348e-38
-0.051414136 -0.13255073 0.045105614 1.4838442e-38
-0.04963794 -0.13255073 0.045105614 1.4745164e-38
-0.048078503 -0.13421609 0.039075054 1.1886737e-38
-0.046291735 -0.13421609 0.039075054 1.1148808e-38
-0.044601969 -0.13504194 0.036084451 8.8439141e-39
-0.042995106 -0.13670824 0.030050317 8.8431938e-39
-0.041192513 -0.13670824 0.030050317 7.8290363e-39
-0.039552983 -0.13836516 0.024050275 8.0134192e-39
-0.038069651 -0.14194728 0.011078635 5.8932826e-39
-0.036469836 -0.14470108 0.0011065397 4.1433719e-39
-0.034748167 -0.14636014 -0.0049012508 2.9469979e-39
-0.03296582 -0.14747669 -0.0089445915 2.0257745e-39
-0.03114897 -0.14828841 -0.011883935 1.5651649e-39
-0.017556179 -0.12758966 0.063070811 1.003922e-38
-0.015811484 -0.12758966 0.063070811 2.3500138e-38
-0.014082611 -0.12925108 0.057054438 2.2670375e-38
-0.012327366 -0.12925108 0.057054438 1.7232274e-38
-0.010574808 -0.12840421 0.060121037 1.6681264e-38
-0.0088249408 -0.12840421 0.060121037 2.1568717e-38
-0.0070616305 -0.12925108 0.057054438 2.3506988e-38
-0.0052880635 -0.13007559 0.054068722 2.3509153e-38
-0.0035275836 -0.13007559 0.054068722 2.3509517e-38
-0.0017381404 -0.13090499 0.051065244 2.3232933e-38
9.5525756e-05 -0.13255073 0.045105614 2.3509886e-38
0.0018717209 -0.13255073 0.045105614 2.341805e-38
0.0037377914 -0.13421609 0.039075054 2.3234379e-38
0.0055245608 -0.13421609 0.039075054 2.3234379e-38
0.0073663853 -0.13504194 0.036084451 2.341805e-38
0.0094010476 -0.13836516 0.024050275 2.341805e-38
0.01130034 -0.13945107 0.020118037 2.3509527e-38
0.013191257 -0.14027832 0.017122308 2.3509527e-38
0.015016517 -0.14027832 0.017122308 2.3509165e-38
0.016923662 -0.14111041 0.014109174 2.3509524e-38
0.019044204 -0.14387859 0.0040849838 2.3509527e-38
0.020983711 -0.14470108 0.0011065397 2.3509886e-38
0.02293421 -0.14552824 -0.0018888321 2.3509886e-38
0.02503404 -0.14747669 -0.0089445915 2.341805e-38
0.027010653 -0.14828841 -0.011883935 2.341805e-38
0.02900248 -0.14913605 -0.014953455 2.3418047e-38
-0.057012342 -0.13600285 0.039075054 1.0691439e-38
-0.055097863 -0.13517661 0.042048134 1.1059862e-38
-0.053190328 -0.13432692 0.045105614 1.2533911e-38
-0.051414136 -0.13432692 0.045105614 1.4746243e-38
-0.04963794 -0.13432692 0.045105614 1.4192347e-38
-0.048078503 -0.13600285 0.039075054 1.133356e-38
-0.046291735 -0.13600285 0.039075054 1.0595634e-38
-0.044601969 -0.13683395 0.036084451 7.9219578e-39
-0.042995106 -0.13851084 0.030050317 8.1978244e-39
-0.041277528 -0.13932751 0.027111689 7.7368407e-39
-0.039823148 -0.14294095 0.014109174 7.4602454e-39
-0.038399331 -0.14738683 -0.0018888321 5.7088913e-39
-0.036540739 -0.14738683 -0.0018888321 4.1433747e-39
-0.034748167 -0.14822401 -0.0049012508 2.946642e-39
-0.03296582 -0.14934768 -0.0089445915 1.7488317e-39
-0.017574281 -0.13015409 0.060121037 5.7060285e-39
-0.015824413 -0.13015409 0.060121037 2.2025008e-38
-0.014082611 -0.13100632 0.057054438 2.3501216e-38
-0.012327366 -0.13100632 0.057054438 1.8523013e-38
-0.010574808 -0.13015409 0.060121037 1.6404677e-38
-0.0088249408 -0.13015409 0.060121037 1.9909552e-38
-0.0070616305 -0.13100632 0.057054438 2.2675787e-38
-0.0053063855 -0.13100632 0.057054438 2.350951e-38
-0.0035275836 -0.13183604 0.054068722 2.3509873e-38
-0.0017381404 -0.13267075 0.051065244 2.3325127e-38
6.088987e-05 -0.13348235 0.048144735 2.3509886e-38
0.001831756 -0.13348235 0.048144735 2.3141466e-38
0.0037377914 -0.13600285 0.039075054 2.3234379e-38
0.0055245608 -0.13600285 0.039075054 2.3234379e-38
0.0073663853 -0.13683395 0.036084451 2.341805e-38
0.0094010476 -0.14017828 0.024050275 2.341805e-38
0.011214159 -0.14017828 0.024050275 2.3509527e-38
0.013191257 -0.1421036 0.017122308 2.3509527e-38
0.015016517 -0.1421036 0.017122308 2.3509165e-38
0.016923662 -0.14294095 0.014109174 2.3509524e-38
0.018926905 -0.14459993 0.0081395302 2.3509886e-38
0.020892322 -0.1457267 0.0040849838 2.341805e-38
0.02293421 -0.14738683 -0.0018888321 2.341805e-38
0.02503404 -0.14934768 -0.0089445915 2.3234379e-38
0.026905004 -0.14934768 -0.0089445915 2.3234379e-38
-0.057012342 -0.13778962 0.039075054 1.2813739e-38
-0.055097863 -0.13695817 0.042048134 1.2350961e-38
-0.053190328 -0.13610314 0.045105614 1.2811577e-38
-0.051414136 -0.13610314 0.045105614 1.4746241e-38
-0.04963794 -0.13610314 0.045105614 1.3823561e-38
-0.048078503 -0.13778962 0.039075054 1.1057331e-38
-0.046291735 -0.13778962 0.039075054 1.0319044e-38
-0.04469955 -0.13946722 0.033076204 7.6457268e-39
-0.043085273 -0.14113526 0.027111689 8.0145094e-39
-0.041366093 -0.14199139 0.024050275 8.1978188e-39
-0.039823148 -0.1447715 0.014109174 6.9992672e-39
-0.038323179 -0.14840777 0.0011065397 5.3401088e-39
-0.017574281 -0.13190396 0.060121037 5.5219904e-39
-0.015824413 -0.13190396 0.060121037 2.2117201e-38
-0.014082611 -0.13276155 0.057054438 2.3500498e-38
-0.012327366 -0.13276155 0.057054438 1.7417022e-38
-0.010574808 -0.13190396 0.060121037 1.7510656e-38
-0.0088249408 -0.13190396 0.060121037 1.9724436e-38
-0.0070616305 -0.13276155 0.057054438 2.1846023e-38
-0.0053063855 -0.13276155 0.057054438 2.350843e-38
-0.0035275836 -0.13359652 0.054068722 2.350987e-38
-0.0017671036 -0.13359652 0.054068722 2.3417679e-38
6.088987e-05 -0.13525321 0.048144735 2.350988e-38
0.001831756 -0.13525321 0.048144735 2.3049626e-38
0.0036934828 -0.13695817 0.042048134 2.3234379e-38
0.0054750387 -0.13695817 0.042048134 2.3234379e-38
0.0073113292 -0.13778962 0.039075054 2.341805e-38
0.0093393195 -0.14113526 0.027111689 2.341805e-38
0.011214159 -0.14199139 0.024050275 2.3509883e-38
0.013120348 -0.14309107 0.020118037 2.3509883e-38
0.015016517 -0.14392884 0.017122308 2.3509524e-38
0.016841775 -0.14392884 0.017122308 2.3509527e-38
0.018926905 -0.14644094 0.0081395302 2.3509886e-38
0.020892322 -0.14757483 0.0040849838 2.341805e-38
0.02283705 -0.14840777 0.0011065397 2.341805e-38
-0.057146057 -0.14041798 0.036084451 1.0878717e-38
-0.055225573 -0.13957639 0.039075054 1.4012643e-38
-0.05331631 -0.13873972 0.042048134 1.3826448e-38
-0.051534753 -0.13873972 0.042048134 1.4562565e-38
-0.049978007 -0.14041798 0.036084451 1.437709e-38
-0.048185997 -0.14041798 0.036084451 1.0596347e-38
-0.046393983 -0.14041798 0.036084451 9.3052454e-39
-0.04469955 -0.14126451 0.033076204 8.2910935e-39
-0.043085273 -0.14294298 0.027111689 8.4754875e-39
-0.041479856 -0.14491107 0.020118037 7.2758625e-39
-0.039823148 -0.14660202 0.014109174 8.4726022e-39
-0.024889834 -0.14041798 0.036084451 1.5626384e-39
-0.023097824 -0.14041798 0.036084451 2.2058456e-39
-0.021305811 -0.14041798 0.036084451 5.4297891e-39
-0.019513797 -0.14041798 0.036084451 5.1521176e-39
-0.017574281 -0.13365383 0.060121037 8.0109024e-39
-0.015824413 -0.13365383 0.060121037 1.9167295e-38
-0.014082611 -0.13451682 0.057054438 2.3410101e-38
-0.012327366 -0.13451682 0.057054438 1.8340417e-38
-0.010574808 -0.13365383 0.060121037 1.6496853e-38
-0.0088249408 -0.13365383 0.060121037 1.9631871e-38
-0.0070616305 -0.13451682 0.057054438 1.9079435e-38
-0.0053063855 -0.13451682 0.057054438 2.3509153e-38
-0.0035275836 -0.13535701 0.054068722 2.3508428e-38
-0.0017671036 -0.13535701 0.054068722 2.3416952e-38
2.7605332e-05 -0.13620223 0.051065244 2.3509869e-38
0.0018717209 -0.13787933 0.045105614 2.3234369e-38
0.003647916 -0.13787933 0.045105614 2.3142185e-38
0.0054241121 -0.13787933 0.045105614 2.2958155e-38
0.0072565954 -0.13873972 0.042048134 2.3234379e-38
0.0092190541 -0.14126451 0.033076204 2.341805e-38
0.011082659 -0.14211603 0.030050317 2.2865581e-38
0.013027271 -0.14380451 0.024050275 2.3418036e-38
0.014940355 -0.14491107 0.020118037 2.3509883e-38
0.016841775 -0.14575411 0.017122308 2.3509527e-38
0.018841878 -0.14745484 0.011078635 2.3325856e-38
0.020892322 -0.14942293 0.0040849838 2.3141466e-38
-0.057012342 -0.14136316 0.039075054 9.4043074e-39
-0.055225573 -0.14136316 0.039075054 1.3091765e-38
-0.05331631 -0.14052127 0.042048134 1.4195947e-38
-0.051534753 -0.14052127 0.042048134 1.4471449e-38
-0.049978007 -0.14220999 0.036084451 1.41005e-38
-0.048185997 -0.14220999 0.036084451 1.0412312e-38
-0.046393983 -0.14220999 0.036084451 9.2130469e-39
-0.04469955 -0.1430618 0.033076204 8.1988978e-39
-0.043299861 -0.14673109 0.020118037 8.1992608e-39
-0.041653693 -0.14843257 0.014109174 7.0003546e-39
-0.026726682 -0.1430618 0.033076204 3.9633247e-39
-0.024889834 -0.14220999 0.036084451 7.2791163e-39
-0.023097824 -0.14220999 0.036084451 7.6457268e-39
-0.021305811 -0.14220999 0.036084451 9.7626194e-39
-0.019513797 -0.14220999 0.036084451 8.6555488e-39
-0.017593101 -0.13627206 0.057054438 8.3800409e-39
-0.015837856 -0.13627206 0.057054438 1.5480189e-38
-0.014082611 -0.13627206 0.057054438 2.1289598e-38
-0.012327366 -0.13627206 0.057054438 2.0092131e-38
-0.010574808 -0.13540371 0.060121037 1.8433318e-38
-0.0088249408 -0.13540371 0.060121037 1.9447835e-38
-0.0070616305 -0.13627206 0.057054438 1.9631889e-38
-0.0053063855 -0.13627206 0.057054438 2.3508794e-38
-0.0035275836 -0.13711749 0.054068722 2.3509149e-38
-0.0017671036 -0.13711749 0.054068722 2.3509144e-38
2.7605332e-05 -0.13796796 0.051065244 2.3509869e-38
0.001793352 -0.13796796 0.051065244 2.3049978e-38
0.003602623 -0.13879494 0.048144735 2.3234379e-38
0.0053734891 -0.13879494 0.048144735 2.258902e-38
0.0072565954 -0.14052127 0.042048134 2.2773408e-38
0.0090980977 -0.14136316 0.039075054 2.3234379e-38
0.011016341 -0.1430618 0.033076204 2.3418038e-38
0.012954809 -0.14475073 0.027111689 2.350987e-38
0.014840385 -0.14561762 0.024050275 2.3048189e-38
0.01676036 -0.14673109 0.020118037 2.2956359e-38
0.018667035 -0.14757936 0.017122308 2.341805e-38
-0.05879911 -0.14314993 0.039075054 8.3915974e-39
-0.057012342 -0.14314993 0.039075054 9.0355249e-39
-0.055225573 -0.14314993 0.039075054 1.3644939e-38
-0.05331631 -0.14230286 0.042048134 1.4472533e-38
-0.051534753 -0.14230286 0.042048134 1.4470727e-38
-0.049978007 -0.14400201 0.036084451 1.3730999e-38
-0.048294123 -0.14485909 0.033076204 1.0411593e-38
-0.046496835 -0.14485909 0.033076204 9.4885576e-39
-0.044797696 -0.14572121 0.030050317 8.1988978e-39
-0.043179207 -0.14743073 0.024050275 8.1070651e-39
-0.026681848 -0.14400201 0.036084451 5.0689506e-39
-0.024889834 -0.14400201 0.036084451 9.2152246e-39
-0.023132108 -0.14485909 0.033076204 8.7524401e-39
-0.021305811 -0.14400201 0.036084451 9.1194122e-39
-0.019513797 -0.14400201 0.036084451 8.4733211e-39
-0.017629854 -0.13973372 0.051065244 6.7208853e-39
-0.015850943 -0.13887797 0.054068722 1.0225038e-38
-0.014082611 -0.1380273 0.057054438 1.7878716e-38
-0.012327366 -0.1380273 0.057054438 2.1290674e-38
-0.010574808 -0.13715358 0.060121037 1.9447116e-38
-0.0088249408 -0.13715358 0.060121037 1.7511373e-38
-0.0070616305 -0.1380273 0.057054438 1.8617737e-38
-0.0053063855 -0.1380273 0.057054438 2.2767628e-38
-0.0035275836 -0.13887797 0.054068722 2.3507352e-38
-0.0017671036 -0.13887797 0.054068722 2.3509873e-38
-6.6235662e-06 -0.13887797 0.054068722 2.3509876e-38
0.001793352 -0.13973372 0.051065244 2.332621e-38
0.0035590976 -0.13973372 0.051065244 2.3142185e-38
0.0053248443 -0.13973372 0.051065244 2.323402e-38
0.0072003063 -0.1414317 0.045105614 2.323402e-38
0.0090980977 -0.14314993 0.039075054 2.3234379e-38
0.010950411 -0.14400201 0.036084451 2.3418045e-38
0.01288525 -0.14572121 0.030050317 2.3325846e-38
0.014762552 -0.14655848 0.027111689 2.3232583e-38
0.016653497 -0.14743073 0.024050275 2.3509886e-38
0.018466609 -0.14743073 0.024050275 2.341805e-38
0.020492293 -0.14940463 0.017122308 2.3418047e-38
-0.060585879 -0.1449367 0.039075054 7.7451518e-39
-0.058660977 -0.14408441 0.042048134 7.1919752e-39
-0.056879424 -0.14408441 0.042048134 7.8369817e-39
-0.055097863 -0.14408441 0.042048134 1.3459469e-38
-0.05331631 -0.14408441 0.042048134 1.4656206e-38
-0.051534753 -0.14408441 0.042048134 1.4101226e-38
-0.049978007 -0.14579402 0.036084451 1.3177825e-38
-0.048294123 -0.14665638 0.033076204 1.0319397e-38
-0.046496835 -0.14665638 0.033076204 9.7651445e-39
-0.044797696 -0.14752381 0.030050317 8.1989006e-39
-0.042995106 -0.14752381 0.030050317 8.1063491e-39
-0.026681848 -0.14579402 0.036084451 1.2997049e-38
-0.024889834 -0.14579402 0.036084451 1.1336444e-38
-0.023132108 -0.14665638 0.033076204 1.0136815e-38
-0.021305811 -0.14579402 0.036084451 9.1212199e-39
-0.019513797 -0.14579402 0.036084451 9.2130498e-39
-0.017740246 -0.14665638 0.033076204 8.0130646e-39
-0.01587691 -0.14233668 0.048144735 9.303802e-39
-0.014090464 -0.14063846 0.054068722 1.7509213e-38
-0.012329983 -0.14063846 0.054068722 2.3505169e-38
-0.010572121 -0.13978253 0.057054438 2.0644583e-38
-0.0088168755 -0.13978253 0.057054438 1.5667463e-38
-0.0070616305 -0.13978253 0.057054438 1.72348e-38
-0.0053063855 -0.13978253 0.057054438 2.0923714e-38
-0.0035275836 -0.14063846 0.054068722 2.3137852e-38
-0.0017671036 -0.14063846 0.054068722 2.350952e-38
-6.6235662e-06 -0.14063846 0.054068722 2.3417327e-38
0.001793352 -0.14149947 0.051065244 2.3509886e-38
0.0035590976 -0.14149947 0.051065244 2.3048914e-38
