# .PCD v0.7 - Point Cloud Data file format
VERSION 0.7
FIELDS x y z rgb
SIZE 4 4 4 4
TYPE F F F F
COUNT 1 1 1 1
WIDTH 925
HEIGHT 1
VIEWPOINT 0 0 0 1 0 0 0
POINTS 925
DATA ascii
-0.017422197 -0.073650107 0.021748086 2.3509527e-38
-0.015508801 -0.074274153 0.018769642 2.3233662e-38
-0.01358456 -0.07490176 0.015774271 2.3142542e-38
-0.011649383 -0.075532928 0.012761852 2.3234379e-38
-0.0096756238 -0.076380104 0.0087185111 2.3234376e-38
-0.007804662 -0.076380104 0.0087185111 2.341805e-38
-0.005843509 -0.076995969 0.0057791676 2.3509886e-38
-0.0038678274 -0.077639103 0.0027096476 2.3509886e-38
-0.0018493868 -0.078478307 -0.0012956653 2.3509886e-38
0.00014678016 -0.079105809 -0.0042905603 2.3509886e-38
0.0020405538 -0.079105809 -0.0042905603 2.3509886e-38
0.0040898211 -0.079931647 -0.0082320962 2.3509886e-38
0.0059905015 -0.079931647 -0.0082320962 2.3509886e-38
0.0081474893 -0.08118178 -0.01419864 2.3509886e-38
0.010238115 -0.08202289 -0.018213013 2.3509886e-38
0.012483243 -0.083497211 -0.02524958 2.3509886e-38
0.014751576 -0.084965169 -0.032255746 2.3509886e-38
0.016694382 -0.084965169 -0.032255746 2.3509886e-38
0.018845439 -0.085808769 -0.03628204 2.3509886e-38
0.020952877 -0.086426154 -0.039228655 2.3509886e-38
0.022907909 -0.086426154 -0.039228655 2.3509886e-38
0.025095262 -0.087280393 -0.043305732 2.3509527e-38
0.027057447 -0.087280393 -0.043305732 2.3417691e-38
0.029260509 -0.088114753 -0.047287919 2.3234012e-38
0.031659827 -0.089562759 -0.054198839 2.3418043e-38
0.033900946 -0.090413481 -0.058259107 2.350988e-38
0.036149792 -0.091243446 -0.062220313 2.3509523e-38
0.03814514 -0.091243446 -0.062220313 2.3509168e-38
0.040354192 -0.091889992 -0.065306164 2.3508804e-38
0.042639747 -0.092730328 -0.069316842 2.3507349e-38
0.044647533 -0.092730328 -0.069316842 2.3509133e-38
0.046655316 -0.092730328 -0.069316842 2.285906e-38
0.048663098 -0.092730328 -0.069316842 2.1106615e-38
0.050670881 -0.092730328 -0.069316842 2.0646364e-38
0.052990455 -0.093549207 -0.073225118 1.4838414e-38
0.055005092 -0.093549207 -0.073225118 7.7400917e-39
0.057019744 -0.093549207 -0.073225118 1.0112667e-39
-0.050460782 -0.071280017 0.041713379 1.0782545e-38
-0.048618149 -0.070633218 0.044774793 9.9516994e-39
-0.046810403 -0.070633218 0.044774793 6.171673e-39
-0.044984628 -0.070012346 0.047713421 1.2164389e-38
-0.043182034 -0.070012346 0.047713421 2.3508411e-38
-0.041379444 -0.070012346 0.047713421 2.3508414e-38
-0.039579429 -0.070633218 0.044774793 2.3509858e-38
-0.037774257 -0.070012346 0.047713421 2.3509869e-38
-0.035971664 -0.070012346 0.047713421 2.3234369e-38
-0.034169074 -0.070012346 0.047713421 2.3418043e-38
-0.032366481 -0.070012346 0.047713421 2.3418047e-38
-0.03051655 -0.071280017 0.041713379 2.341805e-38
-0.028703436 -0.071280017 0.041713379 2.3509527e-38
-0.026845511 -0.072110802 0.037781142 2.3509527e-38
-0.024986111 -0.072743744 0.034785412 2.3509527e-38
-0.023115944 -0.073380336 0.031772278 2.3509168e-38
-0.021234924 -0.074020624 0.028741738 2.3509527e-38
-0.019399067 -0.074020624 0.028741738 2.3509527e-38
-0.017503951 -0.074641585 0.025802633 2.341805e-38
-0.015574079 -0.075498223 0.021748086 2.341805e-38
-0.013655461 -0.076127499 0.018769642 2.3234376e-38
-0.01180212 -0.076127499 0.018769642 2.3234374e-38
-0.0096756238 -0.078251064 0.0087185111 2.3234374e-38
-0.007804662 -0.078251064 0.0087185111 2.3418047e-38
-0.0059336983 -0.078251064 0.0087185111 2.3509886e-38
-0.0038678274 -0.079520598 0.0027096476 2.3509886e-38
-0.0018493868 -0.08036682 -0.0012956653 2.3509886e-38
0.00014678016 -0.080999583 -0.0042905603 2.3509886e-38
0.0020405538 -0.080999583 -0.0042905603 2.3509886e-38
0.0039343275 -0.080999583 -0.0042905603 2.3509886e-38
0.0059905015 -0.081832334 -0.0082320962 2.3509886e-38
0.0080215 -0.082473263 -0.011265734 2.3509886e-38
0.010238115 -0.083941072 -0.018213013 2.3509886e-38
0.012483243 -0.085427731 -0.02524958 2.3509886e-38
0.014605444 -0.086267635 -0.029224971 2.3509886e-38
0.016694382 -0.086907968 -0.032255746 2.3509886e-38
0.018845439 -0.087758631 -0.03628204 2.3509886e-38
0.020795304 -0.087758631 -0.03628204 2.3509886e-38
0.022907909 -0.088381186 -0.039228655 2.3509886e-38
0.024862938 -0.088381186 -0.039228655 2.3509527e-38
0.027057447 -0.089242578 -0.043305732 2.3509886e-38
0.029260509 -0.090083912 -0.047287919 2.3418045e-38
0.031416722 -0.090718865 -0.050293185 2.3418043e-38
0.033900946 -0.092401877 -0.058259107 2.3418045e-38
0.035889342 -0.092401877 -0.058259107 2.3417687e-38
0.03814514 -0.093238786 -0.062220313 2.3415895e-38
0.04014048 -0.093238786 -0.062220313 2.3506286e-38
0.042354949 -0.093890756 -0.065306164 2.3136049e-38
0.044647533 -0.094738111 -0.069316842 2.3507337e-38
0.046655316 -0.094738111 -0.069316842 2.2213334e-38
0.048663098 -0.094738111 -0.069316842 2.1936377e-38
0.050670881 -0.094738111 -0.069316842 2.1752709e-38
0.052990455 -0.095563844 -0.073225118 1.5760007e-38
0.055005092 -0.095563844 -0.073225118 9.8602282e-39
0.057019744 -0.095563844 -0.073225118 1.0116254e-39
0.060056511 -0.098103389 -0.08524511 1.1070636e-39
-0.050460782 -0.073093131 0.041713379 1.0690352e-38
-0.048618149 -0.072440952 0.044774793 1.0228283e-38
-0.046810403 -0.072440952 0.044774793 3.7742237e-39
-0.044984628 -0.071814939 0.047713421 8.7527877e-39
-0.043182034 -0.071814939 0.047713421 2.3505526e-38
-0.041379444 -0.071814939 0.047713421 2.3509129e-38
-0.039576851 -0.071814939 0.047713421 2.3509853e-38
-0.037774257 -0.071814939 0.047713421 2.3509866e-38
-0.035979625 -0.07117033 0.050739311 2.3418038e-38
-0.034182336 -0.07117033 0.050739311 2.341804e-38
-0.032366481 -0.071814939 0.047713421 2.3418045e-38
-0.03051655 -0.073093131 0.041713379 2.341805e-38
-0.028703436 -0.073093131 0.041713379 2.341805e-38
-0.026845511 -0.073930815 0.037781142 2.3509527e-38
-0.024986111 -0.074569002 0.034785412 2.3509527e-38
-0.023160851 -0.074569002 0.034785412 2.3509527e-38
-0.021234924 -0.075856477 0.028741738 2.341805e-38
-0.019399067 -0.075856477 0.028741738 2.341805e-38
-0.017503951 -0.076482594 0.025802633 2.341805e-38
-0.015574079 -0.07734634 0.021748086 2.3234376e-38
-0.013725961 -0.07734634 0.021748086 2.3234374e-38
-0.011877842 -0.07734634 0.021748086 2.3142537e-38
-0.0098673757 -0.078618944 0.015774271 2.3234374e-38
-0.007804662 -0.080122024 0.0087185111 2.3418047e-38
-0.0059336983 -0.080122024 0.0087185111 2.3509886e-38
-0.0038678274 -0.081402093 0.0027096476 2.3509886e-38
-0.0019863285 -0.081402093 0.0027096476 2.3509886e-38
0.00014678016 -0.082893357 -0.0042905603 2.3509886e-38
0.0020405538 -0.082893357 -0.0042905603 2.3509886e-38
0.0039343275 -0.082893357 -0.0042905603 2.3509886e-38
0.0059905015 -0.083733007 -0.0082320962 2.3509886e-38
0.0078911856 -0.083733007 -0.0082320962 2.3509886e-38
0.010058634 -0.085004061 -0.01419864 2.3509886e-38
0.012299862 -0.086517468 -0.021302799 2.3509886e-38
0.014605444 -0.088205129 -0.029224971 2.3509886e-38
0.016694382 -0.088850766 -0.032255746 2.3509886e-38
0.018845439 -0.089708492 -0.03628204 2.3509886e-38
0.020795304 -0.089708492 -0.03628204 2.3509886e-38
0.022907909 -0.090336218 -0.039228655 2.3509886e-38
0.024862938 -0.090336218 -0.039228655 2.3509886e-38
0.027057447 -0.091204748 -0.043305732 2.3509886e-38
0.029260509 -0.092053071 -0.047287919 2.3418045e-38
0.031416722 -0.092693284 -0.050293185 2.3418045e-38
0.033641107 -0.093525305 -0.054198839 2.3418047e-38
0.035889342 -0.094390273 -0.058259107 2.3509886e-38
0.03814514 -0.095234126 -0.062220313 2.3508092e-38
0.04014048 -0.095234126 -0.062220313 2.3506649e-38
0.042354949 -0.095891505 -0.065306164 2.276763e-38
0.044647533 -0.096745893 -0.069316842 2.3505898e-38
0.046655316 -0.096745893 -0.069316842 2.2766511e-38
0.048663098 -0.096745893 -0.069316842 2.2674663e-38
0.050670881 -0.096745893 -0.069316842 2.2121495e-38
0.052990455 -0.097578481 -0.073225118 1.7327333e-38
0.055005092 -0.097578481 -0.073225118 1.2165119e-38
0.058020804 -0.1001391 -0.08524511 1.4726007e-39
0.060056511 -0.1001391 -0.08524511 7.1746481e-43
-0.050460782 -0.074906245 0.041713379 1.115133e-38
-0.048647672 -0.074906245 0.041713379 1.1241717e-38
-0.046810403 -0.074248701 0.044774793 2.5749812e-39
-0.045002662 -0.074248701 0.044774793 5.8021632e-39
-0.043182034 -0.073617533 0.047713421 2.2213704e-38
-0.041379444 -0.073617533 0.047713421 2.3509485e-38
-0.039576851 -0.073617533 0.047713421 2.3509851e-38
-0.037774257 -0.073617533 0.047713421 2.3509866e-38
-0.035979625 -0.072967619 0.050739311 2.3509873e-38
-0.034182336 -0.072967619 0.050739311 2.3509876e-38
-0.032366481 -0.073617533 0.047713421 2.3509879e-38
-0.030540705 -0.074248701 0.044774793 2.3509883e-38
-0.028703436 -0.074906245 0.041713379 2.3509886e-38
-0.026845511 -0.075750828 0.037781142 2.341805e-38
-0.025025504 -0.075750828 0.037781142 2.341805e-38
-0.023160851 -0.07639426 0.034785412 2.341805e-38
-0.021285402 -0.077041432 0.031772278 2.341805e-38
-0.019399067 -0.07769233 0.028741738 2.341805e-38
-0.017503951 -0.078323603 0.025802633 2.3234379e-38
-0.01566294 -0.078323603 0.025802633 2.3234376e-38
-0.013725961 -0.079194456 0.021748086 2.3234374e-38
-0.011877842 -0.079194456 0.021748086 2.3142537e-38
-0.0099487808 -0.079834178 0.018769642 2.3234372e-38
-0.0080087837 -0.080477536 0.015774271 2.3418047e-38
-0.0059336983 -0.081992984 0.0087185111 2.3509886e-38
-0.0040627345 -0.081992984 0.0087185111 2.3509886e-38
-0.0020912737 -0.082624316 0.0057791676 2.3509886e-38
3.9134175e-05 -0.084143862 -0.0012956653 2.3509886e-38
0.0020405538 -0.084787115 -0.0042905603 2.3509886e-38
0.0039343275 -0.084787115 -0.0042905603 2.3509886e-38
0.0059905015 -0.085633695 -0.0082320962 2.3509886e-38
0.0078911856 -0.085633695 -0.0082320962 2.3509886e-38
0.0099275038 -0.086285278 -0.011265734 2.3509886e-38
0.011969779 -0.08691521 -0.01419864 2.3509886e-38
0.014413763 -0.089288771 -0.02524958 2.3509886e-38
0.016542934 -0.090142623 -0.029224971 2.3509886e-38
0.018637184 -0.09079358 -0.032255746 2.3509886e-38
0.020795304 -0.091658354 -0.03628204 2.3509886e-38
0.022907909 -0.092291236 -0.039228655 2.3509886e-38
0.025095262 -0.093166932 -0.043305732 2.3509527e-38
0.027057447 -0.093166932 -0.043305732 2.341769e-38
0.029260509 -0.094022244 -0.047287919 2.3326208e-38
0.031229667 -0.094022244 -0.047287919 2.3418045e-38
0.033641107 -0.095506594 -0.054198839 2.3234376e-38
0.035889342 -0.096378669 -0.058259107 2.341805e-38
0.03814514 -0.097229466 -0.062220313 2.3416615e-38
0.04014048 -0.097229466 -0.062220313 2.3507372e-38
0.042354949 -0.097892255 -0.065306164 2.3412644e-38
0.044647533 -0.098753676 -0.069316842 2.2489949e-38
0.046655316 -0.098753676 -0.069316842 2.1936752e-38
0.048663098 -0.098753676 -0.069316842 2.3320035e-38
0.050975818 -0.099593118 -0.073225118 2.350623e-38
0.053314883 -0.10046658 -0.077291824 2.1845282e-38
0.055336658 -0.10046658 -0.077291824 1.6313922e-38
0.058020804 -0.1021748 -0.08524511 1.2874906e-39
0.060056511 -0.1021748 -0.08524511 0
0.062092233 -0.1021748 -0.08524511 1.1077895e-39
-0.052325603 -0.077570826 0.037781142 1.1060943e-38
-0.050505597 -0.077570826 0.037781142 1.1796699e-38
-0.048647672 -0.076719359 0.041713379 1.1610499e-38
-0.046834558 -0.076719359 0.041713379 3.4972822e-39
-0.045002662 -0.076056451 0.044774793 4.6036172e-39
-0.043194916 -0.076056451 0.044774793 1.8341122e-38
-0.041387171 -0.076056451 0.044774793 2.3506238e-38
-0.039576851 -0.075420126 0.047713421 2.3508769e-38
-0.037774257 -0.075420126 0.047713421 2.3509866e-38
-0.035979625 -0.074764907 0.050739311 2.3509876e-38
-0.034182336 -0.074764907 0.050739311 2.3509879e-38
-0.032366481 -0.075420126 0.047713421 2.350988e-38
-0.030540705 -0.076056451 0.044774793 2.3509883e-38
-0.028703436 -0.076719359 0.041713379 2.3509886e-38
-0.026845511 -0.077570826 0.037781142 2.341805e-38
-0.025025504 -0.077570826 0.037781142 2.341805e-38
-0.023160851 -0.078219518 0.034785412 2.341805e-38
-0.021285402 -0.078871965 0.031772278 2.341805e-38
-0.019399067 -0.079528198 0.028741738 2.3234379e-38
-0.017503951 -0.080164611 0.025802633 2.3234376e-38
-0.01566294 -0.080164611 0.025802633 2.3234376e-38
-0.013725961 -0.081042573 0.021748086 2.3234374e-38
-0.011877842 -0.081042573 0.021748086 2.3142537e-38
-0.0099487808 -0.08168751 0.018769642 2.3234374e-38
-0.0080954395 -0.08168751 0.018769642 2.3418047e-38
-0.0060577616 -0.082988426 0.012761852 2.3509886e-38
-0.0040627345 -0.083863959 0.0087185111 2.3509886e-38
-0.0020912737 -0.084500432 0.0057791676 2.3509886e-38
3.9134175e-05 -0.086032391 -0.0012956653 2.3509886e-38
0.0020405538 -0.086680889 -0.0042905603 2.3509886e-38
0.0039343275 -0.086680889 -0.0042905603 2.3509886e-38
0.0059905015 -0.087534383 -0.0082320962 2.3509886e-38
0.0078911856 -0.087534383 -0.0082320962 2.3509886e-38
0.0099275038 -0.088191271 -0.011265734 2.3509886e-38
0.011969779 -0.088826358 -0.01419864 2.3509886e-38
0.014074482 -0.089695618 -0.018213013 2.3509886e-38
0.016344283 -0.091219291 -0.02524958 2.3509886e-38
0.018637184 -0.092736378 -0.032255746 2.3509886e-38
0.020795304 -0.093608215 -0.03628204 2.3509886e-38
0.022907909 -0.094246268 -0.039228655 2.3509886e-38
0.025095262 -0.095129102 -0.043305732 2.3509168e-38
0.027057447 -0.095129102 -0.043305732 2.3509167e-38
0.029260509 -0.095991403 -0.047287919 2.3418043e-38
0.031229667 -0.095991403 -0.047287919 2.3418045e-38
0.033641107 -0.097487867 -0.054198839 2.3234379e-38
0.035889342 -0.098367065 -0.058259107 2.341805e-38
0.037877738 -0.098367065 -0.058259107 2.3509168e-38
0.04014048 -0.099224806 -0.062220313 2.3508092e-38
0.04213582 -0.099224806 -0.062220313 2.3508082e-38
0.044355694 -0.099893004 -0.065306164 2.1569073e-38
0.046655316 -0.10076147 -0.069316842 2.1107354e-38
0.048663098 -0.10076147 -0.069316842 2.2767224e-38
0.050975818 -0.10160775 -0.073225118 2.3506232e-38
0.053314883 -0.10248834 -0.077291824 2.3508765e-38
0.055336658 -0.10248834 -0.077291824 2.0463089e-38
0.058020804 -0.10421051 -0.08524511 3.5923814e-39
0.060056511 -0.10421051 -0.08524511 1.1059846e-39
0.062092233 -0.10421051 -0.08524511 2.5818406e-39
-0.052325603 -0.079390839 0.037781142 1.0692161e-38
-0.050505597 -0.079390839 0.037781142 1.1888895e-38
-0.048685592 -0.079390839 0.037781142 1.031976e-38
-0.046834558 -0.078532472 0.041713379 5.1557176e-39
-0.045021445 -0.078532472 0.041713379 4.4185071e-39
-0.043194916 -0.077864185 0.044774793 1.1978543e-38
-0.041387171 -0.077864185 0.044774793 2.0921875e-38
-0.039576851 -0.07722272 0.047713421 2.3506607e-38
-0.037774257 -0.07722272 0.047713421 2.350987e-38
-0.035979625 -0.076562196 0.050739311 2.3509883e-38
-0.034182336 -0.076562196 0.050739311 2.3509883e-38
-0.032366481 -0.07722272 0.047713421 2.3509883e-38
-0.030563889 -0.07722272 0.047713421 2.3509886e-38
-0.028732959 -0.077864185 0.044774793 2.3509886e-38
-0.026890324 -0.078532472 0.041713379 2.3509886e-38
-0.025025504 -0.079390839 0.037781142 2.3509886e-38
-0.023205496 -0.079390839 0.037781142 2.341805e-38
-0.021285402 -0.080702513 0.031772278 2.341805e-38
-0.019399067 -0.081364051 0.028741738 2.3234379e-38
-0.017503951 -0.08200562 0.025802633 2.3234376e-38
-0.01566294 -0.08200562 0.025802633 2.3234376e-38
-0.013725961 -0.082890689 0.021748086 2.3234376e-38
-0.011877842 -0.082890689 0.021748086 2.3234374e-38
-0.0099487808 -0.083540857 0.018769642 2.3234376e-38
-0.0080954395 -0.083540857 0.018769642 2.341805e-38
-0.0061501935 -0.08419472 0.015774271 2.3509886e-38
-0.0041938871 -0.084852293 0.012761852 2.3509886e-38
-0.0019863285 -0.087046593 0.0027096476 2.3509886e-38
3.9134175e-05 -0.087920904 -0.0012956653 2.3509886e-38
0.0020405538 -0.088574663 -0.0042905603 2.3509886e-38
0.0039343275 -0.088574663 -0.0042905603 2.3509886e-38
0.0059905015 -0.089435071 -0.0082320962 2.3509886e-38
0.0078911856 -0.089435071 -0.0082320962 2.3509886e-38
0.0099275038 -0.090097278 -0.011265734 2.3509886e-38
0.011969779 -0.090737507 -0.01419864 2.3509886e-38
0.014074482 -0.091613799 -0.018213013 2.3509886e-38
0.016344283 -0.093149811 -0.02524958 2.3509886e-38
0.018480424 -0.094017595 -0.029224971 2.3509886e-38
0.02057999 -0.094679192 -0.032255746 2.3509886e-38
0.022907909 -0.096201301 -0.039228655 2.3509886e-38
0.024862938 -0.096201301 -0.039228655 2.3509527e-38
0.027057447 -0.097091287 -0.043305732 2.3509523e-38
0.029260509 -0.097960562 -0.047287919 2.3418043e-38
0.031229667 -0.097960562 -0.047287919 2.3418045e-38
0.033391155 -0.098616585 -0.050293185 2.3234379e-38
0.035889342 -0.10035546 -0.058259107 2.3234379e-38
0.037877738 -0.10035546 -0.058259107 2.3509168e-38
0.039866142 -0.10035546 -0.058259107 2.3508451e-38
0.04213582 -0.10122015 -0.062220313 2.3509163e-38
0.044131167 -0.10122015 -0.062220313 2.230808e-38
0.046356458 -0.10189377 -0.065306164 2.2399535e-38
0.048663098 -0.10276926 -0.069316842 2.286122e-38
0.050670881 -0.10276926 -0.069316842 2.2215495e-38
0.053314883 -0.10451011 -0.077291824 2.3507324e-38
0.055336658 -0.10451011 -0.077291824 2.2676863e-38
0.058020804 -0.10624625 -0.08524511 8.1106861e-39
0.060056511 -0.10624625 -0.08524511 1.1971013e-39
0.062092233 -0.10624625 -0.08524511 2.0275878e-39
-0.054145612 -0.081210837 0.037781142 8.7582219e-39
-0.052325603 -0.081210837 0.037781142 1.0784357e-38
-0.050505597 -0.081210837 0.037781142 1.1981091e-38
-0.048685592 -0.081210837 0.037781142 9.3052482e-39
-0.046834558 -0.080345586 0.041713379 6.0776711e-39
-0.045021445 -0.080345586 0.041713379 4.7865665e-39
-0.043194916 -0.079671934 0.044774793 6.0776599e-39
-0.041387171 -0.079671934 0.044774793 1.6495763e-38
-0.039576851 -0.079025313 0.047713421 2.3506968e-38
-0.037774257 -0.079025313 0.047713421 2.3509514e-38
-0.035971664 -0.079025313 0.047713421 2.3509527e-38
-0.034169074 -0.079025313 0.047713421 2.3509527e-38
-0.032366481 -0.079025313 0.047713421 2.3509527e-38
-0.030563889 -0.079025313 0.047713421 2.3509527e-38
-0.028761297 -0.079025313 0.047713421 2.3509886e-38
-0.026925214 -0.079671934 0.044774793 2.3509886e-38
-0.025077213 -0.080345586 0.041713379 2.3509886e-38
-0.023205496 -0.081210837 0.037781142 2.341805e-38
-0.021335591 -0.081870034 0.034785412 2.341805e-38
-0.019399067 -0.083199903 0.028741738 2.3234376e-38
-0.017503951 -0.083846629 0.025802633 2.3234376e-38
-0.01566294 -0.083846629 0.025802633 2.3234376e-38
-0.013725961 -0.084738806 0.021748086 2.3234379e-38
-0.011877842 -0.084738806 0.021748086 2.3234379e-38
-0.010029724 -0.084738806 0.021748086 2.341805e-38
-0.0080954395 -0.085394189 0.018769642 2.3509886e-38
-0.0061501935 -0.086053312 0.015774271 2.3509886e-38
-0.0041938871 -0.086716175 0.012761852 2.3509886e-38
-0.0019863285 -0.088928089 0.0027096476 2.3509886e-38
3.9134175e-05 -0.089809433 -0.0012956653 2.3509886e-38
0.0020405538 -0.090468436 -0.0042905603 2.3509886e-38
0.0039343275 -0.090468436 -0.0042905603 2.3509886e-38
0.0058280975 -0.090468436 -0.0042905603 2.3509886e-38
0.0078911856 -0.091335744 -0.0082320962 2.3509886e-38
0.0099275038 -0.092003286 -0.011265734 2.3509886e-38
0.011833504 -0.092003286 -0.011265734 2.3509886e-38
0.014074482 -0.093531981 -0.018213013 2.3509886e-38
0.016344283 -0.095080331 -0.02524958 2.3509886e-38
0.018480424 -0.095955089 -0.029224971 2.3509886e-38
0.02057999 -0.09662199 -0.032255746 2.3509886e-38
0.022522796 -0.09662199 -0.032255746 2.3509886e-38
0.024862938 -0.098156333 -0.039228655 2.3509527e-38
0.02681797 -0.098156333 -0.039228655 2.3509883e-38
0.029019624 -0.099053472 -0.043305732 2.3418043e-38
0.031229667 -0.09992972 -0.047287919 2.3142537e-38
0.033391155 -0.100591 -0.050293185 2.3142544e-38
0.035622381 -0.10145043 -0.054198839 2.3142544e-38
0.037877738 -0.10234386 -0.058259107 2.3417691e-38
0.039866142 -0.10234386 -0.058259107 2.3509168e-38
0.04213582 -0.1032155 -0.062220313 2.3508807e-38
0.044131167 -0.1032155 -0.062220313 2.3506986e-38
0.046356458 -0.10389452 -0.065306164 2.3508765e-38
0.048663098 -0.10477705 -0.069316842 2.3509837e-38
0.050670881 -0.10477705 -0.069316842 2.3507674e-38
0.053314883 -0.10653187 -0.077291824 2.3509126e-38
0.055336658 -0.10653187 -0.077291824 2.3138204e-38
0.058020804 -0.10828196 -0.08524511 1.0507417e-38
0.060056511 -0.10828196 -0.08524511 2.0261459e-39
0.062092233 -0.10828196 -0.08524511 2.7550929e-40
-0.054145612 -0.08303085 0.037781142 9.495431e-39
-0.052325603 -0.08303085 0.037781142 1.1060946e-38
-0.050505597 -0.08303085 0.037781142 1.1704504e-38
-0.048685592 -0.08303085 0.037781142 9.1208569e-39
-0.046865582 -0.08303085 0.037781142 6.5386492e-39
-0.045021445 -0.082158685 0.041713379 5.5241315e-39
-0.043208335 -0.082158685 0.041713379 2.7586522e-39
-0.041387171 -0.081479684 0.044774793 1.1793786e-38
-0.039576851 -0.080827907 0.047713421 2.3507688e-38
-0.037774257 -0.080827907 0.047713421 2.3508802e-38
-0.035979625 -0.080156773 0.050739311 2.3508809e-38
-0.034182336 -0.080156773 0.050739311 2.3509168e-38
-0.032385051 -0.080156773 0.050739311 2.3509168e-38
-0.030563889 -0.080827907 0.047713421 2.3509527e-38
-0.028761297 -0.080827907 0.047713421 2.3509527e-38
-0.026925214 -0.081479684 0.044774793 2.3509886e-38
-0.025077213 -0.082158685 0.041713379 2.3509886e-38
-0.023205496 -0.08303085 0.037781142 2.341805e-38
-0.021335591 -0.083695292 0.034785412 2.341805e-38
-0.019399067 -0.085035756 0.028741738 2.341805e-38
-0.017503951 -0.085687637 0.025802633 2.341805e-38
-0.01566294 -0.085687637 0.025802633 2.341805e-38
-0.013725961 -0.086586922 0.021748086 2.341805e-38
-0.011877842 -0.086586922 0.021748086 2.341805e-38
-0.010029724 -0.086586922 0.021748086 2.341805e-38
-0.0080954395 -0.087247536 0.018769642 2.3509886e-38
-0.0061501935 -0.087911904 0.015774271 2.3509886e-38
-0.0041938871 -0.088580042 0.012761852 2.3509886e-38
-0.0019863285 -0.090809584 0.0027096476 2.3509886e-38
3.9134175e-05 -0.091697961 -0.0012956653 2.3509886e-38
0.0020405538 -0.09236221 -0.0042905603 2.3509886e-38
0.0039343275 -0.09236221 -0.0042905603 2.3509886e-38
0.0058280975 -0.09236221 -0.0042905603 2.3509886e-38
0.0078911856 -0.093236431 -0.0082320962 2.3509886e-38
0.0099275038 -0.093909279 -0.011265734 2.3509886e-38
0.011833504 -0.093909279 -0.011265734 2.3509886e-38
0.014074482 -0.095450163 -0.018213013 2.3509886e-38
0.016344283 -0.097010851 -0.02524958 2.3509886e-38
0.018480424 -0.097892582 -0.029224971 2.3509886e-38
0.02057999 -0.098564804 -0.032255746 2.3509886e-38
0.022522796 -0.098564804 -0.032255746 2.3509886e-38
0.024695031 -0.099457815 -0.03628204 2.3509524e-38
0.02681797 -0.10011137 -0.039228655 2.350988e-38
0.029019624 -0.10101564 -0.043305732 2.3418042e-38
0.030981801 -0.10101564 -0.043305732 2.3142537e-38
0.033391155 -0.10256544 -0.050293185 2.3142544e-38
0.035622381 -0.10343169 -0.054198839 2.3142544e-38
0.037603661 -0.10343169 -0.054198839 2.3417333e-38
0.039866142 -0.10433225 -0.058259107 2.3509168e-38
0.04213582 -0.10521083 -0.062220313 2.3509168e-38
0.044131167 -0.10521083 -0.062220313 2.350951e-38
0.046356458 -0.10589527 -0.065306164 2.3508047e-38
0.048663098 -0.10678484 -0.069316842 2.3509837e-38
0.050975818 -0.10765167 -0.073225118 2.3509115e-38
0.053314883 -0.10855366 -0.077291824 2.3230739e-38
0.055336658 -0.10855366 -0.077291824 2.2401358e-38
0.057688478 -0.10943262 -0.081254818 1.2168017e-38
0.059717197 -0.10943262 -0.081254818 6.4504571e-39
0.061745916 -0.10943262 -0.081254818 1.0119967e-39
0.063774616 -0.10943262 -0.081254818 7.3540984e-40
-0.054190259 -0.085520551 0.034785412 1.0324469e-38
-0.052364998 -0.085520551 0.034785412 1.0875833e-38
-0.050539739 -0.085520551 0.034785412 1.096622e-38
-0.048714481 -0.085520551 0.034785412 9.2134127e-39
-0.046865582 -0.084850863 0.037781142 6.4464564e-39
-0.045045577 -0.084850863 0.037781142 6.1684248e-39
-0.043208335 -0.083971798 0.041713379 1.8367099e-39
-0.041387171 -0.083287418 0.044774793 8.5658671e-39
-0.039576851 -0.0826305 0.047713421 2.350517e-38
-0.037774257 -0.0826305 0.047713421 2.3508797e-38
-0.035979625 -0.081954062 0.050739311 2.3509168e-38
-0.034182336 -0.081954062 0.050739311 2.3509168e-38
-0.032385051 -0.081954062 0.050739311 2.3509527e-38
-0.030563889 -0.0826305 0.047713421 2.3509527e-38
-0.028761297 -0.0826305 0.047713421 2.3509527e-38
-0.026925214 -0.083287418 0.044774793 2.341805e-38
-0.02511747 -0.083287418 0.044774793 2.341805e-38
-0.023205496 -0.084850863 0.037781142 2.341805e-38
-0.021335591 -0.085520551 0.034785412 2.341805e-38
-0.019399067 -0.086871609 0.028741738 2.3509883e-38
-0.017503951 -0.087528646 0.025802633 2.3509883e-38
-0.01566294 -0.087528646 0.025802633 2.3509886e-38
-0.013821932 -0.087528646 0.025802633 2.3509886e-38
-0.011877842 -0.088435039 0.021748086 2.3509886e-38
-0.010029724 -0.088435039 0.021748086 2.3509886e-38
-0.0080954395 -0.089100882 0.018769642 2.3509886e-38
-0.0061501935 -0.089770496 0.015774271 2.3509886e-38
-0.0041938871 -0.090443924 0.012761852 2.3509886e-38
-0.0019863285 -0.092691094 0.0027096476 2.3509886e-38
3.9134175e-05 -0.093586475 -0.0012956653 2.3509886e-38
0.0020405538 -0.094255984 -0.0042905603 2.3509886e-38
0.0039343275 -0.094255984 -0.0042905603 2.3509886e-38
0.0058280975 -0.094255984 -0.0042905603 2.3509886e-38
0.0078911856 -0.095137119 -0.0082320962 2.3509886e-38
0.0099275038 -0.095815286 -0.011265734 2.3509886e-38
0.011833504 -0.095815286 -0.011265734 2.3509886e-38
0.014074482 -0.097368345 -0.018213013 2.3509886e-38
0.016147062 -0.098059073 -0.021302799 2.3509886e-38
0.018274803 -0.098941371 -0.02524958 2.3509886e-38
0.020417914 -0.099830076 -0.029224971 2.3509886e-38
0.022522796 -0.1005076 -0.032255746 2.3509886e-38
0.024695031 -0.10140768 -0.03628204 2.3509883e-38
0.026644893 -0.10140768 -0.03628204 2.350988e-38
0.028773002 -0.1020664 -0.039228655 2.3418043e-38
0.030981801 -0.10297783 -0.043305732 2.3326208e-38
0.033198826 -0.10386805 -0.047287919 2.3234379e-38
0.035365589 -0.10453986 -0.050293185 2.3234379e-38
0.037340015 -0.10453986 -0.050293185 2.3417691e-38
0.039584942 -0.10541297 -0.054198839 2.3509168e-38
0.041854538 -0.10632066 -0.058259107 2.3508451e-38
0.043842934 -0.10632066 -0.058259107 2.3509873e-38
0.046356458 -0.10789602 -0.065306164 2.2770129e-38
0.048961181 -0.1096663 -0.073225118 2.1571216e-38
0.050975818 -0.1096663 -0.073225118 2.0648536e-38
0.053314883 -0.11057542 -0.077291824 1.9910617e-38
0.055336658 -0.11057542 -0.077291824 2.1663065e-38
0.057688478 -0.11146136 -0.081254818 1.5854752e-38
0.059717197 -0.11146136 -0.081254818 9.2166791e-39
0.061745916 -0.11146136 -0.081254818 2.1183415e-39
0.063774616 -0.11146136 -0.081254818 2.0261459e-39
-0.054190259 -0.087345809 0.034785412 1.1429373e-38
-0.052364998 -0.087345809 0.034785412 1.2258403e-38
-0.050539739 -0.087345809 0.034785412 9.7680326e-39
-0.048714481 -0.087345809 0.034785412 9.4900024e-39
-0.046889219 -0.087345809 0.034785412 6.8148844e-39
-0.045045577 -0.086670861 0.037781142 5.9836846e-39
-0.043225572 -0.086670861 0.037781142 2.9405295e-39
-0.041395225 -0.085784912 0.041713379 4.4149239e-39
-0.039579429 -0.085095167 0.044774793 2.2671817e-38
-0.037774257 -0.084433094 0.047713421 2.3508418e-38
-0.035979625 -0.083751351 0.050739311 2.350986e-38
-0.034182336 -0.083751351 0.050739311 2.3509873e-38
-0.032385051 -0.083751351 0.050739311 2.350952e-38
-0.030587763 -0.083751351 0.050739311 2.3234379e-38
-0.028761297 -0.084433094 0.047713421 2.2958514e-38
-0.026925214 -0.085095167 0.044774793 2.3142544e-38
-0.02511747 -0.085095167 0.044774793 2.3234379e-38
-0.023264099 -0.085784912 0.041713379 2.341805e-38
-0.021335591 -0.087345809 0.034785412 2.3509883e-38
-0.019454861 -0.088024676 0.031772278 2.3509879e-38
-0.017503951 -0.089369655 0.025802633 2.3509876e-38
-0.01566294 -0.089369655 0.025802633 2.3509879e-38
-0.013821932 -0.089369655 0.025802633 2.3509521e-38
-0.011877842 -0.090283155 0.021748086 2.3509527e-38
-0.010029724 -0.090283155 0.021748086 2.3509527e-38
-0.0080954395 -0.090954214 0.018769642 2.3509886e-38
-0.0062421001 -0.090954214 0.018769642 2.3509886e-38
-0.0042916015 -0.091629088 0.015774271 2.3509886e-38
-0.0021917708 -0.093218774 0.0087185111 2.3509886e-38
-0.00021515787 -0.093881011 0.0057791676 2.3509886e-38
0.0019276552 -0.095475003 -0.0012956653 2.3509886e-38
0.0039343275 -0.096149758 -0.0042905603 2.3509886e-38
0.0058280975 -0.096149758 -0.0042905603 2.3509886e-38
0.0078911856 -0.097037792 -0.0082320962 2.3509886e-38
0.0099275038 -0.097721294 -0.011265734 2.3509886e-38
0.011833504 -0.097721294 -0.011265734 2.3509886e-38
0.014074482 -0.099286526 -0.018213013 2.3509886e-38
0.016147062 -0.099982664 -0.021302799 2.3509886e-38
0.018274803 -0.10087189 -0.02524958 2.3509886e-38
0.020417914 -0.10176755 -0.029224971 2.3509886e-38
0.022522796 -0.1024504 -0.032255746 2.341805e-38
0.024465598 -0.1024504 -0.032255746 2.3234376e-38
0.026644893 -0.10335754 -0.03628204 2.3234376e-38
0.028773002 -0.10402142 -0.039228655 2.3418045e-38
0.030981801 -0.10494001 -0.043305732 2.3418047e-38
0.032943979 -0.10494001 -0.043305732 2.3509883e-38
0.035365589 -0.10651429 -0.050293185 2.3509886e-38
0.037340015 -0.10651429 -0.050293185 2.3509527e-38
0.039314449 -0.10651429 -0.050293185 2.3509527e-38
0.041566215 -0.10739426 -0.054198839 2.3325138e-38
0.043547496 -0.10739426 -0.054198839 2.3417327e-38
0.045831326 -0.10830905 -0.058259107 2.1572321e-38
0.048663098 -0.1108004 -0.069316842 2.1295362e-38
0.051293124 -0.11259718 -0.077291824 2.1662337e-38
0.053314883 -0.11259718 -0.077291824 2.2029673e-38
0.055336658 -0.11259718 -0.077291824 2.2028947e-38
0.057688478 -0.11349006 -0.081254818 1.8249655e-38
0.059717197 -0.11349006 -0.081254818 1.4195949e-38
0.061745916 -0.11349006 -0.081254818 3.3186755e-39
0.063774616 -0.11349006 -0.081254818 2.2123294e-39
0.065803334 -0.11349006 -0.081254818 3.4108726e-39
-0.055965617 -0.088490874 0.037781142 7.6504324e-39
-0.054145612 -0.088490874 0.037781142 1.1706313e-38
-0.052364998 -0.089171067 0.034785412 1.2074012e-38
-0.050539739 -0.089171067 0.034785412 9.3992501e-39
-0.048714481 -0.089171067 0.034785412 9.3978067e-39
-0.046889219 -0.089171067 0.034785412 6.8159662e-39
-0.045045577 -0.088490874 0.037781142 6.352114e-39
-0.043225572 -0.088490874 0.037781142 3.8621131e-39
-0.041395225 -0.087598026 0.041713379 4.5989635e-39
-0.039579429 -0.086902916 0.044774793 1.9167307e-38
-0.037774257 -0.086235672 0.047713421 2.3504088e-38
-0.035979625 -0.085548624 0.050739311 2.3509848e-38
-0.034182336 -0.085548624 0.050739311 2.3509863e-38
-0.032385051 -0.085548624 0.050739311 2.3509876e-38
-0.030587763 -0.085548624 0.050739311 2.3234379e-38
-0.028761297 -0.086235672 0.047713421 2.2867037e-38
-0.026925214 -0.086902916 0.044774793 2.2958873e-38
-0.02511747 -0.086902916 0.044774793 2.3142544e-38
-0.023264099 -0.087598026 0.041713379 2.341805e-38
-0.021385491 -0.088490874 0.037781142 2.3509883e-38
-0.019454861 -0.089855224 0.031772278 2.3509876e-38
-0.017563213 -0.09054333 0.028741738 2.3509517e-38
-0.01566294 -0.091210663 0.025802633 2.3509517e-38
-0.013821932 -0.091210663 0.025802633 2.3509879e-38
-0.011877842 -0.092131287 0.021748086 2.3509524e-38
-0.010029724 -0.092131287 0.021748086 2.3509527e-38
-0.0080954395 -0.092807561 0.018769642 2.3509886e-38
-0.0062421001 -0.092807561 0.018769642 2.3509886e-38
-0.0042916015 -0.09348768 0.015774271 2.3509886e-38
-0.0021917708 -0.095089734 0.0087185111 2.3509886e-38
-0.00021515787 -0.095757127 0.0057791676 2.3509886e-38
0.0017766692 -0.096454084 0.0027096476 2.3509886e-38
0.0038161762 -0.097363517 -0.0012956653 2.3509886e-38
0.0058280975 -0.098043531 -0.0042905603 2.3509886e-38
0.0078911856 -0.09893848 -0.0082320962 2.3509886e-38
0.0099275038 -0.099627286 -0.011265734 2.3509886e-38
0.011833504 -0.099627286 -0.011265734 2.3509886e-38
0.013880923 -0.10029322 -0.01419864 2.3509886e-38
0.015992664 -0.10120471 -0.018213013 2.3509886e-38
0.018070664 -0.10190627 -0.021302799 2.3509886e-38
0.020205323 -0.10280241 -0.02524958 2.3509886e-38
0.022355404 -0.10370506 -0.029224971 2.341805e-38
0.024465598 -0.1043932 -0.032255746 2.3142541e-38
0.026408404 -0.1043932 -0.032255746 2.3142541e-38
0.028594762 -0.10530742 -0.03628204 2.3234376e-38
0.030728035 -0.10597645 -0.039228655 2.3418047e-38
0.032943979 -0.1069022 -0.043305732 2.3509883e-38
0.035167992 -0.10780637 -0.047287919 2.3509527e-38
0.037137151 -0.10780637 -0.047287919 2.3509886e-38
0.039314449 -0.10848872 -0.050293185 2.3509527e-38
0.041566215 -0.10937552 -0.054198839 2.341805e-38
0.043263309 -0.10848872 -0.050293185 2.3509886e-38
0.045237739 -0.10848872 -0.050293185 2.2864149e-38
0.048663098 -0.11280818 -0.069316842 2.3509146e-38
0.050975818 -0.11369558 -0.073225118 2.3507334e-38
0.053314883 -0.11461894 -0.077291824 2.2213701e-38
0.055336658 -0.11461894 -0.077291824 2.1842389e-38
0.057688478 -0.11551876 -0.081254818 1.9724055e-38
0.059717197 -0.11551876 -0.081254818 1.4288139e-38
0.061745916 -0.11551876 -0.081254818 2.9506091e-39
0.063774616 -0.11551876 -0.081254818 2.212328e-39
0.065803334 -0.11551876 -0.081254818 3.8725682e-39
-0.055965617 -0.090310872 0.037781142 7.8348237e-39
-0.054145612 -0.090310872 0.037781142 1.2259487e-38
-0.052325603 -0.090310872 0.037781142 1.2350599e-38
-0.050539739 -0.090996325 0.034785412 9.1230233e-39
-0.048714481 -0.090996325 0.034785412 9.30633e-39
-0.046889219 -0.090996325 0.034785412 6.9085219e-39
-0.045045577 -0.090310872 0.037781142 6.5375842e-39
-0.043225572 -0.090310872 0.037781142 4.7847883e-39
-0.041395225 -0.089411139 0.041713379 4.4152911e-39
-0.039579429 -0.088710666 0.044774793 1.3082395e-38
-0.037774257 -0.088038266 0.047713421 2.0922609e-38
-0.035979625 -0.087345913 0.050739311 2.3509488e-38
-0.034182336 -0.087345913 0.050739311 2.350986e-38
-0.032385051 -0.087345913 0.050739311 2.3509873e-38
-0.030587763 -0.087345913 0.050739311 2.3326213e-38
-0.028761297 -0.088038266 0.047713421 2.3050708e-38
-0.026958704 -0.088038266 0.047713421 2.3142544e-38
-0.02511747 -0.088710666 0.044774793 2.3234379e-38
-0.023264099 -0.089411139 0.041713379 2.341805e-38
-0.021385491 -0.090310872 0.037781142 2.3509883e-38
-0.019454861 -0.091685757 0.031772278 2.3509879e-38
-0.017563213 -0.092379183 0.028741738 2.3509876e-38
-0.015727356 -0.092379183 0.028741738 2.3509879e-38
-0.013821932 -0.093051672 0.025802633 2.3509521e-38
-0.011877842 -0.093979403 0.021748086 2.3509527e-38
-0.010029724 -0.093979403 0.021748086 2.3509886e-38
-0.0080954395 -0.094660893 0.018769642 2.3509886e-38
-0.0062421001 -0.094660893 0.018769642 2.3509886e-38
-0.0041938871 -0.09603554 0.012761852 2.3509886e-38
-0.0021917708 -0.096960694 0.0087185111 2.3509886e-38
-0.00021515787 -0.097633243 0.0057791676 2.3509886e-38
0.0017766692 -0.098335579 0.0027096476 2.3509886e-38
0.0038161762 -0.099252045 -0.0012956653 2.3509886e-38
0.0058280975 -0.099937305 -0.0042905603 2.3509886e-38
0.0078911856 -0.10083917 -0.0082320962 2.3509886e-38
0.0097918697 -0.10083917 -0.0082320962 2.3509886e-38
0.011833504 -0.10153329 -0.011265734 2.3509886e-38
0.013880923 -0.10220437 -0.01419864 2.3509886e-38
0.015992664 -0.1031229 -0.018213013 2.3509886e-38
0.017910849 -0.1031229 -0.018213013 2.3509886e-38
0.019994263 -0.10382988 -0.021302799 2.3509886e-38
0.022355404 -0.10564254 -0.029224971 2.341805e-38
0.024292894 -0.10564254 -0.029224971 2.3234376e-38
0.026408404 -0.10633601 -0.032255746 2.3142541e-38
0.02835121 -0.10633601 -0.032255746 2.3234376e-38
0.030544624 -0.10725726 -0.03628204 2.3418047e-38
0.03268306 -0.10793148 -0.039228655 2.3509883e-38
0.034906164 -0.10886435 -0.043305732 2.3509527e-38
0.037137151 -0.10977553 -0.047287919 2.3509886e-38
0.039314449 -0.11046316 -0.050293185 2.3509886e-38
0.041566215 -0.11135681 -0.054198839 2.3325856e-38
0.043263309 -0.11046316 -0.050293185 2.3509886e-38
0.045237739 -0.11046316 -0.050293185 2.2864149e-38
0.048663098 -0.11481597 -0.069316842 2.3509869e-38
0.050670881 -0.11481597 -0.069316842 2.3507697e-38
0.052990455 -0.11571021 -0.073225118 2.0461984e-38
0.055336658 -0.11664073 -0.077291824 1.9906281e-38
0.057688478 -0.1175475 -0.081254818 2.1013716e-38
0.059717197 -0.1175475 -0.081254818 1.7145841e-38
0.061745916 -0.1175475 -0.081254818 4.6097675e-39
0.063774616 -0.1175475 -0.081254818 3.4101481e-39
0.065803334 -0.1175475 -0.081254818 4.8860012e-39
0.067832053 -0.1175475 -0.081254818 4.6094158e-39
-0.057785627 -0.092130885 0.037781142 6.6373665e-39
-0.055965617 -0.092130885 0.037781142 8.0195751e-39
-0.054145612 -0.092130885 0.037781142 1.2721544e-38
-0.052325603 -0.092130885 0.037781142 1.2996687e-38
-0.050505597 -0.092130885 0.037781142 9.1241023e-39
-0.048714481 -0.092821583 0.034785412 9.2148546e-39
-0.046889219 -0.092821583 0.034785412 6.9092408e-39
-0.045045577 -0.092130885 0.037781142 6.3546321e-39
-0.043225572 -0.092130885 0.037781142 5.1550127e-39
-0.041395225 -0.091224253 0.041713379 4.3234556e-39
-0.039579429 -0.0905184 0.044774793 6.8141711e-39
-0.037771679 -0.0905184 0.044774793 1.7142228e-38
-0.035971664 -0.089840859 0.047713421 2.3506607e-38
-0.034182336 -0.089143202 0.050739311 2.3509859e-38
-0.032385051 -0.089143202 0.050739311 2.350987e-38
-0.030587763 -0.089143202 0.050739311 2.3233296e-38
-0.028761297 -0.089840859 0.047713421 2.3234379e-38
-0.026958704 -0.089840859 0.047713421 2.3234379e-38
-0.025077213 -0.091224253 0.041713379 2.3234379e-38
-0.023264099 -0.091224253 0.041713379 2.341805e-38
-0.021385491 -0.092130885 0.037781142 2.3509883e-38
-0.019510332 -0.092821583 0.034785412 2.3509879e-38
-0.017624319 -0.093516305 0.031772278 2.3509879e-38
-0.015727356 -0.094215035 0.028741738 2.3509521e-38
-0.013821932 -0.094892681 0.025802633 2.3509883e-38
-0.011980923 -0.094892681 0.025802633 2.3509886e-38
-0.010029724 -0.09582752 0.021748086 2.3509886e-38
-0.0080954395 -0.09651424 0.018769642 2.3509886e-38
-0.0062421001 -0.09651424 0.018769642 2.3509886e-38
-0.0042916015 -0.097204864 0.015774271 2.3509886e-38
-0.0021917708 -0.098831654 0.0087185111 2.3509886e-38
-0.0003208071 -0.098831654 0.0087185111 2.3509886e-38
0.0016609579 -0.099509358 0.0057791676 2.3509886e-38
0.003658168 -0.10021709 0.0027096476 2.3509886e-38
0.0057046972 -0.10114056 -0.0012956653 2.3509886e-38
0.0077218711 -0.10183108 -0.0042905603 2.3509886e-38
0.0097918697 -0.10273984 -0.0082320962 2.3509886e-38
0.011692554 -0.10273984 -0.0082320962 2.3509886e-38
0.013739508 -0.10343929 -0.011265734 2.3509886e-38
0.015792068 -0.1041155 -0.01419864 2.3509886e-38
0.017910849 -0.10504107 -0.018213013 2.3509886e-38
0.019994263 -0.10575347 -0.021302799 2.3509886e-38
0.022135846 -0.10666345 -0.02524958 2.341805e-38
0.024292894 -0.10758002 -0.029224971 2.3234376e-38
0.026230387 -0.10758002 -0.029224971 2.3234376e-38
0.02835121 -0.10827883 -0.032255746 2.3418047e-38
0.030294016 -0.10827883 -0.032255746 2.3509883e-38
0.032494485 -0.10920714 -0.03628204 2.3509883e-38
0.034638092 -0.10988651 -0.039228655 2.3509883e-38
0.037137151 -0.11174469 -0.047287919 2.3509886e-38
0.039106309 -0.11174469 -0.047287919 2.3509886e-38
0.041288875 -0.11243759 -0.050293185 2.2957078e-38
0.043263309 -0.11243759 -0.050293185 2.2772321e-38
0.045528773 -0.1133381 -0.054198839 2.1389019e-38
0.048663098 -0.11682375 -0.069316842 2.1480124e-38
0.050670881 -0.11682375 -0.069316842 2.1293201e-38
0.052990455 -0.11772485 -0.073225118 1.8249292e-38
0.055005092 -0.11772485 -0.073225118 1.8339679e-38
0.057688478 -0.1195762 -0.081254818 2.1843477e-38
0.059717197 -0.1195762 -0.081254818 2.0832947e-38
0.061745916 -0.1195762 -0.081254818 7.4663929e-39
0.063063651 -0.11772485 -0.073225118 4.4235812e-39
0.065078288 -0.11772485 -0.073225118 4.9774738e-39
0.067092925 -0.11772485 -0.073225118 4.9774766e-39
-0.057785627 -0.093950883 0.037781142 6.4533312e-39
-0.055965617 -0.093950883 0.037781142 7.9273794e-39
-0.054145612 -0.093950883 0.037781142 1.2905935e-38
-0.052325603 -0.093950883 0.037781142 1.3273993e-38
-0.050505597 -0.093950883 0.037781142 9.1248212e-39
-0.048685592 -0.093950883 0.037781142 8.9389866e-39
-0.046865582 -0.093950883 0.037781142 6.6337329e-39
-0.045063961 -0.094646841 0.034785412 6.1716786e-39
-0.043238703 -0.094646841 0.034785412 5.1568106e-39
-0.041405566 -0.093950883 0.037781142 4.5096447e-39
-0.039582111 -0.093037367 0.041713379 2.9426819e-39
-0.037771679 -0.092326149 0.044774793 1.3453324e-38
-0.035971664 -0.091643453 0.047713421 2.3504805e-38
-0.034182336 -0.09094049 0.050739311 2.3509139e-38
-0.032385051 -0.09094049 0.050739311 2.3509507e-38
-0.030587763 -0.09094049 0.050739311 2.3325127e-38
-0.028761297 -0.091643453 0.047713421 2.341805e-38
-0.026958704 -0.091643453 0.047713421 2.3234379e-38
-0.02511747 -0.092326149 0.044774793 2.3234379e-38
-0.023264099 -0.093037367 0.041713379 2.341805e-38
-0.021385491 -0.093950883 0.037781142 2.3509883e-38
-0.019510332 -0.094646841 0.034785412 2.350988e-38
-0.017624319 -0.095346853 0.031772278 2.350988e-38
-0.015793776 -0.095346853 0.031772278 2.3509883e-38
-0.013891501 -0.096050888 0.028741738 2.3509886e-38
-0.011980923 -0.096733689 0.025802633 2.341805e-38
-0.010029724 -0.097675636 0.021748086 2.341805e-38
-0.0080954395 -0.098367572 0.018769642 2.3509886e-38
-0.0062421001 -0.098367572 0.018769642 2.3509886e-38
-0.0042916015 -0.099063456 0.015774271 2.3509886e-38
-0.0023300126 -0.099763289 0.012761852 2.3509886e-38
-0.0003208071 -0.10070263 0.0087185111 2.3509886e-38
0.0016609579 -0.10138547 0.0057791676 2.3509886e-38
0.0035370737 -0.10138547 0.0057791676 2.3509886e-38
0.0055396669 -0.10209858 0.0027096476 2.3509886e-38
0.007593222 -0.10302909 -0.0012956653 2.3509886e-38
0.0096156448 -0.10372485 -0.0042905603 2.3509886e-38
0.011692554 -0.10464053 -0.0082320962 2.3509886e-38
0.013739508 -0.10534529 -0.011265734 2.3509886e-38
0.015792068 -0.10602666 -0.01419864 2.3509886e-38
0.017910849 -0.10695927 -0.018213013 2.3509886e-38
0.019994263 -0.10767709 -0.021302799 2.3509886e-38
0.022135846 -0.10859399 -0.02524958 2.341805e-38
0.024292894 -0.10951753 -0.029224971 2.3234379e-38
0.026230387 -0.10951753 -0.029224971 2.3234379e-38
0.02835121 -0.11022164 -0.032255746 2.3418047e-38
0.030294016 -0.11022164 -0.032255746 2.3509883e-38
0.032494485 -0.11115701 -0.03628204 2.3509883e-38
0.034638092 -0.11184154 -0.039228655 2.3509883e-38
0.036868341 -0.11278872 -0.043305732 2.3509886e-38
0.039106309 -0.11371385 -0.047287919 2.3509886e-38
0.041288875 -0.11441202 -0.050293185 2.3233662e-38
0.043263309 -0.11441202 -0.050293185 2.2864516e-38
0.045831326 -0.11626263 -0.058259107 2.0928041e-38
0.048357207 -0.11789979 -0.065306164 1.9359625e-38
0.050670881 -0.11883153 -0.069316842 1.9080506e-38
0.052990455 -0.11973949 -0.073225118 1.7787958e-38
0.055005092 -0.11973949 -0.073225118 1.8616268e-38
0.057358433 -0.12068425 -0.077291824 2.2488849e-38
0.059380192 -0.12068425 -0.077291824 2.2399194e-38
0.061401967 -0.12068425 -0.077291824 9.8623974e-39
0.063063651 -0.11973949 -0.073225118 4.9760319e-39
0.065078288 -0.11973949 -0.073225118 3.225038e-39
0.067467257 -0.12068425 -0.077291824 4.0548014e-39
0.069489032 -0.12068425 -0.077291824 4.6083368e-39
0.071510792 -0.12068425 -0.077291824 5.0693177e-39
-0.057785627 -0.095770895 0.037781142 6.2689399e-39
-0.055965617 -0.095770895 0.037781142 7.6507925e-39
-0.054145612 -0.095770895 0.037781142 1.2721904e-38
-0.052325603 -0.095770895 0.037781142 1.2721896e-38
-0.050505597 -0.095770895 0.037781142 8.8489532e-39
-0.048685592 -0.095770895 0.037781142 8.3868918e-39
-0.046865582 -0.095770895 0.037781142 6.5418974e-39
-0.045063961 -0.096472099 0.034785412 6.2645945e-39
-0.043238703 -0.096472099 0.034785412 4.9727795e-39
-0.041413441 -0.096472099 0.034785412 5.0642576e-39
-0.039582111 -0.094850481 0.041713379 1.6530389e-39
-0.037768997 -0.094850481 0.041713379 9.8569758e-39
-0.035971664 -0.093446046 0.047713421 2.3502645e-38
-0.034182336 -0.092737779 0.050739311 2.3509133e-38
-0.032385051 -0.092737779 0.050739311 2.3509502e-38
-0.030587763 -0.092737779 0.050739311 2.3508793e-38
-0.028790478 -0.092737779 0.050739311 2.350988e-38
-0.026958704 -0.093446046 0.047713421 2.3234015e-38
-0.02511747 -0.094133899 0.044774793 2.3234018e-38
-0.023309726 -0.094133899 0.044774793 2.3509886e-38
-0.021385491 -0.095770895 0.037781142 2.3509886e-38
-0.019565484 -0.095770895 0.037781142 2.3509883e-38
-0.017685072 -0.096472099 0.034785412 2.3509883e-38
-0.015859814 -0.096472099 0.034785412 2.3509886e-38
-0.013963234 -0.097177386 0.031772278 2.341805e-38
-0.012055645 -0.097886756 0.028741738 2.3234379e-38
-0.010139914 -0.098574698 0.025802633 2.3234379e-38
-0.0081816074 -0.099523753 0.021748086 2.341805e-38
-0.0062421001 -0.10022092 0.018769642 2.3509886e-38
-0.0042916015 -0.10092205 0.015774271 2.3509886e-38
-0.0023300126 -0.10162716 0.012761852 2.3509886e-38
-0.0003208071 -0.10257359 0.0087185111 2.3509886e-38
0.0015501566 -0.10257359 0.0087185111 2.3509886e-38
0.0035370737 -0.1032616 0.0057791676 2.3509886e-38
0.0054131933 -0.1032616 0.0057791676 2.3509886e-38
0.0074211657 -0.10398008 0.0027096476 2.3509886e-38
0.009481743 -0.1049176 -0.0012956653 2.3509886e-38
0.011692554 -0.1065412 -0.0082320962 2.3509886e-38
0.013593234 -0.1065412 -0.0082320962 2.3509886e-38
0.015792068 -0.1079378 -0.01419864 2.3509886e-38
0.017703213 -0.1079378 -0.01419864 2.3509886e-38
0.019829031 -0.10887744 -0.018213013 2.3509886e-38
0.021917865 -0.10960068 -0.021302799 2.341805e-38
0.024066366 -0.11052449 -0.02524958 2.3234379e-38
0.026230387 -0.11145501 -0.029224971 2.3234379e-38
0.028167881 -0.11145501 -0.029224971 2.3418047e-38
0.030294016 -0.11216442 -0.032255746 2.3509883e-38
0.032494485 -0.11310686 -0.03628204 2.3509883e-38
0.034638092 -0.11379658 -0.039228655 2.3509883e-38
0.036868341 -0.11475091 -0.043305732 2.3509886e-38
0.039106309 -0.115683 -0.047287919 2.3509886e-38
0.041075476 -0.115683 -0.047287919 2.341805e-38
0.043263309 -0.11638646 -0.050293185 2.3049626e-38
0.045528773 -0.11730064 -0.054198839 2.1942193e-38
0.048121843 -0.11917825 -0.062220313 1.9451822e-38
0.050357956 -0.11990054 -0.065306164 1.8528414e-38
0.052678678 -0.12083931 -0.069316842 1.8525523e-38
0.055005092 -0.12175412 -0.073225118 1.9169442e-38
0.057358433 -0.12270601 -0.077291824 2.1935675e-38
0.059380192 -0.12270601 -0.077291824 2.2122247e-38
0.061401967 -0.12270601 -0.077291824 1.2811939e-38
0.063423723 -0.12270601 -0.077291824 7.0958097e-39
0.065445498 -0.12270601 -0.077291824 2.1179673e-39
0.067467257 -0.12270601 -0.077291824 2.6711439e-39
0.069489032 -0.12270601 -0.077291824 4.1469971e-39
0.071510792 -0.12270601 -0.077291824 4.2388382e-39
-0.057785627 -0.097590908 0.037781142 6.3614957e-39
-0.055965617 -0.097590908 0.037781142 7.6518701e-39
-0.054145612 -0.097590908 0.037781142 1.2998491e-38
-0.052325603 -0.097590908 0.037781142 1.2261277e-38
-0.050505597 -0.097590908 0.037781142 8.6656395e-39
-0.048685592 -0.097590908 0.037781142 8.2035796e-39
-0.046889219 -0.098297372 0.034785412 6.5436953e-39
-0.045063961 -0.098297372 0.034785412 6.5419002e-39
-0.043238703 -0.098297372 0.034785412 4.4206847e-39
-0.041413441 -0.098297372 0.034785412 5.2504467e-39
-0.039585557 -0.097590908 0.037781142 1.8370687e-39
-0.037765551 -0.097590908 0.037781142 6.3528216e-39
-0.035937667 -0.098297372 0.034785412 2.2671443e-38
-0.034169074 -0.09524864 0.047713421 2.3508051e-38
-0.032385051 -0.094535068 0.050739311 2.35095e-38
-0.030587763 -0.094535068 0.050739311 2.3508425e-38
-0.028790478 -0.094535068 0.050739311 2.3509873e-38
-0.026993189 -0.094535068 0.050739311 2.3325847e-38
-0.025156114 -0.09524864 0.047713421 2.332621e-38
-0.023309726 -0.095941633 0.044774793 2.3509886e-38
-0.021450989 -0.096663594 0.041713379 2.3509886e-38
-0.019565484 -0.097590908 0.037781142 2.3509527e-38
-0.017745476 -0.097590908 0.037781142 2.3509527e-38
-0.015859814 -0.098297372 0.034785412 2.3509886e-38
-0.014034554 -0.098297372 0.034785412 2.341805e-38
-0.012055645 -0.099722609 0.028741738 2.3142544e-38
-0.010139914 -0.10041572 0.025802633 2.3142544e-38
-0.0082989056 -0.10041572 0.025802633 2.341805e-38
-0.006333489 -0.10137187 0.021748086 2.3509886e-38
-0.0042916015 -0.10278064 0.015774271 2.3509886e-38
-0.0023300126 -0.10349102 0.012761852 2.3509886e-38
-0.0003208071 -0.10444455 0.0087185111 2.3509886e-38
0.0015501566 -0.10444455 0.0087185111 2.3509886e-38
0.0035370737 -0.10513772 0.0057791676 2.3509886e-38
0.0054131933 -0.10513772 0.0057791676 2.3509886e-38
0.0074211657 -0.10586159 0.0027096476 2.3509886e-38
0.009481743 -0.10680611 -0.0012956653 2.3509886e-38
0.011509415 -0.1075124 -0.0042905603 2.3509886e-38
0.013593234 -0.1084419 -0.0082320962 2.3509886e-38
0.015645511 -0.10915731 -0.011265734 2.3509886e-38
0.017703213 -0.10984896 -0.01419864 2.3509886e-38
0.019614358 -0.10984896 -0.01419864 2.3509886e-38
