# .PCD v0.7 - Point Cloud Data file format
VERSION 0.7
FIELDS x y z rgb
SIZE 4 4 4 4
TYPE F F F F
COUNT 1 1 1 1
WIDTH 141
HEIGHT 1
VIEWPOINT 0 0 0 1 0 0 0
POINTS 141
DATA ascii
-0.0099575166 -0.14807267 -0.064093657 2.0247011e-39
-0.0080339182 -0.14807267 -0.064093657 2.1165436e-39
-0.0062267911 -0.1472411 -0.061003871 1.2864228e-39
-0.0043086093 -0.1472411 -0.061003871 9.1835496e-40
-0.0023904238 -0.1472411 -0.061003871 1.1938615e-39
-0.010063158 -0.1491593 -0.061003871 2.6700705e-39
-0.0081449728 -0.1491593 -0.061003871 2.3009349e-39
-0.0062267911 -0.1491593 -0.061003871 2.1165464e-39
-0.0043086093 -0.1491593 -0.061003871 2.0229089e-39
-0.0025558304 -0.14807184 -0.056989498 1.4693679e-39
-0.0006446857 -0.14807184 -0.056989498 2.5739078e-39
0.0057087373 -0.13130049 0.0049225613 2.3509514e-38
0.0075113308 -0.13130049 0.0049225613 2.3508804e-38
-0.012111554 -0.14998297 -0.056989498 2.2090798e-39
-0.010200409 -0.14998297 -0.056989498 2.1168953e-39
-0.0082892645 -0.14998297 -0.056989498 1.2875046e-39
-0.0063781198 -0.14998297 -0.056989498 1.932158e-39
-0.0044669751 -0.14998297 -0.056989498 2.7604767e-39
-0.0025558304 -0.14998297 -0.056989498 1.8370729e-39
-0.0006446857 -0.14998297 -0.056989498 2.2973223e-39
0.0057087373 -0.13310309 0.0049225613 2.3507352e-38
0.0073495153 -0.1322781 0.0079484507 2.3509161e-38
0.009146804 -0.1322781 0.0079484507 2.350988e-38
0.0016684104 -0.13242932 0.013947301 1.8339341e-38
0.0034551825 -0.13242932 0.013947301 1.9171987e-38
0.0057087373 -0.13490568 0.0049225613 2.350843e-38
0.0073495153 -0.13407536 0.0079484507 2.3324407e-38
0.009146804 -0.13407536 0.0079484507 2.3509879e-38
-0.012759568 -0.14828841 -0.03701169 5.4362799e-39
-0.010883449 -0.14828841 -0.03701169 4.9760347e-39
-0.0088970046 -0.14913605 -0.04008121 3.7778656e-39
-0.00011835806 -0.13421609 0.013947301 4.3241632e-39
0.0016684104 -0.13421609 0.013947301 1.7048239e-38
0.0034551825 -0.13421609 0.013947301 1.6589785e-38
0.0057087373 -0.13670824 0.0049225613 2.3509863e-38
0.0075113308 -0.13670824 0.0049225613 2.3324404e-38
0.0093139242 -0.13670824 0.0049225613 2.3509879e-38
-0.01285491 -0.14934768 -0.034072347 6.8192144e-39
-0.010983946 -0.14934768 -0.034072347 5.7135997e-39
-0.0091129821 -0.14934768 -0.034072347 4.6998219e-39
-0.00025649555 -0.13517661 0.01692038 3.3093065e-39
0.0015250612 -0.13517661 0.01692038 1.5387636e-38
0.0042059701 -0.14017828 -0.0010774806 1.539052e-38
0.0060190801 -0.14017828 -0.0010774806 2.3414425e-38
0.0076684784 -0.13932751 0.0019839332 2.3508793e-38
0.009476224 -0.13932751 0.0019839332 2.3509876e-38
-0.013180936 -0.14840777 -0.024021216 9.0308305e-39
-0.011429427 -0.14757483 -0.021042772 6.727746e-39
-0.0095813107 -0.14757483 -0.021042772 5.2547852e-39
-0.0077331904 -0.14757483 -0.021042772 4.3324757e-39
-0.0062805284 -0.1447715 -0.011018582 3.5934716e-39
-0.0043251161 -0.14561899 -0.01404912 4.0515658e-39
-0.0023630057 -0.14644094 -0.016988225 3.772451e-39
-0.00052199699 -0.14644094 -0.016988225 2.3877229e-39
-0.00025649555 -0.13695817 0.01692038 4.6000285e-39
0.0015250612 -0.13695817 0.01692038 1.3083103e-38
0.0033066142 -0.13695817 0.01692038 1.5021372e-38
0.005241951 -0.13778962 0.013947301 1.9818068e-38
0.0070287194 -0.13778962 0.013947301 2.3508063e-38
0.0088154878 -0.13778962 0.013947301 2.3509507e-38
-0.013409061 -0.14828195 -0.016988225 1.1335002e-38
-0.011668542 -0.14745484 -0.01404912 8.2965025e-39
-0.0099416133 -0.14660202 -0.011018582 5.6253529e-39
-0.008111069 -0.14660202 -0.011018582 3.8750821e-39
-0.0062805284 -0.14660202 -0.011018582 4.0573238e-39
-0.0043251161 -0.14745484 -0.01404912 4.239557e-39
-0.0023630057 -0.14828195 -0.016988225 4.1430412e-39
-0.00052199699 -0.14828195 -0.016988225 4.8780769e-39
0.0013190117 -0.14828195 -0.016988225 4.8766181e-39
0.0015250612 -0.13873972 0.01692038 1.0961879e-38
0.0033066142 -0.13873972 0.01692038 1.2530999e-38
0.005088171 -0.13873972 0.01692038 1.8249289e-38
0.0068697277 -0.13873972 0.01692038 2.0187207e-38
0.0086512845 -0.13873972 0.01692038 2.3509853e-38
0.010432841 -0.13873972 0.01692038 2.3509492e-38
-0.011772154 -0.14843257 -0.011018582 9.4950485e-39
-0.010049915 -0.14757936 -0.0080054477 6.9160918e-39
-0.0082246568 -0.14757936 -0.0080054477 3.7828809e-39
-0.0063993949 -0.14757936 -0.0080054477 3.5052248e-39
-0.0044499841 -0.14843257 -0.011018582 4.6094144e-39
0.0030019674 -0.13879494 0.023016982 1.0871481e-38
0.0047728363 -0.13879494 0.023016982 1.6864913e-38
0.0065437015 -0.13879494 0.023016982 1.8895378e-38
0.0086512845 -0.14052127 0.01692038 2.31371e-38
0.010432841 -0.14052127 0.01692038 2.3506244e-38
-0.015832199 -0.14655848 0.0019839332 1.3728492e-38
-0.014024457 -0.14655848 0.0019839332 1.2440278e-38
-0.012216711 -0.14655848 0.0019839332 1.0322662e-38
-0.010157591 -0.14855109 -0.0050097182 8.0199324e-39
-0.0083375853 -0.14855109 -0.0050097182 5.716478e-39
-0.0065175761 -0.14855109 -0.0050097182 5.5320783e-39
-0.0045741368 -0.14940463 -0.0080054477 5.6235481e-39
0.0027059484 -0.13887797 0.028940968 8.5666041e-39
0.0044664275 -0.13887797 0.028940968 1.5112846e-38
0.0062269066 -0.13887797 0.028940968 1.7419164e-38
0.0079873856 -0.13887797 0.028940968 2.2398444e-38
0.0097478684 -0.13887797 0.028940968 2.3135658e-38
0.011508347 -0.13887797 0.028940968 2.221335e-38
-0.016015211 -0.14665638 0.0079484507 1.9814118e-38
-0.014217922 -0.14665638 0.0079484507 1.7786908e-38
-0.012216711 -0.14836623 0.0019839332 1.3362606e-38
-0.010298928 -0.14924385 -0.0010774806 9.5840239e-39
-0.0084858183 -0.14924385 -0.0010774806 7.8340992e-39
-0.0066727046 -0.14924385 -0.0010774806 7.4656628e-39
0.0027059484 -0.14063846 0.028940968 6.5390276e-39
0.0044664275 -0.14063846 0.028940968 1.4098339e-38
0.0062269066 -0.14063846 0.028940968 1.5666368e-38
0.0097478684 -0.14063846 0.028940968 2.2950903e-38
0.011508347 -0.14063846 0.028940968 2.3504088e-38
-0.017812498 -0.14845367 0.0079484507 1.7327347e-38
-0.016015211 -0.14845367 0.0079484507 1.861737e-38
-0.014217922 -0.14845367 0.0079484507 1.8432275e-38
-0.012317182 -0.1493264 0.0049225613 1.7325577e-38
0.00094546564 -0.14239894 0.028940968 4.9742256e-39
0.0027059484 -0.14239894 0.028940968 5.7096298e-39
0.0044664275 -0.14239894 0.028940968 1.4007223e-38
0.0062269066 -0.14239894 0.028940968 1.3637704e-38
0.0079873856 -0.14239894 0.028940968 1.7602111e-38
0.0097478684 -0.14239894 0.028940968 2.1751281e-38
0.011508347 -0.14239894 0.028940968 2.3506248e-38
0.013268827 -0.14239894 0.028940968 2.2766892e-38
0.0027059484 -0.14415942 0.028940968 5.6192251e-39
0.0044664275 -0.14415942 0.028940968 1.4283809e-38
0.0062269066 -0.14415942 0.028940968 1.3359684e-38
0.0079873856 -0.14415942 0.028940968 1.4650058e-38
0.0097478684 -0.14415942 0.028940968 1.9354198e-38
0.011508347 -0.14415942 0.028940968 2.3504447e-38
0.013268827 -0.14415942 0.028940968 2.2674696e-38
0.015029306 -0.14415942 0.028940968 9.5840071e-39
0.0031538326 -0.14853649 0.01997786 5.4362575e-39
0.0044664275 -0.1459199 0.028940968 1.2901227e-38
0.0062269066 -0.1459199 0.028940968 1.4096178e-38
0.0079873856 -0.1459199 0.028940968 1.3542644e-38
0.0097478684 -0.1459199 0.028940968 1.68642e-38
0.011508347 -0.1459199 0.028940968 2.2582131e-38
0.013268827 -0.1459199 0.028940968 2.212152e-38
0.0065437015 -0.14942016 0.023016982 1.418838e-38
0.0081532691 -0.14856245 0.02593749 1.3173509e-38
0.0097478684 -0.14768039 0.028940968 1.5019931e-38
0.011508347 -0.14768039 0.028940968 2.1567979e-38
0.013268827 -0.14768039 0.028940968 2.1291759e-38
