# .PCD v0.7 - Point Cloud Data file format
VERSION 0.7
FIELDS x y z rgb
SIZE 4 4 4 4
TYPE F F F F
COUNT 1 1 1 1
WIDTH 934
HEIGHT 1
VIEWPOINT 0 0 0 1 0 0 0
POINTS 934
DATA ascii
0.020641679 -0.087345809 0.026547229 2.3509886e-38
0.022466941 -0.087345809 0.026547229 2.3509886e-38
0.024168765 -0.086670861 0.029542958 2.3509886e-38
0.025988771 -0.086670861 0.029542958 2.3509886e-38
0.027632969 -0.085784912 0.033475198 2.3509886e-38
0.029446082 -0.085784912 0.033475198 2.3509886e-38
0.031111581 -0.085095167 0.036536612 2.3509886e-38
0.032772481 -0.084433094 0.03947524 2.3509886e-38
0.034575071 -0.084433094 0.03947524 2.3509886e-38
0.036377665 -0.084433094 0.03947524 2.3509886e-38
0.038013138 -0.083751351 0.042501129 2.341805e-38
0.039810423 -0.083751351 0.042501129 2.3142544e-38
0.041431017 -0.083073571 0.045509376 2.268193e-38
0.043223027 -0.083073571 0.045509376 2.3509886e-38
0.044828899 -0.082399786 0.048499979 2.3509524e-38
0.046615668 -0.082399786 0.048499979 2.3508082e-38
0.048402436 -0.082399786 0.048499979 1.6313932e-38
0.050189205 -0.082399786 0.048499979 1.0135372e-38
0.052183092 -0.083073571 0.045509376 5.5252218e-39
0.054188721 -0.083751351 0.042501129 5.8021632e-39
0.056420006 -0.085095167 0.036536612 9.4903513e-39
0.058455877 -0.085784912 0.033475198 9.859501e-39
0.060268983 -0.085784912 0.033475198 1.0137175e-38
0.062082097 -0.085784912 0.033475198 8.2028761e-39
0.063895211 -0.085784912 0.033475198 3.871129e-39
-0.07527072 -0.11029746 -0.066497289 5.6271704e-39
-0.073282316 -0.11029746 -0.066497289 1.2079067e-38
-0.07129392 -0.11029746 -0.066497289 2.3234379e-38
-0.069305524 -0.11029746 -0.066497289 2.3141822e-38
-0.067317121 -0.11029746 -0.066497289 2.3141822e-38
-0.065161429 -0.10937552 -0.06243702 2.3509886e-38
-0.063180156 -0.10937552 -0.06243702 2.3509886e-38
-0.061198879 -0.10937552 -0.06243702 2.3509886e-38
-0.059077218 -0.10848872 -0.058531366 2.3509886e-38
-0.057000037 -0.10780637 -0.0555261 2.3509886e-38
-0.055030875 -0.10780637 -0.0555261 2.3509886e-38
-0.053061716 -0.10780637 -0.0555261 2.341805e-38
-0.050977349 -0.1069022 -0.051543914 2.341805e-38
-0.048904371 -0.10597645 -0.047466837 2.3509886e-38
-0.046949338 -0.10597645 -0.047466837 2.3509886e-38
-0.044994306 -0.10597645 -0.047466837 2.3509886e-38
-0.042974699 -0.10530742 -0.044520222 2.3509886e-38
-0.040943649 -0.1043932 -0.040493928 2.3509886e-38
-0.039000843 -0.1043932 -0.040493928 2.3509886e-38
-0.03705804 -0.1043932 -0.040493928 2.3509886e-38
-0.035070065 -0.10370506 -0.037463151 2.3509886e-38
-0.033132575 -0.10370506 -0.037463151 2.3509886e-38
-0.031149777 -0.10280241 -0.03348776 2.3509886e-38
-0.029219257 -0.10280241 -0.03348776 2.3509886e-38
-0.027257597 -0.10190627 -0.02954098 2.3509886e-38
-0.025333995 -0.10190627 -0.02954098 2.3509886e-38
-0.023396851 -0.10120471 -0.026451195 2.3509886e-38
-0.02146811 -0.10029322 -0.022436822 2.3509886e-38
-0.019554395 -0.099627286 -0.019503916 2.3509886e-38
-0.017654506 -0.098043531 -0.012528742 2.3509886e-38
-0.015768612 -0.097363517 -0.0095338468 2.3509886e-38
-0.013897647 -0.096454084 -0.0055285338 2.3509886e-38
-0.012016148 -0.096454084 -0.0055285338 2.3509886e-38
-0.010134649 -0.096454084 -0.0055285338 2.3509886e-38
-0.0082531516 -0.096454084 -0.0055285338 2.3509886e-38
-0.0063716527 -0.096454084 -0.0055285338 2.3509886e-38
-0.0045305174 -0.095757127 -0.0024590138 2.3509886e-38
-0.0026982063 -0.095089734 0.00048032962 2.3509886e-38
-0.00082724437 -0.095089734 0.00048032962 2.3509886e-38
0.0010437194 -0.095089734 0.00048032962 2.3509886e-38
0.0027724141 -0.09348768 0.007536089 2.3509886e-38
0.0045653591 -0.092807561 0.010531461 2.3509886e-38
0.0063481992 -0.092131287 0.013509905 2.3509886e-38
0.0081963176 -0.092131287 0.013509905 2.3509886e-38
0.010044436 -0.092131287 0.013509905 2.3509886e-38
0.011775254 -0.091210663 0.017564451 2.3509886e-38
0.013526083 -0.09054333 0.020503556 2.3509886e-38
0.01536194 -0.09054333 0.020503556 2.3509886e-38
0.017094182 -0.089855224 0.023534095 2.3509886e-38
0.018816421 -0.089171067 0.026547229 2.3509886e-38
0.020641679 -0.089171067 0.026547229 2.3509886e-38
0.022466941 -0.089171067 0.026547229 2.3509886e-38
0.024168765 -0.088490874 0.029542958 2.3509886e-38
0.025988771 -0.088490874 0.029542958 2.3509886e-38
0.027632969 -0.087598026 0.033475198 2.3509886e-38
0.029303836 -0.086902916 0.036536612 2.3509886e-38
0.031111581 -0.086902916 0.036536612 2.3509886e-38
0.032772481 -0.086235672 0.03947524 2.3509886e-38
0.034575071 -0.086235672 0.03947524 2.3509886e-38
0.036377665 -0.086235672 0.03947524 2.3509886e-38
0.038013138 -0.085548624 0.042501129 2.341805e-38
0.039810423 -0.085548624 0.042501129 2.3234379e-38
0.041431017 -0.084865585 0.045509376 2.2958155e-38
0.043223027 -0.084865585 0.045509376 2.3509886e-38
0.044828899 -0.084186554 0.048499979 2.3509161e-38
0.046615668 -0.084186554 0.048499979 2.3508077e-38
0.048402436 -0.084186554 0.048499979 1.5299417e-38
0.050189205 -0.084186554 0.048499979 9.2126966e-39
0.052391432 -0.085548624 0.042501129 5.7088927e-39
0.054403588 -0.086235672 0.03947524 6.354258e-39
0.056420006 -0.086902916 0.036536612 9.3977927e-39
0.058227748 -0.086902916 0.036536612 1.0135721e-38
0.060035489 -0.086902916 0.036536612 1.133607e-38
0.061843239 -0.086902916 0.036536612 9.6776418e-39
0.063650981 -0.086902916 0.036536612 4.8852754e-39
-0.07527072 -0.11228584 -0.066497289 7.8398655e-39
-0.073282316 -0.11228584 -0.066497289 1.4568349e-38
-0.07129392 -0.11228584 -0.066497289 2.3234379e-38
-0.069305524 -0.11228584 -0.066497289 2.3326213e-38
-0.067317121 -0.11228584 -0.066497289 2.341805e-38
-0.065161429 -0.11135681 -0.06243702 2.3509886e-38
-0.063180156 -0.11135681 -0.06243702 2.3509886e-38
-0.061198879 -0.11135681 -0.06243702 2.3509886e-38
-0.059077218 -0.11046316 -0.058531366 2.3509886e-38
-0.057000037 -0.10977553 -0.0555261 2.3509886e-38
-0.055030875 -0.10977553 -0.0555261 2.3509886e-38
-0.052939527 -0.10886435 -0.051543914 2.341805e-38
-0.050977349 -0.10886435 -0.051543914 2.341805e-38
-0.048904371 -0.10793148 -0.047466837 2.3509886e-38
-0.046949338 -0.10793148 -0.047466837 2.3509886e-38
-0.044994306 -0.10793148 -0.047466837 2.3509886e-38
-0.042974699 -0.10725726 -0.044520222 2.3509886e-38
-0.040943649 -0.10633601 -0.040493928 2.3509886e-38
-0.039000843 -0.10633601 -0.040493928 2.3509886e-38
-0.037007559 -0.10564254 -0.037463151 2.3509886e-38
-0.035070065 -0.10564254 -0.037463151 2.3509886e-38
-0.033132575 -0.10564254 -0.037463151 2.3509886e-38
-0.031149777 -0.10473295 -0.03348776 2.3509886e-38
-0.029181195 -0.10382988 -0.02954098 2.3509886e-38
-0.027257597 -0.10382988 -0.02954098 2.3509886e-38
-0.025315033 -0.1031229 -0.026451195 2.3509886e-38
-0.023396851 -0.1031229 -0.026451195 2.3509886e-38
-0.021460397 -0.10153329 -0.019503916 2.3509886e-38
-0.019554395 -0.10153329 -0.019503916 2.3509886e-38
-0.017657133 -0.099252045 -0.0095338468 2.3509886e-38
-0.015779145 -0.098335579 -0.0055285338 2.3509886e-38
-0.013897647 -0.098335579 -0.0055285338 2.3509886e-38
-0.012016148 -0.098335579 -0.0055285338 2.3509886e-38
-0.010134649 -0.098335579 -0.0055285338 2.3509886e-38
-0.0082827518 -0.097633243 -0.0024590138 2.3509886e-38
-0.006406635 -0.097633243 -0.0024590138 2.3509886e-38
-0.0045305174 -0.097633243 -0.0024590138 2.3509886e-38
-0.0026982063 -0.096960694 0.00048032962 2.3509886e-38
-0.00082724437 -0.096960694 0.00048032962 2.3509886e-38
0.00096928247 -0.09603554 0.0045236703 2.3509886e-38
0.0027724141 -0.095346272 0.007536089 2.3509886e-38
0.0045653591 -0.094660893 0.010531461 2.3509886e-38
0.0063481992 -0.093979403 0.013509905 2.3509886e-38
0.0081963176 -0.093979403 0.013509905 2.3509886e-38
0.010044436 -0.093979403 0.013509905 2.3509886e-38
0.011775254 -0.093051672 0.017564451 2.3509886e-38
0.013616265 -0.093051672 0.017564451 2.3509886e-38
0.01536194 -0.092379183 0.020503556 2.3509886e-38
0.017094182 -0.091685757 0.023534095 2.3509886e-38
0.018816421 -0.090996325 0.026547229 2.3509886e-38
0.020641679 -0.090996325 0.026547229 2.3509886e-38
0.022466941 -0.090996325 0.026547229 2.3509886e-38
0.024168765 -0.090310872 0.029542958 2.3509886e-38
0.025988771 -0.090310872 0.029542958 2.3509886e-38
0.027496094 -0.088710666 0.036536612 2.3509886e-38
0.0291673 -0.088038266 0.03947524 2.3509886e-38
0.03096989 -0.088038266 0.03947524 2.3509886e-38
0.032772481 -0.088038266 0.03947524 2.3509886e-38
0.034575071 -0.088038266 0.03947524 2.3509886e-38
0.036215849 -0.087345913 0.042501129 2.3509886e-38
0.038013138 -0.087345913 0.042501129 2.341805e-38
0.039810423 -0.087345913 0.042501129 2.3234379e-38
0.041431017 -0.086657599 0.045509376 2.3142544e-38
0.043223027 -0.086657599 0.045509376 2.3509883e-38
0.044828899 -0.085973322 0.048499979 2.3508798e-38
0.046615668 -0.085973322 0.048499979 2.3508432e-38
0.048599064 -0.086657599 0.045509376 1.3363306e-38
0.050391078 -0.086657599 0.045509376 7.7379225e-39
0.052391432 -0.087345913 0.042501129 6.0776753e-39
0.054403588 -0.088038266 0.03947524 6.8152361e-39
0.056420006 -0.088710666 0.036536612 8.7524233e-39
0.058227748 -0.088710666 0.036536612 9.5825469e-39
0.060035489 -0.088710666 0.036536612 1.2073635e-38
0.061843239 -0.088710666 0.036536612 1.069215e-38
0.063650981 -0.088710666 0.036536612 5.3462535e-39
0.065458722 -0.088710666 0.036536612 4.1491565e-39
0.067266472 -0.088710666 0.036536612 4.3339107e-39
-0.07527072 -0.11427425 -0.066497289 1.0974517e-38
-0.073282316 -0.11427425 -0.066497289 1.7334218e-38
-0.07129392 -0.11427425 -0.066497289 2.2958151e-38
-0.069123991 -0.1133381 -0.06243702 2.3326213e-38
-0.06714271 -0.1133381 -0.06243702 2.341805e-38
-0.065161429 -0.1133381 -0.06243702 2.3509886e-38
-0.063180156 -0.1133381 -0.06243702 2.3509886e-38
-0.061198879 -0.1133381 -0.06243702 2.3509886e-38
-0.059077218 -0.11243759 -0.058531366 2.3509886e-38
-0.057000037 -0.11174469 -0.0555261 2.3509886e-38
-0.054901708 -0.11082654 -0.051543914 2.3509886e-38
-0.052939527 -0.11082654 -0.051543914 2.341805e-38
-0.050977349 -0.11082654 -0.051543914 2.341805e-38
-0.048904371 -0.10988651 -0.047466837 2.3509886e-38
-0.046949338 -0.10988651 -0.047466837 2.3509886e-38
-0.044994306 -0.10988651 -0.047466837 2.3509886e-38
-0.042974699 -0.10920714 -0.044520222 2.3509886e-38
-0.040943649 -0.10827883 -0.040493928 2.3509886e-38
-0.039000843 -0.10827883 -0.040493928 2.3509886e-38
-0.037007559 -0.10758002 -0.037463151 2.3509886e-38
-0.035070065 -0.10758002 -0.037463151 2.3509886e-38
-0.033080298 -0.10666345 -0.03348776 2.3509886e-38
-0.031149777 -0.10666345 -0.03348776 2.3509886e-38
-0.029181195 -0.10575347 -0.02954098 2.3509886e-38
-0.027233219 -0.10504107 -0.026451195 2.3509886e-38
-0.025315033 -0.10504107 -0.026451195 2.3509886e-38
-0.023379255 -0.1041155 -0.022436822 2.3509886e-38
-0.021460397 -0.10343929 -0.019503916 2.3509886e-38
-0.019551735 -0.10273984 -0.016470278 2.3509886e-38
-0.017657133 -0.10114056 -0.0095338468 2.3509886e-38
-0.015779145 -0.10021709 -0.0055285338 2.3509886e-38
-0.013897647 -0.10021709 -0.0055285338 2.3509886e-38
-0.012034985 -0.099509358 -0.0024590138 2.3509886e-38
-0.010158869 -0.099509358 -0.0024590138 2.3509886e-38
-0.0082827518 -0.099509358 -0.0024590138 2.3509886e-38
-0.006406635 -0.099509358 -0.0024590138 2.3509886e-38
-0.0045305174 -0.099509358 -0.0024590138 2.3509886e-38
-0.0026982063 -0.098831654 0.00048032962 2.3509886e-38
-0.00082724437 -0.098831654 0.00048032962 2.3509886e-38
0.00096928247 -0.097899407 0.0045236703 2.3509886e-38
0.0027724141 -0.097204864 0.007536089 2.3509886e-38
0.0045000808 -0.09582752 0.013509905 2.3509886e-38
0.0063481992 -0.09582752 0.013509905 2.3509886e-38
0.0081963176 -0.09582752 0.013509905 2.3509886e-38
0.0099342456 -0.094892681 0.017564451 2.3509886e-38
0.011775254 -0.094892681 0.017564451 2.3509886e-38
0.013526083 -0.094215035 0.020503556 2.3509886e-38
0.015263637 -0.093516305 0.023534095 2.3509886e-38
0.017094182 -0.093516305 0.023534095 2.3509886e-38
0.018816421 -0.092821583 0.026547229 2.3509886e-38
0.02052875 -0.092130885 0.029542958 2.3509886e-38
0.02234876 -0.092130885 0.029542958 2.3509886e-38
0.024168765 -0.092130885 0.029542958 2.3509886e-38
0.025819855 -0.091224253 0.033475198 2.3509886e-38
0.027496094 -0.0905184 0.036536612 2.3509886e-38
0.0291673 -0.089840859 0.03947524 2.3509886e-38
0.03096989 -0.089840859 0.03947524 2.3509886e-38
0.032772481 -0.089840859 0.03947524 2.3509886e-38
0.034418564 -0.089143202 0.042501129 2.3509886e-38
0.036215849 -0.089143202 0.042501129 2.3509886e-38
0.038013138 -0.089143202 0.042501129 2.341805e-38
0.039639004 -0.088449612 0.045509376 2.3234379e-38
0.041431017 -0.088449612 0.045509376 2.3234379e-38
0.043042127 -0.087760091 0.048499979 2.3417687e-38
0.044828899 -0.087760091 0.048499979 2.3508437e-38
0.046615668 -0.087760091 0.048499979 2.3507711e-38
0.048599064 -0.088449612 0.045509376 1.1243163e-38
0.050391078 -0.088449612 0.045509376 6.6315721e-39
0.052600995 -0.089840859 0.03947524 6.7230433e-39
0.054403588 -0.089840859 0.03947524 7.7371924e-39
0.056420006 -0.0905184 0.036536612 8.2914452e-39
0.058227748 -0.0905184 0.036536612 9.0293732e-39
0.060035489 -0.0905184 0.036536612 1.2349862e-38
0.061843239 -0.0905184 0.036536612 1.1153128e-38
0.063650981 -0.0905184 0.036536612 5.6231963e-39
0.065458722 -0.0905184 0.036536612 4.0569594e-39
0.067266472 -0.0905184 0.036536612 3.8729297e-39
-0.077259116 -0.11626263 -0.066497289 4.5208229e-39
-0.07527072 -0.11626263 -0.066497289 1.6137472e-38
-0.073282316 -0.11626263 -0.066497289 2.1483021e-38
-0.07129392 -0.11626263 -0.066497289 2.3234379e-38
-0.069123991 -0.11531936 -0.06243702 2.3234018e-38
-0.06714271 -0.11531936 -0.06243702 2.3326213e-38
-0.065161429 -0.11531936 -0.06243702 2.3509886e-38
-0.063180156 -0.11531936 -0.06243702 2.3509886e-38
-0.061051648 -0.11441202 -0.058531366 2.3509886e-38
-0.0589692 -0.11371385 -0.0555261 2.3509886e-38
-0.057000037 -0.11371385 -0.0555261 2.3509886e-38
-0.054901708 -0.11278872 -0.051543914 2.3509886e-38
-0.052939527 -0.11278872 -0.051543914 2.341805e-38
-0.050977349 -0.11278872 -0.051543914 2.341805e-38
-0.048824292 -0.11115701 -0.044520222 2.3509886e-38
-0.046874426 -0.11115701 -0.044520222 2.3509886e-38
-0.044994306 -0.11184154 -0.047466837 2.3509886e-38
-0.042974699 -0.11115701 -0.044520222 2.3509886e-38
-0.040943649 -0.11022164 -0.040493928 2.3509886e-38
-0.038945049 -0.10951753 -0.037463151 2.3509886e-38
-0.037007559 -0.10951753 -0.037463151 2.3509886e-38
-0.035010818 -0.10859399 -0.03348776 2.3509886e-38
-0.033080298 -0.10859399 -0.03348776 2.3509886e-38
-0.031069586 -0.10695927 -0.026451195 2.3509886e-38
-0.029151401 -0.10695927 -0.026451195 2.3509886e-38
-0.027233219 -0.10695927 -0.026451195 2.3509886e-38
-0.0252904 -0.10602666 -0.022436822 2.3509886e-38
-0.023379255 -0.10602666 -0.022436822 2.3509886e-38
-0.021452418 -0.10464053 -0.016470278 2.3509886e-38
-0.01954828 -0.10372485 -0.012528742 2.3509886e-38
-0.017657133 -0.10302909 -0.0095338468 2.3509886e-38
-0.015779145 -0.10209858 -0.0055285338 2.3509886e-38
-0.013897647 -0.10209858 -0.0055285338 2.3509886e-38
-0.012034985 -0.10138547 -0.0024590138 2.3509886e-38
-0.010158869 -0.10138547 -0.0024590138 2.3509886e-38
-0.0082827518 -0.10138547 -0.0024590138 2.3509886e-38
-0.006406635 -0.10138547 -0.0024590138 2.3509886e-38
-0.0045305174 -0.10138547 -0.0024590138 2.3509886e-38
-0.0026982063 -0.10070263 0.00048032962 2.3509886e-38
-0.00082724437 -0.10070263 0.00048032962 2.3509886e-38
0.00096928247 -0.099763289 0.0045236703 2.3509886e-38
0.0027724141 -0.099063456 0.007536089 2.3509886e-38
0.0045000808 -0.097675636 0.013509905 2.3509886e-38
0.0063481992 -0.097675636 0.013509905 2.3509886e-38
0.0081963176 -0.097675636 0.013509905 2.3509886e-38
0.0099342456 -0.096733689 0.017564451 2.3509886e-38
0.011775254 -0.096733689 0.017564451 2.3509886e-38
0.013526083 -0.096050888 0.020503556 2.3509886e-38
0.015263637 -0.095346853 0.023534095 2.3509886e-38
0.017094182 -0.095346853 0.023534095 2.3509886e-38
0.018816421 -0.094646841 0.026547229 2.3509886e-38
0.02052875 -0.093950883 0.029542958 2.3509886e-38
0.02234876 -0.093950883 0.029542958 2.3509886e-38
0.024006745 -0.093037367 0.033475198 2.3509886e-38
0.025819855 -0.093037367 0.033475198 2.3509886e-38
0.027364707 -0.091643453 0.03947524 2.3509886e-38
0.0291673 -0.091643453 0.03947524 2.3509886e-38
0.03096989 -0.091643453 0.03947524 2.3509886e-38
0.032621276 -0.09094049 0.042501129 2.3509886e-38
0.034418564 -0.09094049 0.042501129 2.3509886e-38
0.036215849 -0.09094049 0.042501129 2.3509886e-38
0.037846994 -0.090241626 0.045509376 2.341805e-38
0.039639004 -0.090241626 0.045509376 2.3142542e-38
0.041255359 -0.089546859 0.048499979 2.332621e-38
0.043042127 -0.089546859 0.048499979 2.350988e-38
0.044643842 -0.088856161 0.051473059 2.3508793e-38
0.046425395 -0.088856161 0.051473059 2.3414428e-38
0.048599064 -0.090241626 0.045509376 9.3070503e-39
0.050391078 -0.090241626 0.045509376 6.0791144e-39
0.052804515 -0.092326149 0.036536612 7.2772932e-39
0.054612257 -0.092326149 0.036536612 8.6595046e-39
0.056642763 -0.093037367 0.033475198 8.3836408e-39
0.058455877 -0.093037367 0.033475198 8.8449833e-39
0.060035489 -0.092326149 0.036536612 1.2349862e-38
0.061843239 -0.092326149 0.036536612 1.152191e-38
0.063650981 -0.092326149 0.036536612 6.8210193e-39
0.065458722 -0.092326149 0.036536612 5.3473353e-39
0.067021735 -0.091643453 0.03947524 4.2413507e-39
0.068824328 -0.091643453 0.03947524 4.1484376e-39
0.070626922 -0.091643453 0.03947524 3.8718507e-39
-0.077259116 -0.11825104 -0.066497289 5.2583879e-39
-0.07527072 -0.11825104 -0.066497289 1.9548711e-38
-0.073282316 -0.11825104 -0.066497289 2.3234379e-38
-0.07129392 -0.11825104 -0.066497289 2.3234379e-38
-0.069123991 -0.11730064 -0.06243702 2.3326213e-38
-0.06714271 -0.11730064 -0.06243702 2.3234018e-38
-0.065161429 -0.11730064 -0.06243702 2.3509886e-38
-0.063026078 -0.11638646 -0.058531366 2.3509886e-38
-0.060938355 -0.115683 -0.0555261 2.3509886e-38
-0.0589692 -0.115683 -0.0555261 2.3509886e-38
-0.056863885 -0.11475091 -0.051543914 2.3509886e-38
-0.054901708 -0.11475091 -0.051543914 2.3509886e-38
-0.052814431 -0.11379658 -0.047466837 2.341805e-38
-0.050859399 -0.11379658 -0.047466837 2.341805e-38
-0.048824292 -0.11310686 -0.044520222 2.3509886e-38
-0.046874426 -0.11310686 -0.044520222 2.3509886e-38
-0.044994306 -0.11379658 -0.047466837 2.3509886e-38
-0.042974699 -0.11310686 -0.044520222 2.3509886e-38
-0.040882539 -0.11145501 -0.037463151 2.3509886e-38
-0.038945049 -0.11145501 -0.037463151 2.3509886e-38
-0.036941338 -0.11052449 -0.03348776 2.3509886e-38
-0.034952 -0.10960068 -0.02954098 2.3509886e-38
-0.033028398 -0.10960068 -0.02954098 2.3509886e-38
-0.031069586 -0.10887744 -0.026451195 2.3509886e-38
-0.029151401 -0.10887744 -0.026451195 2.3509886e-38
-0.027201544 -0.1079378 -0.022436822 2.3509886e-38
-0.0252904 -0.1079378 -0.022436822 2.3509886e-38
-0.023366399 -0.1072513 -0.019503916 2.3509886e-38
-0.021452418 -0.1065412 -0.016470278 2.3509886e-38
-0.019545654 -0.1049176 -0.0095338468 2.3509886e-38
-0.017660644 -0.10398008 -0.0055285338 2.3509886e-38
-0.015787218 -0.1032616 -0.0024590138 2.3509886e-38
-0.013911101 -0.1032616 -0.0024590138 2.3509886e-38
-0.012034985 -0.1032616 -0.0024590138 2.3509886e-38
-0.010158869 -0.1032616 -0.0024590138 2.3509886e-38
-0.0082827518 -0.1032616 -0.0024590138 2.3509886e-38
-0.006406635 -0.1032616 -0.0024590138 2.3509886e-38
-0.0045691701 -0.10257359 0.00048032962 2.3509886e-38
-0.0026982063 -0.10257359 0.00048032962 2.3509886e-38
-0.00082724437 -0.10257359 0.00048032962 2.3509886e-38
0.00096928247 -0.10162716 0.0045236703 2.3509886e-38
0.0027724141 -0.10092205 0.007536089 2.3509886e-38
0.0045000808 -0.099523753 0.013509905 2.3509886e-38
0.0063481992 -0.099523753 0.013509905 2.3509886e-38
0.0080932369 -0.098574698 0.017564451 2.3509886e-38
0.0099342456 -0.098574698 0.017564451 2.3509886e-38
0.011775254 -0.098574698 0.017564451 2.3509886e-38
0.013526083 -0.097886756 0.020503556 2.3509886e-38
0.015263637 -0.097177386 0.023534095 2.3509886e-38
0.017094182 -0.097177386 0.023534095 2.3509886e-38
0.018816421 -0.096472099 0.026547229 2.3509886e-38
0.02052875 -0.095770895 0.029542958 2.3509886e-38
0.02234876 -0.095770895 0.029542958 2.3509886e-38
0.024006745 -0.094850481 0.033475198 2.3509886e-38
0.025688348 -0.094133899 0.036536612 2.3509886e-38
0.027364707 -0.093446046 0.03947524 2.3509886e-38
0.0291673 -0.093446046 0.03947524 2.3509886e-38
0.03096989 -0.093446046 0.03947524 2.3509886e-38
0.032621276 -0.092737779 0.042501129 2.3509886e-38
0.034418564 -0.092737779 0.042501129 2.3509886e-38
0.036215849 -0.092737779 0.042501129 2.3509886e-38
0.037846994 -0.09203364 0.045509376 2.3509886e-38
0.039639004 -0.09203364 0.045509376 2.3326213e-38
0.041255359 -0.091333628 0.048499979 2.3234015e-38
0.043042127 -0.091333628 0.048499979 2.3509876e-38
0.044643842 -0.090637714 0.051473059 2.3509149e-38
0.046425395 -0.090637714 0.051473059 2.2492469e-38
0.048599064 -0.09203364 0.045509376 7.5556892e-39
0.050594144 -0.092737779 0.042501129 6.079113e-39
0.052804515 -0.094133899 0.036536612 7.7382686e-39
0.05482965 -0.094850481 0.033475198 8.567309e-39
0.056642763 -0.094850481 0.033475198 8.1070539e-39
0.058455877 -0.094850481 0.033475198 8.3840051e-39
0.060268983 -0.094850481 0.033475198 1.1796332e-38
0.062082097 -0.094850481 0.033475198 1.1521908e-38
0.063650981 -0.094133899 0.036536612 8.2961493e-39
0.065458722 -0.094133899 0.036536612 7.0068511e-39
0.067021735 -0.093446046 0.03947524 4.7019659e-39
0.068824328 -0.093446046 0.03947524 4.70161e-39
0.070626922 -0.093446046 0.03947524 4.3328289e-39
-0.079247512 -0.12023942 -0.066497289 6.0892276e-39
-0.077259116 -0.12023942 -0.066497289 5.5349748e-39
-0.07527072 -0.12023942 -0.066497289 2.0931645e-38
-0.073282316 -0.12023942 -0.066497289 2.3142542e-38
-0.07129392 -0.12023942 -0.066497289 2.3142542e-38
-0.069123991 -0.11928193 -0.06243702 2.341805e-38
-0.06714271 -0.11928193 -0.06243702 2.341805e-38
-0.064876683 -0.11765216 -0.0555261 2.3509886e-38
-0.062907517 -0.11765216 -0.0555261 2.3509886e-38
-0.06078824 -0.11671309 -0.051543914 2.3509886e-38
-0.058826067 -0.11671309 -0.051543914 2.3509886e-38
-0.056863885 -0.11671309 -0.051543914 2.3509886e-38
-0.05476946 -0.11575161 -0.047466837 2.3509886e-38
-0.052814431 -0.11575161 -0.047466837 2.341805e-38
-0.050859399 -0.11575161 -0.047466837 2.341805e-38
-0.048714869 -0.11410724 -0.040493928 2.3509886e-38
-0.046772067 -0.11410724 -0.040493928 2.3509886e-38
-0.044829261 -0.11410724 -0.040493928 2.3509886e-38
-0.042886455 -0.11410724 -0.040493928 2.3509886e-38
-0.040882539 -0.11339252 -0.037463151 2.3509886e-38
-0.038945049 -0.11339252 -0.037463151 2.3509886e-38
-0.036941338 -0.11245503 -0.03348776 2.3509886e-38
-0.034952 -0.11152427 -0.02954098 2.3509886e-38
-0.033028398 -0.11152427 -0.02954098 2.3509886e-38
-0.031069586 -0.11079563 -0.026451195 2.3509886e-38
-0.029151401 -0.11079563 -0.026451195 2.3509886e-38
-0.027201544 -0.10984896 -0.022436822 2.3509886e-38
-0.025272401 -0.10915731 -0.019503916 2.3509886e-38
-0.023353102 -0.1084419 -0.016470278 2.3509886e-38
-0.021442052 -0.1075124 -0.012528742 2.3509886e-38
-0.019545654 -0.10680611 -0.0095338468 2.3509886e-38
-0.017660644 -0.10586159 -0.0055285338 2.3509886e-38
-0.015787218 -0.10513772 -0.0024590138 2.3509886e-38
-0.013911101 -0.10513772 -0.0024590138 2.3509886e-38
-0.012034985 -0.10513772 -0.0024590138 2.3509886e-38
-0.010158869 -0.10513772 -0.0024590138 2.3509886e-38
-0.0082827518 -0.10513772 -0.0024590138 2.3509886e-38
-0.0064401338 -0.10444455 0.00048032962 2.3509886e-38
-0.0045691701 -0.10444455 0.00048032962 2.3509886e-38
-0.0026982063 -0.10444455 0.00048032962 2.3509886e-38
-0.00082724437 -0.10444455 0.00048032962 2.3509886e-38
0.00096928247 -0.10349102 0.0045236703 2.3509886e-38
0.0027724141 -0.10278064 0.007536089 2.3509886e-38
0.0045000808 -0.10137187 0.013509905 2.3509886e-38
0.0062522283 -0.10041572 0.017564451 2.3509886e-38
0.0080932369 -0.10041572 0.017564451 2.3509886e-38
0.0099342456 -0.10041572 0.017564451 2.3509886e-38
0.011690226 -0.099722609 0.020503556 2.3509886e-38
0.013526083 -0.099722609 0.020503556 2.3509886e-38
0.015263637 -0.099007934 0.023534095 2.3509886e-38
0.017094182 -0.099007934 0.023534095 2.3509886e-38
0.018816421 -0.098297372 0.026547229 2.3509886e-38
0.02052875 -0.097590908 0.029542958 2.3509886e-38
0.02234876 -0.097590908 0.029542958 2.3509886e-38
0.024006745 -0.096663594 0.033475198 2.3509886e-38
0.025688348 -0.095941633 0.036536612 2.3509886e-38
0.027364707 -0.09524864 0.03947524 2.3509886e-38
0.0291673 -0.09524864 0.03947524 2.3509886e-38
0.03096989 -0.09524864 0.03947524 2.3509886e-38
0.032621276 -0.094535068 0.042501129 2.3509886e-38
0.034418564 -0.094535068 0.042501129 2.3509886e-38
0.03605498 -0.093825653 0.045509376 2.3509886e-38
0.037681822 -0.093120396 0.048499979 2.3509886e-38
0.03946859 -0.093120396 0.048499979 2.3418047e-38
0.041080728 -0.092419267 0.051473059 2.3141456e-38
0.042862285 -0.092419267 0.051473059 2.3509873e-38
0.044453532 -0.091698244 0.054530539 2.3509146e-38
0.046229728 -0.091698244 0.054530539 2.1386476e-38
0.048796855 -0.094535068 0.042501129 5.9883579e-39
0.050996773 -0.095941633 0.036536612 6.1716646e-39
0.05328887 -0.097590908 0.029542958 7.646073e-39
0.055321604 -0.098297372 0.026547229 7.7382686e-39
0.057146862 -0.098297372 0.026547229 7.8304698e-39
0.058748893 -0.097590908 0.029542958 8.1074211e-39
0.060568899 -0.097590908 0.029542958 1.1058767e-38
0.062082097 -0.096663594 0.033475198 1.1428993e-38
0.063650981 -0.095941633 0.036536612 9.6783607e-39
0.065458722 -0.095941633 0.036536612 8.4812595e-39
0.067266472 -0.095941633 0.036536612 4.6097675e-39
0.068567015 -0.094535068 0.042501129 4.70161e-39
0.070103221 -0.093825653 0.045509376 4.4250245e-39
0.071895234 -0.093825653 0.045509376 4.056242e-39
0.073687248 -0.093825653 0.045509376 3.7796551e-39
-0.079247512 -0.12222783 -0.066497289 5.9048363e-39
-0.077259116 -0.12222783 -0.066497289 6.2725398e-39
-0.07527072 -0.12222783 -0.066497289 2.2498971e-38
-0.073282316 -0.12222783 -0.066497289 2.3234379e-38
-0.07129392 -0.12222783 -0.066497289 2.3234379e-38
-0.069123991 -0.12126322 -0.06243702 2.3326213e-38
-0.06714271 -0.12126322 -0.06243702 2.341805e-38
-0.064712599 -0.11867525 -0.051543914 2.3509886e-38
-0.062750421 -0.11867525 -0.051543914 2.3509886e-38
-0.06063455 -0.11770664 -0.047466837 2.3509886e-38
-0.058679521 -0.11770664 -0.047466837 2.3509886e-38
-0.056724492 -0.11770664 -0.047466837 2.3509886e-38
-0.05476946 -0.11770664 -0.047466837 2.3509886e-38
-0.052600477 -0.11605005 -0.040493928 2.341805e-38
-0.050657675 -0.11605005 -0.040493928 2.341805e-38
-0.048714869 -0.11605005 -0.040493928 2.3509886e-38
-0.046772067 -0.11605005 -0.040493928 2.3509886e-38
-0.044829261 -0.11605005 -0.040493928 2.3509886e-38
-0.042886455 -0.11605005 -0.040493928 2.3509886e-38
-0.040882539 -0.11533 -0.037463151 2.3509886e-38
-0.038945049 -0.11533 -0.037463151 2.3509886e-38
-0.036941338 -0.11438553 -0.03348776 2.3509886e-38
-0.034952 -0.11344786 -0.02954098 2.3509886e-38
-0.033028398 -0.11344786 -0.02954098 2.3509886e-38
-0.031069586 -0.1127138 -0.026451195 2.3509886e-38
-0.029151401 -0.1127138 -0.026451195 2.3509886e-38
-0.027201544 -0.11176009 -0.022436822 2.3509886e-38
-0.025272401 -0.11106332 -0.019503916 2.3509886e-38
-0.023353102 -0.11034258 -0.016470278 2.3509886e-38
-0.021442052 -0.10940616 -0.012528742 2.3509886e-38
-0.019545654 -0.10869466 -0.0095338468 2.3509886e-38
-0.017660644 -0.10774307 -0.0055285338 2.3509886e-38
-0.015779145 -0.10774307 -0.0055285338 2.3509886e-38
-0.013911101 -0.10701384 -0.0024590138 2.3509886e-38
-0.012034985 -0.10701384 -0.0024590138 2.3509886e-38
-0.010158869 -0.10701384 -0.0024590138 2.3509886e-38
-0.0083110966 -0.10631551 0.00048032962 2.3509886e-38
-0.0064401338 -0.10631551 0.00048032962 2.3509886e-38
-0.0045691701 -0.10631551 0.00048032962 2.3509886e-38
-0.0027584666 -0.10535492 0.0045236703 2.3509886e-38
-0.00089459203 -0.10535492 0.0045236703 2.3509886e-38
0.00091382221 -0.10463922 0.007536089 2.3509886e-38
0.0027120179 -0.1039276 0.010531461 2.3509886e-38
0.0045000808 -0.10322 0.013509905 2.3509886e-38
0.0062522283 -0.10225673 0.017564451 2.3509886e-38
0.0080932369 -0.10225673 0.017564451 2.3509886e-38
0.0099342456 -0.10225673 0.017564451 2.3509886e-38
0.011690226 -0.10155846 0.020503556 2.3509886e-38
0.013526083 -0.10155846 0.020503556 2.3509886e-38
0.015263637 -0.10083848 0.023534095 2.3509886e-38
0.017094182 -0.10083848 0.023534095 2.3509886e-38
0.018816421 -0.10012263 0.026547229 2.3509886e-38
0.02052875 -0.099410906 0.029542958 2.3509886e-38
0.02234876 -0.099410906 0.029542958 2.3509886e-38
0.024006745 -0.098476708 0.033475198 2.3509886e-38
0.025562113 -0.097051233 0.03947524 2.3509886e-38
0.027364707 -0.097051233 0.03947524 2.3509886e-38
0.029026704 -0.096332356 0.042501129 2.3509886e-38
0.030823993 -0.096332356 0.042501129 2.3509886e-38
0.032621276 -0.096332356 0.042501129 2.3509886e-38
0.034262966 -0.095617667 0.045509376 2.3509886e-38
0.03605498 -0.095617667 0.045509376 2.3509886e-38
0.037681822 -0.094907165 0.048499979 2.3509886e-38
0.039299175 -0.094200835 0.051473059 2.3509883e-38
0.041080728 -0.094200835 0.051473059 2.3049259e-38
0.042677339 -0.093474448 0.054530539 2.350987e-38
0.044453532 -0.093474448 0.054530539 2.3509499e-38
0.046229728 -0.093474448 0.054530539 2.0557068e-38
0.048005924 -0.093474448 0.054530539 5.1589518e-39
0.051671088 -0.10012263 0.026547229 6.2638574e-39
0.053496346 -0.10012263 0.026547229 7.4620376e-39
0.05553557 -0.10083848 0.023534095 7.6460758e-39
0.057146862 -0.10012263 0.026547229 7.923027e-39
0.05897212 -0.10012263 0.026547229 8.2914564e-39
0.060568899 -0.099410906 0.029542958 1.0966574e-38
0.062388904 -0.099410906 0.029542958 1.1521189e-38
0.063650981 -0.097749382 0.036536612 1.0600314e-38
0.065458722 -0.097749382 0.036536612 9.4950485e-39
0.067266472 -0.097749382 0.036536612 4.70124e-39
0.068567015 -0.096332356 0.042501129 4.0562406e-39
0.070103221 -0.095617667 0.045509376 4.056242e-39
0.071895234 -0.095617667 0.045509376 4.056242e-39
0.073687248 -0.095617667 0.045509376 4.2406332e-39
0.075203963 -0.094907165 0.048499979 4.517939e-39
-0.081235908 -0.12421621 -0.066497289 7.0108181e-39
-0.079247512 -0.12421621 -0.066497289 6.8267926e-39
-0.077259116 -0.12421621 -0.066497289 7.3788874e-39
-0.07527072 -0.12421621 -0.066497289 2.2222384e-38
-0.073282316 -0.12421621 -0.066497289 2.2958151e-38
-0.071105264 -0.12324448 -0.06243702 2.3234379e-38
-0.069123991 -0.12324448 -0.06243702 2.3326213e-38
-0.066845842 -0.12159048 -0.0555261 2.341805e-38
-0.064712599 -0.12063743 -0.051543914 2.3509886e-38
-0.062750421 -0.12063743 -0.051543914 2.3509886e-38
-0.06063455 -0.11966167 -0.047466837 2.3509886e-38
-0.058679521 -0.11966167 -0.047466837 2.3509886e-38
-0.056724492 -0.11966167 -0.047466837 2.3509886e-38
-0.054673884 -0.11895646 -0.044520222 2.3509886e-38
-0.052600477 -0.11799283 -0.040493928 2.341805e-38
-0.050657675 -0.11799283 -0.040493928 2.341805e-38
-0.048632503 -0.11726747 -0.037463151 2.3509886e-38
-0.046695013 -0.11726747 -0.037463151 2.3509886e-38
-0.044829261 -0.11799283 -0.040493928 2.3509886e-38
-0.042820033 -0.11726747 -0.037463151 2.3509886e-38
-0.040882539 -0.11726747 -0.037463151 2.3509886e-38
-0.038945049 -0.11726747 -0.037463151 2.3509886e-38
-0.036941338 -0.11631607 -0.03348776 2.3509886e-38
-0.034952 -0.11537148 -0.02954098 2.3509886e-38
-0.033028398 -0.11537148 -0.02954098 2.3509886e-38
-0.031069586 -0.114632 -0.026451195 2.3509886e-38
-0.029112687 -0.11367123 -0.022436822 2.3509886e-38
-0.027201544 -0.11367123 -0.022436822 2.3509886e-38
-0.025272401 -0.11296929 -0.019503916 2.3509886e-38
-0.023353102 -0.11224325 -0.016470278 2.3509886e-38
-0.021442052 -0.11129995 -0.012528742 2.3509886e-38
-0.019545654 -0.11058317 -0.0095338468 2.3509886e-38
-0.017660644 -0.10962458 -0.0055285338 2.3509886e-38
-0.015779145 -0.10962458 -0.0055285338 2.3509886e-38
-0.013911101 -0.10888995 -0.0024590138 2.3509886e-38
-0.012034985 -0.10888995 -0.0024590138 2.3509886e-38
-0.010158869 -0.10888995 -0.0024590138 2.3509886e-38
-0.0083110966 -0.10818647 0.00048032962 2.3509886e-38
-0.0064401338 -0.10818647 0.00048032962 2.3509886e-38
-0.0046223402 -0.10721879 0.0045236703 2.3509886e-38
-0.0027584666 -0.10721879 0.0045236703 2.3509886e-38
-0.00089459203 -0.10721879 0.0045236703 2.3509886e-38
0.00091382221 -0.10649781 0.007536089 2.3509886e-38
0.0027120179 -0.10578094 0.010531461 2.3509886e-38
0.0045000808 -0.1050681 0.013509905 2.3509886e-38
0.0062522283 -0.10409774 0.017564451 2.3509886e-38
0.0080932369 -0.10409774 0.017564451 2.3509886e-38
0.0099342456 -0.10409774 0.017564451 2.3509886e-38
0.011690226 -0.10339431 0.020503556 2.3509886e-38
0.013526083 -0.10339431 0.020503556 2.3509886e-38
0.015263637 -0.10266902 0.023534095 2.3509886e-38
0.017094182 -0.10266902 0.023534095 2.3509886e-38
0.018816421 -0.10194789 0.026547229 2.3509886e-38
0.02052875 -0.10123092 0.029542958 2.3509886e-38
0.02234876 -0.10123092 0.029542958 2.3509886e-38
0.024006745 -0.10028981 0.033475198 2.3509886e-38
0.025562113 -0.098853827 0.03947524 2.3509886e-38
0.027364707 -0.098853827 0.03947524 2.3509886e-38
0.029026704 -0.098129645 0.042501129 2.3509886e-38
0.030823993 -0.098129645 0.042501129 2.3509886e-38
0.032470956 -0.09740968 0.045509376 2.3509886e-38
0.034262966 -0.09740968 0.045509376 2.3509886e-38
0.035895053 -0.096693933 0.048499979 2.3509886e-38
0.037517618 -0.095982388 0.051473059 2.3509886e-38
0.039299175 -0.095982388 0.051473059 2.3509883e-38
0.040901143 -0.095250636 0.054530539 2.3509518e-38
0.042493504 -0.094523281 0.05756966 2.3509869e-38
0.044082589 -0.093824327 0.060490169 2.3507698e-38
0.045848332 -0.093824327 0.060490169 1.9726226e-38
0.047614075 -0.093824327 0.060490169 5.7114025e-39
0.052079052 -0.10339431 0.020503556 5.8028764e-39
0.053914912 -0.10339431 0.020503556 8.3839939e-39
0.05553557 -0.10266902 0.023534095 7.6460758e-39
0.057146862 -0.10194789 0.026547229 8.0152254e-39
0.05897212 -0.10194789 0.026547229 8.2914592e-39
0.060568899 -0.10123092 0.029542958 1.0689989e-38
0.062388904 -0.10123092 0.029542958 1.0874743e-38
0.063650981 -0.099557132 0.036536612 1.1060932e-38
0.065458722 -0.099557132 0.036536612 1.1153488e-38
0.067266472 -0.099557132 0.036536612 4.2402605e-39
0.068824328 -0.098853827 0.03947524 4.1487921e-39
0.070103221 -0.09740968 0.045509376 3.6874595e-39
0.071630426 -0.096693933 0.048499979 4.4250245e-39
0.073417194 -0.096693933 0.048499979 5.1625895e-39
0.075203963 -0.096693933 0.048499979 4.7016114e-39
-0.081235908 -0.12620462 -0.066497289 7.5639919e-39
-0.079247512 -0.12620462 -0.066497289 7.3799664e-39
-0.077259116 -0.12620462 -0.066497289 9.6837781e-39
-0.07527072 -0.12620462 -0.066497289 2.2958873e-38
-0.073086545 -0.12522577 -0.06243702 2.3234379e-38
-0.071105264 -0.12522577 -0.06243702 2.3234379e-38
-0.069123991 -0.12522577 -0.06243702 2.3234018e-38
-0.066845842 -0.12355967 -0.0555261 2.341805e-38
-0.064712599 -0.12259962 -0.051543914 2.3509886e-38
-0.062750421 -0.12259962 -0.051543914 2.3509886e-38
-0.06063455 -0.12161671 -0.047466837 2.3509886e-38
-0.058679521 -0.12161671 -0.047466837 2.3509886e-38
-0.056724492 -0.12161671 -0.047466837 2.3509886e-38
-0.054673884 -0.12090631 -0.044520222 2.3509886e-38
-0.052600477 -0.11993565 -0.040493928 2.341805e-38
-0.050657675 -0.11993565 -0.040493928 2.341805e-38
-0.048632503 -0.11920498 -0.037463151 2.3509886e-38
-0.046695013 -0.11920498 -0.037463151 2.3509886e-38
-0.044829261 -0.11993565 -0.040493928 2.3509886e-38
-0.042820033 -0.11920498 -0.037463151 2.3509886e-38
-0.040882539 -0.11920498 -0.037463151 2.3509886e-38
-0.038871862 -0.11824657 -0.03348776 2.3509886e-38
-0.036875602 -0.11729507 -0.02954098 2.3509886e-38
-0.034952 -0.11729507 -0.02954098 2.3509886e-38
-0.03298777 -0.11655019 -0.026451195 2.3509886e-38
-0.031069586 -0.11655019 -0.026451195 2.3509886e-38
-0.029112687 -0.11558239 -0.022436822 2.3509886e-38
-0.027201544 -0.11558239 -0.022436822 2.3509886e-38
-0.025272401 -0.1148753 -0.019503916 2.3509886e-38
-0.023353102 -0.11414395 -0.016470278 2.3509886e-38
-0.021442052 -0.11319371 -0.012528742 2.3509886e-38
-0.019545654 -0.11247168 -0.0095338468 2.3509886e-38
-0.017660644 -0.11150609 -0.0055285338 2.3509886e-38
-0.015779145 -0.11150609 -0.0055285338 2.3509886e-38
-0.013911101 -0.11076607 -0.0024590138 2.3509886e-38
-0.012034985 -0.11076607 -0.0024590138 2.3509886e-38
-0.010182059 -0.11005743 0.00048032962 2.3509886e-38
-0.0083110966 -0.11005743 0.00048032962 2.3509886e-38
-0.0064862138 -0.10908265 0.0045236703 2.3509886e-38
-0.0046223402 -0.10908265 0.0045236703 2.3509886e-38
-0.0027584666 -0.10908265 0.0045236703 2.3509886e-38
-0.00094476982 -0.1083564 0.007536089 2.3509886e-38
0.00091382221 -0.1083564 0.007536089 2.3509886e-38
0.0027120179 -0.10763429 0.010531461 2.3509886e-38
0.0045000808 -0.10691623 0.013509905 2.3509886e-38
0.0062522283 -0.10593875 0.017564451 2.3509886e-38
0.0080932369 -0.10593875 0.017564451 2.3509886e-38
0.0099342456 -0.10593875 0.017564451 2.3509886e-38
0.011690226 -0.10523017 0.020503556 2.3509886e-38
0.013433096 -0.10449956 0.023534095 2.3509886e-38
0.015263637 -0.10449956 0.023534095 2.3509886e-38
0.017094182 -0.10449956 0.023534095 2.3509886e-38
0.018816421 -0.10377313 0.026547229 2.3509886e-38
0.02052875 -0.10305093 0.029542958 2.3509886e-38
0.02234876 -0.10305093 0.029542958 2.3509886e-38
0.024006745 -0.10210292 0.033475198 2.3509886e-38
0.025562113 -0.10065642 0.03947524 2.3509886e-38
0.027364707 -0.10065642 0.03947524 2.3509886e-38
0.029026704 -0.099926919 0.042501129 2.3509886e-38
0.030823993 -0.099926919 0.042501129 2.3509886e-38
0.032470956 -0.099201679 0.045509376 2.3509886e-38
0.034262966 -0.099201679 0.045509376 2.3509886e-38
0.035895053 -0.098480701 0.048499979 2.3509886e-38
0.037517618 -0.097763941 0.051473059 2.3509886e-38
0.039299175 -0.097763941 0.051473059 2.3509883e-38
0.040901143 -0.09702684 0.054530539 2.3509158e-38
0.042493504 -0.09629415 0.05756966 2.3509509e-38
0.044082589 -0.09559007 0.060490169 2.2677933e-38
0.045848332 -0.09559007 0.060490169 1.8804627e-38
0.047614075 -0.09559007 0.060490169 5.3426171e-39
0.052079052 -0.10523017 0.020503556 5.6188425e-39
0.053914912 -0.10523017 0.020503556 7.9230158e-39
0.055750765 -0.10523017 0.020503556 8.291448e-39
0.057146862 -0.10377313 0.026547229 8.1992608e-39
0.05897212 -0.10377313 0.026547229 8.1067134e-39
0.060568899 -0.10305093 0.029542958 1.0413046e-38
0.062388904 -0.10305093 0.029542958 1.1059134e-38
0.06420891 -0.10305093 0.029542958 1.152191e-38
0.065708332 -0.10210292 0.033475198 1.124604e-38
0.067266472 -0.10136487 0.036536612 4.5164844e-39
0.068824328 -0.10065642 0.03947524 5.2540607e-39
0.070626922 -0.10065642 0.03947524 4.3328289e-39
0.071630426 -0.098480701 0.048499979 4.5172201e-39
0.073417194 -0.098480701 0.048499979 4.793807e-39
-0.083224304 -0.12819304 -0.066497289 8.5763376e-39
-0.081235908 -0.12819304 -0.066497289 7.3796006e-39
-0.079247512 -0.12819304 -0.066497289 7.472162e-39
-0.077259116 -0.12819304 -0.066497289 1.2449647e-38
-0.07527072 -0.12819304 -0.066497289 2.2958873e-38
-0.073086545 -0.12720706 -0.06243702 2.3234379e-38
-0.071105264 -0.12720706 -0.06243702 2.3142542e-38
-0.069123991 -0.12720706 -0.06243702 2.3234018e-38
-0.066845842 -0.12552883 -0.0555261 2.341805e-38
-0.064712599 -0.1245618 -0.051543914 2.3509886e-38
-0.062750421 -0.1245618 -0.051543914 2.3509886e-38
-0.06063455 -0.12357174 -0.047466837 2.3509886e-38
-0.058679521 -0.12357174 -0.047466837 2.3509886e-38
-0.056623746 -0.12285618 -0.044520222 2.3509886e-38
-0.054673884 -0.12285618 -0.044520222 2.3509886e-38
-0.052600477 -0.12187846 -0.040493928 2.341805e-38
-0.050657675 -0.12187846 -0.040493928 2.341805e-38
-0.048632503 -0.12114246 -0.037463151 2.3509886e-38
-0.046695013 -0.12114246 -0.037463151 2.3509886e-38
-0.044757519 -0.12114246 -0.037463151 2.3509886e-38
-0.042820033 -0.12114246 -0.037463151 2.3509886e-38
-0.040882539 -0.12114246 -0.037463151 2.3509886e-38
-0.038871862 -0.12017711 -0.03348776 2.3509886e-38
-0.036875602 -0.11921866 -0.02954098 2.3509886e-38
-0.034952 -0.11921866 -0.02954098 2.3509886e-38
-0.03298777 -0.11846836 -0.026451195 2.3509886e-38
-0.031023832 -0.11749353 -0.022436822 2.3509886e-38
-0.029112687 -0.11749353 -0.022436822 2.3509886e-38
-0.027178405 -0.11678131 -0.019503916 2.3509886e-38
-0.025253786 -0.11604463 -0.016470278 2.3509886e-38
-0.023335824 -0.11508749 -0.012528742 2.3509886e-38
-0.021442052 -0.11508749 -0.012528742 2.3509886e-38
-0.019545654 -0.1143602 -0.0095338468 2.3509886e-38
-0.017660644 -0.11338757 -0.0055285338 2.3509886e-38
-0.015779145 -0.11338757 -0.0055285338 2.3509886e-38
-0.013911101 -0.11264218 -0.0024590138 2.3509886e-38
-0.012034985 -0.11264218 -0.0024590138 2.3509886e-38
-0.010182059 -0.11192839 0.00048032962 2.3509886e-38
-0.0083110966 -0.11192839 0.00048032962 2.3509886e-38
-0.0064862138 -0.11094652 0.0045236703 2.3509886e-38
-0.0046223402 -0.11094652 0.0045236703 2.3509886e-38
-0.002803362 -0.11021499 0.007536089 2.3509886e-38
-0.00094476982 -0.11021499 0.007536089 2.3509886e-38
0.0008586786 -0.10948761 0.010531461 2.3509886e-38
0.0026519625 -0.10876434 0.013509905 2.3509886e-38
0.0045000808 -0.10876434 0.013509905 2.3509886e-38
0.0062522283 -0.10777976 0.017564451 2.3509886e-38
0.0080932369 -0.10777976 0.017564451 2.3509886e-38
0.0099342456 -0.10777976 0.017564451 2.3509886e-38
0.011690226 -0.10706602 0.020503556 2.3509886e-38
0.013433096 -0.10633011 0.023534095 2.3509886e-38
0.015263637 -0.10633011 0.023534095 2.3509886e-38
0.017094182 -0.10633011 0.023534095 2.3509886e-38
0.018816421 -0.10559841 0.026547229 2.3509886e-38
0.02052875 -0.10487093 0.029542958 2.3509886e-38
0.022193631 -0.10391603 0.033475198 2.3509886e-38
0.024006745 -0.10391603 0.033475198 2.3509886e-38
0.025562113 -0.10245901 0.03947524 2.3509886e-38
0.027364707 -0.10245901 0.03947524 2.3509886e-38
0.029026704 -0.10172421 0.042501129 2.3509886e-38
0.030823993 -0.10172421 0.042501129 2.3509886e-38
0.032621276 -0.10172421 0.042501129 2.3509886e-38
0.034262966 -0.10099369 0.045509376 2.3509886e-38
0.035895053 -0.10026747 0.048499979 2.3509886e-38
0.037517618 -0.099545494 0.051473059 2.3509886e-38
0.039299175 -0.099545494 0.051473059 2.3509167e-38
0.040901143 -0.098803028 0.054530539 2.3509518e-38
0.042493504 -0.098065019 0.05756966 2.3416233e-38
0.044264369 -0.098065019 0.05756966 2.1663781e-38
0.045848332 -0.097355813 0.060490169 1.7974863e-38
0.047614075 -0.097355813 0.060490169 5.2504201e-39
0.052277453 -0.10777976 0.017564451 5.7110381e-39
0.054118462 -0.10777976 0.017564451 7.5545962e-39
0.055750765 -0.10706602 0.020503556 8.4754819e-39
0.05736611 -0.10633011 0.023534095 7.9226795e-39
0.05897212 -0.10559841 0.026547229 7.5535452e-39
0.060568899 -0.10487093 0.029542958 9.583291e-39
0.062388904 -0.10487093 0.029542958 1.0874746e-38
0.06420891 -0.10487093 0.029542958 1.1890693e-38
0.066028915 -0.10487093 0.029542958 1.1430429e-38
0.067521445 -0.10391603 0.033475198 5.3462423e-39
0.069334544 -0.10391603 0.033475198 5.7150388e-39
0.071147658 -0.10391603 0.033475198 5.1615133e-39
-0.083224304 -0.13018142 -0.066497289 7.0090119e-39
-0.081235908 -0.13018142 -0.066497289 6.3654487e-39
-0.079247512 -0.13018142 -0.066497289 7.5643576e-39
-0.077259116 -0.13018142 -0.066497289 1.4570147e-38
-0.075067826 -0.12918831 -0.06243702 2.2958873e-38
-0.073086545 -0.12918831 -0.06243702 2.3234379e-38
-0.071105264 -0.12918831 -0.06243702 2.3050347e-38
-0.069123991 -0.12918831 -0.06243702 2.3326213e-38
-0.066845842 -0.12749799 -0.0555261 2.341805e-38
-0.064712599 -0.12652399 -0.051543914 2.3509886e-38
-0.062750421 -0.12652399 -0.051543914 2.3509886e-38
-0.06063455 -0.12552677 -0.047466837 2.3509886e-38
-0.058679521 -0.12552677 -0.047466837 2.3509886e-38
-0.056623746 -0.12480606 -0.044520222 2.3509886e-38
-0.054673884 -0.12480606 -0.044520222 2.3509886e-38
-0.052600477 -0.12382124 -0.040493928 2.341805e-38
-0.050569993 -0.12307997 -0.037463151 2.341805e-38
-0.048632503 -0.12307997 -0.037463151 2.3509886e-38
-0.046695013 -0.12307997 -0.037463151 2.3509886e-38
-0.044757519 -0.12307997 -0.037463151 2.3509886e-38
-0.042820033 -0.12307997 -0.037463151 2.3509886e-38
-0.040802382 -0.12210761 -0.03348776 2.3509886e-38
-0.038871862 -0.12210761 -0.03348776 2.3509886e-38
-0.036875602 -0.12114228 -0.02954098 2.3509886e-38
-0.034905951 -0.12038656 -0.026451195 2.3509886e-38
-0.03298777 -0.12038656 -0.026451195 2.3509886e-38
-0.031023832 -0.11940466 -0.022436822 2.3509886e-38
-0.029112687 -0.11940466 -0.022436822 2.3509886e-38
-0.027178405 -0.11868732 -0.019503916 2.3509886e-38
-0.025253786 -0.11794533 -0.016470278 2.3509886e-38
-0.023335824 -0.11698125 -0.012528742 2.3509886e-38
-0.021442052 -0.11698125 -0.012528742 2.3509886e-38
-0.019542143 -0.11526908 -0.0055285338 2.3509886e-38
-0.017660644 -0.11526908 -0.0055285338 2.3509886e-38
-0.015779145 -0.11526908 -0.0055285338 2.3509886e-38
-0.013911101 -0.1145183 -0.0024590138 2.3509886e-38
-0.012034985 -0.1145183 -0.0024590138 2.3509886e-38
-0.010182059 -0.11379938 0.00048032962 2.3509886e-38
-0.0083110966 -0.11379938 0.00048032962 2.3509886e-38
-0.0064862138 -0.11281042 0.0045236703 2.3509886e-38
-0.0046223402 -0.11281042 0.0045236703 2.3509886e-38
-0.002803362 -0.11207359 0.007536089 2.3509886e-38
-0.00094476982 -0.11207359 0.007536089 2.3509886e-38
0.0008586786 -0.11134095 0.010531461 2.3509886e-38
0.0026519625 -0.11061247 0.013509905 2.3509886e-38
0.0045000808 -0.11061247 0.013509905 2.3509886e-38
0.0062522283 -0.10962076 0.017564451 2.3509886e-38
0.0080932369 -0.10962076 0.017564451 2.3509886e-38
0.0099342456 -0.10962076 0.017564451 2.3509886e-38
0.011690226 -0.10890187 0.020503556 2.3509886e-38
0.013433096 -0.10816063 0.023534095 2.3509886e-38
0.015263637 -0.10816063 0.023534095 2.3509886e-38
0.017094182 -0.10816063 0.023534095 2.3509886e-38
0.018816421 -0.10742365 0.026547229 2.3509886e-38
0.02052875 -0.10669093 0.029542958 2.3509886e-38
0.022193631 -0.10572915 0.033475198 2.3509886e-38
0.024006745 -0.10572915 0.033475198 2.3509886e-38
0.025562113 -0.10426159 0.03947524 2.3509886e-38
0.027364707 -0.10426159 0.03947524 2.3509886e-38
0.029026704 -0.10352151 0.042501129 2.3509886e-38
0.030823993 -0.10352151 0.042501129 2.3509886e-38
0.032470956 -0.10278571 0.045509376 2.3509886e-38
0.034262966 -0.10278571 0.045509376 2.3509886e-38
0.035736062 -0.10132705 0.051473059 2.3509886e-38
0.037517618 -0.10132705 0.051473059 2.3509527e-38
0.039299175 -0.10132705 0.051473059 2.3509167e-38
0.041080728 -0.10132705 0.051473059 2.3509521e-38
0.042493504 -0.099835888 0.05756966 2.3323317e-38
0.044082589 -0.099121556 0.060490169 2.1018409e-38
0.045848332 -0.099121556 0.060490169 1.7698273e-38
0.047614075 -0.099121556 0.060490169 5.528086e-39
0.052277453 -0.10962076 0.017564451 6.2642119e-39
0.054118462 -0.10962076 0.017564451 7.6467918e-39
0.055750765 -0.10890187 0.020503556 8.2910935e-39
0.05736611 -0.10816063 0.023534095 7.7379309e-39
0.05897212 -0.10742365 0.026547229 7.4617125e-39
0.060568899 -0.10669093 0.029542958 9.2141512e-39
0.062388904 -0.10669093 0.029542958 1.0782194e-38
0.06420891 -0.10669093 0.029542958 1.2350952e-38
0.066028915 -0.10669093 0.029542958 1.2167276e-38
0.067521445 -0.10572915 0.033475198 7.4656628e-39
0.069334544 -0.10572915 0.033475198 5.5299287e-39
0.071147658 -0.10572915 0.033475198 5.3459046e-39
-0.081235908 -0.13216983 -0.066497289 5.7200821e-39
-0.079247512 -0.13216983 -0.066497289 9.223879e-39
-0.077259116 -0.13216983 -0.066497289 1.6321863e-38
-0.075067826 -0.1311696 -0.06243702 2.2775199e-38
-0.073086545 -0.1311696 -0.06243702 2.3234379e-38
-0.071105264 -0.1311696 -0.06243702 2.3142542e-38
-0.069123991 -0.1311696 -0.06243702 2.341805e-38
-0.066845842 -0.12946714 -0.0555261 2.341805e-38
-0.064876683 -0.12946714 -0.0555261 2.3509886e-38
-0.062750421 -0.12848614 -0.051543914 2.3509886e-38
-0.06078824 -0.12848614 -0.051543914 2.3509886e-38
-0.058679521 -0.1274818 -0.047466837 2.3509886e-38
-0.056724492 -0.1274818 -0.047466837 2.3509886e-38
-0.054673884 -0.12675591 -0.044520222 2.3509886e-38
-0.052600477 -0.12576406 -0.040493928 2.341805e-38
-0.050569993 -0.12501745 -0.037463151 2.341805e-38
-0.048632503 -0.12501745 -0.037463151 2.3509886e-38
-0.046695013 -0.12501745 -0.037463151 2.3509886e-38
