# .PCD v0.7 - Point Cloud Data file format
VERSION 0.7
FIELDS x y z rgb
SIZE 4 4 4 4
TYPE F F F F
COUNT 1 1 1 1
WIDTH 941
HEIGHT 1
VIEWPOINT 0 0 0 1 0 0 0
POINTS 941
DATA ascii
-0.0055579506 -0.1175413 0.024887631 2.3509886e-38
-0.0036869869 -0.1175413 0.024887631 2.3509886e-38
-0.001979325 -0.11903207 0.018878767 2.3509886e-38
-9.7826123e-05 -0.11903207 0.018878767 2.3509886e-38
0.0016179793 -0.1207688 0.011878559 2.3509886e-38
0.0035117492 -0.1207688 0.011878559 2.3509886e-38
0.0053260475 -0.12174667 0.0079370234 2.3509886e-38
0.0071708821 -0.1224993 0.0049033854 2.3509886e-38
0.0090280287 -0.12322696 0.0019704793 2.3509886e-38
0.010939177 -0.12322696 0.0019704793 2.3509886e-38
0.012797531 -0.12422292 -0.0020438936 2.3509886e-38
0.014715713 -0.12422292 -0.0020438936 2.3509886e-38
0.016604103 -0.12498946 -0.0051336791 2.3509886e-38
0.018527701 -0.12498946 -0.0051336791 2.3509886e-38
0.020427084 -0.12596865 -0.0090804603 2.3509886e-38
0.022357604 -0.12596865 -0.0090804603 2.3509886e-38
0.024277668 -0.12695493 -0.013055852 2.3509886e-38
0.02621516 -0.12695493 -0.013055852 2.3509886e-38
0.028155308 -0.12770687 -0.016086629 2.3509886e-38
0.030108701 -0.12870578 -0.020112922 2.3509886e-38
0.032058567 -0.12870578 -0.020112922 2.3509886e-38
0.034026511 -0.12943684 -0.023059538 2.3509886e-38
0.036013711 -0.13044833 -0.027136615 2.3509886e-38
0.037975889 -0.13044833 -0.027136615 2.3509886e-38
0.03993807 -0.13044833 -0.027136615 2.3509886e-38
0.041952614 -0.1314363 -0.031118801 2.3509886e-38
0.043921776 -0.1314363 -0.031118801 2.3325494e-38
0.045940995 -0.1321819 -0.034124069 2.341769e-38
0.047915425 -0.1321819 -0.034124069 2.3509883e-38
0.049968608 -0.13315089 -0.038029723 2.3509883e-38
0.051949885 -0.13315089 -0.038029723 2.2495731e-38
0.054027267 -0.13415821 -0.042089991 2.1020601e-38
0.056116372 -0.13514097 -0.046051197 2.0467427e-38
0.058111716 -0.13514097 -0.046051197 2.0928397e-38
0.060312361 -0.1369016 -0.053147726 2.2585746e-38
0.062320147 -0.1369016 -0.053147726 2.3138556e-38
0.064327933 -0.1369016 -0.053147726 2.101842e-38
0.066469342 -0.13787122 -0.057056002 2.0003917e-38
0.068483979 -0.13787122 -0.057056002 1.9267078e-38
0.070651919 -0.13888018 -0.061122708 2.2493927e-38
0.072673686 -0.13888018 -0.061122708 2.2955624e-38
0.074695453 -0.13888018 -0.061122708 2.2679035e-38
0.07671722 -0.13888018 -0.061122708 1.9175598e-38
0.079455122 -0.14285399 -0.077139907 7.5593046e-39
0.081504971 -0.14285399 -0.077139907 7.8358915e-39
-0.072250769 -0.11764936 0.031943388 7.5607549e-39
-0.070392177 -0.11764936 0.031943388 8.5745467e-39
-0.068533584 -0.11764936 0.031943388 9.5865392e-39
-0.066674992 -0.11764936 0.031943388 1.3364399e-38
-0.065077841 -0.11840202 0.028930971 1.345443e-38
-0.063557804 -0.11941226 0.024887631 1.0043912e-38
-0.061686847 -0.11941226 0.024887631 9.4007032e-39
-0.059815887 -0.11941226 0.024887631 9.4928961e-39
-0.057944927 -0.11941226 0.024887631 9.9520679e-39
-0.056073952 -0.11941226 0.024887631 6.9085219e-39
-0.054202992 -0.11941226 0.024887631 6.8152361e-39
-0.052551065 -0.12014665 0.021948287 6.8148704e-39
-0.050674949 -0.12014665 0.021948287 6.4460878e-39
-0.048798833 -0.12014665 0.021948287 4.2348361e-39
-0.044913832 -0.11289944 0.050954528 1.0874726e-38
-0.042620916 -0.11116849 0.057882495 2.3507695e-38
-0.040807802 -0.11116849 0.057882495 2.3509863e-38
-0.038994689 -0.11116849 0.057882495 2.350987e-38
-0.037181575 -0.11116849 0.057882495 2.3233288e-38
-0.035368461 -0.11116849 0.057882495 2.3509879e-38
-0.033786315 -0.11215095 0.053950258 2.3509523e-38
-0.031966317 -0.11215095 0.053950258 2.3509883e-38
-0.03031176 -0.11289944 0.050954528 2.3509886e-38
-0.028486501 -0.11289944 0.050954528 2.3509886e-38
-0.026817087 -0.11365227 0.047941394 2.3509886e-38
-0.025137987 -0.11440946 0.044910856 2.3509886e-38
-0.023443844 -0.11514379 0.041971751 2.3509886e-38
-0.021602836 -0.11514379 0.041971751 2.3509886e-38
-0.019761827 -0.11514379 0.041971751 2.3509886e-38
-0.01809499 -0.1161568 0.037917204 2.3509886e-38
-0.016369585 -0.11690097 0.03493876 2.3509886e-38
-0.014516249 -0.11690097 0.03493876 2.3509886e-38
-0.012775823 -0.11764936 0.031943388 2.3509886e-38
-0.011025511 -0.11840202 0.028930971 2.3509886e-38
-0.0091616362 -0.11840202 0.028930971 2.3509886e-38
-0.0074289143 -0.11941226 0.024887631 2.3509886e-38
-0.0055579506 -0.11941226 0.024887631 2.3509886e-38
-0.0036869869 -0.11941226 0.024887631 2.3509886e-38
-0.001979325 -0.12091358 0.018878767 2.3509886e-38
-9.7826123e-05 -0.12091358 0.018878767 2.3509886e-38
0.0016888641 -0.12191428 0.014873454 2.3509886e-38
0.0035773851 -0.12191428 0.014873454 2.3509886e-38
0.0054055229 -0.12266256 0.011878559 2.3509886e-38
0.0072992928 -0.12266256 0.011878559 2.3509886e-38
0.009127412 -0.12364738 0.0079370234 2.3509886e-38
0.010982886 -0.12440531 0.0049033854 2.3509886e-38
0.012850322 -0.12513812 0.0019704793 2.3509886e-38
0.014715713 -0.12614109 -0.0020438936 2.3509886e-38
0.016633898 -0.12614109 -0.0020438936 2.3509886e-38
0.018527701 -0.12691309 -0.0051336791 2.3509886e-38
0.020427084 -0.12789918 -0.0090804603 2.3509886e-38
0.022357604 -0.12789918 -0.0090804603 2.3509886e-38
0.024277668 -0.12889244 -0.013055852 2.3509886e-38
0.02621516 -0.12889244 -0.013055852 2.3509886e-38
0.028155308 -0.12964968 -0.016086629 2.3509886e-38
0.030098112 -0.12964968 -0.016086629 2.3509886e-38
0.032040916 -0.12964968 -0.016086629 2.3509886e-38
0.034008428 -0.13065563 -0.020112922 2.3509886e-38
0.035981543 -0.13139187 -0.023059538 2.3509886e-38
0.037936576 -0.13139187 -0.023059538 2.3509886e-38
0.03993807 -0.13241051 -0.027136615 2.3509886e-38
0.041952614 -0.13340546 -0.031118801 2.3509886e-38
0.043921776 -0.13340546 -0.031118801 2.3509886e-38
0.045940995 -0.13415633 -0.034124069 2.3509886e-38
0.047915425 -0.13415633 -0.034124069 2.3509883e-38
0.049968608 -0.13513215 -0.038029723 2.3509883e-38
0.051949885 -0.13513215 -0.038029723 2.2587927e-38
0.054027267 -0.13614662 -0.042089991 2.1204992e-38
0.056116372 -0.13713633 -0.046051197 2.0744014e-38
0.058111716 -0.13713633 -0.046051197 2.1296823e-38
0.060312361 -0.13890938 -0.053147726 2.2402801e-38
0.062320147 -0.13890938 -0.053147726 2.2033298e-38
0.064327933 -0.13890938 -0.053147726 2.0835119e-38
0.066469342 -0.13988586 -0.057056002 1.9359992e-38
0.068483979 -0.13988586 -0.057056002 1.8715347e-38
0.070651919 -0.14090194 -0.061122708 2.203439e-38
0.072673686 -0.14090194 -0.061122708 2.3509879e-38
0.074527889 -0.13988586 -0.057056002 2.3509873e-38
0.076542526 -0.13988586 -0.057056002 2.0651804e-38
0.078738987 -0.14090194 -0.061122708 7.9291647e-39
0.080760762 -0.14090194 -0.061122708 8.9433166e-39
-0.072533339 -0.12026589 0.028930971 7.5603948e-39
-0.070669472 -0.12026589 0.028930971 8.9426104e-39
-0.06880559 -0.12026589 0.028930971 1.0323381e-38
-0.066941723 -0.12026589 0.028930971 1.391757e-38
-0.065077841 -0.12026589 0.028930971 1.3732094e-38
-0.063557804 -0.12128322 0.024887631 1.0136465e-38
-0.061686847 -0.12128322 0.024887631 9.8613184e-39
-0.059815887 -0.12128322 0.024887631 9.4932534e-39
-0.057944927 -0.12128322 0.024887631 1.0044982e-38
-0.056073952 -0.12128322 0.024887631 7.1858305e-39
-0.05442718 -0.12202276 0.021948287 7.2769387e-39
-0.052551065 -0.12202276 0.021948287 7.3684099e-39
-0.050674949 -0.12202276 0.021948287 6.9999833e-39
-0.048798833 -0.12202276 0.021948287 3.9575359e-39
-0.04443403 -0.1129816 0.057882495 9.6747426e-39
-0.042620916 -0.1129816 0.057882495 2.3506974e-38
-0.040807802 -0.1129816 0.057882495 2.350986e-38
-0.038994689 -0.1129816 0.057882495 2.3509869e-38
-0.037181575 -0.1129816 0.057882495 2.3324404e-38
-0.035368461 -0.1129816 0.057882495 2.350988e-38
-0.033786315 -0.11397095 0.053950258 2.3325494e-38
-0.031966317 -0.11397095 0.053950258 2.3509886e-38
-0.030146305 -0.11397095 0.053950258 2.3509886e-38
-0.028486501 -0.11472471 0.050954528 2.3509886e-38
-0.026817087 -0.11548282 0.047941394 2.3509886e-38
-0.025137987 -0.11624531 0.044910856 2.3509886e-38
-0.023443844 -0.1169848 0.041971751 2.3509886e-38
-0.021602836 -0.1169848 0.041971751 2.3509886e-38
-0.019761827 -0.1169848 0.041971751 2.3509886e-38
-0.01809499 -0.11800493 0.037917204 2.3509886e-38
-0.016369585 -0.11875431 0.03493876 2.3509886e-38
-0.014516249 -0.11875431 0.03493876 2.3509886e-38
-0.012775823 -0.11950795 0.031943388 2.3509886e-38
-0.011025511 -0.12026589 0.028930971 2.3509886e-38
-0.0091616362 -0.12026589 0.028930971 2.3509886e-38
-0.0074289143 -0.12128322 0.024887631 2.3509886e-38
-0.0055579506 -0.12128322 0.024887631 2.3509886e-38
-0.0036869869 -0.12128322 0.024887631 2.3509886e-38
-0.001979325 -0.12279506 0.018878767 2.3509886e-38
-0.00019965693 -0.12380283 0.014873454 2.3509886e-38
0.0016888641 -0.12380283 0.014873454 2.3509886e-38
0.0035773851 -0.12380283 0.014873454 2.3509886e-38
0.0054055229 -0.12455635 0.011878559 2.3509886e-38
0.0072992928 -0.12455635 0.011878559 2.3509886e-38
0.009127412 -0.12554805 0.0079370234 2.3509886e-38
0.010982886 -0.12631132 0.0049033854 2.3509886e-38
0.01288889 -0.12631132 0.0049033854 2.3509886e-38
0.014761467 -0.12704925 0.0019704793 2.3509886e-38
0.016633898 -0.12805928 -0.0020438936 2.3509886e-38
0.018527701 -0.12883668 -0.0051336791 2.3509886e-38
0.020427084 -0.12982969 -0.0090804603 2.3509886e-38
0.022357604 -0.12982969 -0.0090804603 2.3509886e-38
0.024277668 -0.13082992 -0.013055852 2.3509886e-38
0.02621516 -0.13082992 -0.013055852 2.3509886e-38
0.02815265 -0.13082992 -0.013055852 2.3509886e-38
0.030098112 -0.13159247 -0.016086629 2.3509886e-38
0.032040916 -0.13159247 -0.016086629 2.3509886e-38
0.033983722 -0.13159247 -0.016086629 2.3509886e-38
0.035958294 -0.13260551 -0.020112922 2.3509886e-38
0.037936576 -0.13334687 -0.023059538 2.3509886e-38
0.039891604 -0.13334687 -0.023059538 2.3509886e-38
0.041900247 -0.1343727 -0.027136615 2.3509886e-38
0.043921776 -0.13537462 -0.031118801 2.3509886e-38
0.045940995 -0.13613077 -0.034124069 2.3417691e-38
0.047915425 -0.13613077 -0.034124069 2.3509886e-38
0.049968608 -0.13711344 -0.038029723 2.3509886e-38
0.051949885 -0.13711344 -0.038029723 2.3509883e-38
0.054027267 -0.138135 -0.042089991 2.3417687e-38
0.056116372 -0.13913165 -0.046051197 2.3417687e-38
0.058111716 -0.13913165 -0.046051197 2.350988e-38
0.060312361 -0.14091717 -0.053147726 2.3417323e-38
0.062320147 -0.14091717 -0.053147726 2.3417679e-38
0.064327933 -0.14091717 -0.053147726 2.3509879e-38
0.066469342 -0.14190049 -0.057056002 2.3233652e-38
0.068483979 -0.14190049 -0.057056002 2.231134e-38
0.070651919 -0.1429237 -0.061122708 2.3509883e-38
0.072673686 -0.1429237 -0.061122708 2.3418045e-38
0.074527889 -0.14190049 -0.057056002 2.3049978e-38
0.076542526 -0.14190049 -0.057056002 2.3049975e-38
0.078557163 -0.14190049 -0.057056002 8.3905072e-39
0.0805718 -0.14190049 -0.057056002 8.6670941e-39
-0.072533339 -0.12212978 0.028930971 8.7571401e-39
-0.070669472 -0.12212978 0.028930971 8.8489714e-39
-0.06880559 -0.12212978 0.028930971 1.0599962e-38
-0.066941723 -0.12212978 0.028930971 1.2996685e-38
-0.065077841 -0.12212978 0.028930971 1.2810849e-38
-0.063557804 -0.12315418 0.024887631 9.952784e-39
-0.061686847 -0.12315418 0.024887631 1.0230453e-38
-0.059815887 -0.12315418 0.024887631 1.0598879e-38
-0.058179412 -0.12389888 0.021948287 1.0322648e-38
-0.056303296 -0.12389888 0.021948287 7.0025238e-39
-0.05442718 -0.12389888 0.021948287 6.2645945e-39
-0.052779797 -0.12467657 0.018878767 6.7248467e-39
-0.050898287 -0.12467657 0.018878767 7.0003518e-39
-0.049016792 -0.12467657 0.018878767 4.4181525e-39
-0.04443403 -0.11479472 0.057882495 6.9074345e-39
-0.042620916 -0.11479472 0.057882495 2.350445e-38
-0.040807802 -0.11479472 0.057882495 2.3508057e-38
-0.038994689 -0.11479472 0.057882495 2.3509146e-38
-0.037181575 -0.11479472 0.057882495 2.3509514e-38
-0.035368461 -0.11479472 0.057882495 2.3509883e-38
-0.033555355 -0.11479472 0.057882495 2.2957078e-38
-0.031742241 -0.11479472 0.057882495 2.3049991e-38
-0.030146305 -0.11579098 0.053950258 2.341805e-38
-0.028486501 -0.11654995 0.050954528 2.3509886e-38
-0.026817087 -0.11731337 0.047941394 2.3509886e-38
-0.025137987 -0.11808117 0.044910856 2.3509886e-38
-0.023443844 -0.11882581 0.041971751 2.3509886e-38
-0.021602836 -0.11882581 0.041971751 2.3509886e-38
-0.019761827 -0.11882581 0.041971751 2.3509886e-38
-0.01809499 -0.11985306 0.037917204 2.3509886e-38
-0.016369585 -0.12060766 0.03493876 2.3509886e-38
-0.014516249 -0.12060766 0.03493876 2.3509886e-38
-0.012775823 -0.12136655 0.031943388 2.3509886e-38
-0.010917231 -0.12136655 0.031943388 2.3509886e-38
-0.0091616362 -0.12212978 0.028930971 2.3509886e-38
-0.0072977617 -0.12212978 0.028930971 2.3509886e-38
-0.0055579506 -0.12315418 0.024887631 2.3509886e-38
-0.0036869869 -0.12315418 0.024887631 2.3509886e-38
-0.001979325 -0.12467657 0.018878767 2.3509886e-38
-0.00019965693 -0.12569134 0.014873454 2.3509886e-38
0.0016888641 -0.12569134 0.014873454 2.3509886e-38
0.0035773851 -0.12569134 0.014873454 2.3509886e-38
0.0054055229 -0.12645011 0.011878559 2.3509886e-38
0.0072992928 -0.12645011 0.011878559 2.3509886e-38
0.009127412 -0.12744872 0.0079370234 2.3509886e-38
0.0110281 -0.12744872 0.0079370234 2.3509886e-38
0.01288889 -0.12821732 0.0049033854 2.3509886e-38
0.01479489 -0.12821732 0.0049033854 2.3509886e-38
0.016672611 -0.12896039 0.0019704793 2.3509886e-38
0.01855208 -0.12997745 -0.0020438936 2.3509886e-38
0.020427084 -0.13176022 -0.0090804603 2.3509886e-38
0.022357604 -0.13176022 -0.0090804603 2.3509886e-38
0.024277668 -0.13276742 -0.013055852 2.3509886e-38
0.02621516 -0.13276742 -0.013055852 2.3509886e-38
0.02815265 -0.13276742 -0.013055852 2.3509527e-38
0.030090142 -0.13276742 -0.013055852 2.3509527e-38
0.032027632 -0.13276742 -0.013055852 2.3509527e-38
0.033983722 -0.13353528 -0.016086629 2.3509527e-38
0.035926528 -0.13353528 -0.016086629 2.3509527e-38
0.03786933 -0.13353528 -0.016086629 2.3509527e-38
0.039858021 -0.13455538 -0.020112922 2.3509527e-38
0.041900247 -0.13633488 -0.027136615 2.3509527e-38
0.043921776 -0.13734378 -0.031118801 2.3509527e-38
0.045940995 -0.1381052 -0.034124069 2.3509527e-38
0.047915425 -0.1381052 -0.034124069 2.3509527e-38
0.049968608 -0.13909473 -0.038029723 2.3509886e-38
0.051949885 -0.13909473 -0.038029723 2.3509886e-38
0.054027267 -0.14012341 -0.042089991 2.3509886e-38
0.056116372 -0.14112701 -0.046051197 2.3418047e-38
0.058111716 -0.14112701 -0.046051197 2.3418047e-38
0.060312361 -0.14292495 -0.053147726 2.350988e-38
0.062440064 -0.14391513 -0.057056002 2.350988e-38
0.064454705 -0.14391513 -0.057056002 2.350988e-38
0.066469342 -0.14391513 -0.057056002 2.332621e-38
0.068483979 -0.14391513 -0.057056002 2.3141466e-38
0.070651919 -0.14494546 -0.061122708 2.3141466e-38
0.072673686 -0.14494546 -0.061122708 2.3233662e-38
0.074527889 -0.14391513 -0.057056002 2.3325856e-38
0.076542526 -0.14391513 -0.057056002 2.341805e-38
0.078557163 -0.14391513 -0.057056002 1.1248586e-38
0.080760762 -0.14494546 -0.061122708 9.0358878e-39
0.082782522 -0.14494546 -0.061122708 9.4968631e-39
-0.070669472 -0.12399365 0.028930971 9.5868924e-39
-0.06880559 -0.12399365 0.028930971 1.0968381e-38
-0.066941723 -0.12399365 0.028930971 1.2904842e-38
-0.065077841 -0.12399365 0.028930971 1.2627891e-38
-0.063213974 -0.12399365 0.028930971 1.0230804e-38
-0.061686847 -0.12502514 0.024887631 1.0046059e-38
-0.059815887 -0.12502514 0.024887631 1.0138257e-38
-0.058179412 -0.12577499 0.021948287 1.0046061e-38
-0.056303296 -0.12577499 0.021948287 7.1879941e-39
-0.05442718 -0.12577499 0.021948287 6.725937e-39
-0.052779797 -0.12655805 0.018878767 6.7255726e-39
-0.050898287 -0.12655805 0.018878767 7.0010735e-39
-0.049016792 -0.12655805 0.018878767 4.6025438e-39
-0.047135297 -0.12655805 0.018878767 5.5237812e-39
-0.042620916 -0.11660783 0.057882495 2.2118995e-38
-0.040807802 -0.11660783 0.057882495 2.3508416e-38
-0.038994689 -0.11660783 0.057882495 2.3507342e-38
-0.037181575 -0.11660783 0.057882495 2.3508072e-38
-0.035368461 -0.11660783 0.057882495 2.3509883e-38
-0.033555355 -0.11660783 0.057882495 2.3142185e-38
-0.031742241 -0.11660783 0.057882495 2.3050708e-38
-0.030146305 -0.11761098 0.053950258 2.341805e-38
-0.028326299 -0.11761098 0.053950258 2.3509886e-38
-0.026661243 -0.11837523 0.050954528 2.3509886e-38
-0.024986554 -0.11914389 0.047941394 2.3509886e-38
-0.023302127 -0.11991702 0.044910856 2.3509886e-38
-0.021466274 -0.11991702 0.044910856 2.3509886e-38
-0.019761827 -0.12066682 0.041971751 2.3509886e-38
-0.01809499 -0.12170117 0.037917204 2.3509886e-38
-0.016246874 -0.12170117 0.037917204 2.3509886e-38
-0.014516249 -0.12246101 0.03493876 2.3509886e-38
-0.01266291 -0.12246101 0.03493876 2.3509886e-38
-0.010917231 -0.12322514 0.031943388 2.3509886e-38
-0.0091616362 -0.12399365 0.028930971 2.3509886e-38
-0.0072977617 -0.12399365 0.028930971 2.3509886e-38
-0.0054338872 -0.12399365 0.028930971 2.3509886e-38
-0.0036869869 -0.12502514 0.024887631 2.3509886e-38
-0.001979325 -0.12655805 0.018878767 2.3509886e-38
-9.7826123e-05 -0.12655805 0.018878767 2.3509886e-38
0.0016888641 -0.12757985 0.014873454 2.3509886e-38
0.0035773851 -0.12757985 0.014873454 2.3509886e-38
0.0054659098 -0.12757985 0.014873454 2.3509886e-38
0.0072992928 -0.1283439 0.011878559 2.3509886e-38
0.0091930665 -0.1283439 0.011878559 2.3509886e-38
0.0110281 -0.12934943 0.0079370234 2.3509886e-38
0.01292878 -0.12934943 0.0079370234 2.3509886e-38
0.01479489 -0.13012333 0.0049033854 2.3509886e-38
0.016672611 -0.13087155 0.0019704793 2.3509886e-38
0.01855208 -0.13189565 -0.0020438936 2.3509886e-38
0.020427084 -0.13369073 -0.0090804603 2.3509886e-38
0.022357604 -0.13369073 -0.0090804603 2.3509886e-38
0.024277668 -0.1347049 -0.013055852 2.3509886e-38
0.02621516 -0.1347049 -0.013055852 2.3509886e-38
0.02815265 -0.1347049 -0.013055852 2.3509527e-38
0.030090142 -0.1347049 -0.013055852 2.3509527e-38
0.032027632 -0.1347049 -0.013055852 2.3509527e-38
0.033983722 -0.13547809 -0.016086629 2.3509527e-38
0.035926528 -0.13547809 -0.016086629 2.3509527e-38
0.03786933 -0.13547809 -0.016086629 2.3509527e-38
0.039812136 -0.13547809 -0.016086629 2.3509527e-38
0.041846633 -0.13725694 -0.023059538 2.3509527e-38
0.043862425 -0.13829704 -0.027136615 2.3509527e-38
0.045940995 -0.14007963 -0.034124069 2.3509527e-38
0.047915425 -0.14007963 -0.034124069 2.3509527e-38
0.049889855 -0.14007963 -0.034124069 2.3509527e-38
0.052038871 -0.14211179 -0.042089991 2.3509886e-38
0.054027267 -0.14211179 -0.042089991 2.3509883e-38
0.056015667 -0.14211179 -0.042089991 2.3418047e-38
0.058111716 -0.14312236 -0.046051197 2.3418047e-38
0.060196333 -0.14390959 -0.049137048 2.3234015e-38
0.062320147 -0.14493273 -0.053147726 2.332621e-38
0.064327933 -0.14493273 -0.053147726 2.3418047e-38
0.066469342 -0.14592977 -0.057056002 2.341805e-38
0.068483979 -0.14592977 -0.057056002 2.341805e-38
0.070651919 -0.14696725 -0.061122708 2.341805e-38
0.072513252 -0.14592977 -0.057056002 2.341805e-38
0.074527889 -0.14592977 -0.057056002 2.341805e-38
0.076542526 -0.14592977 -0.057056002 2.3233662e-38
0.078738987 -0.14696725 -0.061122708 1.2724442e-38
0.080760762 -0.14696725 -0.061122708 9.1277303e-39
-0.070669472 -0.12585752 0.028930971 1.069324e-38
-0.06880559 -0.12585752 0.028930971 1.1705946e-38
-0.066941723 -0.12585752 0.028930971 1.2997038e-38
-0.065077841 -0.12585752 0.028930971 1.24435e-38
-0.063213974 -0.12585752 0.028930971 1.0230804e-38
-0.061686847 -0.1268961 0.024887631 1.0321567e-38
-0.059815887 -0.1268961 0.024887631 9.9527868e-39
-0.058179412 -0.12765111 0.021948287 9.7694745e-39
-0.056303296 -0.12765111 0.021948287 7.6489723e-39
-0.05442718 -0.12765111 0.021948287 7.463502e-39
-0.052779797 -0.12843956 0.018878767 7.0943551e-39
-0.050898287 -0.12843956 0.018878767 7.1854648e-39
-0.049016792 -0.12843956 0.018878767 5.0635219e-39
-0.047135297 -0.12843956 0.018878767 5.1549987e-39
-0.042620916 -0.11842094 0.057882495 1.9721908e-38
-0.040807802 -0.11842094 0.057882495 2.3508416e-38
-0.038994689 -0.11842094 0.057882495 2.3506982e-38
-0.037181575 -0.11842094 0.057882495 2.3507712e-38
-0.035368461 -0.11842094 0.057882495 2.350988e-38
-0.033555355 -0.11842094 0.057882495 2.3234379e-38
-0.031742241 -0.11842094 0.057882495 2.286632e-38
-0.030146305 -0.11943097 0.053950258 2.341805e-38
-0.028326299 -0.11943097 0.053950258 2.3509886e-38
-0.026506294 -0.11943097 0.053950258 2.3509886e-38
-0.024835985 -0.12020047 0.050954528 2.3509886e-38
-0.023156006 -0.12097444 0.047941394 2.3509886e-38
-0.021466274 -0.12175287 0.044910856 2.3509886e-38
-0.019761827 -0.12250783 0.041971751 2.3509886e-38
-0.017920818 -0.12250783 0.041971751 2.3509886e-38
-0.016246874 -0.1235493 0.037917204 2.3509886e-38
-0.014516249 -0.12431435 0.03493876 2.3509886e-38
-0.01266291 -0.12431435 0.03493876 2.3509886e-38
-0.010809571 -0.12431435 0.03493876 2.3509886e-38
-0.0090586394 -0.12508373 0.031943388 2.3509886e-38
-0.0072977617 -0.12585752 0.028930971 2.3509886e-38
-0.0054338872 -0.12585752 0.028930971 2.3509886e-38
-0.0036869869 -0.1268961 0.024887631 2.3509886e-38
-0.001979325 -0.12843956 0.018878767 2.3509886e-38
-9.7826123e-05 -0.12843956 0.018878767 2.3509886e-38
0.0016888641 -0.1294684 0.014873454 2.3509886e-38
0.0035773851 -0.1294684 0.014873454 2.3509886e-38
0.0054659098 -0.1294684 0.014873454 2.3509886e-38
0.0072992928 -0.13023765 0.011878559 2.3509886e-38
0.0091930665 -0.13023765 0.011878559 2.3509886e-38
0.0110281 -0.1312501 0.0079370234 2.3509886e-38
0.01292878 -0.1312501 0.0079370234 2.3509886e-38
0.01479489 -0.13202934 0.0049033854 2.3509886e-38
0.016700894 -0.13202934 0.0049033854 2.3509886e-38
0.01855208 -0.13381381 -0.0020438936 2.3509886e-38
0.020451304 -0.13460748 -0.0051336791 2.3509886e-38
0.022374904 -0.13460748 -0.0051336791 2.3509886e-38
0.024288125 -0.13562126 -0.0090804603 2.3509886e-38
0.026218645 -0.13562126 -0.0090804603 2.3509886e-38
0.02815265 -0.13664238 -0.013055852 2.3509883e-38
0.030090142 -0.13664238 -0.013055852 2.3509883e-38
0.032027632 -0.13664238 -0.013055852 2.3509886e-38
0.033983722 -0.13742088 -0.016086629 2.3509886e-38
0.035926528 -0.13742088 -0.016086629 2.3509886e-38
0.03786933 -0.13742088 -0.016086629 2.3509886e-38
0.039812136 -0.13742088 -0.016086629 2.3509527e-38
0.041807886 -0.13845511 -0.020112922 2.3509527e-38
0.043801665 -0.13921197 -0.023059538 2.341805e-38
0.045890935 -0.1412821 -0.031118801 2.341805e-38
0.047915425 -0.14205404 -0.034124069 2.341805e-38
0.049889855 -0.14205404 -0.034124069 2.341805e-38
0.051949885 -0.14305727 -0.038029723 2.341805e-38
0.054027267 -0.1441002 -0.042089991 2.3418047e-38
0.056015667 -0.1441002 -0.042089991 2.3418047e-38
0.058004063 -0.1441002 -0.042089991 2.3418047e-38
0.06010706 -0.14511769 -0.046051197 2.3234018e-38
0.062197085 -0.14591034 -0.049137048 2.3234018e-38
0.064327933 -0.14694051 -0.053147726 2.341805e-38
0.066469342 -0.14794444 -0.057056002 2.341805e-38
0.068483979 -0.14794444 -0.057056002 2.3509886e-38
0.070498616 -0.14794444 -0.057056002 2.3509886e-38
0.072513252 -0.14794444 -0.057056002 2.3509886e-38
0.074527889 -0.14794444 -0.057056002 2.3417691e-38
0.076542526 -0.14794444 -0.057056002 2.3048554e-38
0.078738987 -0.14898901 -0.061122708 1.6042403e-38
-0.070392177 -0.12694232 0.031943388 1.1338607e-38
-0.068533584 -0.12694232 0.031943388 1.2351315e-38
-0.066674992 -0.12694232 0.031943388 1.2997038e-38
-0.065077841 -0.12772138 0.028930971 1.2166913e-38
-0.063213974 -0.12772138 0.028930971 9.7698263e-39
-0.061350111 -0.12772138 0.028930971 1.0690349e-38
-0.059815887 -0.12876706 0.024887631 9.7683955e-39
-0.058179412 -0.12952723 0.021948287 9.7683955e-39
-0.056303296 -0.12952723 0.021948287 7.8333635e-39
-0.05442718 -0.12952723 0.021948287 7.7404462e-39
-0.052779797 -0.13032107 0.018878767 7.0943551e-39
-0.050898287 -0.13032107 0.018878767 7.2776604e-39
-0.049016792 -0.13032107 0.018878767 5.4333835e-39
-0.047135297 -0.13032107 0.018878767 5.1557176e-39
-0.045253802 -0.13032107 0.018878767 1.5666019e-38
-0.040807802 -0.12023406 0.057882495 2.3503734e-38
-0.038994689 -0.12023406 0.057882495 2.3506622e-38
-0.037181575 -0.12023406 0.057882495 2.3509153e-38
-0.035368461 -0.12023406 0.057882495 2.350988e-38
-0.033555355 -0.12023406 0.057882495 2.3050349e-38
-0.031742241 -0.12023406 0.057882495 2.2958514e-38
-0.029929135 -0.12023406 0.057882495 2.341805e-38
-0.028326299 -0.121251 0.053950258 2.3509886e-38
-0.026506294 -0.121251 0.053950258 2.3509886e-38
-0.024686288 -0.121251 0.053950258 2.3509886e-38
-0.023156006 -0.12280498 0.047941394 2.3509886e-38
-0.021325465 -0.12280498 0.047941394 2.3509886e-38
-0.019630421 -0.12358873 0.044910856 2.3509886e-38
-0.017920818 -0.12434883 0.041971751 2.3509886e-38
-0.016079802 -0.12434883 0.041971751 2.3509886e-38
-0.01439875 -0.1253974 0.037917204 2.3509886e-38
-0.012550633 -0.1253974 0.037917204 2.3509886e-38
-0.010809571 -0.12616767 0.03493876 2.3509886e-38
-0.0090586394 -0.12694232 0.031943388 2.3509886e-38
-0.0072977617 -0.12772138 0.028930971 2.3509886e-38
-0.0054338872 -0.12772138 0.028930971 2.3509886e-38
-0.0036869869 -0.12876706 0.024887631 2.3509886e-38
-0.001979325 -0.13032107 0.018878767 2.3509886e-38
-0.00019965693 -0.13135691 0.014873454 2.3509886e-38
0.0016888641 -0.13135691 0.014873454 2.3509886e-38
0.0035773851 -0.13135691 0.014873454 2.3509886e-38
0.0054659098 -0.13135691 0.014873454 2.3509886e-38
0.0072992928 -0.13213144 0.011878559 2.3509886e-38
0.0091930665 -0.13213144 0.011878559 2.3509886e-38
0.0110281 -0.13315077 0.0079370234 2.3509886e-38
0.01292878 -0.13315077 0.0079370234 2.3509886e-38
0.014829464 -0.13315077 0.0079370234 2.3509886e-38
0.016730148 -0.13315077 0.0079370234 2.3509886e-38
0.018583754 -0.13469382 0.0019704793 2.3509886e-38
0.020451304 -0.13653107 -0.0051336791 2.3509886e-38
0.022374904 -0.13653107 -0.0051336791 2.3509886e-38
0.024288125 -0.1375518 -0.0090804603 2.3509886e-38
0.026218645 -0.1375518 -0.0090804603 2.3509883e-38
0.02815265 -0.13857989 -0.013055852 2.350988e-38
0.030090142 -0.13857989 -0.013055852 2.350988e-38
0.032027632 -0.13857989 -0.013055852 2.350988e-38
0.033965122 -0.13857989 -0.013055852 2.3509883e-38
0.035926528 -0.13936369 -0.016086629 2.3509883e-38
0.03786933 -0.13936369 -0.016086629 2.3509886e-38
0.039812136 -0.13936369 -0.016086629 2.3509886e-38
0.041807886 -0.14040495 -0.020112922 2.3509886e-38
0.043757752 -0.14040495 -0.020112922 2.341805e-38
0.045890935 -0.14325126 -0.031118801 2.341805e-38
0.047860097 -0.14325126 -0.031118801 2.341805e-38
0.049889855 -0.14402847 -0.034124069 2.3418047e-38
0.051949885 -0.14503856 -0.038029723 2.3418047e-38
0.053931162 -0.14503856 -0.038029723 2.3418045e-38
0.056015667 -0.14608859 -0.042089991 2.3418045e-38
0.058004063 -0.14608859 -0.042089991 2.3418047e-38
0.06010706 -0.14711304 -0.046051197 2.341805e-38
0.062197085 -0.14791109 -0.049137048 2.3325856e-38
0.064197838 -0.14791109 -0.049137048 2.3325856e-38
0.066335715 -0.14894833 -0.053147726 2.3325856e-38
0.068483979 -0.14995907 -0.057056002 2.341769e-38
0.070498616 -0.14995907 -0.057056002 2.341769e-38
0.072513252 -0.14995907 -0.057056002 2.3325494e-38
0.074527889 -0.14995907 -0.057056002 2.3233299e-38
0.076542526 -0.14995907 -0.057056002 2.3509527e-38
0.078557163 -0.14995907 -0.057056002 2.0466711e-38
-0.070392177 -0.12880091 0.031943388 1.1154215e-38
-0.068533584 -0.12880091 0.031943388 1.2166924e-38
-0.066674992 -0.12880091 0.031943388 1.2812645e-38
-0.065077841 -0.12958528 0.028930971 1.1890326e-38
-0.063213974 -0.12958528 0.028930971 9.9531385e-39
-0.061350111 -0.12958528 0.028930971 1.0966574e-38
-0.059815887 -0.13063805 0.024887631 9.7683927e-39
-0.058179412 -0.13140334 0.021948287 9.4918059e-39
-0.056303296 -0.13140334 0.021948287 7.6478933e-39
-0.054661293 -0.13220255 0.018878767 7.2794681e-39
-0.052779797 -0.13220255 0.018878767 6.633377e-39
-0.050898287 -0.13220255 0.018878767 7.0014336e-39
-0.049016792 -0.13220255 0.018878767 5.6177747e-39
-0.047135297 -0.13220255 0.018878767 4.786935e-39
-0.045524169 -0.13324542 0.014873454 1.0503064e-38
-0.040606517 -0.12125005 0.060943909 1.9630433e-38
-0.038798768 -0.12125005 0.060943909 2.3505898e-38
-0.037181575 -0.12204717 0.057882495 2.3509151e-38
-0.035368461 -0.12204717 0.057882495 2.3509879e-38
-0.033555355 -0.12204717 0.057882495 2.3233662e-38
-0.031742241 -0.12204717 0.057882495 2.3234379e-38
-0.029929135 -0.12204717 0.057882495 2.341805e-38
-0.028326299 -0.123071 0.053950258 2.3509886e-38
-0.026506294 -0.123071 0.053950258 2.3509886e-38
-0.024686288 -0.123071 0.053950258 2.3509886e-38
-0.02301072 -0.12385099 0.050954528 2.3509886e-38
-0.021325465 -0.12463553 0.047941394 2.3509886e-38
-0.019630421 -0.12542458 0.044910856 2.3509886e-38
-0.017794561 -0.12542458 0.044910856 2.3509886e-38
-0.016079802 -0.12618984 0.041971751 2.3509886e-38
-0.01439875 -0.12724553 0.037917204 2.3509886e-38
-0.012550633 -0.12724553 0.037917204 2.3509886e-38
-0.010702513 -0.12724553 0.037917204 2.3509886e-38
-0.0089562275 -0.12802102 0.03493876 2.3509886e-38
-0.0072000474 -0.12880091 0.031943388 2.3509886e-38
-0.0054338872 -0.12958528 0.028930971 2.3509886e-38
-0.0036869869 -0.13063805 0.024887631 2.3509886e-38
-0.001979325 -0.13220255 0.018878767 2.3509886e-38
-0.00019965693 -0.13324542 0.014873454 2.3509886e-38
0.0016888641 -0.13324542 0.014873454 2.3509886e-38
0.0035773851 -0.13324542 0.014873454 2.3509886e-38
0.0054659098 -0.13324542 0.014873454 2.3509886e-38
0.0072992928 -0.1340252 0.011878559 2.3509886e-38
0.0091930665 -0.1340252 0.011878559 2.3509886e-38
0.0110281 -0.13505147 0.0079370234 2.3509886e-38
0.01292878 -0.13505147 0.0079370234 2.3509886e-38
0.014829464 -0.13505147 0.0079370234 2.3509886e-38
0.016730148 -0.13505147 0.0079370234 2.3509886e-38
0.018606894 -0.13584132 0.0049033854 2.3509886e-38
0.020470265 -0.13765021 -0.0020438936 2.3509886e-38
0.022388447 -0.13765021 -0.0020438936 2.3509886e-38
0.024288125 -0.1394823 -0.0090804603 2.3509886e-38
0.026218645 -0.1394823 -0.0090804603 2.3509883e-38
0.02815265 -0.14051737 -0.013055852 2.3418043e-38
0.030090142 -0.14051737 -0.013055852 2.3418043e-38
0.032027632 -0.14051737 -0.013055852 2.3418043e-38
0.033965122 -0.14051737 -0.013055852 2.3418045e-38
0.035926528 -0.1413065 -0.016086629 2.3418045e-38
0.03786933 -0.1413065 -0.016086629 2.3418047e-38
0.039812136 -0.1413065 -0.016086629 2.3418047e-38
0.041807886 -0.14235483 -0.020112922 2.341805e-38
0.043757752 -0.14235483 -0.020112922 2.341805e-38
0.045824606 -0.14418359 -0.027136615 2.341805e-38
0.047860097 -0.14522041 -0.031118801 2.3418047e-38
0.049968608 -0.14701982 -0.038029723 2.3418047e-38
0.051949885 -0.14701982 -0.038029723 2.3418047e-38
0.053931162 -0.14701982 -0.038029723 2.3418045e-38
0.056015667 -0.148077 -0.042089991 2.3418045e-38
0.058004063 -0.148077 -0.042089991 2.3418047e-38
0.06010706 -0.14910837 -0.046051197 2.3509886e-38
0.062197085 -0.14991184 -0.049137048 2.3509527e-38
0.064197838 -0.14991184 -0.049137048 2.3325497e-38
-0.072250769 -0.13065951 0.031943388 1.013971e-38
-0.070392177 -0.13065951 0.031943388 1.1060941e-38
-0.068533584 -0.13065951 0.031943388 1.1798497e-38
-0.066674992 -0.13065951 0.031943388 1.2443502e-38
-0.065077841 -0.13144915 0.028930971 1.1981442e-38
-0.063213974 -0.13144915 0.028930971 1.0321921e-38
-0.061350111 -0.13144915 0.028930971 1.0782183e-38
-0.059486229 -0.13144915 0.028930971 9.8602282e-39
-0.057944927 -0.13250901 0.024887631 9.4918059e-39
-0.056303296 -0.13327946 0.021948287 7.2791107e-39
-0.054661293 -0.13408406 0.018878767 6.7262943e-39
-0.052779797 -0.13408406 0.018878767 6.2645945e-39
-0.050898287 -0.13408406 0.018878767 7.0014336e-39
-0.049301211 -0.13513394 0.014873454 5.802166e-39
-0.047135297 -0.13408406 0.018878767 5.8010842e-39
-0.045253802 -0.13408406 0.018878767 7.4606055e-39
-0.040606517 -0.1230578 0.060943909 1.6034803e-38
-0.038798768 -0.1230578 0.060943909 2.3507338e-38
-0.037181575 -0.12386028 0.057882495 2.3509149e-38
-0.035368461 -0.12386028 0.057882495 2.3509517e-38
-0.033555355 -0.12386028 0.057882495 2.3234018e-38
-0.031742241 -0.12386028 0.057882495 2.3234379e-38
-0.029929135 -0.12386028 0.057882495 2.341805e-38
-0.028326299 -0.124891 0.053950258 2.3509886e-38
-0.026506294 -0.124891 0.053950258 2.3509886e-38
-0.024686288 -0.124891 0.053950258 2.3509886e-38
-0.02301072 -0.12567626 0.050954528 2.3509886e-38
-0.021325465 -0.12646608 0.047941394 2.3509886e-38
-0.019494925 -0.12646608 0.047941394 2.3509886e-38
-0.017794561 -0.12726043 0.044910856 2.3509886e-38
-0.016079802 -0.12803085 0.041971751 2.3509886e-38
-0.014238797 -0.12803085 0.041971751 2.3509886e-38
-0.012550633 -0.12909363 0.037917204 2.3509886e-38
-0.010702513 -0.12909363 0.037917204 2.3509886e-38
-0.0089562275 -0.12987436 0.03493876 2.3509886e-38
-0.0072000474 -0.13065951 0.031943388 2.3509886e-38
-0.0054338872 -0.13144915 0.028930971 2.3509886e-38
-0.0035700165 -0.13144915 0.028930971 2.3509886e-38
-0.001979325 -0.13408406 0.018878767 2.3509886e-38
-0.00019965693 -0.13513394 0.014873454 2.3509886e-38
0.0016888641 -0.13513394 0.014873454 2.3509886e-38
0.0035773851 -0.13513394 0.014873454 2.3509886e-38
0.0054055229 -0.13591899 0.011878559 2.3509886e-38
0.0072992928 -0.13591899 0.011878559 2.3509886e-38
0.009127412 -0.13695215 0.0079370234 2.3509886e-38
0.0110281 -0.13695215 0.0079370234 2.3509886e-38
0.01292878 -0.13695215 0.0079370234 2.3509886e-38
0.014829464 -0.13695215 0.0079370234 2.3509886e-38
0.016730148 -0.13695215 0.0079370234 2.3509886e-38
0.018606894 -0.13774733 0.0049033854 2.3509886e-38
0.020470265 -0.13956837 -0.0020438936 2.3509886e-38
0.022388447 -0.13956837 -0.0020438936 2.3509886e-38
0.024298504 -0.14037828 -0.0051336791 2.3509886e-38
0.026222104 -0.14037828 -0.0051336791 2.3509883e-38
0.028149165 -0.14141284 -0.0090804603 2.3418043e-38
0.030090142 -0.14245488 -0.013055852 2.3418043e-38
0.032027632 -0.14245488 -0.013055852 2.3418043e-38
0.033965122 -0.14245488 -0.013055852 2.3418043e-38
0.035926528 -0.14324932 -0.016086629 2.3418045e-38
0.03786933 -0.14324932 -0.016086629 2.3418045e-38
0.039812136 -0.14324932 -0.016086629 2.3418047e-38
0.041754939 -0.14324932 -0.016086629 2.3418047e-38
0.043757752 -0.14430468 -0.020112922 2.3418047e-38
0.045824606 -0.14614578 -0.027136615 2.3418047e-38
0.047860097 -0.1471896 -0.031118801 2.3418047e-38
0.049968608 -0.14900111 -0.038029723 2.3418047e-38
0.051949885 -0.14900111 -0.038029723 2.3418047e-38
0.053931162 -0.14900111 -0.038029723 2.3418045e-38
-0.075967953 -0.1325181 0.031943388 1.0416664e-38
-0.074109361 -0.1325181 0.031943388 9.7716494e-39
-0.072250769 -0.1325181 0.031943388 1.0324457e-38
-0.070392177 -0.1325181 0.031943388 1.1614472e-38
-0.068533584 -0.1325181 0.031943388 1.216728e-38
-0.066674992 -0.1325181 0.031943388 1.2351307e-38
-0.0648164 -0.1325181 0.031943388 1.1889247e-38
-0.063213974 -0.13331302 0.028930971 1.0689985e-38
-0.061350111 -0.13331302 0.028930971 1.0781104e-38
-0.059486229 -0.13331302 0.028930971 1.0229009e-38
-0.057944927 -0.13437997 0.024887631 9.952784e-39
-0.056303296 -0.13515557 0.021948287 7.3713064e-39
-0.054661293 -0.13596557 0.018878767 6.6340987e-39
-0.053078253 -0.13702248 0.014873454 6.4489857e-39
-0.051189739 -0.13702248 0.014873454 7.3702162e-39
-0.049301211 -0.13702248 0.014873454 6.1709485e-39
-0.047135297 -0.13596557 0.018878767 6.8152361e-39
-0.045253802 -0.13596557 0.018878767 6.4464536e-39
-0.040606517 -0.12486555 0.060943909 1.3822108e-38
-0.038798768 -0.12486555 0.060943909 2.3509136e-38
-0.036991019 -0.12486555 0.060943909 2.3509504e-38
-0.035183284 -0.12486555 0.060943909 2.3509513e-38
-0.033555355 -0.1256734 0.057882495 2.3509883e-38
-0.031742241 -0.1256734 0.057882495 2.3234018e-38
-0.029929135 -0.1256734 0.057882495 2.3509886e-38
-0.028326299 -0.126711 0.053950258 2.3509886e-38
-0.026506294 -0.126711 0.053950258 2.3509886e-38
-0.024686288 -0.126711 0.053950258 2.3509886e-38
-0.02301072 -0.1275015 0.050954528 2.3509886e-38
-0.021185461 -0.1275015 0.050954528 2.3509886e-38
-0.019494925 -0.1282966 0.047941394 2.3509886e-38
-0.017794561 -0.12909628 0.044910856 2.3509886e-38
-0.016079802 -0.12987186 0.041971751 2.3509886e-38
-0.014238797 -0.12987186 0.041971751 2.3509886e-38
-0.012550633 -0.13094176 0.037917204 2.3509886e-38
-0.010702513 -0.13094176 0.037917204 2.3509886e-38
-0.0089562275 -0.13172771 0.03493876 2.3509886e-38
-0.0072000474 -0.1325181 0.031943388 2.3509886e-38
-0.0054338872 -0.13331302 0.028930971 2.3509886e-38
-0.0035700165 -0.13331302 0.028930971 2.3509886e-38
-0.0018959083 -0.13515557 0.021948287 2.3509886e-38
-0.00019965693 -0.13702248 0.014873454 2.3509886e-38
0.0016888641 -0.13702248 0.014873454 2.3509886e-38
0.0035773851 -0.13702248 0.014873454 2.3509886e-38
0.0054055229 -0.13781275 0.011878559 2.3509886e-38
0.0072992928 -0.13781275 0.011878559 2.3509886e-38
0.009127412 -0.13885282 0.0079370234 2.3509886e-38
0.0110281 -0.13885282 0.0079370234 2.3509886e-38
0.01292878 -0.13885282 0.0079370234 2.3509886e-38
0.014829464 -0.13885282 0.0079370234 2.3509886e-38
0.016730148 -0.13885282 0.0079370234 2.3509886e-38
0.018606894 -0.13965334 0.0049033854 2.3509886e-38
0.020494899 -0.14042725 0.0019704793 2.3509886e-38
0.022388447 -0.14148657 -0.0020438936 2.3509886e-38
0.024298504 -0.14230187 -0.0051336791 2.3509886e-38
0.026222104 -0.14230187 -0.0051336791 2.3509883e-38
0.028149165 -0.14334334 -0.0090804603 2.3418045e-38
0.030090142 -0.14439236 -0.013055852 2.3234374e-38
0.032027632 -0.14439236 -0.013055852 2.3234374e-38
0.033965122 -0.14439236 -0.013055852 2.3234374e-38
0.035902612 -0.14439236 -0.013055852 2.3234376e-38
0.037840106 -0.14439236 -0.013055852 2.3234376e-38
0.039812136 -0.1451921 -0.016086629 2.3418047e-38
0.041754939 -0.1451921 -0.016086629 2.3418047e-38
0.043697745 -0.1451921 -0.016086629 2.341805e-38
0.045824606 -0.14810793 -0.027136615 2.341805e-38
0.047786787 -0.14810793 -0.027136615 2.341805e-38
-0.074109361 -0.13437669 0.031943388 8.7574974e-39
-0.072250769 -0.13437669 0.031943388 1.0692161e-38
-0.070392177 -0.13437669 0.031943388 1.2535709e-38
-0.068533584 -0.13437669 0.031943388 1.2904126e-38
-0.066674992 -0.13437669 0.031943388 1.2626815e-38
-0.0648164 -0.13437669 0.031943388 1.1888531e-38
-0.063213974 -0.13517688 0.028930971 1.0597789e-38
-0.061350111 -0.13517688 0.028930971 1.0688909e-38
-0.059486229 -0.13517688 0.028930971 1.0781104e-38
-0.057944927 -0.13625093 0.024887631 1.0689989e-38
-0.056542788 -0.13784705 0.018878767 7.7404462e-39
-0.054966781 -0.13891099 0.014873454 6.9106855e-39
-0.053078253 -0.13891099 0.014873454 6.9099639e-39
-0.051189739 -0.13891099 0.014873454 7.9233899e-39
-0.049301211 -0.13891099 0.014873454 6.6319266e-39
-0.047412697 -0.13891099 0.014873454 6.354258e-39
-0.045524169 -0.13891099 0.014873454 5.4323017e-39
-0.04363564 -0.13891099 0.014873454 1.1887078e-38
-0.038798768 -0.1266733 0.060943909 2.3508417e-38
-0.036991019 -0.1266733 0.060943909 2.3507345e-38
-0.035183284 -0.1266733 0.060943909 2.3508791e-38
-0.033555355 -0.12748651 0.057882495 2.350988e-38
-0.031742241 -0.12748651 0.057882495 2.332621e-38
-0.029929135 -0.12748651 0.057882495 2.3509886e-38
-0.028326299 -0.12853102 0.053950258 2.3509886e-38
-0.026506294 -0.12853102 0.053950258 2.3509886e-38
-0.024686288 -0.12853102 0.053950258 2.3509886e-38
-0.02301072 -0.12932678 0.050954528 2.3509886e-38
-0.021185461 -0.12932678 0.050954528 2.3509886e-38
-0.019494925 -0.13012715 0.047941394 2.3509886e-38
-0.017794561 -0.13093217 0.044910856 2.3509886e-38
-0.016079802 -0.13171287 0.041971751 2.3509886e-38
-0.014238797 -0.13171287 0.041971751 2.3509886e-38
-0.012397788 -0.13171287 0.041971751 2.3509886e-38
-0.010702513 -0.13278987 0.037917204 2.3509886e-38
-0.0089562275 -0.13358103 0.03493876 2.3509886e-38
-0.0072000474 -0.13437669 0.031943388 2.3509886e-38
-0.0053414553 -0.13437669 0.031943388 2.3509886e-38
-0.0035700165 -0.13517688 0.028930971 2.3509886e-38
-0.0018959083 -0.13703169 0.021948287 2.3509886e-38
-9.7826123e-05 -0.13784705 0.018878767 2.3509886e-38
0.0017836727 -0.13784705 0.018878767 2.3509886e-38
0.0035773851 -0.13891099 0.014873454 2.3509886e-38
0.0054659098 -0.13891099 0.014873454 2.3509886e-38
0.0072992928 -0.13970654 0.011878559 2.3509886e-38
0.009127412 -0.14075352 0.0079370234 2.3509886e-38
0.0110281 -0.14075352 0.0079370234 2.3509886e-38
0.01292878 -0.14075352 0.0079370234 2.3509886e-38
0.014829464 -0.14075352 0.0079370234 2.3509886e-38
0.016730148 -0.14075352 0.0079370234 2.3509886e-38
0.018606894 -0.14155935 0.0049033854 2.3509886e-38
0.020494899 -0.14233841 0.0019704793 2.3509886e-38
0.022406043 -0.14233841 0.0019704793 2.3509886e-38
0.024306631 -0.14340474 -0.0020438936 2.3509886e-38
0.026224814 -0.14340474 -0.0020438936 2.341805e-38
0.028145706 -0.14422549 -0.0051336791 2.3418047e-38
0.030079685 -0.14527388 -0.0090804603 2.3234376e-38
0.032027632 -0.14632986 -0.013055852 2.3234376e-38
0.033965122 -0.14632986 -0.013055852 2.3234376e-38
0.035902612 -0.14632986 -0.013055852 2.3234376e-38
0.037840106 -0.14632986 -0.013055852 2.3234376e-38
0.039812136 -0.14713491 -0.016086629 2.3418047e-38
0.041754939 -0.14713491 -0.016086629 2.3418047e-38
0.043697745 -0.14713491 -0.016086629 2.341805e-38
0.045756698 -0.14898713 -0.023059538 2.341805e-38
0.047711726 -0.14898713 -0.023059538 2.341805e-38
-0.074109361 -0.13623528 0.031943388 8.9418859e-39
-0.072250769 -0.13623528 0.031943388 1.0415574e-38
-0.070392177 -0.13623528 0.031943388 1.336547e-38
-0.068533584 -0.13623528 0.031943388 1.3733887e-38
-0.066941723 -0.13704078 0.028930971 1.2165836e-38
-0.065077841 -0.13704078 0.028930971 1.1427553e-38
-0.063213974 -0.13704078 0.028930971 1.0136091e-38
-0.061350111 -0.13704078 0.028930971 1.0411959e-38
-0.059486229 -0.13704078 0.028930971 1.1149524e-38
-0.057944927 -0.13812189 0.024887631 1.0413401e-38
-0.056542788 -0.13972856 0.018878767 8.4772924e-39
-0.054966781 -0.14079951 0.014873454 7.0028812e-39
-0.053078253 -0.14079951 0.014873454 7.0025154e-39
-0.051189739 -0.14079951 0.014873454 7.1858249e-39
-0.04951388 -0.1416003 0.011878559 6.9085135e-39
-0.047412697 -0.14079951 0.014873454 6.9074317e-39
-0.045524169 -0.14079951 0.014873454 3.5884003e-39
-0.04363564 -0.14079951 0.014873454 8.0148611e-39
-0.038798768 -0.12848105 0.060943909 2.3507693e-38
-0.036991019 -0.12848105 0.060943909 2.3509143e-38
-0.035183284 -0.12848105 0.060943909 2.3509869e-38
-0.033555355 -0.1292996 0.057882495 2.3509874e-38
-0.031742241 -0.1292996 0.057882495 2.2957065e-38
-0.029929135 -0.1292996 0.057882495 2.3509883e-38
-0.028116021 -0.1292996 0.057882495 2.3509886e-38
-0.026506294 -0.13035102 0.053950258 2.3509886e-38
-0.024686288 -0.13035102 0.053950258 2.3509886e-38
-0.022866283 -0.13035102 0.053950258 2.3509886e-38
-0.021185461 -0.13115202 0.050954528 2.3509886e-38
-0.019494925 -0.13195769 0.047941394 2.3509886e-38
-0.017794561 -0.13276802 0.044910856 2.3509886e-38
-0.016079802 -0.13355388 0.041971751 2.3509886e-38
-0.014238797 -0.13355388 0.041971751 2.3509886e-38
-0.012397788 -0.13355388 0.041971751 2.3509886e-38
-0.010702513 -0.134638 0.037917204 2.3509886e-38
-0.0088543966 -0.134638 0.037917204 2.3509886e-38
-0.0072000474 -0.13623528 0.031943388 2.3509886e-38
-0.0053414553 -0.13623528 0.031943388 2.3509886e-38
-0.0035700165 -0.13704078 0.028930971 2.3509886e-38
-0.0018160231 -0.13812189 0.024887631 2.3509886e-38
-1.9788742e-05 -0.13890781 0.021948287 2.3509886e-38
0.0017836727 -0.13972856 0.018878767 2.3509886e-38
0.0036651716 -0.13972856 0.018878767 2.3509886e-38
0.0054659098 -0.14079951 0.014873454 2.3509886e-38
0.0072992928 -0.1416003 0.011878559 2.3509886e-38
0.009127412 -0.1426542 0.0079370234 2.3509886e-38
0.0110281 -0.1426542 0.0079370234 2.3509886e-38
0.01292878 -0.1426542 0.0079370234 2.3325494e-38
0.014829464 -0.1426542 0.0079370234 2.3509886e-38
0.016730148 -0.1426542 0.0079370234 2.3509886e-38
0.018606894 -0.14346536 0.0049033854 2.3509886e-38
0.020494899 -0.14424954 0.0019704793 2.3509886e-38
0.022406043 -0.14424954 0.0019704793 2.341769e-38
0.024306631 -0.14532293 -0.0020438936 2.3509886e-38
0.026224814 -0.14532293 -0.0020438936 2.341805e-38
0.028145706 -0.14614908 -0.0051336791 2.341805e-38
0.030069306 -0.14614908 -0.0051336791 2.3234379e-38
0.032010205 -0.14720438 -0.0090804603 2.3142542e-38
0.033940725 -0.14720438 -0.0090804603 2.3234379e-38
0.035902612 -0.14826734 -0.013055852 2.341805e-38
0.037840106 -0.14826734 -0.013055852 2.3326213e-38
0.039812136 -0.14907773 -0.016086629 2.2865235e-38
0.041754939 -0.14907773 -0.016086629 2.341805e-38
0.043697745 -0.14907773 -0.016086629 2.3509886e-38
-0.074397221 -0.13890465 0.028930971 9.4943408e-39
-0.072250769 -0.13809387 0.031943388 1.0784354e-38
-0.070392177 -0.13809387 0.031943388 1.3642057e-38
-0.068533584 -0.13809387 0.031943388 1.3733887e-38
-0.066941723 -0.13890465 0.028930971 1.1981445e-38
-0.065077841 -0.13890465 0.028930971 1.1243161e-38
-0.063213974 -0.13890465 0.028930971 9.9516994e-39
-0.061350111 -0.13890465 0.028930971 1.041124e-38
-0.059486229 -0.13890465 0.028930971 1.0965132e-38
-0.057944927 -0.13999285 0.024887631 1.0320126e-38
-0.056542788 -0.14161004 0.018878767 8.2007055e-39
-0.054966781 -0.14268802 0.014873454 6.7262915e-39
-0.053078253 -0.14268802 0.014873454 6.6337329e-39
-0.051189739 -0.14268802 0.014873454 6.6326511e-39
-0.04951388 -0.14349405 0.011878559 6.1713086e-39
-0.047620106 -0.14349405 0.011878559 6.1709457e-39
-0.045524169 -0.14268802 0.014873454 3.2199821e-39
-0.04363564 -0.14268802 0.014873454 5.9865544e-39
-0.038798768 -0.13028879 0.060943909 2.2121154e-38
-0.036991019 -0.13028879 0.060943909 2.35077e-38
-0.035368461 -0.13111271 0.057882495 2.3508787e-38
-0.033555355 -0.13111271 0.057882495 2.3509873e-38
-0.031742241 -0.13111271 0.057882495 2.3509879e-38
-0.029929135 -0.13111271 0.057882495 2.3509883e-38
-0.028116021 -0.13111271 0.057882495 2.3509886e-38
-0.026302908 -0.13111271 0.057882495 2.3509886e-38
-0.024686288 -0.13217102 0.053950258 2.3509886e-38
-0.022866283 -0.13217102 0.053950258 2.3509886e-38
-0.021185461 -0.13297729 0.050954528 2.3509886e-38
-0.019494925 -0.13378824 0.047941394 2.3509886e-38
-0.017794561 -0.13460387 0.044910856 2.3509886e-38
-0.016079802 -0.13539489 0.041971751 2.3509886e-38
-0.014238797 -0.13539489 0.041971751 2.3509886e-38
-0.012397788 -0.13539489 0.041971751 2.3509886e-38
-0.01055678 -0.13539489 0.041971751 2.3509886e-38
-0.0088543966 -0.13648613 0.037917204 2.3509886e-38
-0.0071028881 -0.13728772 0.03493876 2.3509886e-38
-0.0053414553 -0.13809387 0.031943388 2.3509886e-38
-0.0035700165 -0.13890465 0.028930971 2.3509886e-38
-0.0018160231 -0.13999285 0.024887631 2.3509886e-38
-1.9788742e-05 -0.14078392 0.021948287 2.3509886e-38
0.0017836727 -0.14161004 0.018878767 2.3509886e-38
0.0036651716 -0.14161004 0.018878767 2.3509886e-38
0.0054659098 -0.14268802 0.014873454 2.3509886e-38
0.0072992928 -0.14349405 0.011878559 2.3509886e-38
0.0091930665 -0.14349405 0.011878559 2.3509886e-38
0.0110281 -0.14455487 0.0079370234 2.3509886e-38
0.01292878 -0.14455487 0.0079370234 2.341769e-38
0.014829464 -0.14455487 0.0079370234 2.3509886e-38
0.016730148 -0.14455487 0.0079370234 2.3509886e-38
0.018630831 -0.14455487 0.0079370234 2.3509886e-38
0.020512898 -0.14537133 0.0049033854 2.341769e-38
0.022406043 -0.14616071 0.0019704793 2.3325494e-38
0.024306631 -0.1472411 -0.0020438936 2.341769e-38
0.026224814 -0.1472411 -0.0020438936 2.3509886e-38
0.028142996 -0.1472411 -0.0020438936 2.2957078e-38
0.030069306 -0.14807267 -0.0051336791 2.3050349e-38
0.032010205 -0.14913492 -0.0090804603 2.2865958e-38
0.033940725 -0.14913492 -0.0090804603 2.2957075e-38
-0.074397221 -0.14076851 0.028930971 9.7712836e-39
-0.072250769 -0.13995247 0.031943388 1.0692158e-38
-0.070392177 -0.13995247 0.031943388 1.3457663e-38
-0.068533584 -0.13995247 0.031943388 1.3549495e-38
-0.066941723 -0.14076851 0.028930971 1.1797054e-38
-0.065077841 -0.14076851 0.028930971 1.1427553e-38
-0.063213974 -0.14076851 0.028930971 1.0597069e-38
-0.061350111 -0.14076851 0.028930971 1.1241356e-38
-0.059486229 -0.14076851 0.028930971 1.1610139e-38
-0.057944927 -0.14186381 0.024887631 1.0780741e-38
-0.056303296 -0.14266007 0.021948287 8.6616808e-39
-0.054966781 -0.14457656 0.014873454 7.095074e-39
-0.053078253 -0.14457656 0.014873454 6.7259285e-39
-0.051189739 -0.14457656 0.014873454 6.4482599e-39
-0.04951388 -0.14538784 0.011878559 5.8947217e-39
-0.047620106 -0.14538784 0.011878559 6.8163151e-39
-0.045726333 -0.14538784 0.011878559 5.0638751e-39
-0.043832559 -0.14538784 0.011878559 6.0787501e-39
