# .PCD v0.7 - Point Cloud Data file format
VERSION 0.7
FIELDS x y z rgb
SIZE 4 4 4 4
TYPE F F F F
COUNT 1 1 1 1
WIDTH 937
HEIGHT 1
VIEWPOINT 0 0 0 1 0 0 0
POINTS 937
DATA ascii
0.01506957 -0.10370506 -0.011641546 2.3509886e-38
0.01698315 -0.1043932 -0.014672323 2.3509886e-38
0.018925954 -0.1043932 -0.014672323 2.3509886e-38
0.020851109 -0.10530742 -0.018698618 2.3509886e-38
0.022793224 -0.10597645 -0.021645233 2.3509886e-38
0.024748255 -0.10597645 -0.021645233 2.3509886e-38
0.026703287 -0.10597645 -0.021645233 2.3509886e-38
0.028669039 -0.1069022 -0.02572231 2.3509886e-38
0.030648673 -0.10780637 -0.029704496 2.3509886e-38
0.032617837 -0.10780637 -0.029704496 2.3509886e-38
0.034641523 -0.10937552 -0.036615416 2.3509886e-38
0.0366228 -0.10937552 -0.036615416 2.3509886e-38
0.038604081 -0.10937552 -0.036615416 2.3509886e-38
0.040638752 -0.11029746 -0.040675685 2.3509886e-38
0.042627148 -0.11029746 -0.040675685 2.3509886e-38
0.044681527 -0.11119686 -0.04463689 2.3509886e-38
0.046733677 -0.11189754 -0.047722742 2.3509886e-38
0.048815303 -0.11280818 -0.051733419 2.3509886e-38
0.050823085 -0.11280818 -0.051733419 2.3509886e-38
0.052923381 -0.11369558 -0.055641696 2.3509886e-38
0.054938018 -0.11369558 -0.055641696 2.3509886e-38
0.057063174 -0.11461894 -0.059708402 2.3509883e-38
0.059084944 -0.11461894 -0.059708402 2.3418045e-38
0.061106712 -0.11461894 -0.059708402 2.3418047e-38
0.063128479 -0.11461894 -0.059708402 2.341805e-38
0.065285742 -0.11551876 -0.063671395 2.3234379e-38
0.067457885 -0.11642478 -0.067661688 2.3050703e-38
0.069493592 -0.11642478 -0.067661688 1.3554553e-38
0.071529306 -0.11642478 -0.067661688 7.8377216e-39
0.074059531 -0.11914985 -0.079663321 7.5614864e-39
0.076116279 -0.11914985 -0.079663321 7.2848715e-39
-0.067867905 -0.094660893 0.036353067 1.1063335e-39
-0.066014573 -0.094660893 0.036353067 5.5320783e-39
-0.064161226 -0.094660893 0.036353067 1.1892848e-38
-0.062307894 -0.094660893 0.036353067 1.19836e-38
-0.060698763 -0.095346272 0.033357695 9.953863e-39
-0.058840171 -0.095346272 0.033357695 9.5815058e-39
-0.056747869 -0.094660893 0.036353067 6.354286e-39
-0.054667369 -0.093979403 0.039331511 5.7092305e-39
-0.052819252 -0.093979403 0.039331511 1.0319715e-38
-0.050676107 -0.093051672 0.043386057 1.852442e-38
-0.048626393 -0.092379183 0.046325162 2.3508774e-38
-0.046580642 -0.091685757 0.049355701 2.3507733e-38
-0.044750109 -0.091685757 0.049355701 2.3508092e-38
-0.042919561 -0.091685757 0.049355701 2.3509168e-38
-0.041089028 -0.091685757 0.049355701 2.3509883e-38
-0.03925848 -0.091685757 0.049355701 2.3509886e-38
-0.037611261 -0.092379183 0.046325162 2.3509886e-38
-0.035775401 -0.092379183 0.046325162 2.350988e-38
-0.034107022 -0.093051672 0.043386057 2.350988e-38
-0.032266013 -0.093051672 0.043386057 2.3509883e-38
-0.030641824 -0.093979403 0.039331511 2.3509886e-38
-0.028793707 -0.093979403 0.039331511 2.3509886e-38
-0.026945591 -0.093979403 0.039331511 2.3509886e-38
-0.025241084 -0.094660893 0.036353067 2.3509886e-38
-0.023526922 -0.095346272 0.033357695 2.3509886e-38
-0.021803014 -0.09603554 0.030345276 2.3509886e-38
-0.019939139 -0.09603554 0.030345276 2.3509886e-38
-0.018241867 -0.096960694 0.026301935 2.3509886e-38
-0.0163709 -0.096960694 0.026301935 2.3509886e-38
-0.014610741 -0.097633243 0.023362592 2.3509886e-38
-0.012844954 -0.098335579 0.020293072 2.3509886e-38
-0.010963455 -0.098335579 0.020293072 2.3509886e-38
-0.009081956 -0.098335579 0.020293072 2.3509886e-38
-0.0073233545 -0.099252045 0.016287759 2.3509886e-38
-0.0055214763 -0.099937305 0.013292865 2.3509886e-38
-0.0036277026 -0.099937305 0.013292865 2.3509886e-38
-0.0019112602 -0.10153329 0.0063176909 2.3509886e-38
-7.4680895e-05 -0.10220437 0.0033847848 2.3509886e-38
0.0018364638 -0.10220437 0.0033847848 2.3509886e-38
0.0036666654 -0.1031229 -0.00062958803 2.3509886e-38
0.0055279657 -0.10382988 -0.0037193736 2.3509886e-38
0.0073858276 -0.10473295 -0.0076661548 2.3509886e-38
0.0093163475 -0.10473295 -0.0076661548 2.3509886e-38
0.01119459 -0.10564254 -0.011641546 2.3509886e-38
0.01313208 -0.10564254 -0.011641546 2.3509886e-38
0.01506957 -0.10564254 -0.011641546 2.3509886e-38
0.01698315 -0.10633601 -0.014672323 2.3509886e-38
0.018925954 -0.10633601 -0.014672323 2.3509886e-38
0.02086876 -0.10633601 -0.014672323 2.3509886e-38
0.022800975 -0.10725726 -0.018698618 2.3509886e-38
0.024748255 -0.10793148 -0.021645233 2.3509886e-38
0.026703287 -0.10793148 -0.021645233 2.3509886e-38
0.028669039 -0.10886435 -0.02572231 2.3509886e-38
0.030648673 -0.10977553 -0.029704496 2.3509886e-38
0.032617837 -0.10977553 -0.029704496 2.3509886e-38
0.034641523 -0.11135681 -0.036615416 2.3509886e-38
0.0366228 -0.11135681 -0.036615416 2.3509886e-38
0.038604081 -0.11135681 -0.036615416 2.3509886e-38
0.040638752 -0.11228584 -0.040675685 2.3509886e-38
0.042627148 -0.11228584 -0.040675685 2.3509886e-38
0.044681527 -0.11319222 -0.04463689 2.3509886e-38
0.046676867 -0.11319222 -0.04463689 2.3509886e-38
0.048815303 -0.11481597 -0.051733419 2.3509886e-38
0.050823085 -0.11481597 -0.051733419 2.3509886e-38
0.052923381 -0.11571021 -0.055641696 2.3509886e-38
0.054938018 -0.11571021 -0.055641696 2.3509886e-38
0.057063174 -0.11664073 -0.059708402 2.350988e-38
0.059084944 -0.11664073 -0.059708402 2.3509873e-38
0.061106712 -0.11664073 -0.059708402 2.2496439e-38
0.063257024 -0.1175475 -0.063671395 2.3325492e-38
0.06542217 -0.11846052 -0.067661688 2.341805e-38
0.067457885 -0.11846052 -0.067661688 2.2957425e-38
0.069493592 -0.11846052 -0.067661688 1.7056908e-38
0.071529306 -0.11846052 -0.067661688 1.0418473e-38
0.074059531 -0.1212066 -0.079663321 7.2838177e-39
-0.069721252 -0.09651424 0.036353067 9.1835496e-41
-0.067867905 -0.09651424 0.036353067 2.489268e-39
-0.066014573 -0.09651424 0.036353067 6.4540318e-39
-0.064161226 -0.09651424 0.036353067 1.1800652e-38
-0.062307894 -0.09651424 0.036353067 1.1246035e-38
-0.060698763 -0.097204864 0.033357695 1.0046061e-38
-0.058840171 -0.097204864 0.033357695 9.85845e-39
-0.056747869 -0.09651424 0.036353067 7.3684351e-39
-0.054667369 -0.09582752 0.039331511 6.4464396e-39
-0.052819252 -0.09582752 0.039331511 6.7237285e-39
-0.050462246 -0.094215035 0.046325162 1.5297576e-38
-0.048411191 -0.093516305 0.049355701 2.3506614e-38
-0.046580642 -0.093516305 0.049355701 2.3508086e-38
-0.044546708 -0.092821583 0.052368835 2.3508092e-38
-0.04272145 -0.092821583 0.052368835 2.3509165e-38
-0.041089028 -0.093516305 0.049355701 2.3509883e-38
-0.03925848 -0.093516305 0.049355701 2.3509886e-38
-0.037427932 -0.093516305 0.049355701 2.3509886e-38
-0.035775401 -0.094215035 0.046325162 2.350988e-38
-0.034107022 -0.094892681 0.043386057 2.350988e-38
-0.032266013 -0.094892681 0.043386057 2.3509883e-38
-0.030641824 -0.09582752 0.039331511 2.3509886e-38
-0.028793707 -0.09582752 0.039331511 2.3509886e-38
-0.026945591 -0.09582752 0.039331511 2.3509886e-38
-0.025241084 -0.09651424 0.036353067 2.3509886e-38
-0.023526922 -0.097204864 0.033357695 2.3509886e-38
-0.021803014 -0.097899407 0.030345276 2.3509886e-38
-0.019939139 -0.097899407 0.030345276 2.3509886e-38
-0.018075265 -0.097899407 0.030345276 2.3509886e-38
-0.0163709 -0.098831654 0.026301935 2.3509886e-38
-0.014610741 -0.099509358 0.023362592 2.3509886e-38
-0.012844954 -0.10021709 0.020293072 2.3509886e-38
-0.010963455 -0.10021709 0.020293072 2.3509886e-38
-0.009081956 -0.10021709 0.020293072 2.3509886e-38
-0.0072004572 -0.10021709 0.020293072 2.3509886e-38
-0.0054348335 -0.10114056 0.016287759 2.3509886e-38
-0.0036277026 -0.10183108 0.013292865 2.3509886e-38
-0.0019112602 -0.10343929 0.0063176909 2.3509886e-38
-7.4680895e-05 -0.1041155 0.0033847848 2.3509886e-38
0.0018364638 -0.1041155 0.0033847848 2.3509886e-38
0.0036666654 -0.10504107 -0.00062958803 2.3509886e-38
0.0055848472 -0.10504107 -0.00062958803 2.3509886e-38
0.0073858276 -0.10666345 -0.0076661548 2.3509886e-38
0.0093163475 -0.10666345 -0.0076661548 2.3509886e-38
0.01119459 -0.10758002 -0.011641546 2.3509886e-38
0.01313208 -0.10758002 -0.011641546 2.3509886e-38
0.01506957 -0.10758002 -0.011641546 2.3509886e-38
0.01698315 -0.10827883 -0.014672323 2.3509886e-38
0.018925954 -0.10827883 -0.014672323 2.3509886e-38
0.02086876 -0.10827883 -0.014672323 2.3509886e-38
0.022800975 -0.10920714 -0.018698618 2.3509886e-38
0.024748255 -0.10988651 -0.021645233 2.3509886e-38
0.026703287 -0.10988651 -0.021645233 2.3509886e-38
0.028669039 -0.11082654 -0.02572231 2.3509886e-38
0.030648673 -0.11174469 -0.029704496 2.3509886e-38
0.032636277 -0.11243759 -0.032709762 2.3509886e-38
0.034641523 -0.1133381 -0.036615416 2.3509886e-38
0.0366228 -0.1133381 -0.036615416 2.3509886e-38
0.038604081 -0.1133381 -0.036615416 2.3509886e-38
0.040638752 -0.11427425 -0.040675685 2.3509886e-38
0.042627148 -0.11427425 -0.040675685 2.3509886e-38
0.044615544 -0.11427425 -0.040675685 2.3509886e-38
0.046676867 -0.11518754 -0.04463689 2.3509886e-38
0.04867221 -0.11518754 -0.04463689 2.3509886e-38
0.050823085 -0.11682375 -0.051733419 2.3509886e-38
0.052830871 -0.11682375 -0.051733419 2.3509886e-38
0.054938018 -0.11772485 -0.055641696 2.3509886e-38
0.056952655 -0.11772485 -0.055641696 2.3509879e-38
0.058967292 -0.11772485 -0.055641696 2.350986e-38
0.061106712 -0.11866249 -0.059708402 2.1112411e-38
0.063257024 -0.1195762 -0.063671395 2.2219487e-38
0.065285742 -0.1195762 -0.063671395 2.3509873e-38
0.067314461 -0.1195762 -0.063671395 2.2957064e-38
0.069343179 -0.1195762 -0.063671395 2.0836565e-38
0.071371891 -0.1195762 -0.063671395 1.392154e-38
-0.069721252 -0.098367572 0.036353067 3.5873241e-43
-0.067867905 -0.098367572 0.036353067 4.1495082e-39
-0.066014573 -0.098367572 0.036353067 7.3759881e-39
-0.064161226 -0.098367572 0.036353067 1.1524066e-38
-0.062307894 -0.098367572 0.036353067 1.078506e-38
-0.060454547 -0.098367572 0.036353067 1.0414844e-38
-0.058601215 -0.098367572 0.036353067 1.0135034e-38
-0.056747869 -0.098367572 0.036353067 7.7372148e-39
-0.054667369 -0.097675636 0.039331511 6.9996162e-39
-0.052298099 -0.096050888 0.046325162 5.2486138e-39
-0.050462246 -0.096050888 0.046325162 1.3084525e-38
-0.048411191 -0.095346853 0.049355701 2.3505533e-38
-0.046580642 -0.095346853 0.049355701 2.3508441e-38
-0.044546708 -0.094646841 0.052368835 2.3508451e-38
-0.04272145 -0.094646841 0.052368835 2.3509521e-38
-0.040896192 -0.094646841 0.052368835 2.350988e-38
-0.03925848 -0.095346853 0.049355701 2.3509886e-38
-0.037427932 -0.095346853 0.049355701 2.3509886e-38
-0.035775401 -0.096050888 0.046325162 2.3509883e-38
-0.03393954 -0.096050888 0.046325162 2.350988e-38
-0.032266013 -0.096733689 0.043386057 2.3509883e-38
-0.030425005 -0.096733689 0.043386057 2.3509886e-38
-0.028583996 -0.096733689 0.043386057 2.3509886e-38
-0.026945591 -0.097675636 0.039331511 2.3509886e-38
-0.025097474 -0.097675636 0.039331511 2.3509886e-38
-0.023387745 -0.098367572 0.036353067 2.3509886e-38
-0.02166833 -0.099063456 0.033357695 2.3509886e-38
-0.019939139 -0.099763289 0.030345276 2.3509886e-38
-0.018075265 -0.099763289 0.030345276 2.3509886e-38
-0.0163709 -0.10070263 0.026301935 2.3509886e-38
-0.014610741 -0.10138547 0.023362592 2.3509886e-38
-0.012734625 -0.10138547 0.023362592 2.3509886e-38
-0.01085851 -0.10138547 0.023362592 2.3509886e-38
-0.0089823902 -0.10138547 0.023362592 2.3509886e-38
-0.0072004572 -0.10209858 0.020293072 2.3509886e-38
-0.0054348335 -0.10302909 0.016287759 2.3509886e-38
-0.0036277026 -0.10372485 0.013292865 2.3509886e-38
-0.0019112602 -0.10534529 0.0063176909 2.3509886e-38
-7.4680895e-05 -0.10602666 0.0033847848 2.3509886e-38
0.0018364638 -0.10602666 0.0033847848 2.3509886e-38
0.0036666654 -0.10695927 -0.00062958803 2.3509886e-38
0.0055848472 -0.10695927 -0.00062958803 2.3509886e-38
0.0074515641 -0.10767709 -0.0037193736 2.3509886e-38
0.0093751661 -0.10767709 -0.0037193736 2.3509886e-38
0.011246867 -0.10859399 -0.0076661548 2.3509886e-38
0.01313208 -0.10951753 -0.011641546 2.3509886e-38
0.01506957 -0.10951753 -0.011641546 2.3509886e-38
0.01698315 -0.11022164 -0.014672323 2.3509886e-38
0.018925954 -0.11022164 -0.014672323 2.3509886e-38
0.02086876 -0.11022164 -0.014672323 2.3509886e-38
0.022800975 -0.11115701 -0.018698618 2.3509886e-38
0.024750838 -0.11115701 -0.018698618 2.3509886e-38
0.026703287 -0.11184154 -0.021645233 2.3509886e-38
0.028669039 -0.11278872 -0.02572231 2.3509886e-38
0.030648673 -0.11371385 -0.029704496 2.3509886e-38
0.032636277 -0.11441202 -0.032709762 2.3509886e-38
0.034641523 -0.11531936 -0.036615416 2.3509886e-38
0.0366228 -0.11531936 -0.036615416 2.3509886e-38
0.038604081 -0.11531936 -0.036615416 2.3509886e-38
0.040585358 -0.11531936 -0.036615416 2.3509886e-38
0.042566635 -0.11531936 -0.036615416 2.3509886e-38
0.044615544 -0.11626263 -0.040675685 2.3509886e-38
0.04660394 -0.11626263 -0.040675685 2.3509886e-38
0.04859234 -0.11626263 -0.040675685 2.3509886e-38
0.050667554 -0.1171829 -0.04463689 2.3509886e-38
0.05273594 -0.11789979 -0.047722742 2.3509886e-38
0.054838657 -0.11883153 -0.051733419 2.3509886e-38
0.056952655 -0.11973949 -0.055641696 2.3509873e-38
0.058967292 -0.11973949 -0.055641696 2.3509853e-38
0.060981929 -0.11973949 -0.055641696 2.0927281e-38
0.063128479 -0.12068425 -0.059708402 2.1665574e-38
0.065285742 -0.12160493 -0.063671395 2.3508779e-38
0.067314461 -0.12160493 -0.063671395 2.3509153e-38
0.069343179 -0.12160493 -0.063671395 2.3509161e-38
0.071371891 -0.12160493 -0.063671395 1.714802e-38
-0.069991723 -0.10092205 0.033357695 3.5873241e-43
-0.068133131 -0.10092205 0.033357695 6.1778093e-39
-0.066274539 -0.10092205 0.033357695 8.4823329e-39
-0.064161226 -0.10022092 0.036353067 1.1524066e-38
-0.062307894 -0.10022092 0.036353067 1.0969453e-38
-0.060454547 -0.10022092 0.036353067 1.0875822e-38
-0.058601215 -0.10022092 0.036353067 1.0135387e-38
-0.056747869 -0.10022092 0.036353067 7.7375707e-39
-0.054667369 -0.099523753 0.039331511 6.9074233e-39
-0.052298099 -0.097886756 0.046325162 4.9716724e-39
-0.050462246 -0.097886756 0.046325162 1.0964031e-38
-0.048411191 -0.097177386 0.049355701 2.3505891e-38
-0.046371967 -0.096472099 0.052368835 2.3508435e-38
-0.044546708 -0.096472099 0.052368835 2.3508804e-38
-0.04272145 -0.096472099 0.052368835 2.350952e-38
-0.040896192 -0.096472099 0.052368835 2.350988e-38
-0.039070934 -0.096472099 0.052368835 2.3509886e-38
-0.037427932 -0.097177386 0.049355701 2.3509886e-38
-0.035597399 -0.097177386 0.049355701 2.3509883e-38
-0.03393954 -0.097886756 0.046325162 2.3509883e-38
-0.032103688 -0.097886756 0.046325162 2.3509886e-38
-0.030425005 -0.098574698 0.043386057 2.3509886e-38
-0.028583996 -0.098574698 0.043386057 2.3509886e-38
-0.026742987 -0.098574698 0.043386057 2.3509886e-38
-0.025097474 -0.099523753 0.039331511 2.3509886e-38
-0.023387745 -0.10022092 0.036353067 2.3509886e-38
-0.02166833 -0.10092205 0.033357695 2.3509886e-38
-0.019939139 -0.10162716 0.030345276 2.3509886e-38
-0.018075265 -0.10162716 0.030345276 2.3509886e-38
-0.0163709 -0.10257359 0.026301935 2.3509886e-38
-0.014610741 -0.1032616 0.023362592 2.3509886e-38
-0.012734625 -0.1032616 0.023362592 2.3509886e-38
-0.01085851 -0.1032616 0.023362592 2.3509886e-38
-0.0089823902 -0.1032616 0.023362592 2.3509886e-38
-0.0071062744 -0.1032616 0.023362592 2.3509886e-38
-0.0054348335 -0.1049176 0.016287759 2.3509886e-38
-0.0036277026 -0.10561861 0.013292865 2.3509886e-38
-0.0019112602 -0.1072513 0.0063176909 2.3509886e-38
-7.4680895e-05 -0.1079378 0.0033847848 2.3509886e-38
0.0018364638 -0.1079378 0.0033847848 2.3509886e-38
0.0036666654 -0.10887744 -0.00062958803 2.3509886e-38
0.0055848472 -0.10887744 -0.00062958803 2.3509886e-38
0.0075030327 -0.10887744 -0.00062958803 2.3509886e-38
0.0093751661 -0.10960068 -0.0037193736 2.3509886e-38
0.011246867 -0.11052449 -0.0076661548 2.3509886e-38
0.013177387 -0.11052449 -0.0076661548 2.3509886e-38
0.01506957 -0.11145501 -0.011641546 2.3509886e-38
0.017007062 -0.11145501 -0.011641546 2.3509886e-38
0.018925954 -0.11216442 -0.014672323 2.3509886e-38
0.02086876 -0.11216442 -0.014672323 2.3509886e-38
0.022800975 -0.11310686 -0.018698618 2.3509886e-38
0.024750838 -0.11310686 -0.018698618 2.3509886e-38
0.026703287 -0.11379658 -0.021645233 2.3509886e-38
0.028658317 -0.11379658 -0.021645233 2.3509886e-38
0.030648673 -0.115683 -0.029704496 2.3509886e-38
0.032636277 -0.11638646 -0.032709762 2.3509886e-38
0.034610707 -0.11638646 -0.032709762 2.3509886e-38
0.0366228 -0.11730064 -0.036615416 2.3509886e-38
0.038604081 -0.11730064 -0.036615416 2.3509886e-38
0.040585358 -0.11730064 -0.036615416 2.3509886e-38
0.042566635 -0.11730064 -0.036615416 2.3509886e-38
0.044547915 -0.11730064 -0.036615416 2.3509886e-38
0.046529192 -0.11730064 -0.036615416 2.3509886e-38
0.048510469 -0.11730064 -0.036615416 2.3509886e-38
0.050667554 -0.11917825 -0.04463689 2.3509886e-38
0.052662894 -0.11917825 -0.04463689 2.3509886e-38
0.054658238 -0.11917825 -0.04463689 2.3509886e-38
0.05684644 -0.12083931 -0.051733419 2.350987e-38
0.058967292 -0.12175412 -0.055641696 2.3509844e-38
0.060981929 -0.12175412 -0.055641696 2.19407e-38
0.063128479 -0.12270601 -0.059708402 2.2033262e-38
0.065150246 -0.12270601 -0.059708402 2.3508407e-38
0.067172013 -0.12270601 -0.059708402 2.3509511e-38
0.06919378 -0.12270601 -0.059708402 2.350952e-38
0.071371891 -0.12363364 -0.063671395 1.9728772e-38
0.073565021 -0.12456764 -0.067661688 7.1912479e-39
-0.07212761 -0.10349102 0.030345276 2.7658689e-40
-0.069991723 -0.10278064 0.033357695 4.6061241e-40
-0.068133131 -0.10278064 0.033357695 8.2053942e-39
-0.066274539 -0.10278064 0.033357695 9.7730717e-39
-0.064415947 -0.10278064 0.033357695 1.1708457e-38
-0.062307894 -0.10207425 0.036353067 1.0969097e-38
-0.060454547 -0.10207425 0.036353067 1.0598879e-38
-0.058840171 -0.10278064 0.033357695 1.0135383e-38
-0.056981578 -0.10278064 0.033357695 8.2907431e-39
-0.054894522 -0.10207425 0.036353067 7.0914573e-39
-0.052819252 -0.10137187 0.039331511 4.7869252e-39
-0.050462246 -0.099722609 0.046325162 8.3821961e-39
-0.048411191 -0.099007934 0.049355701 2.350445e-38
-0.046371967 -0.098297372 0.052368835 2.350879e-38
-0.044546708 -0.098297372 0.052368835 2.3509156e-38
-0.04272145 -0.098297372 0.052368835 2.3509517e-38
-0.040896192 -0.098297372 0.052368835 2.3509879e-38
-0.039070934 -0.098297372 0.052368835 2.3509883e-38
-0.037427932 -0.099007934 0.049355701 2.3509886e-38
-0.035597399 -0.099007934 0.049355701 2.3509883e-38
-0.03393954 -0.099722609 0.046325162 2.3509883e-38
-0.032103688 -0.099722609 0.046325162 2.3509886e-38
-0.030425005 -0.10041572 0.043386057 2.3509886e-38
-0.028583996 -0.10041572 0.043386057 2.3509886e-38
-0.026742987 -0.10041572 0.043386057 2.3509886e-38
-0.025097474 -0.10137187 0.039331511 2.3509886e-38
-0.023249358 -0.10137187 0.039331511 2.3509886e-38
-0.021534406 -0.10207425 0.036353067 2.3509886e-38
-0.019809738 -0.10278064 0.033357695 2.3509886e-38
-0.018075265 -0.10349102 0.030345276 2.3509886e-38
-0.0163709 -0.10444455 0.026301935 2.3509886e-38
-0.014610741 -0.10513772 0.023362592 2.3509886e-38
-0.012734625 -0.10513772 0.023362592 2.3509886e-38
-0.01085851 -0.10513772 0.023362592 2.3509886e-38
-0.0089823902 -0.10513772 0.023362592 2.3509886e-38
-0.0071062744 -0.10513772 0.023362592 2.3509886e-38
-0.0053189583 -0.10586159 0.020293072 2.3509886e-38
-0.0037348196 -0.1084419 0.0093513289 2.3509886e-38
-0.0019112602 -0.10915731 0.0063176909 2.3509886e-38
-5.2601099e-06 -0.10915731 0.0063176909 2.3509886e-38
0.0018364638 -0.10984896 0.0033847848 2.3509886e-38
0.0037476085 -0.10984896 0.0033847848 2.3509886e-38
0.0055848472 -0.11079563 -0.00062958803 2.3509886e-38
0.0075030327 -0.11079563 -0.00062958803 2.3509886e-38
0.0093751661 -0.11152427 -0.0037193736 2.3509886e-38
0.011246867 -0.11245503 -0.0076661548 2.3509886e-38
0.013177387 -0.11245503 -0.0076661548 2.3509886e-38
0.01506957 -0.11339252 -0.011641546 2.3509886e-38
0.017007062 -0.11339252 -0.011641546 2.3509886e-38
0.018944554 -0.11339252 -0.011641546 2.3509886e-38
0.02086876 -0.11410724 -0.014672323 2.3509886e-38
0.022811564 -0.11410724 -0.014672323 2.3509886e-38
0.024750838 -0.11505674 -0.018698618 2.3509886e-38
0.026700703 -0.11505674 -0.018698618 2.3509886e-38
0.028658317 -0.11575161 -0.021645233 2.3509886e-38
0.030631218 -0.11671309 -0.02572231 2.3509886e-38
0.032617837 -0.11765216 -0.029704496 2.3509886e-38
0.034610707 -0.11836089 -0.032709762 2.3509886e-38
0.0366228 -0.11928193 -0.036615416 2.3509886e-38
0.038604081 -0.11928193 -0.036615416 2.3509886e-38
0.040585358 -0.11928193 -0.036615416 2.3509886e-38
0.042566635 -0.11928193 -0.036615416 2.3509886e-38
0.044547915 -0.11928193 -0.036615416 2.3509886e-38
0.046529192 -0.11928193 -0.036615416 2.3509886e-38
0.048510469 -0.11928193 -0.036615416 2.3509886e-38
0.050580736 -0.12023942 -0.040675685 2.3509886e-38
0.052662894 -0.12117358 -0.04463689 2.3509886e-38
0.054658238 -0.12117358 -0.04463689 2.3509886e-38
0.056737445 -0.12190129 -0.047722742 2.3509869e-38
0.058967292 -0.12376876 -0.055641696 2.3509837e-38
0.060981929 -0.12376876 -0.055641696 2.2861566e-38
0.063128479 -0.1247278 -0.059708402 2.2400953e-38
0.065150246 -0.1247278 -0.059708402 2.3415482e-38
0.067172013 -0.1247278 -0.059708402 2.350951e-38
0.06919378 -0.1247278 -0.059708402 2.3509161e-38
0.071371891 -0.12566237 -0.063671395 2.1756711e-38
0.073565021 -0.12660335 -0.067661688 8.3890652e-39
0.075600728 -0.12660335 -0.067661688 8.5724027e-39
-0.07212761 -0.10535492 0.030345276 4.6097535e-40
-0.070263728 -0.10535492 0.030345276 8.2974946e-40
-0.068133131 -0.10463922 0.033357695 9.4042948e-39
-0.066274539 -0.10463922 0.033357695 1.0603188e-38
-0.064415947 -0.10463922 0.033357695 1.1985044e-38
-0.062557355 -0.10463922 0.033357695 1.0600317e-38
-0.060698763 -0.10463922 0.033357695 1.0137901e-38
-0.058840171 -0.10463922 0.033357695 1.0227932e-38
-0.057216614 -0.10535492 0.030345276 9.2130526e-39
-0.055352747 -0.10535492 0.030345276 7.552441e-39
-0.05304119 -0.1039276 0.036353067 4.6943723e-39
-0.050971121 -0.10322 0.039331511 6.353895e-39
-0.048626393 -0.10155846 0.046325162 2.3042391e-38
-0.046580642 -0.10083848 0.049355701 2.3509142e-38
-0.044546708 -0.10012263 0.052368835 2.3509507e-38
-0.04272145 -0.10012263 0.052368835 2.3509873e-38
-0.040896192 -0.10012263 0.052368835 2.3509879e-38
-0.039070934 -0.10012263 0.052368835 2.3509883e-38
-0.037427932 -0.10083848 0.049355701 2.3509886e-38
-0.035597399 -0.10083848 0.049355701 2.3509883e-38
-0.03393954 -0.10155846 0.046325162 2.3509883e-38
-0.032103688 -0.10155846 0.046325162 2.3509886e-38
-0.030425005 -0.10225673 0.043386057 2.3509886e-38
-0.028583996 -0.10225673 0.043386057 2.3509886e-38
-0.026742987 -0.10225673 0.043386057 2.3509886e-38
-0.025097474 -0.10322 0.039331511 2.3509886e-38
-0.023249358 -0.10322 0.039331511 2.3509886e-38
-0.021534406 -0.1039276 0.036353067 2.3509886e-38
-0.019681066 -0.1039276 0.036353067 2.3509886e-38
-0.017951146 -0.10463922 0.033357695 2.3509886e-38
-0.01621139 -0.10535492 0.030345276 2.3509886e-38
-0.014610741 -0.10701384 0.023362592 2.3509886e-38
-0.012734625 -0.10701384 0.023362592 2.3509886e-38
-0.010963455 -0.10774307 0.020293072 2.3509886e-38
-0.009081956 -0.10774307 0.020293072 2.3509886e-38
-0.0072004572 -0.10774307 0.020293072 2.3509886e-38
-0.0053189583 -0.10774307 0.020293072 2.3509886e-38
-0.0036277026 -0.10940616 0.013292865 2.3509886e-38
-0.0018341392 -0.11034258 0.0093513289 2.3509886e-38
-5.2601099e-06 -0.11106332 0.0063176909 2.3509886e-38
0.0018364638 -0.11176009 0.0033847848 2.3509886e-38
0.0037476085 -0.11176009 0.0033847848 2.3509886e-38
0.0056587532 -0.11176009 0.0033847848 2.3509886e-38
0.0075030327 -0.1127138 -0.00062958803 2.3509886e-38
0.0093751661 -0.11344786 -0.0037193736 2.3509886e-38
0.011298768 -0.11344786 -0.0037193736 2.3509886e-38
0.013177387 -0.11438553 -0.0076661548 2.3509886e-38
0.01506957 -0.11533 -0.011641546 2.3509886e-38
0.017007062 -0.11533 -0.011641546 2.3509886e-38
0.018944554 -0.11533 -0.011641546 2.3509886e-38
0.02086876 -0.11605005 -0.014672323 2.3509886e-38
0.022811564 -0.11605005 -0.014672323 2.3509886e-38
0.024750838 -0.11700659 -0.018698618 2.3509886e-38
0.026700703 -0.11700659 -0.018698618 2.3509886e-38
0.028658317 -0.11770664 -0.021645233 2.3509886e-38
0.030613348 -0.11770664 -0.021645233 2.3509886e-38
0.032617837 -0.11962132 -0.029704496 2.3509886e-38
0.034586996 -0.11962132 -0.029704496 2.3509886e-38
0.036556158 -0.11962132 -0.029704496 2.3509886e-38
0.038525317 -0.11962132 -0.029704496 2.3509886e-38
0.040533997 -0.12033533 -0.032709762 2.3509886e-38
0.042508431 -0.12033533 -0.032709762 2.3509886e-38
0.044547915 -0.12126322 -0.036615416 2.3509886e-38
0.046529192 -0.12126322 -0.036615416 2.3509886e-38
0.048510469 -0.12126322 -0.036615416 2.3509886e-38
0.050580736 -0.12222783 -0.040675685 2.3509886e-38
0.052569136 -0.12222783 -0.040675685 2.3509886e-38
0.054658238 -0.12316893 -0.04463689 2.3509886e-38
0.056737445 -0.12390204 -0.047722742 2.3509869e-38
0.058854226 -0.12485488 -0.051733419 2.3230719e-38
0.060981929 -0.1257834 -0.055641696 2.2861198e-38
0.063128479 -0.12674956 -0.059708402 2.2216553e-38
0.065150246 -0.12674956 -0.059708402 2.3230366e-38
0.067172013 -0.12674956 -0.059708402 2.3509149e-38
0.06919378 -0.12674956 -0.059708402 2.3506637e-38
0.071371891 -0.12769108 -0.063671395 2.3231116e-38
0.073730573 -0.12959366 -0.071679637 9.5868896e-39
0.075773329 -0.12959366 -0.071679637 7.8348377e-39
-0.070263728 -0.10721879 0.030345276 3.2257568e-39
-0.068133131 -0.10649781 0.033357695 9.587607e-39
-0.066274539 -0.10649781 0.033357695 1.1800652e-38
-0.064415947 -0.10649781 0.033357695 1.1984325e-38
-0.062557355 -0.10649781 0.033357695 1.0784708e-38
-0.060698763 -0.10649781 0.033357695 1.0045706e-38
-0.059080496 -0.10721879 0.030345276 1.0412678e-38
-0.057216614 -0.10721879 0.030345276 8.0145038e-39
-0.055352747 -0.10721879 0.030345276 8.0130646e-39
-0.053488865 -0.10721879 0.030345276 4.6940206e-39
-0.051405802 -0.10649781 0.033357695 5.8925637e-39
-0.048411191 -0.10266902 0.049355701 2.1936044e-38
-0.046580642 -0.10266902 0.049355701 2.3509135e-38
-0.044546708 -0.10194789 0.052368835 2.350986e-38
-0.04272145 -0.10194789 0.052368835 2.3509869e-38
-0.040704474 -0.10123092 0.055364564 2.3509876e-38
-0.038884476 -0.10123092 0.055364564 2.350988e-38
-0.037245676 -0.10194789 0.052368835 2.3233296e-38
-0.035597399 -0.10266902 0.049355701 2.3509527e-38
-0.03393954 -0.10339431 0.046325162 2.3509527e-38
-0.032103688 -0.10339431 0.046325162 2.3509886e-38
-0.030425005 -0.10409774 0.043386057 2.3509886e-38
-0.028583996 -0.10409774 0.043386057 2.3509886e-38
-0.026742987 -0.10409774 0.043386057 2.3509886e-38
-0.025097474 -0.1050681 0.039331511 2.3509886e-38
-0.023249358 -0.1050681 0.039331511 2.3509886e-38
-0.021534406 -0.10578094 0.036353067 2.3509886e-38
-0.019681066 -0.10578094 0.036353067 2.3509886e-38
-0.017951146 -0.10649781 0.033357695 2.3509886e-38
-0.01621139 -0.10721879 0.030345276 2.3509886e-38
-0.014610741 -0.10888995 0.023362592 2.3509886e-38
-0.012734625 -0.10888995 0.023362592 2.3509886e-38
-0.01085851 -0.10888995 0.023362592 2.3509886e-38
-0.0089823902 -0.10888995 0.023362592 2.3509886e-38
-0.0071062744 -0.10888995 0.023362592 2.3509886e-38
-0.0053189583 -0.10962458 0.020293072 2.3509886e-38
-0.0036277026 -0.11129995 0.013292865 2.3509886e-38
-0.0018341392 -0.11224325 0.0093513289 2.3509886e-38
-5.2601099e-06 -0.11296929 0.0063176909 2.3509886e-38
0.00190074 -0.11296929 0.0063176909 2.3509886e-38
0.0037476085 -0.11367123 0.0033847848 2.3509886e-38
0.0056587532 -0.11367123 0.0033847848 2.3509886e-38
0.0075030327 -0.114632 -0.00062958803 2.3509886e-38
0.0094212145 -0.114632 -0.00062958803 2.3509886e-38
0.011298768 -0.11537148 -0.0037193736 2.3509886e-38
0.013177387 -0.11631607 -0.0076661548 2.3509886e-38
0.015107907 -0.11631607 -0.0076661548 2.3509886e-38
0.017007062 -0.11726747 -0.011641546 2.3509886e-38
0.018944554 -0.11726747 -0.011641546 2.3509886e-38
0.02086876 -0.11799283 -0.014672323 2.3509886e-38
0.022811564 -0.11799283 -0.014672323 2.3509886e-38
0.024750838 -0.11895646 -0.018698618 2.3509886e-38
0.026700703 -0.11895646 -0.018698618 2.3509886e-38
0.028658317 -0.11966167 -0.021645233 2.3509886e-38
0.030613348 -0.11966167 -0.021645233 2.3509886e-38
0.032617837 -0.12159048 -0.029704496 2.3509886e-38
0.034586996 -0.12159048 -0.029704496 2.3509886e-38
0.036556158 -0.12159048 -0.029704496 2.3509886e-38
0.038525317 -0.12159048 -0.029704496 2.3509886e-38
0.040494479 -0.12159048 -0.029704496 2.3509886e-38
0.042463638 -0.12159048 -0.029704496 2.341769e-38
0.044482857 -0.12230973 -0.032709762 2.341769e-38
0.046457291 -0.12230973 -0.032709762 2.341769e-38
0.048510469 -0.12324448 -0.036615416 2.3325494e-38
0.050580736 -0.12421621 -0.040675685 2.341769e-38
0.052569136 -0.12421621 -0.040675685 2.3509886e-38
0.054658238 -0.12516426 -0.04463689 2.3509886e-38
0.056653582 -0.12516426 -0.04463689 2.3509504e-38
0.058854226 -0.12686269 -0.051733419 2.3230716e-38
0.060981929 -0.12779804 -0.055641696 2.3229978e-38
0.062996566 -0.12779804 -0.055641696 2.2954115e-38
0.065011203 -0.12779804 -0.055641696 2.3230363e-38
0.067172013 -0.12877132 -0.059708402 2.3508788e-38
0.06919378 -0.12877132 -0.059708402 2.3509158e-38
0.071371891 -0.12971978 -0.063671395 2.3415507e-38
0.073730573 -0.1316364 -0.071679637 1.2629345e-38
0.075773329 -0.1316364 -0.071679637 8.3880115e-39
-0.070263728 -0.10908265 0.030345276 5.5306448e-39
-0.068133131 -0.1083564 0.033357695 1.0970539e-38
-0.066274539 -0.1083564 0.033357695 1.16159e-38
-0.064672112 -0.10908265 0.030345276 1.0416999e-38
-0.062557355 -0.1083564 0.033357695 1.0231537e-38
-0.060698763 -0.1083564 0.033357695 9.7691186e-39
-0.059080496 -0.10908265 0.030345276 1.0136085e-38
-0.057216614 -0.10908265 0.030345276 7.5538829e-39
-0.055352747 -0.10908265 0.030345276 7.4598937e-39
-0.053488865 -0.10908265 0.030345276 5.154647e-39
-0.051405802 -0.1083564 0.033357695 5.7081739e-39
-0.048411191 -0.10449956 0.049355701 1.8064185e-38
-0.046580642 -0.10449956 0.049355701 2.3229298e-38
-0.044546708 -0.10377313 0.052368835 2.3509852e-38
-0.04272145 -0.10377313 0.052368835 2.3509865e-38
-0.040704474 -0.10305093 0.055364564 2.3509876e-38
-0.038884476 -0.10305093 0.055364564 2.350988e-38
-0.037245676 -0.10377313 0.052368835 2.3325492e-38
-0.035597399 -0.10449956 0.049355701 2.3509527e-38
-0.033766851 -0.10449956 0.049355701 2.3509527e-38
-0.032103688 -0.10523017 0.046325162 2.3509886e-38
-0.030425005 -0.10593875 0.043386057 2.3509886e-38
-0.028583996 -0.10593875 0.043386057 2.3509886e-38
-0.026742987 -0.10593875 0.043386057 2.3509886e-38
-0.024901979 -0.10593875 0.043386057 2.3509886e-38
-0.023249358 -0.10691623 0.039331511 2.3509886e-38
-0.021534406 -0.10763429 0.036353067 2.3509886e-38
-0.019809738 -0.1083564 0.033357695 2.3509886e-38
-0.018075265 -0.10908265 0.030345276 2.3509886e-38
-0.01621139 -0.10908265 0.030345276 2.3509886e-38
-0.014610741 -0.11076607 0.023362592 2.3509886e-38
-0.012734625 -0.11076607 0.023362592 2.3509886e-38
-0.01085851 -0.11076607 0.023362592 2.3509886e-38
-0.0089823902 -0.11076607 0.023362592 2.3509886e-38
-0.0071062744 -0.11076607 0.023362592 2.3509886e-38
-0.0053189583 -0.11150609 0.020293072 2.3509886e-38
-0.0036277026 -0.11319371 0.013292865 2.3509886e-38
-0.0019112602 -0.1148753 0.0063176909 2.3509886e-38
-5.2601099e-06 -0.1148753 0.0063176909 2.3509886e-38
0.00190074 -0.1148753 0.0063176909 2.3509886e-38
0.0038067475 -0.1148753 0.0063176909 2.3509886e-38
0.0056587532 -0.11558239 0.0033847848 2.3509886e-38
0.0075030327 -0.11655019 -0.00062958803 2.3509886e-38
0.0094212145 -0.11655019 -0.00062958803 2.3509886e-38
0.011298768 -0.11729507 -0.0037193736 2.3509886e-38
0.013222367 -0.11729507 -0.0037193736 2.3509886e-38
0.015107907 -0.11824657 -0.0076661548 2.3509886e-38
0.017007062 -0.11920498 -0.011641546 2.3509886e-38
0.018944554 -0.11920498 -0.011641546 2.3509886e-38
0.020882044 -0.11920498 -0.011641546 2.3509886e-38
0.022811564 -0.11993565 -0.014672323 2.3509886e-38
0.024750838 -0.12090631 -0.018698618 2.3509886e-38
0.026700703 -0.12090631 -0.018698618 2.3509886e-38
0.028658317 -0.12161671 -0.021645233 2.3509886e-38
0.030613348 -0.12161671 -0.021645233 2.3509886e-38
0.032593399 -0.12259962 -0.02572231 2.3509886e-38
0.034586996 -0.12355967 -0.029704496 2.3509886e-38
0.036556158 -0.12355967 -0.029704496 2.3509886e-38
0.038525317 -0.12355967 -0.029704496 2.3509886e-38
0.040494479 -0.12355967 -0.029704496 2.3509886e-38
0.042463638 -0.12355967 -0.029704496 2.3509886e-38
0.044482857 -0.12428416 -0.032709762 2.3509886e-38
0.046457291 -0.12428416 -0.032709762 2.3509886e-38
0.048431721 -0.12428416 -0.032709762 2.3509886e-38
0.05049175 -0.12522577 -0.036615416 2.3509886e-38
0.052569136 -0.12620462 -0.040675685 2.3509886e-38
0.054658238 -0.12715961 -0.04463689 2.3509886e-38
0.056653582 -0.12715961 -0.04463689 2.3509869e-38
0.058854226 -0.12887047 -0.051733419 2.341511e-38
0.060862012 -0.12887047 -0.051733419 2.350657e-38
0.062996566 -0.12981267 -0.055641696 2.249314e-38
0.065011203 -0.12981267 -0.055641696 2.2216214e-38
0.06702584 -0.12981267 -0.055641696 2.3506267e-38
0.06919378 -0.13079311 -0.059708402 2.3509158e-38
0.071215555 -0.13079311 -0.059708402 2.3509866e-38
0.073400602 -0.13174851 -0.063671395 1.548741e-38
0.075773329 -0.13367917 -0.071679637 8.2036188e-39
0.077816084 -0.13367917 -0.071679637 7.7426406e-39
-0.070263728 -0.11094652 0.030345276 6.9132191e-39
-0.068133131 -0.11021499 0.033357695 1.2260917e-38
-0.066274539 -0.11021499 0.033357695 1.2721168e-38
-0.064672112 -0.11094652 0.030345276 1.1338235e-38
-0.062557355 -0.11021499 0.033357695 1.004607e-38
-0.060698763 -0.11021499 0.033357695 9.8613142e-39
-0.059080496 -0.11094652 0.030345276 1.0228635e-38
-0.057216614 -0.11094652 0.030345276 7.5538773e-39
-0.055352747 -0.11094652 0.030345276 7.1829536e-39
-0.053790167 -0.11192839 0.026301935 6.0766089e-39
-0.050462246 -0.10706602 0.046325162 5.8000164e-39
-0.048197225 -0.10559841 0.052368835 1.3177816e-38
-0.046371967 -0.10559841 0.052368835 2.129354e-38
-0.044344485 -0.10487093 0.055364564 2.3509844e-38
-0.042524487 -0.10487093 0.055364564 2.3509142e-38
-0.040704474 -0.10487093 0.055364564 2.3417679e-38
-0.038884476 -0.10487093 0.055364564 2.3509879e-38
-0.037245676 -0.10559841 0.052368835 2.3509883e-38
-0.035597399 -0.10633011 0.049355701 2.3509527e-38
-0.033766851 -0.10633011 0.049355701 2.3509527e-38
-0.032103688 -0.10706602 0.046325162 2.3509886e-38
-0.030267835 -0.10706602 0.046325162 2.3509886e-38
-0.028583996 -0.10777976 0.043386057 2.3509886e-38
-0.026742987 -0.10777976 0.043386057 2.3509886e-38
-0.024901979 -0.10777976 0.043386057 2.3509886e-38
-0.023249358 -0.10876434 0.039331511 2.3509886e-38
-0.021534406 -0.10948761 0.036353067 2.3509886e-38
-0.019681066 -0.10948761 0.036353067 2.3509886e-38
-0.018075265 -0.11094652 0.030345276 2.3509886e-38
-0.01621139 -0.11094652 0.030345276 2.3509886e-38
-0.01449994 -0.11192839 0.026301935 2.3509886e-38
-0.012734625 -0.11264218 0.023362592 2.3509886e-38
-0.01085851 -0.11264218 0.023362592 2.3509886e-38
-0.009081956 -0.11338757 0.020293072 2.3509886e-38
-0.0072004572 -0.11338757 0.020293072 2.3509886e-38
-0.0053189583 -0.11338757 0.020293072 2.3509886e-38
-0.0036277026 -0.11508749 0.013292865 2.3509886e-38
-0.0018341392 -0.11604463 0.0093513289 2.3509886e-38
-5.2601099e-06 -0.11678131 0.0063176909 2.3509886e-38
0.00190074 -0.11678131 0.0063176909 2.3509886e-38
0.0038067475 -0.11678131 0.0063176909 2.3509886e-38
0.0056587532 -0.11749353 0.0033847848 2.3509886e-38
0.0075030327 -0.11846836 -0.00062958803 2.3509886e-38
0.0094212145 -0.11846836 -0.00062958803 2.3509886e-38
0.011339396 -0.11846836 -0.00062958803 2.3509886e-38
0.013222367 -0.11921866 -0.0037193736 2.3509886e-38
0.015107907 -0.12017711 -0.0076661548 2.3509886e-38
0.017038427 -0.12017711 -0.0076661548 2.3509886e-38
0.018944554 -0.12114246 -0.011641546 2.3509886e-38
0.020882044 -0.12114246 -0.011641546 2.3509886e-38
0.022811564 -0.12187846 -0.014672323 2.3509886e-38
0.024754368 -0.12187846 -0.014672323 2.3509886e-38
0.026700703 -0.12285618 -0.018698618 2.3509886e-38
0.028658317 -0.12357174 -0.021645233 2.3509886e-38
0.030613348 -0.12357174 -0.021645233 2.3509886e-38
0.032593399 -0.1245618 -0.02572231 2.3509886e-38
0.034555577 -0.1245618 -0.02572231 2.3509886e-38
0.036517754 -0.1245618 -0.02572231 2.3509886e-38
0.038479935 -0.1245618 -0.02572231 2.3509886e-38
0.040442113 -0.1245618 -0.02572231 2.3509886e-38
0.042463638 -0.12552883 -0.029704496 2.3509886e-38
0.044432804 -0.12552883 -0.029704496 2.3509886e-38
0.046457291 -0.1262586 -0.032709762 2.3509886e-38
0.048431721 -0.1262586 -0.032709762 2.3509886e-38
0.05049175 -0.12720706 -0.036615416 2.3509886e-38
0.052569136 -0.12819304 -0.040675685 2.3325494e-38
0.054658238 -0.12915494 -0.04463689 2.3233299e-38
0.056653582 -0.12915494 -0.04463689 2.3509149e-38
0.058738198 -0.12990431 -0.047722742 2.3414758e-38
0.060862012 -0.13087825 -0.051733419 2.3509824e-38
0.062869802 -0.13087825 -0.051733419 2.3507667e-38
0.065011203 -0.13182731 -0.055641696 2.3230014e-38
0.06702584 -0.13182731 -0.055641696 2.3509149e-38
0.069040477 -0.13182731 -0.055641696 2.3509156e-38
0.071215555 -0.13281487 -0.059708402 2.3415512e-38
0.073400602 -0.13377722 -0.063671395 1.6409369e-38
0.075600728 -0.13474621 -0.067661688 1.1430819e-38
0.077636451 -0.13474621 -0.067661688 8.0195807e-39
-0.070263728 -0.11281042 0.030345276 8.2950745e-39
-0.068399861 -0.11281042 0.030345276 1.2720817e-38
-0.06653598 -0.11281042 0.030345276 1.2904841e-38
-0.064672112 -0.11281042 0.030345276 1.1798494e-38
-0.062808245 -0.11281042 0.030345276 1.0230464e-38
-0.060944363 -0.11281042 0.030345276 1.0045706e-38
-0.059080496 -0.11281042 0.030345276 1.0321184e-38
-0.057216614 -0.11281042 0.030345276 8.2917983e-39
-0.055661127 -0.11379938 0.026301935 7.3673477e-39
-0.053790167 -0.11379938 0.026301935 6.7216238e-39
-0.050462246 -0.10890187 0.046325162 6.353193e-39
-0.048197225 -0.10742365 0.052368835 9.5821868e-39
-0.046371967 -0.10742365 0.052368835 1.8804613e-38
-0.044344485 -0.10669093 0.055364564 2.3509838e-38
-0.042524487 -0.10669093 0.055364564 2.3509499e-38
-0.040704474 -0.10669093 0.055364564 2.3417676e-38
-0.038884476 -0.10669093 0.055364564 2.3509879e-38
-0.037064463 -0.10669093 0.055364564 2.3509883e-38
-0.035420418 -0.10742365 0.052368835 2.3509527e-38
-0.033766851 -0.10816063 0.049355701 2.3509168e-38
-0.032103688 -0.10890187 0.046325162 2.3509886e-38
-0.030267835 -0.10890187 0.046325162 2.3509886e-38
-0.028583996 -0.10962076 0.043386057 2.3509886e-38
-0.026742987 -0.10962076 0.043386057 2.3509886e-38
-0.024901979 -0.10962076 0.043386057 2.3509886e-38
-0.023249358 -0.11061247 0.039331511 2.3509886e-38
-0.021534406 -0.11134095 0.036353067 2.3509886e-38
-0.019681066 -0.11134095 0.036353067 2.3509886e-38
-0.018075265 -0.11281042 0.030345276 2.3509886e-38
-0.01621139 -0.11281042 0.030345276 2.3509886e-38
-0.01449994 -0.11379938 0.026301935 2.3509886e-38
-0.012628976 -0.11379938 0.026301935 2.3509886e-38
-0.01085851 -0.1145183 0.023362592 2.3509886e-38
-0.009081956 -0.11526908 0.020293072 2.3509886e-38
-0.0072004572 -0.11526908 0.020293072 2.3509886e-38
-0.0053189583 -0.11526908 0.020293072 2.3509886e-38
-0.0036277026 -0.11698125 0.013292865 2.3509886e-38
-0.0018341392 -0.11794533 0.0093513289 2.3509886e-38
6.6548586e-05 -0.11794533 0.0093513289 2.3509886e-38
0.00190074 -0.11868732 0.0063176909 2.3509886e-38
0.0038067475 -0.11868732 0.0063176909 2.3509886e-38
0.0056587532 -0.11940466 0.0033847848 2.3509886e-38
0.0075030327 -0.12038656 -0.00062958803 2.3509886e-38
0.0094212145 -0.12038656 -0.00062958803 2.3509886e-38
0.011339396 -0.12038656 -0.00062958803 2.3509886e-38
0.013222367 -0.12114228 -0.0037193736 2.3509886e-38
0.015145969 -0.12114228 -0.0037193736 2.3509886e-38
0.017038427 -0.12210761 -0.0076661548 2.3509886e-38
0.018968949 -0.12210761 -0.0076661548 2.3509886e-38
0.020882044 -0.12307997 -0.011641546 2.3509886e-38
0.022811564 -0.12382124 -0.014672323 2.3509886e-38
0.024754368 -0.12382124 -0.014672323 2.3509886e-38
0.026700703 -0.12480606 -0.018698618 2.3509886e-38
0.028658317 -0.12552677 -0.021645233 2.3509886e-38
0.030613348 -0.12552677 -0.021645233 2.3509886e-38
0.032593399 -0.12652399 -0.02572231 2.3509886e-38
0.034555577 -0.12652399 -0.02572231 2.3509886e-38
0.036517754 -0.12652399 -0.02572231 2.3509886e-38
0.038479935 -0.12652399 -0.02572231 2.3509886e-38
0.040442113 -0.12652399 -0.02572231 2.3509886e-38
0.042463638 -0.12749799 -0.029704496 2.3509886e-38
0.044432804 -0.12749799 -0.029704496 2.3509886e-38
0.046457291 -0.12823303 -0.032709762 2.3509886e-38
0.048431721 -0.12823303 -0.032709762 2.3509886e-38
0.050406151 -0.12823303 -0.032709762 2.3509886e-38
0.052569136 -0.13018142 -0.040675685 2.3233299e-38
0.054658238 -0.13115029 -0.04463689 2.3141103e-38
0.056653582 -0.13115029 -0.04463689 2.3508793e-38
0.058738198 -0.13190506 -0.047722742 2.2585368e-38
0.060738951 -0.13190506 -0.047722742 2.3507314e-38
0.062869802 -0.13288604 -0.051733419 2.1386101e-38
0.064877585 -0.13288604 -0.051733419 1.9911343e-38
0.06702584 -0.13384195 -0.055641696 2.1663074e-38
0.069040477 -0.13384195 -0.055641696 2.3508074e-38
0.071215555 -0.13483663 -0.059708402 2.3509873e-38
0.073565021 -0.13678192 -0.067661688 2.1111709e-38
0.075600728 -0.13678192 -0.067661688 1.5671812e-38
0.077636451 -0.13678192 -0.067661688 8.8496931e-39
-0.070263728 -0.11467429 0.030345276 9.4007032e-39
-0.068399861 -0.11467429 0.030345276 1.3365467e-38
-0.06653598 -0.11467429 0.030345276 1.290448e-38
-0.064672112 -0.11467429 0.030345276 1.1153125e-38
-0.062808245 -0.11467429 0.030345276 1.0230467e-38
-0.060944363 -0.11467429 0.030345276 9.9535127e-39
-0.059080496 -0.11467429 0.030345276 9.9523986e-39
-0.057532087 -0.11567034 0.026301935 8.7527751e-39
-0.055661127 -0.11567034 0.026301935 7.6435773e-39
-0.054009199 -0.11639442 0.023362592 6.5368794e-39
-0.050462246 -0.11073773 0.046325162 6.537587e-39
-0.048197225 -0.10924892 0.052368835 7.3694917e-39
-0.046371967 -0.10924892 0.052368835 1.5946543e-38
-0.044344485 -0.10851096 0.055364564 2.3509834e-38
-0.042524487 -0.10851096 0.055364564 2.3509859e-38
-0.040704474 -0.10851096 0.055364564 2.3509873e-38
-0.038884476 -0.10851096 0.055364564 2.3509879e-38
-0.037064463 -0.10851096 0.055364564 2.350988e-38
-0.035420418 -0.10924892 0.052368835 2.3416974e-38
-0.033766851 -0.10999118 0.049355701 2.3416974e-38
-0.03193631 -0.10999118 0.049355701 2.3509886e-38
-0.030267835 -0.11073773 0.046325162 2.3509886e-38
-0.028583996 -0.11146177 0.043386057 2.3509886e-38
-0.026742987 -0.11146177 0.043386057 2.3509886e-38
-0.024901979 -0.11146177 0.043386057 2.3509886e-38
-0.023249358 -0.11246057 0.039331511 2.3509886e-38
-0.021534406 -0.1131943 0.036353067 2.3509886e-38
-0.019809738 -0.11393218 0.033357695 2.3509886e-38
-0.017951146 -0.11393218 0.033357695 2.3509886e-38
-0.01621139 -0.11467429 0.030345276 2.3509886e-38
-0.01449994 -0.11567034 0.026301935 2.3509886e-38
-0.012628976 -0.11567034 0.026301935 2.3509886e-38
-0.010758013 -0.11567034 0.026301935 2.3509886e-38
-0.0089823902 -0.11639442 0.023362592 2.3509886e-38
-0.0072004572 -0.11715056 0.020293072 2.3509886e-38
-0.0053189583 -0.11715056 0.020293072 2.3509886e-38
-0.0036277026 -0.11887501 0.013292865 2.3509886e-38
-0.0017339289 -0.11887501 0.013292865 2.3509886e-38
6.6548586e-05 -0.119846 0.0093513289 2.3509886e-38
0.0019672289 -0.119846 0.0093513289 2.3509886e-38
0.0038067475 -0.12059332 0.0063176909 2.3509886e-38
0.0056587532 -0.12131582 0.0033847848 2.3509886e-38
0.0075698942 -0.12131582 0.0033847848 2.3509886e-38
0.0094810426 -0.12131582 0.0033847848 2.3509886e-38
0.011339396 -0.12230472 -0.00062958803 2.3509886e-38
0.013257578 -0.12230472 -0.00062958803 2.3509886e-38
0.015145969 -0.12306587 -0.0037193736 2.3509886e-38
0.017038427 -0.12403814 -0.0076661548 2.3509886e-38
0.018968949 -0.12403814 -0.0076661548 2.3509886e-38
0.020882044 -0.12501745 -0.011641546 2.3509886e-38
0.022811564 -0.12576406 -0.014672323 2.3509886e-38
0.024754368 -0.12576406 -0.014672323 2.3509886e-38
0.026697174 -0.12576406 -0.014672323 2.3509886e-38
0.028650567 -0.12675591 -0.018698618 2.3509886e-38
0.030600432 -0.12675591 -0.018698618 2.3509886e-38
0.03256838 -0.1274818 -0.021645233 2.3509886e-38
0.034555577 -0.12848614 -0.02572231 2.3509886e-38
0.036517754 -0.12848614 -0.02572231 2.3509886e-38
0.038479935 -0.12848614 -0.02572231 2.3509886e-38
0.040442113 -0.12848614 -0.02572231 2.3509886e-38
0.042404294 -0.12848614 -0.02572231 2.3325494e-38
0.044432804 -0.12946714 -0.029704496 2.3233299e-38
0.046401963 -0.12946714 -0.029704496 2.341769e-38
0.048431721 -0.13020746 -0.032709762 2.3509886e-38
0.050406151 -0.13020746 -0.032709762 2.341769e-38
0.052473027 -0.1311696 -0.036615416 2.2956712e-38
0.054658238 -0.13314565 -0.04463689 2.2864516e-38
0.056653582 -0.13314565 -0.04463689 2.3508795e-38
0.058738198 -0.13390581 -0.047722742 2.2953801e-38
0.060738951 -0.13390581 -0.047722742 2.3507327e-38
0.062869802 -0.13489382 -0.051733419 2.0741106e-38
0.064877585 -0.13489382 -0.051733419 1.8897561e-38
0.06702584 -0.13585658 -0.055641696 2.0188665e-38
0.069040477 -0.13585658 -0.055641696 2.2955259e-38
0.071055114 -0.13585658 -0.055641696 2.350952e-38
0.073237315 -0.13685839 -0.059708402 2.3509879e-38
0.075773329 -0.13980745 -0.071679637 1.7608272e-38
0.077816084 -0.13980745 -0.071679637 7.5600248e-39
-0.070263728 -0.11653815 0.030345276 9.6769272e-39
-0.068399861 -0.11653815 0.030345276 1.4471452e-38
-0.06653598 -0.11653815 0.030345276 1.327326e-38
-0.064672112 -0.11653815 0.030345276 1.0875819e-38
-0.062808245 -0.11653815 0.030345276 9.5850973e-39
-0.060944363 -0.11653815 0.030345276 9.9535127e-39
-0.059080496 -0.11653815 0.030345276 9.2148322e-39
-0.057532087 -0.1175413 0.026301935 8.568381e-39
-0.055661127 -0.1175413 0.026301935 7.5513844e-39
-0.054009199 -0.11827053 0.023362592 6.3524895e-39
-0.052133083 -0.11827053 0.023362592 6.4450341e-39
-0.048197225 -0.11107419 0.052368835 5.6177719e-39
-0.046371967 -0.11107419 0.052368835 1.2812247e-38
-0.044344485 -0.11033095 0.055364564 2.350983e-38
-0.042524487 -0.11033095 0.055364564 2.3509859e-38
-0.040704474 -0.11033095 0.055364564 2.3509873e-38
-0.038884476 -0.11033095 0.055364564 2.3509876e-38
-0.037064463 -0.11033095 0.055364564 2.350988e-38
-0.03524445 -0.11033095 0.055364564 2.3324778e-38
-0.03359516 -0.11107419 0.052368835 2.3509168e-38
-0.03193631 -0.11182173 0.049355701 2.3509886e-38
-0.030267835 -0.11257361 0.046325162 2.3509886e-38
-0.028583996 -0.11330278 0.043386057 2.3509886e-38
-0.026742987 -0.11330278 0.043386057 2.3509886e-38
-0.024901979 -0.11330278 0.043386057 2.3509886e-38
-0.023249358 -0.1143087 0.039331511 2.3509886e-38
-0.021534406 -0.11504765 0.036353067 2.3509886e-38
-0.019809738 -0.11579077 0.033357695 2.3509886e-38
-0.017951146 -0.11579077 0.033357695 2.3509886e-38
-0.01621139 -0.11653815 0.030345276 2.3509886e-38
-0.014347516 -0.11653815 0.030345276 2.3509886e-38
-0.012628976 -0.1175413 0.026301935 2.3509886e-38
-0.010758013 -0.1175413 0.026301935 2.3509886e-38
-0.0089823902 -0.11827053 0.023362592 2.3509886e-38
-0.0071062744 -0.11827053 0.023362592 2.3509886e-38
-0.0053189583 -0.11903207 0.020293072 2.3509886e-38
-0.0035463125 -0.12002577 0.016287759 2.3509886e-38
-0.0017339289 -0.1207688 0.013292865 2.3509886e-38
0.00015984476 -0.1207688 0.013292865 2.3509886e-38
0.0019672289 -0.12174667 0.0093513289 2.3509886e-38
0.003867913 -0.12174667 0.0093513289 2.3509886e-38
0.0057127476 -0.1224993 0.0063176909 2.3509886e-38
0.0075698942 -0.12322696 0.0033847848 2.3509886e-38
0.0094810426 -0.12322696 0.0033847848 2.3509886e-38
0.011392187 -0.12322696 0.0033847848 2.3509886e-38
0.013257578 -0.12422292 -0.00062958803 2.3509886e-38
0.015175764 -0.12422292 -0.00062958803 2.3509886e-38
0.017069567 -0.12498946 -0.0037193736 2.3509886e-38
0.018968949 -0.12596865 -0.0076661548 2.3509886e-38
0.020899469 -0.12596865 -0.0076661548 2.3509886e-38
0.022819534 -0.12695493 -0.011641546 2.3509886e-38
0.024754368 -0.12770687 -0.014672323 2.3509886e-38
0.026697174 -0.12770687 -0.014672323 2.3509886e-38
0.028650567 -0.12870578 -0.018698618 2.3509886e-38
0.030600432 -0.12870578 -0.018698618 2.3509886e-38
0.03256838 -0.12943684 -0.021645233 2.3509886e-38
0.034555577 -0.13044833 -0.02572231 2.3509886e-38
0.036517754 -0.13044833 -0.02572231 2.3509886e-38
0.038479935 -0.13044833 -0.02572231 2.3509886e-38
0.040442113 -0.13044833 -0.02572231 2.3509886e-38
