# .PCD v0.7 - Point Cloud Data file format
VERSION 0.7
FIELDS x y z rgb
SIZE 4 4 4 4
TYPE F F F F
COUNT 1 1 1 1
WIDTH 922
HEIGHT 1
VIEWPOINT 0 0 0 1 0 0 0
POINTS 922
DATA ascii
0.017491445 -0.062485814 0.007406503 2.1019122e-38
0.019355318 -0.062485814 0.007406503 2.1387545e-38
0.021219192 -0.062485814 0.007406503 2.1756326e-38
0.023027606 -0.061891615 0.010418922 2.1755963e-38
0.024886198 -0.061891615 0.010418922 2.2953424e-38
0.026525004 -0.059913516 0.020447284 2.3508033e-38
0.028366012 -0.059913516 0.020447284 2.1478283e-38
0.030055253 -0.058735996 0.026416928 2.1108419e-38
0.031803906 -0.058141664 0.029430062 2.3509115e-38
0.033542499 -0.057550758 0.032425791 2.3509502e-38
0.035362508 -0.057550758 0.032425791 2.3509514e-38
0.037054967 -0.056775123 0.036358029 2.3509879e-38
0.038763408 -0.056171253 0.039419442 2.350952e-38
0.040571153 -0.056171253 0.039419442 2.3326213e-38
0.04226812 -0.055591613 0.042358071 2.3142542e-38
0.04395134 -0.054994762 0.04538396 2.3234379e-38
0.045748629 -0.054994762 0.04538396 2.341805e-38
0.047545914 -0.054994762 0.04538396 2.3325492e-38
0.049343202 -0.054994762 0.04538396 2.350988e-38
-0.072036535 -0.08146137 -0.078580469 7.9248543e-39
-0.070021883 -0.08146137 -0.078580469 1.3916847e-38
-0.068007246 -0.08146137 -0.078580469 1.9171998e-38
-0.065992609 -0.08146137 -0.078580469 2.3509153e-38
-0.063977972 -0.08146137 -0.078580469 2.3509153e-38
-0.061740633 -0.080683619 -0.074672192 2.3509517e-38
-0.059732851 -0.080683619 -0.074672192 2.3509883e-38
-0.057725053 -0.080683619 -0.074672192 2.3509886e-38
-0.055509832 -0.079885483 -0.070661515 2.3509886e-38
-0.053354871 -0.079271376 -0.067575663 2.3509886e-38
-0.051359531 -0.079271376 -0.067575663 2.3509886e-38
-0.049180139 -0.07848309 -0.063614458 2.3509886e-38
-0.047010209 -0.077675089 -0.059554189 2.3509886e-38
-0.045028929 -0.077675089 -0.059554189 2.3509886e-38
-0.042762902 -0.076299787 -0.052643269 2.3509886e-38
-0.040475797 -0.074695975 -0.044584006 2.3509886e-38
-0.038520765 -0.074695975 -0.044584006 2.3509886e-38
-0.036459826 -0.074109584 -0.041637391 2.3509886e-38
-0.034509961 -0.074109584 -0.041637391 2.3509886e-38
-0.032560099 -0.074109584 -0.041637391 2.3509886e-38
-0.030486692 -0.073308334 -0.037611097 2.3509886e-38
-0.02854389 -0.073308334 -0.037611097 2.3509886e-38
-0.026601084 -0.073308334 -0.037611097 2.3509886e-38
-0.024658281 -0.073308334 -0.037611097 2.3509886e-38
-0.022643734 -0.072705194 -0.03458032 2.3509886e-38
-0.020706248 -0.072705194 -0.03458032 2.3509886e-38
-0.018688597 -0.071914092 -0.030604929 2.3509886e-38
-0.016685415 -0.071128666 -0.026658148 2.3509886e-38
-0.014761817 -0.071128666 -0.026658148 2.3509886e-38
-0.012792166 -0.070513785 -0.023568362 2.3509886e-38
-0.010873985 -0.070513785 -0.023568362 2.3509886e-38
-0.0089100488 -0.069714904 -0.019553989 2.3509886e-38
-0.006998904 -0.069714904 -0.019553989 2.3509886e-38
-0.0050646216 -0.069131255 -0.016621083 2.3509886e-38
-0.0031400025 -0.06852755 -0.013587445 2.3509886e-38
-0.0012220405 -0.067743167 -0.0096459091 2.3509886e-38
0.00067960843 -0.06714718 -0.0066510141 2.3509886e-38
0.0025716405 -0.066350102 -0.0026457012 2.3509886e-38
0.0044504479 -0.065739259 0.00042381883 2.3232936e-38
0.0063265655 -0.065739259 0.00042381883 2.3417324e-38
0.0081897974 -0.065154314 0.0033631623 2.3509873e-38
0.010060761 -0.065154314 0.0033631623 2.3509869e-38
0.011931725 -0.065154314 0.0033631623 2.3509863e-38
0.013763696 -0.064349681 0.007406503 2.3509859e-38
0.01562757 -0.064349681 0.007406503 2.3509133e-38
0.017491445 -0.064349681 0.007406503 2.3324742e-38
0.019355318 -0.064349681 0.007406503 2.3508774e-38
0.021219192 -0.064349681 0.007406503 2.3509855e-38
0.023027606 -0.063750207 0.010418922 2.3507691e-38
0.024886198 -0.063750207 0.010418922 2.3509489e-38
0.026613865 -0.062561393 0.016392738 2.3509844e-38
0.02822471 -0.060566545 0.026416928 2.2032544e-38
0.02997865 -0.059966922 0.029430062 2.111094e-38
0.031722493 -0.059370756 0.032425791 2.3508034e-38
0.033542499 -0.059370756 0.032425791 2.35095e-38
0.035241853 -0.058588237 0.036358029 2.3509873e-38
0.037054967 -0.058588237 0.036358029 2.3509879e-38
0.038763408 -0.057979003 0.039419442 2.3509883e-38
0.040571153 -0.057979003 0.039419442 2.341805e-38
0.04226812 -0.057394207 0.042358071 2.3234379e-38
0.04395134 -0.056792036 0.04538396 2.341805e-38
0.045748629 -0.056792036 0.04538396 2.3509886e-38
0.047545914 -0.056792036 0.04538396 2.3509167e-38
0.049343202 -0.056792036 0.04538396 2.3509524e-38
0.051281083 -0.057394207 0.042358071 2.2954907e-38
0.056532349 -0.056792036 0.04538396 2.7695263e-40
-0.074325681 -0.084292427 -0.082647175 5.8054394e-39
-0.072036535 -0.083476007 -0.078580469 5.6199663e-39
-0.070021883 -0.083476007 -0.078580469 1.6222461e-38
-0.068007246 -0.083476007 -0.078580469 2.0647851e-38
-0.065992609 -0.083476007 -0.078580469 2.3508795e-38
-0.063748419 -0.082691401 -0.074672192 2.3508437e-38
-0.061740633 -0.082691401 -0.074672192 2.3508798e-38
-0.059732851 -0.082691401 -0.074672192 2.3509883e-38
-0.057510581 -0.081886232 -0.070661515 2.3509886e-38
-0.055509832 -0.081886232 -0.070661515 2.3509886e-38
-0.053354871 -0.081266731 -0.067575663 2.3509886e-38
-0.051359531 -0.081266731 -0.067575663 2.3509886e-38
-0.049180139 -0.080471486 -0.063614458 2.3509886e-38
-0.047010209 -0.079656363 -0.059554189 2.3509886e-38
-0.045028929 -0.079656363 -0.059554189 2.3509886e-38
-0.042762902 -0.078268945 -0.052643269 2.3509886e-38
-0.040475797 -0.076650992 -0.044584006 2.3509886e-38
-0.038409691 -0.076059446 -0.041637391 2.3509886e-38
-0.036459826 -0.076059446 -0.041637391 2.3509886e-38
-0.034372304 -0.075251147 -0.037611097 2.3509886e-38
-0.032429498 -0.075251147 -0.037611097 2.3509886e-38
-0.030486692 -0.075251147 -0.037611097 2.3509886e-38
-0.028456207 -0.074642688 -0.03458032 2.3509886e-38
-0.026518717 -0.074642688 -0.03458032 2.3509886e-38
-0.024658281 -0.075251147 -0.037611097 2.3509886e-38
-0.022643734 -0.074642688 -0.03458032 2.3509886e-38
-0.020706248 -0.074642688 -0.03458032 2.3509886e-38
-0.018688597 -0.073844612 -0.030604929 2.3509886e-38
-0.016685415 -0.073052257 -0.026658148 2.3509886e-38
-0.014710348 -0.072431967 -0.023568362 2.3509886e-38
-0.012792166 -0.072431967 -0.023568362 2.3509886e-38
-0.010821193 -0.071626052 -0.019553989 2.3509886e-38
-0.0088766254 -0.071037248 -0.016621083 2.3509886e-38
-0.0069706216 -0.071037248 -0.016621083 2.3509886e-38
-0.0050406847 -0.070428237 -0.013587445 2.3509886e-38
-0.0031158142 -0.069636941 -0.0096459091 2.3509886e-38
-0.0012089126 -0.069035694 -0.0066510141 2.3509886e-38
0.00067960843 -0.069035694 -0.0066510141 2.3509886e-38
0.0025716405 -0.068231598 -0.0026457012 2.3509886e-38
0.0044504479 -0.067615375 0.00042381883 2.3509886e-38
0.0063265655 -0.067615375 0.00042381883 2.3509886e-38
0.0081897974 -0.067025289 0.0033631623 2.350988e-38
0.010060761 -0.067025289 0.0033631623 2.3509873e-38
0.011931725 -0.067025289 0.0033631623 2.3509869e-38
0.013763696 -0.066213563 0.007406503 2.3509863e-38
0.01562757 -0.066213563 0.007406503 2.3509863e-38
0.017491445 -0.066213563 0.007406503 2.3509863e-38
0.019355318 -0.066213563 0.007406503 2.3509863e-38
0.021169014 -0.065608799 0.010418922 2.3509863e-38
0.023027606 -0.065608799 0.010418922 2.3509863e-38
0.024825802 -0.065007448 0.013414294 2.3509859e-38
0.026613865 -0.064409509 0.016392738 2.3509853e-38
0.02822471 -0.062397093 0.026416928 2.2954871e-38
0.02997865 -0.06179218 0.029430062 2.2125462e-38
0.031722493 -0.061190769 0.032425791 2.3508043e-38
0.033542499 -0.061190769 0.032425791 2.3509139e-38
0.035241853 -0.06040135 0.036358029 2.350915e-38
0.037054967 -0.06040135 0.036358029 2.3509876e-38
0.038763408 -0.059786752 0.039419442 2.350988e-38
0.040571153 -0.059786752 0.039419442 2.3418047e-38
0.04226812 -0.0591968 0.042358071 2.3234379e-38
0.04395134 -0.058589324 0.04538396 2.341805e-38
0.045748629 -0.058589324 0.04538396 2.3509883e-38
0.047545914 -0.058589324 0.04538396 2.350988e-38
0.049343202 -0.058589324 0.04538396 2.3416603e-38
0.051140487 -0.058589324 0.04538396 2.3509517e-38
0.052937776 -0.058589324 0.04538396 7.2823674e-39
-0.074325681 -0.086314201 -0.082647175 4.7923665e-39
-0.072036535 -0.085490659 -0.078580469 4.2377508e-39
-0.070021883 -0.085490659 -0.078580469 1.880466e-38
-0.068007246 -0.085490659 -0.078580469 2.2216617e-38
-0.065992609 -0.085490659 -0.078580469 2.3509157e-38
-0.063748419 -0.084699184 -0.074672192 2.3324407e-38
-0.061740633 -0.084699184 -0.074672192 2.350952e-38
-0.05951133 -0.083886981 -0.070661515 2.3509883e-38
-0.057510581 -0.083886981 -0.070661515 2.3509886e-38
-0.055509832 -0.083886981 -0.070661515 2.3509886e-38
-0.053354871 -0.083262071 -0.067575663 2.3509886e-38
-0.051168535 -0.082459882 -0.063614458 2.3509886e-38
-0.049180139 -0.082459882 -0.063614458 2.3509886e-38
-0.047010209 -0.081637636 -0.059554189 2.3509886e-38
-0.044861149 -0.080846712 -0.055648535 2.3509886e-38
-0.042598817 -0.079431683 -0.048661083 2.3509886e-38
-0.040475797 -0.078606024 -0.044584006 2.3509886e-38
-0.038409691 -0.078009307 -0.041637391 2.3509886e-38
-0.036459826 -0.078009307 -0.041637391 2.3509886e-38
-0.034372304 -0.077193946 -0.037611097 2.3509886e-38
-0.032429498 -0.077193946 -0.037611097 2.3509886e-38
-0.030393697 -0.076580182 -0.03458032 2.3509886e-38
-0.028456207 -0.076580182 -0.03458032 2.3509886e-38
-0.026518717 -0.076580182 -0.03458032 2.3509886e-38
-0.024658281 -0.077193946 -0.037611097 2.3509886e-38
-0.022643734 -0.076580182 -0.03458032 2.3509886e-38
-0.020619117 -0.075775132 -0.030604929 2.3509886e-38
-0.018688597 -0.075775132 -0.030604929 2.3509886e-38
-0.016628534 -0.074350148 -0.023568362 2.3509886e-38
-0.014710348 -0.074350148 -0.023568362 2.3509886e-38
-0.012732338 -0.073537201 -0.019553989 2.3509886e-38
-0.010821193 -0.073537201 -0.019553989 2.3509886e-38
-0.0088766254 -0.072943255 -0.016621083 2.3509886e-38
-0.0069413669 -0.07232891 -0.013587445 2.3509886e-38
-0.0050406847 -0.07232891 -0.013587445 2.3509886e-38
-0.0031158142 -0.071530715 -0.0096459091 2.3509886e-38
-0.0012089126 -0.070924222 -0.0066510141 2.3509886e-38
0.00069014169 -0.070113108 -0.0026457012 2.3509886e-38
0.0025716405 -0.070113108 -0.0026457012 2.3509886e-38
0.0044478718 -0.068896249 0.0033631623 2.3509527e-38
0.0063188355 -0.068896249 0.0033631623 2.3509527e-38
0.0081897974 -0.068896249 0.0033631623 2.3509886e-38
0.010035949 -0.06807743 0.007406503 2.3325847e-38
0.011899822 -0.06807743 0.007406503 2.332548e-38
0.013763696 -0.06807743 0.007406503 2.3325478e-38
0.01562757 -0.06807743 0.007406503 2.3417673e-38
0.017491445 -0.06807743 0.007406503 2.3509869e-38
0.019355318 -0.06807743 0.007406503 2.3324757e-38
0.021169014 -0.067467391 0.010418922 2.3509873e-38
0.022972463 -0.066860795 0.013414294 2.350879e-38
0.024825802 -0.066860795 0.013414294 2.3508068e-38
0.026613865 -0.066257626 0.016392738 2.3509863e-38
0.02822471 -0.064227626 0.026416928 2.3508057e-38
0.02997865 -0.063617438 0.029430062 2.3046713e-38
0.031722493 -0.063010782 0.032425791 2.350841e-38
0.033542499 -0.063010782 0.032425791 2.3508779e-38
0.035241853 -0.062214464 0.036358029 2.3509144e-38
0.036955662 -0.061594486 0.039419442 2.3509873e-38
0.038763408 -0.061594486 0.039419442 2.3509876e-38
0.040571153 -0.061594486 0.039419442 2.3418045e-38
0.04226812 -0.060999393 0.042358071 2.3234374e-38
0.04395134 -0.060386613 0.04538396 2.3418045e-38
0.045748629 -0.060386613 0.04538396 2.3509879e-38
0.047545914 -0.060386613 0.04538396 2.3509876e-38
0.049343202 -0.060386613 0.04538396 2.3231846e-38
0.051140487 -0.060386613 0.04538396 2.2955256e-38
0.052937776 -0.060386613 0.04538396 6.1756541e-39
-0.074593201 -0.089145467 -0.086610168 5.8987154e-39
-0.072303921 -0.088335961 -0.082647175 5.2533446e-39
-0.070282146 -0.088335961 -0.082647175 2.1479775e-38
-0.068260372 -0.088335961 -0.082647175 2.3508798e-38
-0.065756202 -0.086706966 -0.074672192 2.350988e-38
-0.063748419 -0.086706966 -0.074672192 2.3417687e-38
-0.061740633 -0.086706966 -0.074672192 2.3418047e-38
-0.05951133 -0.085887745 -0.070661515 2.3509886e-38
-0.057510581 -0.085887745 -0.070661515 2.3509886e-38
-0.055350218 -0.085257411 -0.067575663 2.3509886e-38
-0.053354871 -0.085257411 -0.067575663 2.3509886e-38
-0.051168535 -0.084448278 -0.063614458 2.3509886e-38
-0.049180139 -0.084448278 -0.063614458 2.3509886e-38
-0.047010209 -0.083618924 -0.059554189 2.3509886e-38
-0.044861149 -0.082821131 -0.055648535 2.3509886e-38
-0.042598817 -0.081393853 -0.048661083 2.3509886e-38
-0.040475797 -0.080561057 -0.044584006 2.3509886e-38
-0.038409691 -0.079959169 -0.041637391 2.3509886e-38
-0.036459826 -0.079959169 -0.041637391 2.3509886e-38
-0.034372304 -0.079136744 -0.037611097 2.3509886e-38
-0.032429498 -0.079136744 -0.037611097 2.3509886e-38
-0.030393697 -0.078517675 -0.03458032 2.3509886e-38
-0.028456207 -0.078517675 -0.03458032 2.3509886e-38
-0.026518717 -0.078517675 -0.03458032 2.3509886e-38
-0.024581227 -0.078517675 -0.03458032 2.3509886e-38
-0.022643734 -0.078517675 -0.03458032 2.3509886e-38
-0.020619117 -0.077705652 -0.030604929 2.3509886e-38
-0.018688597 -0.077705652 -0.030604929 2.3509886e-38
-0.016628534 -0.07626833 -0.023568362 2.3509886e-38
-0.014710348 -0.07626833 -0.023568362 2.3509886e-38
-0.012732338 -0.075448349 -0.019553989 2.3509886e-38
-0.010782626 -0.074849263 -0.016621083 2.3509886e-38
-0.008842051 -0.074229598 -0.013587445 2.3509886e-38
-0.0069413669 -0.074229598 -0.013587445 2.3509886e-38
-0.005009586 -0.073424488 -0.0096459091 2.3509886e-38
-0.0031158142 -0.073424488 -0.0096459091 2.3509886e-38
-0.0012089126 -0.072812736 -0.0066510141 2.3509886e-38
0.00069014169 -0.071994603 -0.0026457012 2.3509886e-38
0.0025716405 -0.071994603 -0.0026457012 2.3509886e-38
0.0044478718 -0.070767209 0.0033631623 2.3417691e-38
0.0063188355 -0.070767209 0.0033631623 2.3417691e-38
0.0081897974 -0.070767209 0.0033631623 2.341805e-38
0.010035949 -0.069941312 0.007406503 2.341805e-38
0.011899822 -0.069941312 0.007406503 2.350988e-38
0.013763696 -0.069941312 0.007406503 2.3509879e-38
0.01562757 -0.069941312 0.007406503 2.3509879e-38
0.017491445 -0.069941312 0.007406503 2.3509879e-38
0.019310422 -0.069325984 0.010418922 2.350988e-38
0.021169014 -0.069325984 0.010418922 2.3509521e-38
0.022972463 -0.068714127 0.013414294 2.3509521e-38
0.024825802 -0.068714127 0.013414294 2.3508439e-38
0.026613865 -0.068105742 0.016392738 2.3509157e-38
0.02822471 -0.066058174 0.026416928 2.350915e-38
0.02997865 -0.065442696 0.029430062 2.341551e-38
0.031722493 -0.06483078 0.032425791 2.3415863e-38
0.033542499 -0.06483078 0.032425791 2.3508423e-38
0.035241853 -0.064027563 0.036358029 2.3509142e-38
0.036955662 -0.063402236 0.039419442 2.350987e-38
0.038763408 -0.063402236 0.039419442 2.3509873e-38
0.04046553 -0.062801987 0.042358071 2.341804e-38
0.04226812 -0.062801987 0.042358071 2.3234372e-38
0.04395134 -0.062183902 0.04538396 2.341804e-38
0.045748629 -0.062183902 0.04538396 2.3509873e-38
0.047545914 -0.062183902 0.04538396 2.3232562e-38
0.049343202 -0.062183902 0.04538396 2.3509869e-38
0.051140487 -0.062183902 0.04538396 2.2309162e-38
0.052937776 -0.062183902 0.04538396 6.4515165e-39
-0.074593201 -0.091174185 -0.086610168 7.28201e-39
-0.072303921 -0.090357736 -0.082647175 7.7426266e-39
-0.070282146 -0.090357736 -0.082647175 2.304782e-38
-0.068260372 -0.090357736 -0.082647175 2.350988e-38
-0.065756202 -0.088714764 -0.074672192 2.3509883e-38
-0.063512847 -0.087888494 -0.070661515 2.3050347e-38
-0.061512094 -0.087888494 -0.070661515 2.3234379e-38
-0.05951133 -0.087888494 -0.070661515 2.341805e-38
-0.057345558 -0.087252751 -0.067575663 2.3509886e-38
-0.055350218 -0.087252751 -0.067575663 2.3509886e-38
-0.053156938 -0.086436674 -0.063614458 2.3509886e-38
-0.051168535 -0.086436674 -0.063614458 2.3509886e-38
-0.048991483 -0.085600197 -0.059554189 2.3509886e-38
-0.047010209 -0.085600197 -0.059554189 2.3509886e-38
-0.044861149 -0.084795564 -0.055648535 2.3509886e-38
-0.042598817 -0.083356038 -0.048661083 2.3509886e-38
-0.040475797 -0.082516089 -0.044584006 2.3509886e-38
-0.038409691 -0.081909031 -0.041637391 2.3509886e-38
-0.036459826 -0.081909031 -0.041637391 2.3509886e-38
-0.034372304 -0.081079558 -0.037611097 2.3509886e-38
-0.032429498 -0.081079558 -0.037611097 2.3509886e-38
-0.030393697 -0.080455169 -0.03458032 2.3509886e-38
-0.028456207 -0.080455169 -0.03458032 2.3509886e-38
-0.026518717 -0.080455169 -0.03458032 2.3509886e-38
-0.024581227 -0.080455169 -0.03458032 2.3509886e-38
-0.02254964 -0.079636171 -0.030604929 2.3509886e-38
-0.020619117 -0.079636171 -0.030604929 2.3509886e-38
-0.018609017 -0.07882306 -0.026658148 2.3509886e-38
-0.016628534 -0.078186512 -0.023568362 2.3509886e-38
-0.014643487 -0.077359483 -0.019553989 2.3509886e-38
-0.012732338 -0.077359483 -0.019553989 2.3509886e-38
-0.010782626 -0.076755255 -0.016621083 2.3509886e-38
-0.008842051 -0.076130286 -0.013587445 2.3509886e-38
-0.0069033578 -0.075318262 -0.0096459091 2.3509886e-38
-0.005009586 -0.075318262 -0.0096459091 2.3509886e-38
-0.0030974355 -0.074701265 -0.0066510141 2.3509886e-38
-0.0012089126 -0.074701265 -0.0066510141 2.3509886e-38
0.00069014169 -0.073876098 -0.0026457012 2.3509886e-38
0.0025743321 -0.073243722 0.00042381883 2.3509886e-38
0.0044478718 -0.072638169 0.0033631623 2.3325497e-38
0.0063188355 -0.072638169 0.0033631623 2.3417691e-38
0.0081897974 -0.072638169 0.0033631623 2.341805e-38
0.010035949 -0.071805179 0.007406503 2.341805e-38
0.011899822 -0.071805179 0.007406503 2.3509883e-38
0.013763696 -0.071805179 0.007406503 2.350988e-38
0.015593239 -0.071184576 0.010418922 2.350988e-38
0.01745183 -0.071184576 0.010418922 2.3509883e-38
0.019310422 -0.071184576 0.010418922 2.3509527e-38
0.021169014 -0.071184576 0.010418922 2.3509527e-38
0.022972463 -0.070567474 0.013414294 2.3509527e-38
0.024765747 -0.069953859 0.016392738 2.3509527e-38
0.026613865 -0.069953859 0.016392738 2.3509164e-38
0.02822471 -0.067888707 0.026416928 2.3509518e-38
0.02997865 -0.067267954 0.029430062 2.3509513e-38
0.031722493 -0.066650793 0.032425791 2.3508788e-38
0.033542499 -0.066650793 0.032425791 2.3509144e-38
0.035241853 -0.065840676 0.036358029 2.3509504e-38
0.037054967 -0.065840676 0.036358029 2.350987e-38
0.038763408 -0.065209985 0.039419442 2.3418038e-38
0.04046553 -0.06460458 0.042358071 2.341804e-38
0.04226812 -0.06460458 0.042358071 2.3234369e-38
0.04395134 -0.06398119 0.04538396 2.3418038e-38
0.045748629 -0.06398119 0.04538396 2.350987e-38
0.047545914 -0.06398119 0.04538396 2.3416952e-38
0.049343202 -0.06398119 0.04538396 2.3509863e-38
0.051140487 -0.06398119 0.04538396 2.1755625e-38
0.052792728 -0.063361436 0.048392206 7.0039686e-39
0.054584742 -0.063361436 0.048392206 7.8351712e-39
-0.074593201 -0.093202889 -0.086610168 7.7433455e-39
-0.072303921 -0.09237951 -0.082647175 9.863845e-39
-0.070282146 -0.09237951 -0.082647175 2.3416245e-38
-0.068007246 -0.09153457 -0.078580469 2.3509883e-38
-0.065756202 -0.090722546 -0.074672192 2.341805e-38
-0.063512847 -0.089889243 -0.070661515 2.286632e-38
-0.061512094 -0.089889243 -0.070661515 2.2958514e-38
-0.059340905 -0.089248091 -0.067575663 2.341805e-38
-0.057345558 -0.089248091 -0.067575663 2.3509886e-38
-0.055145334 -0.08842507 -0.063614458 2.3509886e-38
-0.053156938 -0.08842507 -0.063614458 2.3509886e-38
-0.051168535 -0.08842507 -0.063614458 2.3509886e-38
-0.048991483 -0.087581471 -0.059554189 2.3509886e-38
-0.046835583 -0.086769998 -0.055648535 2.3509886e-38
-0.04473206 -0.086145595 -0.052643269 2.3509886e-38
-0.042598817 -0.085318208 -0.048661083 2.3509886e-38
-0.040475797 -0.084471121 -0.044584006 2.3509886e-38
-0.038409691 -0.083858907 -0.041637391 2.3509886e-38
-0.036459826 -0.083858907 -0.041637391 2.3509886e-38
-0.034372304 -0.083022356 -0.037611097 2.3509886e-38
-0.032429498 -0.083022356 -0.037611097 2.3509886e-38
-0.030393697 -0.082392648 -0.03458032 2.3509886e-38
-0.028456207 -0.082392648 -0.03458032 2.3509886e-38
-0.026518717 -0.082392648 -0.03458032 2.3509886e-38
-0.024581227 -0.082392648 -0.03458032 2.3509886e-38
-0.02254964 -0.081566691 -0.030604929 2.3509886e-38
-0.020619117 -0.081566691 -0.030604929 2.3509886e-38
-0.018609017 -0.080746666 -0.026658148 2.3509886e-38
-0.016628534 -0.080104694 -0.023568362 2.3509886e-38
-0.014643487 -0.079270631 -0.019553989 2.3509886e-38
-0.012732338 -0.079270631 -0.019553989 2.3509886e-38
-0.010782626 -0.078661263 -0.016621083 2.3509886e-38
-0.008842051 -0.078030959 -0.013587445 2.3509886e-38
-0.0069033578 -0.077212036 -0.0096459091 2.3509886e-38
-0.005009586 -0.077212036 -0.0096459091 2.3509886e-38
-0.0030974355 -0.076589778 -0.0066510141 2.3509886e-38
-0.0011913572 -0.075757593 -0.0026457012 2.3509886e-38
0.0006982144 -0.075119838 0.00042381883 2.3509886e-38
0.0025743321 -0.075119838 0.00042381883 2.3509886e-38
0.0044478718 -0.074509144 0.0033631623 2.3417691e-38
0.0063188355 -0.074509144 0.0033631623 2.3234379e-38
0.0081720743 -0.073669046 0.007406503 2.3234379e-38
0.010035949 -0.073669046 0.007406503 2.3234379e-38
0.011899822 -0.073669046 0.007406503 2.3326213e-38
0.013734646 -0.073043168 0.010418922 2.3234015e-38
0.015593239 -0.073043168 0.010418922 2.3049624e-38
0.01745183 -0.073043168 0.010418922 2.3049626e-38
0.019310422 -0.073043168 0.010418922 2.3232944e-38
0.021119121 -0.072420821 0.013414294 2.2956359e-38
0.022917628 -0.071801975 0.016392738 2.3417333e-38
0.024683993 -0.070959568 0.020447284 2.3509527e-38
0.026460588 -0.070348918 0.023386389 2.3416974e-38
0.02822471 -0.069719255 0.026416928 2.3417327e-38
0.02997865 -0.069093212 0.029430062 2.3509521e-38
0.031722493 -0.068470791 0.032425791 2.3509876e-38
0.033542499 -0.068470791 0.032425791 2.3509509e-38
0.035241853 -0.06765379 0.036358029 2.3509869e-38
0.036955662 -0.067017719 0.039419442 2.3509873e-38
0.038662937 -0.066407159 0.042358071 2.341804e-38
0.04046553 -0.066407159 0.042358071 2.341804e-38
0.04226812 -0.066407159 0.042358071 2.3234369e-38
0.04395134 -0.065778479 0.04538396 2.3418038e-38
0.045748629 -0.065778479 0.04538396 2.350987e-38
0.047545914 -0.065778479 0.04538396 2.3509866e-38
0.049343202 -0.065778479 0.04538396 2.3323311e-38
0.051140487 -0.065778479 0.04538396 2.0464886e-38
0.052792728 -0.06515345 0.048392206 8.2028677e-39
0.054584742 -0.06515345 0.048392206 7.7422553e-39
-0.074325681 -0.09440127 -0.082647175 7.7433427e-39
-0.072036535 -0.093549207 -0.078580469 1.1154584e-38
-0.070021883 -0.093549207 -0.078580469 2.3325127e-38
-0.067763984 -0.092730328 -0.074672192 2.3509883e-38
-0.065756202 -0.092730328 -0.074672192 2.3234379e-38
-0.063512847 -0.091889992 -0.070661515 2.2958873e-38
-0.061512094 -0.091889992 -0.070661515 2.2867037e-38
-0.059340905 -0.091243446 -0.067575663 2.341805e-38
-0.057345558 -0.091243446 -0.067575663 2.3509886e-38
-0.055145334 -0.090413481 -0.063614458 2.3509886e-38
-0.053156938 -0.090413481 -0.063614458 2.3509886e-38
-0.051168535 -0.090413481 -0.063614458 2.3509886e-38
-0.048991483 -0.089562759 -0.059554189 2.3509886e-38
-0.046835583 -0.088744432 -0.055648535 2.3509886e-38
-0.04473206 -0.088114753 -0.052643269 2.3509886e-38
-0.042598817 -0.087280393 -0.048661083 2.3509886e-38
-0.040475797 -0.086426154 -0.044584006 2.3509886e-38
-0.038409691 -0.085808769 -0.041637391 2.3509886e-38
-0.036315106 -0.084965169 -0.037611097 2.3509886e-38
-0.034372304 -0.084965169 -0.037611097 2.3509886e-38
-0.032331191 -0.084330142 -0.03458032 2.3509886e-38
-0.030393697 -0.084330142 -0.03458032 2.3509886e-38
-0.028456207 -0.084330142 -0.03458032 2.3509886e-38
-0.026518717 -0.084330142 -0.03458032 2.3509886e-38
-0.024581227 -0.084330142 -0.03458032 2.3509886e-38
-0.02254964 -0.083497211 -0.030604929 2.3509886e-38
-0.020619117 -0.083497211 -0.030604929 2.3509886e-38
-0.018546715 -0.08202289 -0.023568362 2.3509886e-38
-0.016628534 -0.08202289 -0.023568362 2.3509886e-38
-0.014643487 -0.08118178 -0.019553989 2.3509886e-38
-0.012732338 -0.08118178 -0.019553989 2.3509886e-38
-0.010782626 -0.080567271 -0.016621083 2.3509886e-38
-0.008842051 -0.079931647 -0.013587445 2.3509886e-38
-0.0069033578 -0.079105809 -0.0096459091 2.3509886e-38
-0.005009586 -0.079105809 -0.0096459091 2.3509886e-38
-0.0030974355 -0.078478307 -0.0066510141 2.3509886e-38
-0.0011913572 -0.077639103 -0.0026457012 2.3509886e-38
0.0006982144 -0.076995969 0.00042381883 2.3509886e-38
0.0025769081 -0.076380104 0.0033631623 2.341805e-38
0.0044443272 -0.075532928 0.007406503 2.341805e-38
0.0063082017 -0.075532928 0.007406503 2.3234379e-38
0.0081720743 -0.075532928 0.007406503 2.3234379e-38
0.010035949 -0.075532928 0.007406503 2.3234379e-38
0.011876054 -0.07490176 0.010418922 2.3418047e-38
0.013734646 -0.07490176 0.010418922 2.3418047e-38
0.015559101 -0.074274153 0.013414294 2.3418047e-38
0.017412443 -0.074274153 0.013414294 2.341805e-38
0.019265782 -0.074274153 0.013414294 2.3509527e-38
0.021069512 -0.073650107 0.016392738 2.3232944e-38
0.022917628 -0.073650107 0.016392738 2.3509527e-38
0.024624731 -0.072184771 0.023386389 2.3509527e-38
0.026394168 -0.071549803 0.026416928 2.3416974e-38
0.02822471 -0.071549803 0.026416928 2.3140384e-38
0.02997865 -0.070918471 0.029430062 2.3509883e-38
0.031722493 -0.070290804 0.032425791 2.3509879e-38
0.033542499 -0.070290804 0.032425791 2.3509873e-38
0.035241853 -0.069466904 0.036358029 2.3509873e-38
0.036955662 -0.068825468 0.039419442 2.3509876e-38
0.038662937 -0.068209752 0.042358071 2.3326206e-38
0.04046553 -0.068209752 0.042358071 2.3326208e-38
0.04226812 -0.068209752 0.042358071 2.3326206e-38
0.04395134 -0.067575768 0.04538396 2.3509876e-38
0.045748629 -0.067575768 0.04538396 2.350987e-38
0.047545914 -0.067575768 0.04538396 2.3509869e-38
0.049343202 -0.067575768 0.04538396 2.1110256e-38
0.051140487 -0.067575768 0.04538396 1.9726603e-38
0.052792728 -0.066945463 0.048392206 1.050704e-38
0.054584742 -0.066945463 0.048392206 8.755331e-39
-0.074325681 -0.096423045 -0.082647175 7.5585885e-39
-0.072036535 -0.095563844 -0.078580469 1.3458753e-38
-0.070021883 -0.095563844 -0.078580469 2.3140013e-38
-0.067763984 -0.094738111 -0.074672192 2.350988e-38
-0.065513596 -0.093890756 -0.070661515 2.3234379e-38
-0.063512847 -0.093890756 -0.070661515 2.2499336e-38
-0.061512094 -0.093890756 -0.070661515 2.2958873e-38
-0.059340905 -0.093238786 -0.067575663 2.341805e-38
-0.057133731 -0.092401877 -0.063614458 2.3509886e-38
-0.055145334 -0.092401877 -0.063614458 2.3509886e-38
-0.053156938 -0.092401877 -0.063614458 2.3509886e-38
-0.050972763 -0.091544032 -0.059554189 2.3509886e-38
-0.048991483 -0.091544032 -0.059554189 2.3509886e-38
-0.046835583 -0.090718865 -0.055648535 2.3509886e-38
-0.04473206 -0.090083912 -0.052643269 2.3509886e-38
-0.042598817 -0.089242578 -0.048661083 2.3509886e-38
-0.040475797 -0.088381186 -0.044584006 2.3509886e-38
-0.038409691 -0.087758631 -0.041637391 2.3509886e-38
-0.036315106 -0.086907968 -0.037611097 2.3509886e-38
-0.034372304 -0.086907968 -0.037611097 2.3509886e-38
-0.032331191 -0.086267635 -0.03458032 2.3509886e-38
-0.030393697 -0.086267635 -0.03458032 2.3509886e-38
-0.0283412 -0.085427731 -0.030604929 2.3509886e-38
-0.02641068 -0.085427731 -0.030604929 2.3509886e-38
-0.024581227 -0.086267635 -0.03458032 2.3509886e-38
-0.02254964 -0.085427731 -0.030604929 2.3509886e-38
-0.020532619 -0.084593862 -0.026658148 2.3509886e-38
-0.018546715 -0.083941072 -0.023568362 2.3509886e-38
-0.016628534 -0.083941072 -0.023568362 2.3509886e-38
-0.014643487 -0.083092928 -0.019553989 2.3509886e-38
-0.012732338 -0.083092928 -0.019553989 2.3509886e-38
-0.010782626 -0.082473263 -0.016621083 2.3509886e-38
-0.008842051 -0.081832334 -0.013587445 2.3509886e-38
-0.0069033578 -0.080999583 -0.0096459091 2.3509886e-38
-0.005009586 -0.080999583 -0.0096459091 2.3509886e-38
-0.0030974355 -0.08036682 -0.0066510141 2.3509886e-38
-0.0011913572 -0.079520598 -0.0026457012 2.3509886e-38
0.0006982144 -0.078872085 0.00042381883 2.3509886e-38
0.0025769081 -0.078251064 0.0033631623 2.341805e-38
0.0044443272 -0.077396795 0.007406503 2.341805e-38
0.0063082017 -0.077396795 0.007406503 2.3234379e-38
0.0081720743 -0.077396795 0.007406503 2.3234379e-38
0.010035949 -0.077396795 0.007406503 2.3234376e-38
0.011876054 -0.076760352 0.010418922 2.3418045e-38
0.013705761 -0.076127499 0.013414294 2.3418043e-38
0.015525158 -0.075498223 0.016392738 2.3418045e-38
0.017373275 -0.075498223 0.016392738 2.3418047e-38
0.019221393 -0.075498223 0.016392738 2.341805e-38
0.021001976 -0.074641585 0.020447284 2.341805e-38
0.022842985 -0.074641585 0.020447284 2.341805e-38
0.024624731 -0.074020624 0.023386389 2.341805e-38
0.026394168 -0.073380336 0.026416928 2.3509527e-38
0.02815339 -0.072743744 0.029430062 2.3509886e-38
0.02997865 -0.072743744 0.029430062 2.3509883e-38
0.031722493 -0.072110802 0.032425791 2.350988e-38
0.033542499 -0.072110802 0.032425791 2.3509879e-38
0.035241853 -0.071280017 0.036358029 2.3509879e-38
0.036955662 -0.070633218 0.039419442 2.350988e-38
0.038763408 -0.070633218 0.039419442 2.3418047e-38
0.04046553 -0.070012346 0.042358071 2.341805e-38
0.04226812 -0.070012346 0.042358071 2.3418047e-38
0.04395134 -0.069373056 0.04538396 2.3509879e-38
0.045748629 -0.069373056 0.04538396 2.3509873e-38
0.047545914 -0.069373056 0.04538396 2.3509511e-38
0.049343202 -0.069373056 0.04538396 2.1201377e-38
0.051140487 -0.069373056 0.04538396 1.7973809e-38
0.052792728 -0.068737477 0.048392206 1.1335724e-38
0.054584742 -0.068737477 0.048392206 1.1336093e-38
-0.071779564 -0.096745893 -0.074672192 1.5117548e-38
-0.069771767 -0.096745893 -0.074672192 2.3509153e-38
-0.067763984 -0.096745893 -0.074672192 2.3509879e-38
-0.065513596 -0.095891505 -0.070661515 2.3050347e-38
-0.063331589 -0.095234126 -0.067575663 2.2683007e-38
-0.061336245 -0.095234126 -0.067575663 2.2958873e-38
-0.059122127 -0.094390273 -0.063614458 2.341805e-38
-0.057133731 -0.094390273 -0.063614458 2.3509886e-38
-0.055145334 -0.094390273 -0.063614458 2.3509886e-38
-0.052954044 -0.093525305 -0.059554189 2.3509886e-38
-0.050972763 -0.093525305 -0.059554189 2.3509886e-38
-0.048991483 -0.093525305 -0.059554189 2.3509886e-38
-0.046701219 -0.092053071 -0.052643269 2.3509886e-38
-0.04473206 -0.092053071 -0.052643269 2.3509886e-38
-0.042598817 -0.091204748 -0.048661083 2.3509886e-38
-0.040475797 -0.090336218 -0.044584006 2.3509886e-38
-0.038409691 -0.089708492 -0.041637391 2.3509886e-38
-0.036459826 -0.089708492 -0.041637391 2.3509886e-38
-0.034372304 -0.088850766 -0.037611097 2.3509886e-38
-0.032331191 -0.088205129 -0.03458032 2.3509886e-38
-0.030393697 -0.088205129 -0.03458032 2.3509886e-38
-0.0283412 -0.087358251 -0.030604929 2.3509886e-38
-0.02641068 -0.087358251 -0.030604929 2.3509886e-38
-0.02448016 -0.087358251 -0.030604929 2.3509886e-38
-0.022456218 -0.086517468 -0.026658148 2.3509886e-38
-0.020532619 -0.086517468 -0.026658148 2.3509886e-38
-0.018546715 -0.085859254 -0.023568362 2.3509886e-38
-0.016628534 -0.085859254 -0.023568362 2.3509886e-38
-0.014643487 -0.085004061 -0.019553989 2.3509886e-38
-0.012732338 -0.085004061 -0.019553989 2.3509886e-38
-0.010782626 -0.084379271 -0.016621083 2.3509886e-38
-0.008842051 -0.083733007 -0.013587445 2.3509886e-38
-0.0069033578 -0.082893357 -0.0096459091 2.3509886e-38
-0.005009586 -0.082893357 -0.0096459091 2.3509886e-38
-0.0030974355 -0.082255349 -0.0066510141 2.3509886e-38
-0.0011913572 -0.081402093 -0.0026457012 2.3509886e-38
0.0006982144 -0.0807482 0.00042381883 2.3509886e-38
0.0025743321 -0.0807482 0.00042381883 2.3509886e-38
0.0044478718 -0.080122024 0.0033631623 2.341805e-38
0.0063082017 -0.079260677 0.007406503 2.3234379e-38
0.0081720743 -0.079260677 0.007406503 2.3234376e-38
0.010017462 -0.078618944 0.010418922 2.3234374e-38
0.011852421 -0.077980831 0.013414294 2.341804e-38
0.013677039 -0.07734634 0.016392738 2.341804e-38
0.015525158 -0.07734634 0.016392738 2.3418043e-38
0.017373275 -0.07734634 0.016392738 2.3418045e-38
0.019160967 -0.076482594 0.020447284 2.341805e-38
0.021001976 -0.076482594 0.020447284 2.341805e-38
0.022788877 -0.075856477 0.023386389 2.341805e-38
0.024563625 -0.075210884 0.026416928 2.341805e-38
0.02632813 -0.074569002 0.029430062 2.3509886e-38
0.02815339 -0.074569002 0.029430062 2.3509886e-38
0.02997865 -0.074569002 0.029430062 2.350988e-38
0.031722493 -0.073930815 0.032425791 2.350988e-38
0.033542499 -0.073930815 0.032425791 2.3509521e-38
0.035241853 -0.073093131 0.036358029 2.3509524e-38
0.037054967 -0.073093131 0.036358029 2.3509527e-38
0.038763408 -0.072440952 0.039419442 2.341805e-38
0.04046553 -0.071814939 0.042358071 2.3234379e-38
0.04226812 -0.071814939 0.042358071 2.341805e-38
0.04395134 -0.07117033 0.04538396 2.350988e-38
0.045748629 -0.07117033 0.04538396 2.3509876e-38
0.047545914 -0.07117033 0.04538396 2.3508072e-38
0.049343202 -0.07117033 0.04538396 2.0463091e-38
0.051140487 -0.07117033 0.04538396 1.5483809e-38
0.052792728 -0.070529491 0.048392206 1.0320856e-38
0.054584742 -0.070529491 0.048392206 1.1519764e-38
-0.071779564 -0.098753676 -0.074672192 1.7329882e-38
-0.069515109 -0.097892255 -0.070661515 2.350987e-38
-0.067514345 -0.097892255 -0.070661515 2.3509876e-38
-0.065326929 -0.097229466 -0.067575663 2.3141819e-38
-0.063331589 -0.097229466 -0.067575663 2.3050708e-38
-0.061336245 -0.097229466 -0.067575663 2.3142544e-38
-0.059122127 -0.096378669 -0.063614458 2.341805e-38
-0.057133731 -0.096378669 -0.063614458 2.3509886e-38
-0.055145334 -0.096378669 -0.063614458 2.3509886e-38
-0.052954044 -0.095506594 -0.059554189 2.3509886e-38
-0.050972763 -0.095506594 -0.059554189 2.3509886e-38
-0.048991483 -0.095506594 -0.059554189 2.3509886e-38
-0.046701219 -0.094022244 -0.052643269 2.3509886e-38
-0.04473206 -0.094022244 -0.052643269 2.3509886e-38
-0.042598817 -0.093166932 -0.048661083 2.3509886e-38
-0.040475797 -0.092291236 -0.044584006 2.3509886e-38
-0.038409691 -0.091658354 -0.041637391 2.3509886e-38
-0.036315106 -0.09079358 -0.037611097 2.3509886e-38
-0.034268681 -0.090142623 -0.03458032 2.3509886e-38
-0.032331191 -0.090142623 -0.03458032 2.3509886e-38
-0.03027172 -0.089288771 -0.030604929 2.3509886e-38
-0.02822702 -0.088441074 -0.026658148 2.3509886e-38
-0.026303422 -0.088441074 -0.026658148 2.3509886e-38
-0.024379816 -0.088441074 -0.026658148 2.3509886e-38
-0.022456218 -0.088441074 -0.026658148 2.3509886e-38
-0.020464901 -0.087777436 -0.023568362 2.3509886e-38
-0.018546715 -0.087777436 -0.023568362 2.3509886e-38
-0.016554628 -0.08691521 -0.019553989 2.3509886e-38
-0.014643487 -0.08691521 -0.019553989 2.3509886e-38
-0.012732338 -0.08691521 -0.019553989 2.3509886e-38
-0.010782626 -0.086285278 -0.016621083 2.3509886e-38
-0.008842051 -0.085633695 -0.013587445 2.3509886e-38
-0.0069033578 -0.084787115 -0.0096459091 2.3509886e-38
-0.005009586 -0.084787115 -0.0096459091 2.3509886e-38
-0.0030974355 -0.084143862 -0.0066510141 2.3509886e-38
-0.0011913572 -0.083283588 -0.0026457012 2.3509886e-38
0.0006982144 -0.082624316 0.00042381883 2.3509886e-38
0.0025743321 -0.082624316 0.00042381883 2.3509886e-38
0.0044478718 -0.081992984 0.0033631623 2.341805e-38
0.0063082017 -0.081124544 0.007406503 2.341805e-38
0.0081720743 -0.081124544 0.007406503 2.3418045e-38
0.010017462 -0.080477536 0.010418922 2.3418043e-38
0.011852421 -0.079834178 0.013414294 2.341804e-38
0.013677039 -0.079194456 0.016392738 2.341804e-38
0.015525158 -0.079194456 0.016392738 2.341804e-38
0.017319959 -0.078323603 0.020447284 2.3418043e-38
0.019160967 -0.078323603 0.020447284 2.3509886e-38
0.02095302 -0.07769233 0.023386389 2.3509886e-38
0.022733083 -0.077041432 0.026416928 2.3509527e-38
0.024563625 -0.077041432 0.026416928 2.3509527e-38
0.02632813 -0.07639426 0.029430062 2.3509886e-38
0.028082481 -0.075750828 0.032425791 2.3509883e-38
0.029902488 -0.075750828 0.032425791 2.3509879e-38
0.031722493 -0.075750828 0.032425791 2.3509879e-38
0.033542499 -0.075750828 0.032425791 2.3509524e-38
0.035241853 -0.074906245 0.036358029 2.3509527e-38
0.037054967 -0.074906245 0.036358029 2.3509886e-38
0.038763408 -0.074248701 0.039419442 2.341805e-38
0.04046553 -0.073617533 0.042358071 2.3234379e-38
0.04226812 -0.073617533 0.042358071 2.341805e-38
0.044070713 -0.073617533 0.042358071 2.350988e-38
0.045748629 -0.072967619 0.04538396 2.3509876e-38
0.047545914 -0.072967619 0.04538396 2.350807e-38
0.049343202 -0.072967619 0.04538396 2.0186505e-38
0.051140487 -0.072967619 0.04538396 1.2901252e-38
0.052937776 -0.072967619 0.04538396 9.3056223e-39
0.054735061 -0.072967619 0.04538396 1.1610517e-38
-0.071312964 -0.099224806 -0.067575663 1.9173429e-38
-0.069317624 -0.099224806 -0.067575663 2.3509506e-38
-0.067514345 -0.099893004 -0.070661515 2.3509873e-38
-0.065326929 -0.099224806 -0.067575663 2.323365e-38
-0.063331589 -0.099224806 -0.067575663 2.3234379e-38
-0.061110523 -0.098367065 -0.063614458 2.3142544e-38
-0.059122127 -0.098367065 -0.063614458 2.341805e-38
-0.057133731 -0.098367065 -0.063614458 2.3509886e-38
-0.055145334 -0.098367065 -0.063614458 2.3509886e-38
-0.052954044 -0.097487867 -0.059554189 2.3509886e-38
-0.050972763 -0.097487867 -0.059554189 2.3509886e-38
-0.048810016 -0.096642151 -0.055648535 2.3509886e-38
-0.046701219 -0.095991403 -0.052643269 2.3509886e-38
-0.044560995 -0.095129102 -0.048661083 2.3509886e-38
-0.042598817 -0.095129102 -0.048661083 2.3509886e-38
-0.040475797 -0.094246268 -0.044584006 2.3509886e-38
-0.038409691 -0.093608215 -0.041637391 2.3509886e-38
-0.036315106 -0.092736378 -0.037611097 2.3509886e-38
-0.034268681 -0.092080101 -0.03458032 2.3509886e-38
-0.03220224 -0.091219291 -0.030604929 2.3509886e-38
-0.03027172 -0.091219291 -0.030604929 2.3509886e-38
-0.02822702 -0.090364665 -0.026658148 2.3509886e-38
-0.026303422 -0.090364665 -0.026658148 2.3509886e-38
-0.024379816 -0.090364665 -0.026658148 2.3509886e-38
-0.022383083 -0.089695618 -0.023568362 2.3509886e-38
-0.020464901 -0.089695618 -0.023568362 2.3509886e-38
-0.018546715 -0.089695618 -0.023568362 2.3509886e-38
-0.016554628 -0.088826358 -0.019553989 2.3509886e-38
-0.014643487 -0.088826358 -0.019553989 2.3509886e-38
-0.012732338 -0.088826358 -0.019553989 2.3509886e-38
-0.010782626 -0.088191271 -0.016621083 2.3509886e-38
-0.008842051 -0.087534383 -0.013587445 2.3509886e-38
-0.0069033578 -0.086680889 -0.0096459091 2.3509886e-38
-0.0049859565 -0.086032391 -0.0066510141 2.3509886e-38
-0.0030974355 -0.086032391 -0.0066510141 2.3509886e-38
-0.0011913572 -0.085165098 -0.0026457012 2.3509886e-38
0.0006982144 -0.084500432 0.00042381883 2.3509886e-38
0.0025743321 -0.084500432 0.00042381883 2.3509886e-38
0.0044478718 -0.083863959 0.0033631623 2.3509886e-38
0.0063082017 -0.082988426 0.007406503 2.341805e-38
0.0081720743 -0.082988426 0.007406503 2.350988e-38
0.010017462 -0.082336128 0.010418922 2.3418043e-38
0.011852421 -0.08168751 0.013414294 2.3509876e-38
0.013677039 -0.081042573 0.016392738 2.341804e-38
0.015525158 -0.081042573 0.016392738 2.3509876e-38
0.017319959 -0.080164611 0.020447284 2.3509879e-38
0.019117165 -0.079528198 0.023386389 2.3509883e-38
0.02095302 -0.079528198 0.023386389 2.3509886e-38
0.022733083 -0.078871965 0.026416928 2.3509527e-38
0.024502872 -0.078219518 0.029430062 2.3509886e-38
0.02632813 -0.078219518 0.029430062 2.3509886e-38
0.028082481 -0.077570826 0.032425791 2.350988e-38
0.029902488 -0.077570826 0.032425791 2.3509879e-38
0.03161563 -0.076719359 0.036358029 2.3509879e-38
0.033428743 -0.076719359 0.036358029 2.3509524e-38
0.035241853 -0.076719359 0.036358029 2.3509527e-38
0.036955662 -0.076056451 0.039419442 2.3509886e-38
0.038662937 -0.075420126 0.042358071 2.341805e-38
0.04046553 -0.075420126 0.042358071 2.3234379e-38
0.042154055 -0.074764907 0.04538396 2.341805e-38
0.04395134 -0.074764907 0.04538396 2.3509879e-38
0.045748629 -0.074764907 0.04538396 2.3509873e-38
0.047545914 -0.074764907 0.04538396 2.3508068e-38
0.049343202 -0.074764907 0.04538396 1.9632609e-38
0.051140487 -0.074764907 0.04538396 1.0964778e-38
0.052937776 -0.074764907 0.04538396 8.8442812e-39
0.054735061 -0.074764907 0.04538396 1.133321e-38
-0.071312964 -0.10122015 -0.067575663 2.0463443e-38
-0.069317624 -0.10122015 -0.067575663 2.3507339e-38
-0.067514345 -0.10189377 -0.070661515 2.3508788e-38
-0.065326929 -0.10122015 -0.067575663 2.3325483e-38
-0.063331589 -0.10122015 -0.067575663 2.3418047e-38
-0.061110523 -0.10035546 -0.063614458 2.3142542e-38
-0.059122127 -0.10035546 -0.063614458 2.341805e-38
-0.057133731 -0.10035546 -0.063614458 2.3509886e-38
-0.055145334 -0.10035546 -0.063614458 2.3509886e-38
-0.052954044 -0.09946914 -0.059554189 2.3509886e-38
-0.050972763 -0.09946914 -0.059554189 2.3509886e-38
-0.048810016 -0.098616585 -0.055648535 2.3509886e-38
-0.046701219 -0.097960562 -0.052643269 2.3509886e-38
-0.044560995 -0.097091287 -0.048661083 2.3509886e-38
-0.042430829 -0.096201301 -0.044584006 2.3509886e-38
-0.040475797 -0.096201301 -0.044584006 2.3509886e-38
-0.038409691 -0.095558092 -0.041637391 2.3509886e-38
-0.036315106 -0.094679192 -0.037611097 2.3509886e-38
-0.034268681 -0.094017595 -0.03458032 2.3509886e-38
-0.03220224 -0.093149811 -0.030604929 2.3509886e-38
-0.03027172 -0.093149811 -0.030604929 2.3509886e-38
-0.02822702 -0.092288271 -0.026658148 2.3509886e-38
-0.026303422 -0.092288271 -0.026658148 2.3509886e-38
-0.024379816 -0.092288271 -0.026658148 2.3509886e-38
-0.022383083 -0.091613799 -0.023568362 2.3509886e-38
-0.020464901 -0.091613799 -0.023568362 2.3509886e-38
-0.018465772 -0.090737507 -0.019553989 2.3509886e-38
-0.016554628 -0.090737507 -0.019553989 2.3509886e-38
-0.014643487 -0.090737507 -0.019553989 2.3509886e-38
-0.012732338 -0.090737507 -0.019553989 2.3509886e-38
-0.010782626 -0.090097278 -0.016621083 2.3509886e-38
-0.008842051 -0.089435071 -0.013587445 2.3509886e-38
-0.0069033578 -0.088574663 -0.0096459091 2.3509886e-38
-0.0049859565 -0.087920904 -0.0066510141 2.3509886e-38
-0.0030974355 -0.087920904 -0.0066510141 2.3509886e-38
-0.0011913572 -0.087046593 -0.0026457012 2.3509886e-38
0.0006982144 -0.086376548 0.00042381883 2.3509886e-38
0.0025743321 -0.086376548 0.00042381883 2.3509886e-38
0.0044478718 -0.085734919 0.0033631623 2.3509886e-38
0.0063082017 -0.084852293 0.007406503 2.3509886e-38
0.0081720743 -0.084852293 0.007406503 2.3509883e-38
0.010017462 -0.08419472 0.010418922 2.350988e-38
0.011852421 -0.083540857 0.013414294 2.3509876e-38
0.013705761 -0.083540857 0.013414294 2.3509876e-38
0.015525158 -0.082890689 0.016392738 2.3509879e-38
0.017319959 -0.08200562 0.020447284 2.350988e-38
0.019117165 -0.081364051 0.023386389 2.3509886e-38
0.02095302 -0.081364051 0.023386389 2.3509886e-38
0.022733083 -0.080702513 0.026416928 2.3509527e-38
0.024502872 -0.080044776 0.029430062 2.3509527e-38
0.026262473 -0.079390839 0.032425791 2.3509886e-38
0.028082481 -0.079390839 0.032425791 2.3509883e-38
0.029802518 -0.078532472 0.036358029 2.350988e-38
0.03161563 -0.078532472 0.036358029 2.3509879e-38
0.033428743 -0.078532472 0.036358029 2.3509524e-38
0.03514792 -0.077864185 0.039419442 2.3509527e-38
0.036955662 -0.077864185 0.039419442 2.3509886e-38
0.038662937 -0.07722272 0.042358071 2.341805e-38
0.04046553 -0.07722272 0.042358071 2.3234379e-38
0.042154055 -0.076562196 0.04538396 2.3418045e-38
0.04395134 -0.076562196 0.04538396 2.3509873e-38
0.045748629 -0.076562196 0.04538396 2.3509869e-38
0.047545914 -0.076562196 0.04538396 2.3507341e-38
0.049343202 -0.076562196 0.04538396 1.7789051e-38
0.051140487 -0.076562196 0.04538396 9.6743936e-39
0.052937776 -0.076562196 0.04538396 8.7524401e-39
0.054735061 -0.076562196 0.04538396 1.1149172e-38
0.056840852 -0.077864185 0.039419442 1.2071494e-38
-0.074051172 -0.10563703 -0.078580469 1.9172699e-38
-0.071515858 -0.10389452 -0.070661515 2.1384678e-38
-0.069515109 -0.10389452 -0.070661515 2.3414782e-38
-0.067514345 -0.10389452 -0.070661515 2.3508427e-38
-0.065326929 -0.1032155 -0.067575663 2.3508793e-38
-0.063331589 -0.1032155 -0.067575663 2.3509879e-38
-0.061110523 -0.10234386 -0.063614458 2.3234015e-38
-0.059122127 -0.10234386 -0.063614458 2.3509886e-38
-0.057133731 -0.10234386 -0.063614458 2.3509886e-38
-0.054935317 -0.10145043 -0.059554189 2.3509886e-38
-0.052954044 -0.10145043 -0.059554189 2.3509886e-38
-0.050972763 -0.10145043 -0.059554189 2.3509886e-38
-0.048810016 -0.100591 -0.055648535 2.3509886e-38
-0.046701219 -0.09992972 -0.052643269 2.3509886e-38
-0.044560995 -0.099053472 -0.048661083 2.3509886e-38
-0.042430829 -0.098156333 -0.044584006 2.3509886e-38
-0.040475797 -0.098156333 -0.044584006 2.3509886e-38
-0.038409691 -0.097507954 -0.041637391 2.3509886e-38
-0.036315106 -0.09662199 -0.037611097 2.3509886e-38
-0.034268681 -0.095955089 -0.03458032 2.3509886e-38
-0.03220224 -0.095080331 -0.030604929 2.3509886e-38
-0.03027172 -0.095080331 -0.030604929 2.3509886e-38
-0.02822702 -0.094211861 -0.026658148 2.3509886e-38
-0.026303422 -0.094211861 -0.026658148 2.3509886e-38
-0.024379816 -0.094211861 -0.026658148 2.3509886e-38
-0.022383083 -0.093531981 -0.023568362 2.3509886e-38
-0.020464901 -0.093531981 -0.023568362 2.3509886e-38
-0.018465772 -0.09264864 -0.019553989 2.3509886e-38
-0.016554628 -0.09264864 -0.019553989 2.3509886e-38
-0.014594633 -0.092003286 -0.016621083 2.3509886e-38
-0.012688629 -0.092003286 -0.016621083 2.3509886e-38
-0.010742735 -0.091335744 -0.013587445 2.3509886e-38
-0.008842051 -0.091335744 -0.013587445 2.3509886e-38
-0.0069033578 -0.090468436 -0.0096459091 2.3509886e-38
-0.0049859565 -0.089809433 -0.0066510141 2.3509886e-38
-0.0030974355 -0.089809433 -0.0066510141 2.3509886e-38
-0.0011913572 -0.088928089 -0.0026457012 2.3509886e-38
0.0006982144 -0.088252664 0.00042381883 2.3509886e-38
0.0025743321 -0.088252664 0.00042381883 2.3509886e-38
0.0044443272 -0.086716175 0.007406503 2.3509527e-38
0.0063082017 -0.086716175 0.007406503 2.3509527e-38
0.00815887 -0.086053312 0.010418922 2.3509527e-38
0.0099990806 -0.085394189 0.013414294 2.3509883e-38
0.011852421 -0.085394189 0.013414294 2.350988e-38
0.013677039 -0.084738806 0.016392738 2.3509879e-38
0.015525158 -0.084738806 0.016392738 2.350988e-38
0.017319959 -0.083846629 0.020447284 2.3509883e-38
0.019117165 -0.083199903 0.023386389 2.3509886e-38
0.020902542 -0.082533047 0.026416928 2.3509527e-38
0.022677612 -0.081870034 0.029430062 2.3509527e-38
0.024502872 -0.081870034 0.029430062 2.3509527e-38
0.026262473 -0.081210837 0.032425791 2.3509886e-38
0.028082481 -0.081210837 0.032425791 2.3509886e-38
0.029802518 -0.080345586 0.036358029 2.350988e-38
0.03161563 -0.080345586 0.036358029 2.350988e-38
0.033428743 -0.080345586 0.036358029 2.3509521e-38
0.03514792 -0.079671934 0.039419442 2.3509883e-38
0.036860343 -0.079025313 0.042358071 2.3509883e-38
0.038662937 -0.079025313 0.042358071 2.3418047e-38
0.04035677 -0.078359485 0.04538396 2.3234374e-38
0.042154055 -0.078359485 0.04538396 2.341804e-38
0.04395134 -0.078359485 0.04538396 2.350987e-38
0.045748629 -0.078359485 0.04538396 2.3509863e-38
0.047545914 -0.078359485 0.04538396 2.3509137e-38
0.049343202 -0.078359485 0.04538396 1.5760021e-38
0.051281083 -0.079025313 0.042358071 9.3981599e-39
0.053083673 -0.079025313 0.042358071 9.0286613e-39
0.054886267 -0.079025313 0.042358071 1.1148808e-38
0.056840852 -0.079671934 0.039419442 1.2439911e-38
-0.074051172 -0.10765167 -0.078580469 2.0463075e-38
-0.071515858 -0.10589527 -0.070661515 2.2398107e-38
-0.069515109 -0.10589527 -0.070661515 2.3507697e-38
-0.067322284 -0.10521083 -0.067575663 2.3509502e-38
-0.065326929 -0.10521083 -0.067575663 2.3508428e-38
-0.063098922 -0.10433225 -0.063614458 2.3509876e-38
-0.061110523 -0.10433225 -0.063614458 2.3418043e-38
-0.059122127 -0.10433225 -0.063614458 2.3509883e-38
-0.056916598 -0.10343169 -0.059554189 2.3509886e-38
-0.054935317 -0.10343169 -0.059554189 2.3509886e-38
-0.052758876 -0.10256544 -0.055648535 2.3509886e-38
-0.05078445 -0.10256544 -0.055648535 2.3509886e-38
-0.048670378 -0.10189888 -0.052643269 2.3509886e-38
-0.04652318 -0.10101564 -0.048661083 2.3509886e-38
-0.044560995 -0.10101564 -0.048661083 2.3509886e-38
-0.042430829 -0.10011137 -0.044584006 2.3509886e-38
-0.040475797 -0.10011137 -0.044584006 2.3509886e-38
-0.038409691 -0.099457815 -0.041637391 2.3509886e-38
-0.036315106 -0.098564804 -0.037611097 2.3509886e-38
-0.034268681 -0.097892582 -0.03458032 2.3509886e-38
-0.03220224 -0.097010851 -0.030604929 2.3509886e-38
-0.03027172 -0.097010851 -0.030604929 2.3509886e-38
-0.02822702 -0.096135467 -0.026658148 2.3509886e-38
-0.026303422 -0.096135467 -0.026658148 2.3509886e-38
-0.024379816 -0.096135467 -0.026658148 2.3509886e-38
-0.022383083 -0.095450163 -0.023568362 2.3509886e-38
