# .PCD v0.7 - Point Cloud Data file format
VERSION 0.7
FIELDS x y z rgb
SIZE 4 4 4 4
TYPE F F F F
COUNT 1 1 1 1
WIDTH 775
HEIGHT 1
VIEWPOINT 0 0 0 1 0 0 0
POINTS 775
DATA ascii
0.019086311 -0.1207688 -0.024930254 1.656992e-39
0.020980084 -0.1207688 -0.024930254 1.9299803e-39
0.022766208 -0.12002577 -0.021935359 1.8367099e-39
0.024654729 -0.12002577 -0.021935359 2.2958874e-39
0.02654325 -0.12002577 -0.021935359 5.884659e-39
0.017313479 -0.12364738 -0.02887179 2.7550929e-40
0.019086311 -0.12266256 -0.024930254 7.3468397e-40
0.020980084 -0.12266256 -0.024930254 1.5612034e-39
0.022766208 -0.12191428 -0.021935359 2.3877229e-39
0.024654729 -0.12191428 -0.021935359 3.6734198e-39
0.02654325 -0.12191428 -0.021935359 7.7246157e-39
0.028555172 -0.12266256 -0.024930254 1.2056724e-38
0.015412794 -0.12554805 -0.02887179 1.1031106e-39
0.017313479 -0.12554805 -0.02887179 8.2651947e-40
0.019086311 -0.12455635 -0.024930254 1.7448772e-39
0.020980084 -0.12455635 -0.024930254 2.6643084e-39
0.022766208 -0.12380283 -0.021935359 3.0305714e-39
0.024654729 -0.12380283 -0.021935359 3.9489263e-39
0.026661402 -0.12455635 -0.024930254 5.4215229e-39
0.028555172 -0.12455635 -0.024930254 6.157646e-39
0.030448945 -0.12455635 -0.024930254 5.7877887e-39
0.032342721 -0.12455635 -0.024930254 6.2501961e-39
0.04352238 -0.13260551 -0.056921735 1.2714669e-38
0.045472242 -0.13260551 -0.056921735 9.7672885e-39
0.047422107 -0.13260551 -0.056921735 8.7560233e-39
0.015412794 -0.12744872 -0.02887179 1.3775324e-39
0.017313479 -0.12744872 -0.02887179 2.6650245e-39
0.019086311 -0.12645011 -0.024930254 3.5866192e-39
0.020980084 -0.12645011 -0.024930254 9.1176311e-39
0.022873854 -0.12645011 -0.024930254 1.0316529e-38
0.024767628 -0.12645011 -0.024930254 1.068459e-38
0.026661402 -0.12645011 -0.024930254 8.7470451e-39
0.028555172 -0.12645011 -0.024930254 4.9663055e-39
0.030448945 -0.12645011 -0.024930254 3.7666903e-39
0.032342721 -0.12645011 -0.024930254 2.4795584e-39
0.034236491 -0.12645011 -0.024930254 2.7550649e-39
0.036801558 -0.12997745 -0.038852707 5.5180233e-39
0.039421458 -0.13353528 -0.052895442 6.0708285e-39
0.04136426 -0.13353528 -0.052895442 1.3539018e-38
0.043307066 -0.13353528 -0.052895442 1.4737547e-38
0.045249872 -0.13353528 -0.052895442 1.2066398e-38
0.047192674 -0.13353528 -0.052895442 9.9520343e-39
0.015298765 -0.1283439 -0.024930254 3.9557633e-39
0.017192537 -0.1283439 -0.024930254 1.1052656e-38
0.019086311 -0.1283439 -0.024930254 1.2435947e-38
0.020980084 -0.1283439 -0.024930254 1.2344467e-38
0.022873854 -0.1283439 -0.024930254 1.0225407e-38
0.024767628 -0.1283439 -0.024930254 9.7651501e-39
0.026661402 -0.1283439 -0.024930254 9.5800428e-39
0.028555172 -0.1283439 -0.024930254 9.3030986e-39
0.030448945 -0.1283439 -0.024930254 8.4722617e-39
0.032342721 -0.1283439 -0.024930254 1.3357548e-38
0.03441963 -0.12934943 -0.02887179 1.3079518e-38
0.036801558 -0.13189565 -0.038852707 1.4000384e-38
0.03871974 -0.13189565 -0.038852707 1.6396015e-38
0.040637925 -0.13189565 -0.038852707 1.7501269e-38
0.043307066 -0.13547809 -0.052895442 1.4365883e-38
0.045249872 -0.13547809 -0.052895442 9.3902033e-39
0.047192674 -0.13547809 -0.052895442 8.5676579e-39
0.04913548 -0.13547809 -0.052895442 7.9258913e-39
0.051078286 -0.13547809 -0.052895442 8.9403963e-39
0.053956743 -0.13931294 -0.067927614 1.3273959e-38
0.055925902 -0.13931294 -0.067927614 1.6591948e-38
0.061833385 -0.13931294 -0.067927614 1.0876929e-38
-0.042491339 -0.12097444 0.011132583 1.2356021e-38
-0.040660799 -0.12097444 0.011132583 1.2261666e-38
-0.038764216 -0.12020047 0.014145717 1.3090709e-38
-0.036938958 -0.12020047 0.014145717 1.226167e-38
0.015212122 -0.1294684 -0.021935359 4.5096433e-39
0.017100645 -0.1294684 -0.021935359 1.3450801e-38
0.018989166 -0.1294684 -0.021935359 1.3911423e-38
0.020877687 -0.1294684 -0.021935359 1.0500906e-38
0.022766208 -0.1294684 -0.021935359 7.8275944e-39
0.024654729 -0.1294684 -0.021935359 5.892212e-39
0.02654325 -0.1294684 -0.021935359 4.4160085e-39
0.028431771 -0.1294684 -0.021935359 4.968825e-39
0.030448945 -0.13023765 -0.024930254 6.0748124e-39
0.032518946 -0.1312501 -0.02887179 1.3633056e-38
0.03441963 -0.1312501 -0.02887179 1.4369537e-38
0.036466584 -0.13202934 -0.031905428 1.6396756e-38
0.038519144 -0.13278268 -0.034838334 2.1465346e-38
0.040637925 -0.13381381 -0.038852707 2.1003641e-38
0.04314499 -0.13664238 -0.049864665 1.9712173e-38
0.045249872 -0.13742088 -0.052895442 1.5289664e-38
0.047192674 -0.13742088 -0.052895442 7.5524354e-39
0.04913548 -0.13742088 -0.052895442 6.5426051e-39
0.0517467 -0.14025922 -0.063945428 6.9113848e-39
0.053956743 -0.1412821 -0.067927614 1.0415546e-38
0.055925902 -0.1412821 -0.067927614 1.4010118e-38
-0.048075955 -0.12358873 0.0081020445 1.9545106e-38
-0.046240099 -0.12358873 0.0081020445 2.1758885e-38
-0.042491339 -0.12280498 0.011132583 2.3142544e-38
-0.040660799 -0.12280498 0.011132583 2.3415895e-38
-0.038764216 -0.12202574 0.014145717 2.3508809e-38
-0.036938958 -0.12202574 0.014145717 2.3507016e-38
-0.035058551 -0.121251 0.017141446 2.2310638e-38
-0.033238541 -0.121251 0.017141446 1.6505917e-38
0.013131332 -0.12952723 -0.014860526 6.6362805e-39
0.015007447 -0.12952723 -0.014860526 8.9353839e-39
0.016977748 -0.13032107 -0.017930046 1.2436646e-38
0.018859247 -0.13032107 -0.017930046 9.3938369e-39
0.020877687 -0.13135691 -0.021935359 5.1532022e-39
0.022766208 -0.13135691 -0.021935359 5.3372432e-39
0.024654729 -0.13135691 -0.021935359 6.6283463e-39
0.02654325 -0.13135691 -0.021935359 7.6425011e-39
0.028431771 -0.13135691 -0.021935359 9.9470289e-39
0.030448945 -0.13213144 -0.024930254 1.0868265e-38
0.032518946 -0.13315077 -0.02887179 1.4094386e-38
0.03441963 -0.13315077 -0.02887179 1.4738669e-38
0.03632031 -0.13315077 -0.02887179 1.7042477e-38
0.038220994 -0.13315077 -0.02887179 1.8700554e-38
0.040278587 -0.13393532 -0.031905428 2.0082048e-38
0.042721339 -0.13653107 -0.041942492 2.2016714e-38
0.04508248 -0.13857989 -0.049864665 1.9438473e-38
0.04701997 -0.13857989 -0.049864665 1.4098331e-38
0.049784523 -0.14222141 -0.063945428 6.8181186e-39
0.0517467 -0.14222141 -0.063945428 7.2790995e-39
0.053956743 -0.14325126 -0.067927614 8.5702069e-39
0.055925902 -0.14325126 -0.067927614 1.1519761e-38
0.057895068 -0.14325126 -0.067927614 1.6222467e-38
-0.049911812 -0.12542458 0.0081020445 1.8992653e-38
-0.048075955 -0.12542458 0.0081020445 2.3509879e-38
-0.046152428 -0.12463553 0.011132583 2.3418047e-38
-0.044239998 -0.12385099 0.014145717 2.1667779e-38
-0.04241474 -0.12385099 0.014145717 2.341805e-38
-0.040589478 -0.12385099 0.014145717 2.3415535e-38
-0.038764216 -0.12385099 0.014145717 2.3508451e-38
-0.036878556 -0.123071 0.017141446 2.3508092e-38
-0.034986157 -0.12204717 0.021073684 2.3509168e-38
-0.033173043 -0.12204717 0.021073684 2.1944736e-38
-0.031359933 -0.12204717 0.021073684 1.1713189e-38
-0.029506566 -0.12125005 0.024135098 5.0761715e-39
0.01305145 -0.13063805 -0.011921182 1.2538566e-38
0.014922412 -0.13063805 -0.011921182 1.4467476e-38
0.016883565 -0.13140334 -0.014860526 1.4280209e-38
0.018759681 -0.13140334 -0.014860526 1.0131056e-38
0.020740746 -0.13220255 -0.017930046 4.691522e-39
0.022622244 -0.13220255 -0.017930046 4.5989747e-39
0.024503743 -0.13220255 -0.017930046 7.2726507e-39
0.026385242 -0.13220255 -0.017930046 9.8541256e-39
0.028431771 -0.13324542 -0.021935359 1.1606194e-38
0.030320296 -0.13324542 -0.021935359 1.3634484e-38
0.032518946 -0.13505147 -0.02887179 1.4463155e-38
0.03441963 -0.13505147 -0.02887179 1.501596e-38
0.036130264 -0.1340252 -0.024930254 1.7319763e-38
0.038024038 -0.1340252 -0.024930254 1.7041736e-38
0.039917808 -0.1340252 -0.024930254 2.1097264e-38
0.042341433 -0.13660498 -0.034838334 2.1833752e-38
0.04508248 -0.14051737 -0.049864665 2.1375297e-38
0.04701997 -0.14051737 -0.049864665 1.8153857e-38
0.049784523 -0.14418359 -0.063945428 7.646803e-39
0.051987585 -0.14522041 -0.067927614 7.923041e-39
0.053708877 -0.14418359 -0.063945428 9.3067041e-39
0.055671055 -0.14418359 -0.063945428 9.951719e-39
0.05763324 -0.14418359 -0.063945428 1.4654415e-38
-0.057371181 -0.12803085 0.0051629394 1.1431895e-38
-0.055530172 -0.12803085 0.0051629394 1.0509939e-38
-0.053583521 -0.12726043 0.0081020445 1.1155668e-38
-0.051747665 -0.12726043 0.0081020445 1.5304828e-38
-0.049911812 -0.12726043 0.0081020445 2.350988e-38
-0.048075955 -0.12726043 0.0081020445 2.2680478e-38
-0.046152428 -0.12646608 0.011132583 2.2772674e-38
-0.044239998 -0.12567626 0.014145717 2.3509883e-38
-0.04241474 -0.12567626 0.014145717 2.3509527e-38
-0.040589478 -0.12567626 0.014145717 2.3508808e-38
-0.038764216 -0.12567626 0.014145717 2.3509168e-38
-0.036878556 -0.124891 0.017141446 2.3047117e-38
-0.034986157 -0.12386028 0.021073684 2.3509168e-38
-0.033122052 -0.1230578 0.024135098 2.3142185e-38
-0.031314306 -0.1230578 0.024135098 2.2406425e-38
-0.029506566 -0.1230578 0.024135098 2.2130201e-38
-0.00034370506 -0.12726043 0.0081020445 2.1844145e-38
0.0014921506 -0.12726043 0.0081020445 1.8341797e-38
0.0032722135 -0.12646608 0.011132583 1.8803869e-38
0.005102756 -0.12646608 0.011132583 1.9727637e-38
0.0069332984 -0.12646608 0.011132583 1.3184276e-38
0.0087638404 -0.12646608 0.011132583 5.1650628e-39
0.01305145 -0.13250901 -0.011921182 1.3185364e-38
0.014922412 -0.13250901 -0.011921182 1.437672e-38
0.016883565 -0.13327946 -0.014860526 1.5940094e-38
0.018759681 -0.13327946 -0.014860526 1.483376e-38
0.0206358 -0.13327946 -0.014860526 9.9470429e-39
0.022622244 -0.13408406 -0.017930046 9.8544955e-39
0.024388032 -0.13327946 -0.014860526 1.1790604e-38
0.026264148 -0.13327946 -0.014860526 1.2528521e-38
0.028140267 -0.13327946 -0.014860526 1.2343759e-38
0.030320296 -0.13513394 -0.021935359 1.2897274e-38
0.032518946 -0.13695215 -0.02887179 1.3081288e-38
0.03441963 -0.13695215 -0.02887179 1.2988002e-38
0.036130264 -0.13591899 -0.024930254 1.5846058e-38
0.038024038 -0.13591899 -0.024930254 1.6582906e-38
0.039917808 -0.13591899 -0.024930254 2.0730633e-38
0.042022362 -0.13695215 -0.02887179 1.8884571e-38
0.04586016 -0.14614578 -0.063945428 1.8702703e-38
0.04804926 -0.1471896 -0.067927614 1.6402496e-38
0.050018419 -0.1471896 -0.067927614 8.9371817e-39
0.051987585 -0.1471896 -0.067927614 7.8301321e-39
0.053708877 -0.14614578 -0.063945428 1.1333574e-38
0.055671055 -0.14614578 -0.063945428 1.0596009e-38
0.05763324 -0.14614578 -0.063945428 1.1611238e-38
-0.057371181 -0.12987186 0.0051629394 1.0971277e-38
-0.055530172 -0.12987186 0.0051629394 9.8649296e-39
-0.053583521 -0.12909628 0.0081020445 1.5488863e-38
-0.051747665 -0.12909628 0.0081020445 2.0006449e-38
-0.049911812 -0.12909628 0.0081020445 2.3418045e-38
-0.048075955 -0.12909628 0.0081020445 2.2496447e-38
-0.046152428 -0.1282966 0.011132583 2.3509876e-38
-0.044239998 -0.1275015 0.014145717 2.3508068e-38
-0.04241474 -0.1275015 0.014145717 2.2954177e-38
-0.040589478 -0.1275015 0.014145717 2.3048545e-38
-0.038698561 -0.126711 0.017141446 2.341805e-38
-0.036878556 -0.126711 0.017141446 2.3234379e-38
-0.034929797 -0.12486555 0.024135098 2.3049632e-38
-0.033073105 -0.12409012 0.027073726 2.3509168e-38
-0.031270511 -0.12409012 0.027073726 2.314075e-38
-0.02946792 -0.12409012 0.027073726 2.341805e-38
-0.02766533 -0.12409012 0.027073726 2.1206801e-38
-0.00034370506 -0.12909628 0.0081020445 2.3506933e-38
0.0014921506 -0.12909628 0.0081020445 2.01832e-38
0.0032722135 -0.1282966 0.011132583 1.7419492e-38
0.005102756 -0.1282966 0.011132583 1.8712037e-38
0.0069332984 -0.1282966 0.011132583 1.8991156e-38
0.0087638404 -0.1282966 0.011132583 1.0696082e-38
0.010594383 -0.1282966 0.011132583 5.8115224e-39
0.01305145 -0.13437997 -0.011921182 1.0880127e-38
0.014922412 -0.13437997 -0.011921182 1.5853648e-38
0.016793376 -0.13437997 -0.011921182 1.8247498e-38
0.01866434 -0.13437997 -0.011921182 1.713973e-38
0.020535303 -0.13437997 -0.011921182 1.0593135e-38
0.022511916 -0.13515557 -0.014860526 9.763023e-39
0.024277231 -0.13437997 -0.011921182 9.3020448e-39
0.026148191 -0.13437997 -0.011921182 1.0224353e-38
0.028019154 -0.13437997 -0.011921182 1.4003997e-38
0.030016383 -0.13515557 -0.014860526 1.3359684e-38
0.032518946 -0.13885282 -0.02887179 8.9346342e-39
0.03441963 -0.13885282 -0.02887179 9.9476931e-39
0.036130264 -0.13781275 -0.024930254 1.7783959e-38
0.038024038 -0.13781275 -0.024930254 1.981083e-38
0.039917808 -0.13781275 -0.024930254 2.082427e-38
0.041811582 -0.13781275 -0.024930254 1.9809051e-38
0.043539945 -0.13702248 -0.021935359 1.741269e-38
0.045428466 -0.13702248 -0.021935359 1.6125544e-38
0.047316987 -0.13702248 -0.021935359 1.0687453e-38
0.051987585 -0.14915876 -0.067927614 7.7361386e-39
0.053708877 -0.14810793 -0.063945428 1.0410542e-38
0.055671055 -0.14810793 -0.063945428 1.2070777e-38
-0.060926944 -0.13093217 0.0081020445 1.1156024e-38
-0.059091091 -0.13093217 0.0081020445 1.0879082e-38
-0.057255235 -0.13093217 0.0081020445 1.0879082e-38
-0.055419378 -0.13093217 0.0081020445 1.1985429e-38
-0.053583521 -0.13093217 0.0081020445 2.0928405e-38
-0.051747665 -0.13093217 0.0081020445 2.2312058e-38
-0.049911812 -0.13093217 0.0081020445 2.332621e-38
-0.047982968 -0.13012715 0.011132583 2.3234012e-38
-0.046152428 -0.13012715 0.011132583 2.3048893e-38
-0.044321883 -0.13012715 0.011132583 2.3509859e-38
-0.042491339 -0.13012715 0.011132583 2.350914e-38
-0.040589478 -0.12932678 0.014145717 2.3509879e-38
-0.038698561 -0.12853102 0.017141446 2.3142544e-38
-0.036878556 -0.12853102 0.017141446 2.2958873e-38
-0.034875698 -0.12589271 0.027073726 2.3142544e-38
-0.033073105 -0.12589271 0.027073726 2.3416974e-38
-0.031270511 -0.12589271 0.027073726 2.3509168e-38
-0.02946792 -0.12589271 0.027073726 2.3508091e-38
-0.02766533 -0.12589271 0.027073726 2.3234379e-38
-0.025862737 -0.12589271 0.027073726 1.9181748e-38
-0.0020484277 -0.13358103 -0.001870051 2.3508383e-38
-0.0002394761 -0.13278987 0.0011083931 2.350333e-38
0.0015411065 -0.13171287 0.0051629394 2.0366507e-38
0.0033821152 -0.13171287 0.0051629394 1.7786466e-38
0.0052231238 -0.13171287 0.0051629394 1.4562858e-38
0.0070641343 -0.13171287 0.0051629394 1.6686609e-38
0.0089051425 -0.13171287 0.0051629394 1.7518184e-38
0.011180487 -0.13625093 -0.011921182 1.3739622e-38
0.01305145 -0.13625093 -0.011921182 8.0220568e-39
0.014922412 -0.13625093 -0.011921182 1.3642017e-38
0.016793376 -0.13625093 -0.011921182 1.7327685e-38
0.01866434 -0.13625093 -0.011921182 1.6865284e-38
0.020535303 -0.13625093 -0.011921182 1.0134301e-38
0.022406267 -0.13625093 -0.011921182 8.9354091e-39
0.024277231 -0.13625093 -0.011921182 6.8138334e-39
0.025988681 -0.13517688 -0.0078778416 1.0409815e-38
0.027852556 -0.13517688 -0.0078778416 2.1196689e-38
0.030016383 -0.13703169 -0.014860526 1.880066e-38
0.032518946 -0.14075352 -0.02887179 7.9211983e-39
0.03441963 -0.14075352 -0.02887179 1.0410113e-38
0.03632031 -0.14075352 -0.02887179 2.3317141e-38
0.038024038 -0.13970654 -0.024930254 2.3315355e-38
0.039917808 -0.13970654 -0.024930254 1.8981814e-38
0.041651424 -0.13891099 -0.021935359 1.9810152e-38
0.043318734 -0.13784705 -0.017930046 1.3541565e-38
0.045200232 -0.13784705 -0.017930046 1.3359675e-38
0.047081728 -0.13784705 -0.017930046 1.077964e-38
0.04896323 -0.13784705 -0.017930046 9.948468e-39
-0.062762804 -0.13276802 0.0081020445 1.1156024e-38
-0.060926944 -0.13276802 0.0081020445 1.1432255e-38
-0.059091091 -0.13276802 0.0081020445 1.1155671e-38
-0.057255235 -0.13276802 0.0081020445 1.1064194e-38
-0.055419378 -0.13276802 0.0081020445 1.2908107e-38
-0.053583521 -0.13276802 0.0081020445 2.1390105e-38
-0.051747665 -0.13276802 0.0081020445 2.2404254e-38
-0.049911812 -0.13276802 0.0081020445 1.9822776e-38
-0.047982968 -0.13195769 0.011132583 1.8625309e-38
-0.046152428 -0.13195769 0.011132583 1.9084479e-38
-0.044321883 -0.13195769 0.011132583 2.0280125e-38
-0.042491339 -0.13195769 0.011132583 2.3509129e-38
-0.040589478 -0.13115202 0.014145717 2.3509869e-38
-0.038698561 -0.13035102 0.017141446 2.277483e-38
-0.036878556 -0.13035102 0.017141446 2.2958873e-38
-0.034875698 -0.12769531 0.027073726 2.3234379e-38
-0.033073105 -0.12769531 0.027073726 2.3139661e-38
-0.031270511 -0.12769531 0.027073726 2.3509165e-38
-0.02946792 -0.12769531 0.027073726 2.3323699e-38
-0.02766533 -0.12769531 0.027073726 2.3417691e-38
-0.025862737 -0.12769531 0.027073726 2.1670665e-38
-0.024060145 -0.12769531 0.027073726 1.4942202e-38
-0.0020484277 -0.13543437 -0.001870051 2.3498642e-38
-0.0002394761 -0.134638 0.0011083931 2.3505113e-38
0.0015411065 -0.13355388 0.0051629394 2.073455e-38
0.0033821152 -0.13355388 0.0051629394 1.7232909e-38
0.0052231238 -0.13355388 0.0051629394 1.7051399e-38
0.0070641343 -0.13355388 0.0051629394 1.6317084e-38
0.0089051425 -0.13355388 0.0051629394 1.7149019e-38
0.011180487 -0.13812189 -0.011921182 1.8164987e-38
0.01305145 -0.13812189 -0.011921182 7.0093159e-39
0.014922412 -0.13812189 -0.011921182 1.2354125e-38
0.016669312 -0.13704078 -0.0078778416 1.6317096e-38
0.018533187 -0.13704078 -0.0078778416 1.6868851e-38
0.020535303 -0.13812189 -0.011921182 1.0966549e-38
0.022406267 -0.13812189 -0.011921182 8.7531506e-39
0.024124807 -0.13704078 -0.0078778416 5.8943756e-39
0.025988681 -0.13704078 -0.0078778416 8.6598788e-39
0.027852556 -0.13704078 -0.0078778416 1.944604e-38
0.02971643 -0.13704078 -0.0078778416 2.0368701e-38
0.032518946 -0.1426542 -0.02887179 1.6219529e-38
0.03441963 -0.1426542 -0.02887179 1.6311003e-38
0.036130264 -0.1416003 -0.024930254 2.3409712e-38
0.038024038 -0.1416003 -0.024930254 2.1933883e-38
0.039917808 -0.1416003 -0.024930254 1.9720129e-38
0.041651424 -0.14079951 -0.021935359 1.7966992e-38
0.043318734 -0.13972856 -0.017930046 1.4371711e-38
0.045200232 -0.13972856 -0.017930046 1.1331372e-38
0.047081728 -0.13972856 -0.017930046 1.2530628e-38
-0.060926944 -0.13460387 0.0081020445 1.0971996e-38
-0.059091091 -0.13460387 0.0081020445 1.1248586e-38
-0.057255235 -0.13460387 0.0081020445 1.4014455e-38
-0.055419378 -0.13460387 0.0081020445 1.5212998e-38
-0.053583521 -0.13460387 0.0081020445 1.7610084e-38
-0.051747665 -0.13460387 0.0081020445 1.5766169e-38
-0.049911812 -0.13460387 0.0081020445 1.3001379e-38
-0.048075955 -0.13460387 0.0081020445 1.2448202e-38
-0.046240099 -0.13460387 0.0081020445 1.0971985e-38
-0.044321883 -0.13378824 0.011132583 1.1062723e-38
-0.042491339 -0.13378824 0.011132583 1.1522975e-38
-0.040589478 -0.13297729 0.014145717 1.687249e-38
-0.038698561 -0.13217102 0.017141446 2.2958129e-38
-0.036799267 -0.13111271 0.021073684 2.3418035e-38
-0.034929797 -0.13028879 0.024135098 2.3326203e-38
-0.033073105 -0.1294979 0.027073726 2.3509879e-38
-0.031270511 -0.1294979 0.027073726 2.3509883e-38
-0.02946792 -0.1294979 0.027073726 2.3509168e-38
-0.02766533 -0.1294979 0.027073726 2.2773049e-38
-0.025862737 -0.1294979 0.027073726 2.2775202e-38
-0.024060145 -0.1294979 0.027073726 2.2499695e-38
-0.0020875945 -0.13648613 0.0011083931 2.1838755e-38
-0.00029990217 -0.13539489 0.0051629394 2.3499344e-38
0.0015411065 -0.13539489 0.0051629394 2.35051e-38
0.0033821152 -0.13539489 0.0051629394 2.3507618e-38
0.0052231238 -0.13539489 0.0051629394 2.350762e-38
0.0070641343 -0.13539489 0.0051629394 2.3507988e-38
0.0089051425 -0.13539489 0.0051629394 2.3509806e-38
0.011077691 -0.13890465 -0.0078778416 2.1482582e-38
0.012941565 -0.13890465 -0.0078778416 4.9799233e-39
0.01480544 -0.13890465 -0.0078778416 1.0049942e-38
0.016669312 -0.13890465 -0.0078778416 1.4751197e-38
0.018533187 -0.13890465 -0.0078778416 1.6132709e-38
0.020397061 -0.13890465 -0.0078778416 1.4471767e-38
0.022260936 -0.13890465 -0.0078778416 1.1335333e-38
0.024011249 -0.13809387 -0.0048654228 3.9589708e-39
0.025869841 -0.13809387 -0.0048654228 7.5538801e-39
0.027728437 -0.13809387 -0.0048654228 1.7142577e-38
0.029587029 -0.13809387 -0.0048654228 2.02765e-38
0.032518946 -0.14455487 -0.02887179 2.3042725e-38
0.034236491 -0.14349405 -0.024930254 2.2396637e-38
0.035985861 -0.14268802 -0.021935359 1.6495769e-38
0.037874382 -0.14268802 -0.021935359 1.1977124e-38
0.039762903 -0.14268802 -0.021935359 1.0501293e-38
0.041437235 -0.14161004 -0.017930046 1.3543412e-38
0.043318734 -0.14161004 -0.017930046 1.4834137e-38
0.045025319 -0.14078392 -0.014860526 1.2345524e-38
0.046491299 -0.13890465 -0.0078778416 1.3360024e-38
0.048355173 -0.13890465 -0.0078778416 1.1884559e-38
-0.060926944 -0.13643973 0.0081020445 1.1064192e-38
-0.059091091 -0.13643973 0.0081020445 1.0971999e-38
-0.057255235 -0.13643973 0.0081020445 1.5029327e-38
-0.055419378 -0.13643973 0.0081020445 1.6596653e-38
-0.053583521 -0.13643973 0.0081020445 1.6320066e-38
-0.051747665 -0.13643973 0.0081020445 1.46609e-38
-0.049911812 -0.13643973 0.0081020445 1.2356009e-38
-0.048075955 -0.13643973 0.0081020445 1.2909183e-38
-0.046240099 -0.13643973 0.0081020445 1.078868e-38
-0.044321883 -0.13561879 0.011132583 1.1064892e-38
-0.042491339 -0.13561879 0.011132583 8.8521888e-39
-0.040589478 -0.13480256 0.014145717 1.0233316e-38
-0.038698561 -0.13399105 0.017141446 1.6040558e-38
-0.036799267 -0.13292582 0.021073684 2.1572299e-38
-0.034929797 -0.13209651 0.024135098 2.3417302e-38
-0.033073105 -0.13130049 0.027073726 2.295778e-38
-0.031270511 -0.13130049 0.027073726 2.2497894e-38
-0.02946792 -0.13130049 0.027073726 2.2681572e-38
-0.02766533 -0.13130049 0.027073726 2.2220243e-38
-0.025833556 -0.13048081 0.030099615 2.2957438e-38
-0.024012534 -0.1296659 0.033107862 2.323402e-38
-0.022220524 -0.1296659 0.033107862 2.3142185e-38
-0.0039819204 -0.13723589 0.0051629394 1.5478366e-38
-0.0021795607 -0.13643973 0.0081020445 2.1378146e-38
-0.00034370506 -0.13643973 0.0081020445 2.3503314e-38
0.0014921506 -0.13643973 0.0081020445 2.3506915e-38
0.0033821152 -0.13723589 0.0051629394 2.3509085e-38
0.0052231238 -0.13723589 0.0051629394 2.3508375e-38
0.0070641343 -0.13723589 0.0051629394 2.3506943e-38
0.0089051425 -0.13723589 0.0051629394 2.3509825e-38
0.011077691 -0.14076851 -0.0078778416 2.2955204e-38
0.012941565 -0.14076851 -0.0078778416 1.0233276e-38
0.01480544 -0.14076851 -0.0078778416 8.39007e-39
0.016576881 -0.13995247 -0.0048654228 1.2261568e-38
0.018435473 -0.13995247 -0.0048654228 1.4104052e-38
0.020294065 -0.13995247 -0.0048654228 1.7329831e-38
0.022152657 -0.13995247 -0.0048654228 1.4101557e-38
0.023898335 -0.13914107 -0.001870051 3.4061642e-39
0.025751675 -0.13914107 -0.001870051 7.2776422e-39
0.027728437 -0.13995247 -0.0048654228 1.5021349e-38
0.029587029 -0.13995247 -0.0048654228 1.9907353e-38
0.032208819 -0.14457656 -0.021935359 2.3503699e-38
0.03409734 -0.14457656 -0.021935359 2.1751267e-38
0.035985861 -0.14457656 -0.021935359 1.0779637e-38
0.037874382 -0.14457656 -0.021935359 1.0503065e-38
0.039762903 -0.14457656 -0.021935359 9.6726028e-39
0.041437235 -0.14349155 -0.017930046 1.2530686e-38
0.043318734 -0.14349155 -0.017930046 1.5757161e-38
0.044857826 -0.14186381 -0.011921182 1.5019194e-38
0.046491299 -0.14076851 -0.0078778416 1.087074e-38
0.048355173 -0.14076851 -0.0078778416 1.0225032e-38
-0.053583521 -0.13827558 0.0081020445 1.7149826e-38
-0.051747665 -0.13827558 0.0081020445 1.7242378e-38
-0.049911812 -0.13827558 0.0081020445 1.3001379e-38
-0.048075955 -0.13827558 0.0081020445 1.3093935e-38
-0.046240099 -0.13827558 0.0081020445 1.1895747e-38
-0.044404246 -0.13827558 0.0081020445 1.1712434e-38
-0.04241474 -0.13662781 0.014145717 1.235671e-38
-0.040589478 -0.13662781 0.014145717 1.1247467e-38
-0.038698561 -0.13581105 0.017141446 1.0692487e-38
-0.036799267 -0.13473894 0.021073684 1.4288117e-38
-0.034929797 -0.13390426 0.024135098 1.9175215e-38
-0.033073105 -0.13310309 0.027073726 2.2312407e-38
-0.031270511 -0.13310309 0.027073726 2.2958873e-38
-0.02946792 -0.13310309 0.027073726 2.2867037e-38
-0.02766533 -0.13310309 0.027073726 2.3142544e-38
-0.025833556 -0.1322781 0.030099615 2.3416615e-38
-0.024012534 -0.13145791 0.033107862 2.3508809e-38
-0.022220524 -0.13145791 0.033107862 2.3232227e-38
-0.020441698 -0.1322781 0.030099615 2.2958155e-38
-0.00582293 -0.1390769 0.0051629394 1.6126643e-38
-0.0039819204 -0.1390769 0.0051629394 1.7138975e-38
-0.0021795607 -0.13827558 0.0081020445 2.1470352e-38
-0.00034370506 -0.13827558 0.0081020445 2.3129862e-38
0.0014921506 -0.13827558 0.0081020445 2.2853272e-38
0.0033821152 -0.1390769 0.0051629394 2.3130226e-38
0.0052231238 -0.1390769 0.0051629394 2.2670693e-38
0.0070641343 -0.1390769 0.0051629394 2.0920782e-38
0.0089051425 -0.1390769 0.0051629394 1.9909151e-38
0.010746151 -0.1390769 0.0051629394 2.138536e-38
0.012941565 -0.14263238 -0.0078778416 1.5209329e-38
0.01480544 -0.14263238 -0.0078778416 1.0415875e-38
0.016576881 -0.14181106 -0.0048654228 1.1337832e-38
0.018435473 -0.14181106 -0.0048654228 1.3365421e-38
0.020294065 -0.14181106 -0.0048654228 1.7789376e-38
0.022152657 -0.14181106 -0.0048654228 1.4469257e-38
0.023898335 -0.14099441 -0.001870051 3.8657004e-39
0.025751675 -0.14099441 -0.001870051 5.4326436e-39
0.027605014 -0.14099441 -0.001870051 9.3041356e-39
0.029458357 -0.14099441 -0.001870051 1.7877963e-38
0.032208819 -0.14646508 -0.021935359 2.0920419e-38
0.03409734 -0.14646508 -0.021935359 1.8984674e-38
0.035985861 -0.14646508 -0.021935359 7.8286481e-39
0.037874382 -0.14646508 -0.021935359 9.1197611e-39
0.039762903 -0.14646508 -0.021935359 9.8576961e-39
0.041437235 -0.14537306 -0.017930046 1.2991641e-38
0.043318734 -0.14537306 -0.017930046 1.7232993e-38
0.044857826 -0.14373477 -0.011921182 1.4742604e-38
0.046728786 -0.14373477 -0.011921182 9.763676e-39
0.048599754 -0.14373477 -0.011921182 1.0593452e-38
0.050470714 -0.14373477 -0.011921182 6.4457389e-39
0.052341681 -0.14373477 -0.011921182 3.4043719e-39
-0.048290543 -0.14203046 0.0011083931 1.1526609e-38
-0.046065256 -0.13845308 0.014145717 1.1158908e-38
-0.044239998 -0.13845308 0.014145717 1.1251467e-38
-0.04241474 -0.13845308 0.014145717 1.1434768e-38
-0.040589478 -0.13845308 0.014145717 1.3183225e-38
-0.038698561 -0.13763104 0.017141446 1.2167982e-38
-0.036799267 -0.13655205 0.021073684 1.0139314e-38
-0.034929797 -0.13571201 0.024135098 1.3920062e-38
-0.033073105 -0.13490568 0.027073726 2.0007868e-38
-0.031270511 -0.13490568 0.027073726 2.2406049e-38
-0.02946792 -0.13490568 0.027073726 2.2406422e-38
-0.02766533 -0.13490568 0.027073726 2.2681214e-38
-0.025833556 -0.13407536 0.030099615 2.2493941e-38
-0.024012534 -0.13324992 0.033107862 2.3508451e-38
-0.022220524 -0.13324992 0.033107862 2.2954201e-38
-0.02042851 -0.13324992 0.033107862 2.3417691e-38
-0.018636499 -0.13324992 0.033107862 1.6598832e-38
-0.00582293 -0.14091791 0.0051629394 1.3454749e-38
-0.0039819204 -0.14091791 0.0051629394 1.5757478e-38
-0.0021795607 -0.14011143 0.0081020445 1.8613377e-38
-0.00034370506 -0.14011143 0.0081020445 2.1009374e-38
0.0014921506 -0.14011143 0.0081020445 2.3038382e-38
0.0033821152 -0.14091791 0.0051629394 2.3501509e-38
0.0051638619 -0.14011143 0.0081020445 2.1565033e-38
0.0069997185 -0.14011143 0.0081020445 1.9999152e-38
0.0088355727 -0.14011143 0.0081020445 2.0553053e-38
0.010746151 -0.14091791 0.0051629394 2.2305507e-38
0.01258716 -0.14091791 0.0051629394 1.7235123e-38
0.014631635 -0.14284773 -0.001870051 1.1150589e-38
0.016484974 -0.14284773 -0.001870051 8.8457022e-39
0.018241702 -0.14203046 0.0011083931 1.2532807e-38
0.020089822 -0.14203046 0.0011083931 1.6403938e-38
0.021937938 -0.14203046 0.0011083931 1.4374188e-38
0.023898335 -0.14284773 -0.001870051 8.4733015e-39
0.025751675 -0.14284773 -0.001870051 9.0250319e-39
0.027605014 -0.14284773 -0.001870051 1.0869295e-38
0.03409734 -0.14835359 -0.021935359 1.8060911e-38
0.035792738 -0.14725454 -0.017930046 9.9484176e-39
0.037674237 -0.14725454 -0.017930046 1.0317922e-38
0.039762903 -0.14835359 -0.021935359 1.3084156e-38
0.041651424 -0.14835359 -0.021935359 1.4005758e-38
0.043539945 -0.14835359 -0.021935359 1.4374543e-38
0.044857826 -0.14560573 -0.011921182 1.4188714e-38
0.046728786 -0.14560573 -0.011921182 7.5506319e-39
0.048599754 -0.14560573 -0.011921182 9.118322e-39
0.050470714 -0.14560573 -0.011921182 7.2754982e-39
0.052341681 -0.14560573 -0.011921182 3.7735188e-39
-0.048290543 -0.14387859 0.0011083931 1.1895391e-38
-0.046442427 -0.14387859 0.0011083931 1.2171981e-38
-0.044239998 -0.14027832 0.014145717 1.2172708e-38
-0.04241474 -0.14027832 0.014145717 1.1341504e-38
-0.040589478 -0.14027832 0.014145717 1.1801027e-38
-0.038764216 -0.14027832 0.014145717 1.2998477e-38
-0.036799267 -0.13836516 0.021073684 1.1985033e-38
-0.034986157 -0.13836516 0.021073684 1.0970881e-38
-0.033122052 -0.13751976 0.024135098 1.5212968e-38
-0.031270511 -0.13670824 0.027073726 2.2127652e-38
-0.02946792 -0.13670824 0.027073726 2.3509879e-38
-0.02766533 -0.13670824 0.027073726 2.3416971e-38
-0.025833556 -0.13587265 0.030099615 2.3509168e-38
-0.024012534 -0.13504194 0.033107862 2.3509168e-38
-0.022220524 -0.13504194 0.033107862 2.3509168e-38
-0.02042851 -0.13504194 0.033107862 2.3509527e-38
-0.018636499 -0.13504194 0.033107862 2.2405344e-38
-0.0039819204 -0.14275892 0.0051629394 1.3268919e-38
-0.0021795607 -0.14194728 0.0081020445 1.7232242e-38
-0.00034370506 -0.14194728 0.0081020445 2.0088858e-38
0.0014921506 -0.14194728 0.0081020445 2.2761795e-38
0.0033280072 -0.14194728 0.0081020445 2.3502946e-38
0.0051638619 -0.14194728 0.0081020445 2.2671735e-38
0.0069997185 -0.14194728 0.0081020445 2.2764293e-38
0.0087638404 -0.14111041 0.011132583 2.3225999e-38
0.010594383 -0.14111041 0.011132583 2.3503686e-38
0.012507286 -0.14194728 0.0081020445 1.9261988e-38
0.014545467 -0.14387859 0.0011083931 1.2254427e-38
0.016393585 -0.14387859 0.0011083931 6.3535559e-39
0.018110188 -0.14275892 0.0051629394 1.1055523e-38
0.019850707 -0.14194728 0.0081020445 1.4558227e-38
0.021686563 -0.14194728 0.0081020445 1.4741885e-38
0.025358276 -0.14194728 0.0081020445 1.79662e-38
0.027194133 -0.14194728 0.0081020445 2.0547314e-38
0.033911239 -0.14913605 -0.017930046 1.9349489e-38
0.035792738 -0.14913605 -0.017930046 1.7413744e-38
0.037674237 -0.14913605 -0.017930046 1.7507019e-38
0.039555736 -0.14913605 -0.017930046 1.8430416e-38
0.045200232 -0.14913605 -0.017930046 1.2620315e-38
0.047081728 -0.14913605 -0.017930046 4.4156372e-39
0.050844725 -0.14913605 -0.017930046 7.4606097e-39
0.052726228 -0.14913605 -0.017930046 4.5114496e-39
-0.046442427 -0.1457267 0.0011083931 1.1895394e-38
-0.04459431 -0.1457267 0.0011083931 1.134043e-38
-0.042643107 -0.14459993 0.0051629394 1.2999951e-38
-0.040660799 -0.14294095 0.011132583 1.1802483e-38
-0.038764216 -0.1421036 0.014145717 1.2172333e-38
-0.036878556 -0.14127107 0.017141446 1.3094278e-38
-0.035058551 -0.14127107 0.017141446 1.0050732e-38
-0.033173043 -0.14017828 0.021073684 1.3182497e-38
-0.031314306 -0.13932751 0.024135098 2.3509489e-38
-0.02946792 -0.13851084 0.027073726 2.350842e-38
-0.02766533 -0.13851084 0.027073726 2.3509514e-38
-0.025833556 -0.13766994 0.030099615 2.3509527e-38
-0.024036271 -0.13766994 0.030099615 2.231171e-38
-0.022238983 -0.13766994 0.030099615 2.2957796e-38
-0.02042851 -0.13683395 0.033107862 2.304927e-38
-0.018636499 -0.13683395 0.033107862 2.3509879e-38
-0.005851273 -0.14378314 0.0081020445 6.7269963e-39
-0.0040154164 -0.14378314 0.0081020445 1.1887426e-38
-0.0021795607 -0.14378314 0.0081020445 1.7878329e-38
-0.00034370506 -0.14378314 0.0081020445 1.7416621e-38
0.0014921506 -0.14378314 0.0081020445 1.9351639e-38
0.0033280072 -0.14378314 0.0081020445 2.2577404e-38
0.0051638619 -0.14378314 0.0081020445 2.3501518e-38
0.0069332984 -0.14294095 0.011132583 2.3505479e-38
0.0087638404 -0.14294095 0.011132583 2.2671398e-38
0.010594383 -0.14294095 0.011132583 2.1749085e-38
0.012507286 -0.14378314 0.0081020445 1.9260179e-38
0.014428169 -0.14459993 0.0051629394 1.5572385e-38
0.016269179 -0.14459993 0.0051629394 5.4301549e-39
0.018014854 -0.14378314 0.0081020445 8.8413792e-39
0.019747095 -0.14294095 0.011132583 1.3727013e-38
0.021577636 -0.14294095 0.011132583 1.4647877e-38
-0.050235271 -0.14840777 -0.001870051 1.2265256e-38
-0.048166137 -0.14644094 0.0051629394 1.1620605e-38
-0.046240099 -0.14561899 0.0081020445 1.3095019e-38
-0.044404246 -0.14561899 0.0081020445 1.3276538e-38
-0.042568386 -0.14561899 0.0081020445 1.3460573e-38
-0.040732533 -0.14561899 0.0081020445 1.1987961e-38
-0.038830258 -0.1447715 0.011132583 1.2173423e-38
-0.036938958 -0.14392884 0.014145717 1.3187564e-38
-0.035058551 -0.14309107 0.017141446 1.2447827e-38
-0.033173043 -0.14199139 0.021073684 1.2906636e-38
-0.031359933 -0.14199139 0.021073684 1.6316069e-38
-0.029506566 -0.14113526 0.024135098 2.2031848e-38
-0.02769882 -0.14113526 0.024135098 2.3509869e-38
-0.025862737 -0.14031343 0.027073726 2.2403535e-38
-0.024036271 -0.13946722 0.030099615 2.3234379e-38
-0.022238983 -0.13946722 0.030099615 2.3142544e-38
-0.02042851 -0.13862596 0.033107862 2.2957431e-38
-0.018636499 -0.13862596 0.033107862 2.3509873e-38
-0.016847124 -0.13946722 0.030099615 1.0602112e-38
-0.0077584493 -0.14309107 0.017141446 6.3600229e-39
-0.0059384429 -0.14309107 0.017141446 4.9749248e-39
-0.0040842942 -0.14392884 0.014145717 9.3066677e-39
-0.002219412 -0.1447715 0.011132583 1.5481963e-38
-0.00038887048 -0.1447715 0.011132583 1.667905e-38
0.0014416729 -0.1447715 0.011132583 1.8521875e-38
0.0033280072 -0.14561899 0.0081020445 2.1010078e-38
0.005102756 -0.1447715 0.011132583 2.1194473e-38
0.0069332984 -0.1447715 0.011132583 2.1470705e-38
0.0087638404 -0.1447715 0.011132583 1.9443477e-38
0.010594383 -0.1447715 0.011132583 1.9720419e-38
0.012507286 -0.14561899 0.0081020445 1.8983947e-38
0.014428169 -0.14644094 0.0051629394 1.4834814e-38
0.016269179 -0.14644094 0.0051629394 2.5724701e-39
0.018014854 -0.14561899 0.0081020445 5.2457496e-39
0.019747095 -0.1447715 0.011132583 1.2712505e-38
0.021577636 -0.1447715 0.011132583 1.363445e-38
-0.048166137 -0.14828195 0.0051629394 1.1160713e-38
-0.046240099 -0.14745484 0.0081020445 1.291171e-38
-0.044404246 -0.14745484 0.0081020445 1.2724803e-38
-0.042568386 -0.14745484 0.0081020445 1.3000671e-38
-0.040732533 -0.14745484 0.0081020445 1.2909194e-38
-0.038830258 -0.14660202 0.011132583 1.2817353e-38
-0.036938958 -0.14575411 0.014145717 1.2632956e-38
-0.0351137 -0.14575411 0.014145717 1.2724788e-38
-0.033238541 -0.14491107 0.017141446 1.2815897e-38
-0.031418536 -0.14491107 0.017141446 1.2630784e-38
-0.029546821 -0.14380451 0.021073684 1.5673243e-38
-0.02769882 -0.14294298 0.024135098 2.3509876e-38
-0.025862737 -0.14211603 0.027073726 2.350988e-38
-0.024036271 -0.14126451 0.030099615 2.2957428e-38
-0.022238983 -0.14126451 0.030099615 2.3509883e-38
-0.02042851 -0.14041798 0.033107862 2.3509883e-38
-0.018636499 -0.14041798 0.033107862 2.2679758e-38
-0.016847124 -0.14126451 0.030099615 1.3367628e-38
-0.015044607 -0.14294298 0.024135098 6.7295285e-39
-0.013236864 -0.14294298 0.024135098 1.2814789e-38
-0.011415699 -0.14380451 0.021073684 1.2354161e-38
-0.0096025877 -0.14380451 0.021073684 6.0841367e-39
-0.0077894744 -0.14380451 0.021073684 5.6220879e-39
-0.0059384429 -0.14491107 0.017141446 4.9752794e-39
-0.0041184356 -0.14491107 0.017141446 7.739342e-39
-0.0022590351 -0.14575411 0.014145717 1.4099029e-38
-0.00043377606 -0.14575411 0.014145717 1.4835492e-38
0.0014416729 -0.14660202 0.011132583 1.6309531e-38
0.0032722135 -0.14660202 0.011132583 2.0087754e-38
0.005102756 -0.14660202 0.011132583 2.1747278e-38
0.0069332984 -0.14660202 0.011132583 2.0364355e-38
0.0087638404 -0.14660202 0.011132583 1.833713e-38
0.010594383 -0.14660202 0.011132583 1.6955266e-38
0.012507286 -0.14745484 0.0081020445 1.6587573e-38
0.014428169 -0.14828195 0.0051629394 1.5481617e-38
0.016269179 -0.14828195 0.0051629394 1.7448744e-39
0.018110188 -0.14828195 0.0051629394 3.9564597e-39
0.019850707 -0.14745484 0.0081020445 1.3359687e-38
0.021686563 -0.14745484 0.0081020445 1.3266772e-38
-0.038896676 -0.14929073 0.0081020445 1.2817353e-38
-0.036938958 -0.14757936 0.014145717 1.3093221e-38
-0.0351137 -0.14757936 0.014145717 1.3277966e-38
-0.033238541 -0.14673109 0.017141446 1.3553474e-38
-0.031418536 -0.14673109 0.017141446 1.3553471e-38
-0.029546821 -0.14561762 0.021073684 1.5397741e-38
-0.02769882 -0.14475073 0.024135098 2.3418043e-38
-0.025862737 -0.14391862 0.027073726 2.3509879e-38
-0.024036271 -0.1430618 0.030099615 2.3509879e-38
-0.022238983 -0.1430618 0.030099615 2.350988e-38
-0.020441698 -0.1430618 0.030099615 2.350988e-38
-0.018644409 -0.1430618 0.030099615 2.3232933e-38
-0.016847124 -0.1430618 0.030099615 1.4565817e-38
-0.015049836 -0.1430618 0.030099615 8.5723663e-39
-0.013252551 -0.1430618 0.030099615 1.3919697e-38
-0.011455262 -0.1430618 0.030099615 1.2629663e-38
-0.0096025877 -0.14561762 0.021073684 5.069619e-39
-0.0077894744 -0.14561762 0.021073684 3.8707269e-39
-0.0059384429 -0.14673109 0.017141446 3.6845406e-39
-0.0041184356 -0.14673109 0.017141446 6.080185e-39
-0.0022590351 -0.14757936 0.014145717 1.1241328e-38
-0.00043377606 -0.14757936 0.014145717 1.3544753e-38
0.0013914839 -0.14757936 0.014145717 1.5387573e-38
0.0032167421 -0.14757936 0.014145717 1.8520428e-38
0.0050420021 -0.14757936 0.014145717 1.9811172e-38
0.0069332984 -0.14843257 0.011132583 1.9165814e-38
0.0087638404 -0.14843257 0.011132583 1.7691407e-38
0.010594383 -0.14843257 0.011132583 1.5480139e-38
0.012507286 -0.14929073 0.0081020445 1.3545837e-38
-0.0351137 -0.14940463 0.014145717 1.3554913e-38
-0.033288442 -0.14940463 0.014145717 1.3738944e-38
-0.031418536 -0.14855109 0.017141446 1.3831137e-38
-0.029546821 -0.14743073 0.021073684 1.4844567e-38
-0.027733708 -0.14743073 0.021073684 2.1390457e-38
-0.025862737 -0.14572121 0.027073726 2.3234369e-38
-0.024060145 -0.14572121 0.027073726 2.3418043e-38
-0.022238983 -0.14485909 0.030099615 2.3233652e-38
-0.020441698 -0.14485909 0.030099615 2.3418043e-38
-0.018644409 -0.14485909 0.030099615 2.350988e-38
-0.016847124 -0.14485909 0.030099615 1.5857637e-38
-0.015052473 -0.14400201 0.033107862 8.5730922e-39
-0.013260461 -0.14400201 0.033107862 1.3274339e-38
-0.01146845 -0.14400201 0.033107862 1.2815145e-38
-0.0096213743 -0.14655848 0.024135098 5.4394917e-39
-0.0078136288 -0.14655848 0.024135098 3.9629337e-39
-0.0060058846 -0.14655848 0.024135098 4.3302813e-39
-0.0040842942 -0.14940463 0.014145717 6.910317e-39
-0.0022984291 -0.14855109 0.017141446 1.1334253e-38
-0.0004784218 -0.14855109 0.017141446 1.2991947e-38
0.0013415837 -0.14855109 0.017141446 1.4926962e-38
0.003161591 -0.14855109 0.017141446 1.7045666e-38
0.0049815984 -0.14855109 0.017141446 1.8243495e-38
0.0068016038 -0.14855109 0.017141446 1.8612291e-38
0.0086925197 -0.14940463 0.014145717 1.7876166e-38
0.01051778 -0.14940463 0.014145717 1.5664898e-38
-0.027733708 -0.14924385 0.021073684 1.8624588e-38
-0.025891075 -0.14836623 0.024135098 2.1390457e-38
-0.024060145 -0.14752381 0.027073726 2.3418043e-38
-0.022238983 -0.14665638 0.030099615 2.2864869e-38
-0.020441698 -0.14665638 0.030099615 2.3418043e-38
-0.018636499 -0.14579402 0.033107862 2.350988e-38
-0.016844487 -0.14579402 0.033107862 1.6133868e-38
-0.015055096 -0.1449367 0.036098465 9.0340787e-39
-0.013268327 -0.1449367 0.036098465 1.1246765e-38
-0.011481559 -0.1449367 0.036098465 1.1801004e-38
-0.0096579753 -0.14665638 0.030099615 5.5316986e-39
-0.0078606885 -0.14665638 0.030099615 2.7651192e-39
-0.0060058846 -0.14836623 0.024135098 1.8420909e-39
-0.00419814 -0.14836623 0.024135098 3.4990899e-39
-0.024060145 -0.1493264 0.027073726 2.258972e-38
-0.022238983 -0.14845367 0.030099615 2.2404251e-38
-0.02042851 -0.14758603 0.033107862 2.3141816e-38
-0.018636499 -0.14758603 0.033107862 2.3141816e-38
-0.016844487 -0.14758603 0.033107862 1.5028241e-38
-0.015055096 -0.14672346 0.036098465 1.069433e-38
-0.013268327 -0.14672346 0.036098465 8.1132042e-39
-0.011481559 -0.14672346 0.036098465 8.5752474e-39
-0.0096579753 -0.14845367 0.030099615 4.979615e-39
-0.0078606885 -0.14845367 0.030099615 2.7662094e-39
-0.0060634022 -0.14845367 0.030099615 1.1056133e-39
-0.02042851 -0.14937802 0.033107862 2.221986e-38
-0.018628633 -0.14851023 0.036098465 2.1482295e-38
-0.016841864 -0.14851023 0.036098465 1.3645669e-38
-0.015055096 -0.14851023 0.036098465 8.6667521e-39
-0.013268327 -0.14851023 0.036098465 1.2914549e-39
