# .PCD v0.7 - Point Cloud Data file format
VERSION 0.7
FIELDS x y z rgb
SIZE 4 4 4 4
TYPE F F F F
COUNT 1 1 1 1
WIDTH 934
HEIGHT 1
VIEWPOINT 0 0 0 1 0 0 0
POINTS 934
DATA ascii
0.011255499 -0.12618984 -0.0026874878 2.3508385e-38
0.013096508 -0.12618984 -0.0026874878 2.3507658e-38
0.014857642 -0.12542458 0.00025161728 2.3509818e-38
0.016693497 -0.12542458 0.00025161728 2.3505141e-38
0.018743942 -0.12724553 -0.0067420341 2.3506218e-38
0.020592058 -0.12724553 -0.0067420341 2.3135621e-38
0.022440178 -0.12724553 -0.0067420341 2.138354e-38
0.024288295 -0.12724553 -0.0067420341 1.9446354e-38
0.026136415 -0.12724553 -0.0067420341 1.5851818e-38
0.027984532 -0.12724553 -0.0067420341 1.4561467e-38
0.030691618 -0.12125005 0.016284671 3.3165105e-39
0.052832127 -0.123071 0.0092910193 2.3417691e-38
0.054652132 -0.123071 0.0092910193 2.2773408e-38
0.056472138 -0.123071 0.0092910193 2.0837305e-38
0.058292143 -0.123071 0.0092910193 1.5213366e-38
0.060112149 -0.123071 0.0092910193 1.14337e-38
-0.075710326 -0.13851611 -0.042688761 1.7701899e-38
-0.073799178 -0.13851611 -0.042688761 2.0098614e-38
-0.067919195 -0.13774733 -0.039755855 7.19305e-39
-0.066013187 -0.13774733 -0.039755855 1.2079783e-38
-0.06410718 -0.13774733 -0.039755855 2.1851803e-38
-0.062201183 -0.13774733 -0.039755855 2.341805e-38
-0.060295176 -0.13774733 -0.039755855 2.295527e-38
-0.05810177 -0.13591899 -0.032780681 2.3508804e-38
-0.056208003 -0.13591899 -0.032780681 2.3043864e-38
-0.05431423 -0.13591899 -0.032780681 1.7510684e-38
-0.05231281 -0.13513394 -0.029785786 1.5390537e-38
-0.050287347 -0.13408406 -0.025780473 1.6589429e-38
-0.048405848 -0.13408406 -0.025780473 1.649866e-38
-0.04652435 -0.13408406 -0.025780473 1.659228e-38
-0.044642851 -0.13408406 -0.025780473 1.6042705e-38
-0.042761352 -0.13408406 -0.025780473 2.2591501e-38
-0.040801816 -0.13327946 -0.022710953 2.2040492e-38
-0.0389257 -0.13327946 -0.022710953 2.2958856e-38
-0.03704958 -0.13327946 -0.022710953 2.3509844e-38
-0.035114199 -0.13250901 -0.019771609 2.1942106e-38
-0.033243235 -0.13250901 -0.019771609 2.3509437e-38
-0.031372271 -0.13250901 -0.019771609 2.3503384e-38
-0.02950131 -0.13250901 -0.019771609 2.3506644e-38
-0.027577179 -0.13144915 -0.015728269 2.0829346e-38
-0.025713304 -0.13144915 -0.015728269 2.0092853e-38
-0.02384943 -0.13144915 -0.015728269 1.3732808e-38
-0.021985555 -0.13144915 -0.015728269 1.4196286e-38
-0.020121682 -0.13144915 -0.015728269 1.6595492e-38
-0.018257808 -0.13144915 -0.015728269 2.3509816e-38
-0.016386012 -0.13065951 -0.01271585 2.350843e-38
-0.014522182 -0.12909363 -0.0067420341 1.105952e-38
-0.012674065 -0.12909363 -0.0067420341 8.843568e-39
-0.010825947 -0.12909363 -0.0067420341 9.0257844e-39
-0.0089778285 -0.12909363 -0.0067420341 8.1960125e-39
-0.007093051 -0.13065951 -0.01271585 1.5479453e-38
-0.0034725736 -0.12803085 -0.0026874878 2.2855806e-38
0.0095033515 -0.12909363 -0.0067420341 2.3505523e-38
0.011255499 -0.12803085 -0.0026874878 2.3506237e-38
0.013096508 -0.12803085 -0.0026874878 2.3411507e-38
0.014937516 -0.12803085 -0.0026874878 2.3504063e-38
0.016778525 -0.12803085 -0.0026874878 2.3509831e-38
0.018619535 -0.12803085 -0.0026874878 2.3509828e-38
0.02036521 -0.12726043 0.00025161728 2.3508012e-38
0.022201063 -0.12726043 0.00025161728 1.9447799e-38
0.024142561 -0.12803085 -0.0026874878 1.8986465e-38
0.02598357 -0.12803085 -0.0026874878 1.7788294e-38
0.027196901 -0.12386028 0.013223257 1.4469636e-38
0.049192108 -0.124891 0.0092910193 2.3048907e-38
0.051012121 -0.124891 0.0092910193 2.2403185e-38
0.052832127 -0.124891 0.0092910193 2.341805e-38
0.054652132 -0.124891 0.0092910193 2.3417691e-38
0.056472138 -0.124891 0.0092910193 2.3049991e-38
0.058292143 -0.124891 0.0092910193 1.8440213e-38
0.060112149 -0.124891 0.0092910193 1.466055e-38
0.061932161 -0.124891 0.0092910193 1.0142958e-38
-0.077621475 -0.14042725 -0.042688761 1.6503004e-38
-0.075710326 -0.14042725 -0.042688761 2.2403876e-38
-0.073637195 -0.13965334 -0.039755855 2.3509856e-38
-0.071731195 -0.13965334 -0.039755855 2.0375198e-38
-0.067919195 -0.13965334 -0.039755855 1.3093549e-38
-0.066013187 -0.13965334 -0.039755855 1.5766874e-38
-0.06410718 -0.13965334 -0.039755855 2.2773034e-38
-0.062201183 -0.13965334 -0.039755855 2.3509168e-38
-0.060295176 -0.13965334 -0.039755855 2.3508092e-38
-0.05810177 -0.13781275 -0.032780681 2.3504136e-38
-0.056208003 -0.13781275 -0.032780681 2.0643178e-38
-0.05431423 -0.13781275 -0.032780681 1.8060962e-38
-0.05231281 -0.13702248 -0.029785786 1.4097252e-38
-0.050287347 -0.13596557 -0.025780473 1.3361115e-38
-0.048405848 -0.13596557 -0.025780473 1.4100469e-38
-0.04652435 -0.13596557 -0.025780473 1.5576681e-38
-0.044554051 -0.13515557 -0.022710953 2.212474e-38
-0.042677935 -0.13515557 -0.022710953 2.3049598e-38
-0.040801816 -0.13515557 -0.022710953 2.3418043e-38
-0.0389257 -0.13515557 -0.022710953 2.3325497e-38
-0.03704958 -0.13515557 -0.022710953 2.34166e-38
-0.035114199 -0.13437997 -0.019771609 2.1481534e-38
-0.033243235 -0.13437997 -0.019771609 2.3509848e-38
-0.031372271 -0.13437997 -0.019771609 2.3508092e-38
-0.02950131 -0.13437997 -0.019771609 2.3507374e-38
-0.027577179 -0.13331302 -0.015728269 1.9634435e-38
-0.025713304 -0.13331302 -0.015728269 1.8712829e-38
-0.02384943 -0.13331302 -0.015728269 1.1336825e-38
-0.021985555 -0.13331302 -0.015728269 9.0322724e-39
-0.020121682 -0.13331302 -0.015728269 1.2260511e-38
-0.018244604 -0.1325181 -0.01271585 2.2585698e-38
-0.016386012 -0.1325181 -0.01271585 2.3320786e-38
-0.014522182 -0.13094176 -0.0067420341 1.1519764e-38
-0.012674065 -0.13094176 -0.0067420341 7.2819988e-39
-0.010818113 -0.13172771 -0.0097204782 6.1760002e-39
-0.0089516435 -0.1325181 -0.01271585 6.7291571e-39
-0.007093051 -0.1325181 -0.01271585 2.0558122e-38
-0.0053135823 -0.12987186 -0.0026874878 2.3047028e-38
-0.0034725736 -0.12987186 -0.0026874878 2.2494205e-38
0.0039589987 -0.13094176 -0.0067420341 1.9268484e-38
0.0095033515 -0.13094176 -0.0067420341 2.2124043e-38
0.011255499 -0.12987186 -0.0026874878 2.3044552e-38
0.013096508 -0.12987186 -0.0026874878 2.3503721e-38
0.014937516 -0.12987186 -0.0026874878 2.3509478e-38
0.016778525 -0.12987186 -0.0026874878 2.3509122e-38
0.018619535 -0.12987186 -0.0026874878 2.3507679e-38
0.020266907 -0.1282966 0.0032821558 2.3507303e-38
0.021994432 -0.1275015 0.0062952898 1.8250346e-38
0.023570677 -0.1256734 0.013223257 1.8895359e-38
0.025383787 -0.1256734 0.013223257 1.8342555e-38
0.028883873 -0.12486555 0.016284671 8.2939885e-39
0.030691618 -0.12486555 0.016284671 8.2950717e-39
0.047141138 -0.1256734 0.013223257 2.3509886e-38
0.048954248 -0.1256734 0.013223257 2.3509886e-38
0.050767362 -0.1256734 0.013223257 2.3509886e-38
0.052580476 -0.1256734 0.013223257 2.2680491e-38
0.054652132 -0.126711 0.0092910193 2.3233662e-38
0.056472138 -0.126711 0.0092910193 2.341805e-38
0.058292143 -0.126711 0.0092910193 1.6872166e-38
0.060112149 -0.126711 0.0092910193 1.3460925e-38
0.061932161 -0.126711 0.0092910193 1.1248586e-38
0.063752167 -0.126711 0.0092910193 8.6681843e-39
-0.077621475 -0.14233841 -0.042688761 1.714837e-38
-0.075710326 -0.14233841 -0.042688761 2.3509863e-38
-0.073637195 -0.14155935 -0.039755855 2.3508414e-38
-0.071731195 -0.14155935 -0.039755855 1.6317145e-38
-0.069825187 -0.14155935 -0.039755855 1.7609681e-38
-0.067919195 -0.14155935 -0.039755855 2.1482622e-38
-0.066013187 -0.14155935 -0.039755855 2.3326187e-38
-0.06410718 -0.14155935 -0.039755855 2.3509876e-38
-0.062065545 -0.14075352 -0.036722217 2.3506295e-38
-0.059995543 -0.13970654 -0.032780681 2.3507374e-38
-0.05810177 -0.13970654 -0.032780681 2.3506657e-38
-0.056208003 -0.13970654 -0.032780681 1.713614e-38
-0.054201331 -0.13891099 -0.029785786 1.4923057e-38
-0.052168846 -0.13784705 -0.025780473 1.2158244e-38
-0.050287347 -0.13784705 -0.025780473 1.4280888e-38
-0.048306283 -0.13703169 -0.022710953 1.6679769e-38
-0.046430167 -0.13703169 -0.022710953 1.5759619e-38
-0.044469014 -0.13625093 -0.019771609 2.3509831e-38
-0.04259805 -0.13625093 -0.019771609 2.3509853e-38
-0.04072709 -0.13625093 -0.019771609 2.3508434e-38
-0.038856123 -0.13625093 -0.019771609 2.3508451e-38
-0.03704958 -0.13703169 -0.022710953 2.3508451e-38
-0.035173465 -0.13703169 -0.022710953 2.3416237e-38
-0.033243235 -0.13625093 -0.019771609 2.3509876e-38
-0.031304922 -0.13517688 -0.015728269 2.341518e-38
-0.029441049 -0.13517688 -0.015728269 2.3414822e-38
-0.027577179 -0.13517688 -0.015728269 2.3508809e-38
-0.025713304 -0.13517688 -0.015728269 2.3414822e-38
-0.02382038 -0.13437669 -0.01271585 2.2307757e-38
-0.021961788 -0.13437669 -0.01271585 1.7605398e-38
-0.020103196 -0.13437669 -0.01271585 1.5208627e-38
-0.018244604 -0.13437669 -0.01271585 1.4838753e-38
-0.016386012 -0.13437669 -0.01271585 1.5205041e-38
-0.014524793 -0.13358103 -0.0097204782 9.1226632e-39
-0.012674065 -0.13278987 -0.0067420341 8.6663724e-39
-0.010825947 -0.13278987 -0.0067420341 8.2079068e-39
-0.0089647733 -0.13358103 -0.0097204782 1.0973393e-38
-0.0071114325 -0.13358103 -0.0097204782 2.0376605e-38
-0.0053135823 -0.13171287 -0.0026874878 2.1298901e-38
-0.0034725736 -0.13171287 -0.0026874878 2.2312326e-38
-0.0015853555 -0.13278987 -0.0067420341 1.8533028e-38
0.0039589987 -0.13278987 -0.0067420341 2.3509853e-38
0.0057324716 -0.13171287 -0.0026874878 2.3509869e-38
0.0075734803 -0.13171287 -0.0026874878 2.3508793e-38
0.0094144903 -0.13171287 -0.0026874878 2.350987e-38
0.011255499 -0.13171287 -0.0026874878 2.3509863e-38
0.013096508 -0.13171287 -0.0026874878 2.3044915e-38
0.014857642 -0.13093217 0.00025161728 2.3509489e-38
0.016693497 -0.13093217 0.00025161728 2.3509133e-38
0.018436367 -0.13012715 0.0032821558 2.341261e-38
0.020072 -0.12853102 0.0092910193 2.3508752e-38
0.021892009 -0.12853102 0.0092910193 1.8434746e-38
0.023570677 -0.12748651 0.013223257 1.7420596e-38
0.025383787 -0.12748651 0.013223257 1.3548751e-38
0.027076127 -0.1266733 0.016284671 8.84787e-39
0.028883873 -0.1266733 0.016284671 6.0820123e-39
0.047141138 -0.12748651 0.013223257 2.3509886e-38
0.048954248 -0.12748651 0.013223257 2.2772321e-38
0.050767362 -0.12748651 0.013223257 2.2956712e-38
0.052580476 -0.12748651 0.013223257 2.341805e-38
0.054652132 -0.12853102 0.0092910193 2.341805e-38
0.056472138 -0.12853102 0.0092910193 1.7149106e-38
0.058292143 -0.12853102 0.0092910193 5.1636713e-39
0.060112149 -0.12853102 0.0092910193 7.1919752e-39
0.062150136 -0.12932678 0.0062952898 8.5749096e-39
0.063975394 -0.12932678 0.0062952898 8.9447684e-39
-0.079532608 -0.14424954 -0.042688761 1.484348e-38
-0.077621475 -0.14424954 -0.042688761 1.7794097e-38
-0.075710326 -0.14424954 -0.042688761 2.350986e-38
-0.073637195 -0.14346536 -0.039755855 2.3509126e-38
-0.071731195 -0.14346536 -0.039755855 1.5577774e-38
-0.069825187 -0.14346536 -0.039755855 1.5672128e-38
-0.067767598 -0.1426542 -0.036722217 2.3232895e-38
-0.065866917 -0.1426542 -0.036722217 2.3325105e-38
-0.06396623 -0.1426542 -0.036722217 2.3416234e-38
-0.061889317 -0.1416003 -0.032780681 2.3507732e-38
-0.059995543 -0.1416003 -0.032780681 2.3506657e-38
-0.057978373 -0.14079951 -0.029785786 2.3501248e-38
-0.056089852 -0.14079951 -0.029785786 1.8515823e-38
-0.054050345 -0.13972856 -0.025780473 1.6302377e-38
-0.052168846 -0.13972856 -0.025780473 1.4551717e-38
-0.049943663 -0.13704078 -0.015728269 1.4092882e-38
-0.048079789 -0.13704078 -0.015728269 1.6215537e-38
-0.046215914 -0.13704078 -0.015728269 1.8984293e-38
-0.044469014 -0.13812189 -0.019771609 2.3507295e-38
-0.04259805 -0.13812189 -0.019771609 2.3509474e-38
-0.04072709 -0.13812189 -0.019771609 2.3509142e-38
-0.038856123 -0.13812189 -0.019771609 2.3507733e-38
-0.03704958 -0.13890781 -0.022710953 2.3412669e-38
-0.035114199 -0.13812189 -0.019771609 2.3508451e-38
-0.033243235 -0.13812189 -0.019771609 2.3508809e-38
-0.031304922 -0.13704078 -0.015728269 2.3508451e-38
-0.029396156 -0.13623528 -0.01271585 2.3507016e-38
-0.027537564 -0.13623528 -0.01271585 2.3508092e-38
-0.025644837 -0.13543437 -0.0097204782 2.3507016e-38
-0.023791494 -0.13543437 -0.0097204782 2.350594e-38
-0.021938154 -0.13543437 -0.0097204782 2.3505205e-38
-0.020084815 -0.13543437 -0.0097204782 2.350373e-38
-0.018231474 -0.13543437 -0.0097204782 1.5297226e-38
-0.016378134 -0.13543437 -0.0097204782 1.4558583e-38
-0.014522182 -0.134638 -0.0067420341 1.4468198e-38
-0.012674065 -0.134638 -0.0067420341 1.2997403e-38
-0.010825947 -0.134638 -0.0067420341 1.3092114e-38
-0.0089778285 -0.134638 -0.0067420341 1.5212591e-38
-0.0071297097 -0.134638 -0.0067420341 2.129712e-38
-0.0053135823 -0.13355388 -0.0026874878 2.3509797e-38
-0.0034725736 -0.13355388 -0.0026874878 2.2495996e-38
-0.001631564 -0.13355388 -0.0026874878 1.8071327e-38
0.00020944467 -0.13355388 -0.0026874878 7.9298247e-39
0.0038914629 -0.13355388 -0.0026874878 2.3326184e-38
0.0057324716 -0.13355388 -0.0026874878 2.3418038e-38
0.0075734803 -0.13355388 -0.0026874878 2.3418045e-38
0.0094144903 -0.13355388 -0.0026874878 2.2772318e-38
0.011255499 -0.13355388 -0.0026874878 2.3509879e-38
0.013021786 -0.13276802 0.00025161728 2.3509869e-38
0.014857642 -0.13276802 0.00025161728 2.3509863e-38
0.016605824 -0.13195769 0.0032821558 2.3508423e-38
0.018436367 -0.13195769 0.0032821558 2.3505532e-38
0.020072 -0.13035102 0.0092910193 2.3228572e-38
0.021892009 -0.13035102 0.0092910193 2.2307691e-38
0.023570677 -0.1292996 0.013223257 2.166304e-38
0.025383787 -0.1292996 0.013223257 1.198287e-38
0.027076127 -0.12848105 0.016284671 7.9255591e-39
0.028883873 -0.12848105 0.016284671 5.8976238e-39
0.030691618 -0.12848105 0.016284671 7.2805583e-39
0.043183532 -0.12769531 0.019223299 2.3418045e-38
0.044986121 -0.12769531 0.019223299 2.3509883e-38
0.047141138 -0.1292996 0.013223257 2.3325492e-38
0.048954248 -0.1292996 0.013223257 2.350988e-38
0.050767362 -0.1292996 0.013223257 2.3325847e-38
0.052580476 -0.1292996 0.013223257 2.350988e-38
0.054393589 -0.1292996 0.013223257 1.5673609e-38
0.056472138 -0.13035102 0.0092910193 1.143261e-38
0.058292143 -0.13035102 0.0092910193 4.7023288e-39
0.060324878 -0.13115202 0.0062952898 4.887439e-39
0.062150136 -0.13115202 0.0062952898 8.9440467e-39
0.063975394 -0.13115202 0.0062952898 8.2993975e-39
-0.084062129 -0.14913492 -0.0537397 1.2077616e-38
-0.081443757 -0.14616071 -0.042688761 1.3183958e-38
-0.079532608 -0.14616071 -0.042688761 1.8531662e-38
-0.077621475 -0.14616071 -0.042688761 2.0652159e-38
-0.075710326 -0.14616071 -0.042688761 2.3509856e-38
-0.073469654 -0.14455487 -0.036722217 2.2953424e-38
-0.071568966 -0.14455487 -0.036722217 1.2995932e-38
-0.069668278 -0.14455487 -0.036722217 1.4381029e-38
-0.067767598 -0.14455487 -0.036722217 2.3509851e-38
-0.065866917 -0.14455487 -0.036722217 2.3509862e-38
-0.063783094 -0.14349405 -0.032780681 2.3509153e-38
-0.061889317 -0.14349405 -0.032780681 2.3507362e-38
-0.059866901 -0.14268802 -0.029785786 2.0825408e-38
-0.057978373 -0.14268802 -0.029785786 1.7317283e-38
-0.055931848 -0.14161004 -0.025780473 1.6208037e-38
-0.054050345 -0.14161004 -0.025780473 1.9157193e-38
-0.052058518 -0.14078392 -0.022710953 2.2937915e-38
-0.049943663 -0.13890465 -0.015728269 2.3498996e-38
-0.048079789 -0.13890465 -0.015728269 2.3501507e-38
-0.046215914 -0.13890465 -0.015728269 2.3501866e-38
-0.044352043 -0.13890465 -0.015728269 2.3509073e-38
-0.042488169 -0.13890465 -0.015728269 2.2121472e-38
-0.04072709 -0.13999285 -0.019771609 1.9908808e-38
-0.038856123 -0.13999285 -0.019771609 2.3508082e-38
-0.036985163 -0.13999285 -0.019771609 2.3507374e-38
-0.035032671 -0.13890465 -0.015728269 2.3507733e-38
-0.033168796 -0.13890465 -0.015728269 2.3505924e-38
-0.031254746 -0.13809387 -0.01271585 2.3505542e-38
-0.029396156 -0.13809387 -0.01271585 2.3509139e-38
-0.027498176 -0.13728772 -0.0097204782 2.3504474e-38
-0.025644837 -0.13728772 -0.0097204782 2.3503044e-38
-0.023762772 -0.13648613 -0.0067420341 2.3501249e-38
-0.021914655 -0.13648613 -0.0067420341 2.1194194e-38
-0.020041656 -0.13539489 -0.0026874878 2.1563677e-38
-0.018200645 -0.13539489 -0.0026874878 1.8429373e-38
-0.016359637 -0.13539489 -0.0026874878 1.9075816e-38
-0.014522182 -0.13648613 -0.0067420341 1.7878716e-38
-0.012677619 -0.13539489 -0.0026874878 1.9724084e-38
-0.010836611 -0.13539489 -0.0026874878 2.3505181e-38
-0.0089956019 -0.13539489 -0.0026874878 2.2121869e-38
-0.0071545909 -0.13539489 -0.0026874878 2.2767576e-38
-0.0053135823 -0.13539489 -0.0026874878 2.2860829e-38
-0.0034725736 -0.13539489 -0.0026874878 2.2123619e-38
-0.001631564 -0.13539489 -0.0026874878 2.0373344e-38
0.00020944467 -0.13539489 -0.0026874878 1.1246709e-38
0.0020504543 -0.13539489 -0.0026874878 1.2815139e-38
0.0038914629 -0.13539489 -0.0026874878 2.3509856e-38
0.0056783636 -0.13460387 0.00025161728 2.3050696e-38
0.0075142183 -0.13460387 0.00025161728 2.3142544e-38
0.0093500745 -0.13460387 0.00025161728 2.2866677e-38
0.011185929 -0.13460387 0.00025161728 2.3050347e-38
0.012944739 -0.13378824 0.0032821558 2.2865229e-38
0.014775282 -0.13378824 0.0032821558 2.3324401e-38
0.016518654 -0.13297729 0.0062952898 2.3508428e-38
0.018343912 -0.13297729 0.0062952898 2.3509139e-38
0.020072 -0.13217102 0.0092910193 2.1846364e-38
0.021892009 -0.13217102 0.0092910193 2.0925121e-38
0.023570677 -0.13111271 0.013223257 1.9635464e-38
0.025383787 -0.13111271 0.013223257 9.8630911e-39
0.027076127 -0.13028879 0.016284671 8.7560415e-39
0.028883873 -0.13028879 0.016284671 1.0323014e-38
0.030691618 -0.13028879 0.016284671 8.4790987e-39
0.032367978 -0.1294979 0.019223299 9.2170154e-39
0.034170572 -0.1294979 0.019223299 9.8634512e-39
0.044986121 -0.1294979 0.019223299 2.3141819e-38
0.046788715 -0.1294979 0.019223299 2.3418043e-38
0.048591308 -0.1294979 0.019223299 2.3509879e-38
0.050393902 -0.1294979 0.019223299 2.2957061e-38
0.052384555 -0.13028879 0.016284671 2.3326199e-38
0.054192297 -0.13028879 0.016284671 9.3124635e-39
0.056000046 -0.13028879 0.016284671 6.3622005e-39
0.058019809 -0.13111271 0.013223257 3.9651169e-39
0.060112149 -0.13217102 0.0092910193 6.2696518e-39
0.061932161 -0.13217102 0.0092910193 1.0234783e-38
-0.081443757 -0.14807184 -0.042688761 1.5580323e-38
-0.079532608 -0.14807184 -0.042688761 1.8714972e-38
-0.077621475 -0.14807184 -0.042688761 1.8991912e-38
-0.075710326 -0.14807184 -0.042688761 2.0097169e-38
-0.073469654 -0.14645557 -0.036722217 2.0371936e-38
-0.071568966 -0.14645557 -0.036722217 1.3088478e-38
-0.069668278 -0.14645557 -0.036722217 1.3919699e-38
-0.067767598 -0.14645557 -0.036722217 2.3508783e-38
-0.065866917 -0.14645557 -0.036722217 2.3509873e-38
-0.063783094 -0.14538784 -0.032780681 2.3509158e-38
-0.061889317 -0.14538784 -0.032780681 2.350303e-38
-0.059866901 -0.14457656 -0.029785786 1.9257341e-38
-0.057978373 -0.14457656 -0.029785786 1.6209832e-38
-0.055931848 -0.14349155 -0.025780473 1.74966e-38
-0.054050345 -0.14349155 -0.025780473 1.9984069e-38
-0.052058518 -0.14266007 -0.022710953 2.3491453e-38
-0.049943663 -0.14076851 -0.015728269 2.350296e-38
-0.048079789 -0.14076851 -0.015728269 2.3504387e-38
-0.046215914 -0.14076851 -0.015728269 2.3508332e-38
-0.044352043 -0.14076851 -0.015728269 2.3509771e-38
-0.042488169 -0.14076851 -0.015728269 1.9727235e-38
-0.040624294 -0.14076851 -0.015728269 1.3181733e-38
-0.03876042 -0.14076851 -0.015728269 1.7419543e-38
-0.036896545 -0.14076851 -0.015728269 2.3504834e-38
-0.03497193 -0.13995247 -0.01271585 2.3508072e-38
-0.033113338 -0.13995247 -0.01271585 2.3504812e-38
-0.031204855 -0.13914107 -0.0097204782 2.2948001e-38
-0.029351516 -0.13914107 -0.0097204782 1.8243858e-38
-0.027498176 -0.13914107 -0.0097204782 1.9532458e-38
-0.025610892 -0.13833423 -0.0067420341 1.7686049e-38
-0.023762772 -0.13833423 -0.0067420341 1.7686067e-38
-0.021914655 -0.13833423 -0.0067420341 1.4643981e-38
-0.020041656 -0.13723589 -0.0026874878 1.4462104e-38
-0.018187763 -0.13643973 0.00025161728 1.317352e-38
-0.016351907 -0.13643973 0.00025161728 1.3545171e-38
-0.014516052 -0.13643973 0.00025161728 1.2991281e-38
-0.012677619 -0.13723589 -0.0026874878 1.5476972e-38
-0.010836611 -0.13723589 -0.0026874878 2.3503392e-38
-0.0089956019 -0.13723589 -0.0026874878 2.3502652e-38
-0.0071545909 -0.13723589 -0.0026874878 2.3503354e-38
-0.0053135823 -0.13723589 -0.0026874878 2.3504781e-38
-0.0035009165 -0.13643973 0.00025161728 2.2853639e-38
-0.0016650599 -0.13643973 0.00025161728 2.0366878e-38
0.00017079571 -0.13643973 0.00025161728 1.188705e-38
0.0020066514 -0.13643973 0.00025161728 1.852839e-38
0.003842507 -0.13643973 0.00025161728 2.3509856e-38
0.0056783636 -0.13643973 0.00025161728 2.2588631e-38
0.0074531124 -0.13561879 0.0032821558 2.3142541e-38
0.0092176162 -0.13480256 0.0062952898 2.2406775e-38
0.011042876 -0.13480256 0.0062952898 2.2498973e-38
0.012791974 -0.13399105 0.0092910193 2.2958873e-38
0.01461198 -0.13399105 0.0092910193 2.3509879e-38
0.016431987 -0.13399105 0.0092910193 2.3507352e-38
0.018251995 -0.13399105 0.0092910193 2.3508784e-38
0.019944454 -0.13292582 0.013223257 2.0186488e-38
0.021757564 -0.13292582 0.013223257 2.0464148e-38
0.023570677 -0.13292582 0.013223257 2.0281197e-38
0.025383787 -0.13292582 0.013223257 1.235202e-38
0.027076127 -0.13209651 0.016284671 1.0323367e-38
0.028883873 -0.13209651 0.016284671 1.0599598e-38
0.030691618 -0.13209651 0.016284671 1.1244605e-38
0.032367978 -0.13130049 0.019223299 1.0415193e-38
0.034170572 -0.13130049 0.019223299 1.1983226e-38
0.035973161 -0.13130049 0.019223299 1.5210789e-38
0.037775755 -0.13130049 0.019223299 1.4935288e-38
0.039578345 -0.13130049 0.019223299 1.1156361e-38
0.041538086 -0.13209651 0.016284671 1.6412969e-38
0.042850267 -0.1296659 0.025257435 2.3234376e-38
0.044642277 -0.1296659 0.025257435 2.3141819e-38
0.046610985 -0.13048081 0.022249188 2.350988e-38
0.04840827 -0.13048081 0.022249188 2.3509876e-38
0.050393902 -0.13130049 0.019223299 2.3233285e-38
0.052196488 -0.13130049 0.019223299 2.3141444e-38
0.053999081 -0.13130049 0.019223299 5.7164668e-39
0.056000046 -0.13209651 0.016284671 4.5179264e-39
0.058019809 -0.13292582 0.013223257 5.9012224e-39
0.060112149 -0.13399105 0.0092910193 6.6387902e-39
0.061932161 -0.13399105 0.0092910193 1.0787956e-38
-0.079532608 -0.14998297 -0.042688761 1.1616261e-38
-0.077621475 -0.14998297 -0.042688761 1.4197737e-38
-0.075710326 -0.14998297 -0.042688761 1.7792633e-38
-0.073469654 -0.14835624 -0.036722217 1.760678e-38
-0.071568966 -0.14835624 -0.036722217 9.6779585e-39
-0.069668278 -0.14835624 -0.036722217 1.3735673e-38
-0.067767598 -0.14835624 -0.036722217 2.350987e-38
-0.065866917 -0.14835624 -0.036722217 2.2033314e-38
-0.06396623 -0.14835624 -0.036722217 2.3414086e-38
-0.061889317 -0.1472816 -0.032780681 2.3508425e-38
-0.059995543 -0.1472816 -0.032780681 1.77822e-38
-0.057978373 -0.14646508 -0.029785786 1.7776065e-38
-0.056089852 -0.14646508 -0.029785786 2.1183335e-38
-0.054050345 -0.14537306 -0.025780473 2.1826176e-38
-0.052168846 -0.14537306 -0.025780473 2.348713e-38
-0.049943663 -0.14263238 -0.015728269 2.3491079e-38
-0.048079789 -0.14263238 -0.015728269 2.2572347e-38
-0.046215914 -0.14263238 -0.015728269 2.3503285e-38
-0.044352043 -0.14263238 -0.015728269 2.3506161e-38
-0.042488169 -0.14263238 -0.015728269 2.1847012e-38
-0.040624294 -0.14263238 -0.015728269 4.4220944e-39
-0.03876042 -0.14263238 -0.015728269 6.0791172e-39
-0.036896545 -0.14263238 -0.015728269 8.6591739e-39
-0.03497193 -0.14181106 -0.01271585 1.2529221e-38
-0.033113338 -0.14181106 -0.01271585 1.9442789e-38
-0.031204855 -0.14099441 -0.0097204782 1.9349475e-38
-0.029351516 -0.14099441 -0.0097204782 1.8056923e-38
-0.027498176 -0.14099441 -0.0097204782 1.7592726e-38
-0.025610892 -0.14018236 -0.0067420341 1.2151044e-38
-0.023762772 -0.14018236 -0.0067420341 1.2242906e-38
-0.021882664 -0.1390769 -0.0026874878 1.1322762e-38
-0.02002362 -0.13827558 0.00025161728 1.0773188e-38
-0.018187763 -0.13827558 0.00025161728 9.2087436e-39
-0.016351907 -0.13827558 0.00025161728 1.0133933e-38
-0.014516052 -0.13827558 0.00025161728 1.2899085e-38
-0.012680195 -0.13827558 0.00025161728 1.5013835e-38
-0.010844341 -0.13827558 0.00025161728 2.3493314e-38
-0.009008484 -0.13827558 0.00025161728 2.3496182e-38
-0.0071726278 -0.13827558 0.00025161728 2.3497969e-38
-0.005360683 -0.13744931 0.0032821558 2.3499757e-38
-0.0035301405 -0.13744931 0.0032821558 1.9531374e-38
-0.0016650599 -0.13827558 0.00025161728 1.4647523e-38
0.00013094442 -0.13744931 0.0032821558 1.0778548e-38
0.0019614859 -0.13744931 0.0032821558 2.027759e-38
0.0037418404 -0.13662781 0.0062952898 2.3509849e-38
0.0055670985 -0.13662781 0.0062952898 2.2772658e-38
0.0074531124 -0.13744931 0.0032821558 2.3418038e-38
0.0092176162 -0.13662781 0.0062952898 2.3142538e-38
0.010971967 -0.13581105 0.0092910193 2.2867033e-38
0.012791974 -0.13581105 0.0092910193 2.3142544e-38
0.01461198 -0.13581105 0.0092910193 2.3049261e-38
0.016431987 -0.13581105 0.0092910193 2.3508794e-38
0.01813134 -0.13473894 0.013223257 2.147508e-38
0.019944454 -0.13473894 0.013223257 1.3548405e-38
0.021652894 -0.13390426 0.016284671 1.244385e-38
0.02346064 -0.13390426 0.016284671 1.4103734e-38
0.025157606 -0.13310309 0.019223299 1.3550926e-38
0.0269602 -0.13310309 0.019223299 1.4011192e-38
0.028762793 -0.13310309 0.019223299 1.4194509e-38
0.030565383 -0.13310309 0.019223299 1.3087435e-38
0.032367978 -0.13310309 0.019223299 1.9172336e-38
0.034170572 -0.13310309 0.019223299 1.8527315e-38
0.035973161 -0.13310309 0.019223299 1.8805697e-38
0.037775755 -0.13310309 0.019223299 1.272187e-38
0.039578345 -0.13310309 0.019223299 1.03266e-38
0.041380938 -0.13310309 0.019223299 1.9547264e-38
0.042850267 -0.13145791 0.025257435 2.3234379e-38
0.044642277 -0.13145791 0.025257435 2.341805e-38
0.046434291 -0.13145791 0.025257435 2.3325492e-38
0.048226301 -0.13145791 0.025257435 2.3417679e-38
0.050205559 -0.1322781 0.022249188 2.2495717e-38
0.052002847 -0.1322781 0.022249188 2.1020941e-38
0.053800128 -0.1322781 0.022249188 6.3618334e-39
0.056472138 -0.13581105 0.0092910193 6.4540318e-39
0.058292143 -0.13581105 0.0092910193 7.9291647e-39
0.060538843 -0.13744931 0.0032821558 7.0072168e-39
0.062369384 -0.13744931 0.0032821558 1.1341133e-38
-0.061889317 -0.14917539 -0.032780681 2.3507705e-38
-0.059866901 -0.14835359 -0.029785786 1.5938285e-38
-0.057978373 -0.14835359 -0.029785786 1.4365181e-38
-0.055931848 -0.14725454 -0.025780473 2.1091492e-38
-0.054050345 -0.14725454 -0.025780473 2.228715e-38
-0.052168846 -0.14725454 -0.025780473 2.2656286e-38
-0.050081905 -0.14560573 -0.019771609 2.1185464e-38
-0.048079789 -0.14449625 -0.015728269 2.0267456e-38
-0.046215914 -0.14449625 -0.015728269 2.3502205e-38
-0.044264894 -0.14366965 -0.01271585 2.350869e-38
-0.042406302 -0.14366965 -0.01271585 2.2397689e-38
-0.04054771 -0.14366965 -0.01271585 5.9861803e-39
-0.038689118 -0.14366965 -0.01271585 2.5731876e-39
-0.036764875 -0.14284773 -0.0097204782 5.3379873e-39
-0.03485148 -0.14203046 -0.0067420341 5.7060285e-39
-0.03300336 -0.14203046 -0.0067420341 9.0239641e-39
-0.031155245 -0.14203046 -0.0067420341 1.648998e-38
-0.029307125 -0.14203046 -0.0067420341 1.8147687e-38
-0.027459009 -0.14203046 -0.0067420341 1.8237005e-38
-0.025610892 -0.14203046 -0.0067420341 1.35336e-38
-0.023723673 -0.14091791 -0.0026874878 1.3440713e-38
-0.021882664 -0.14091791 -0.0026874878 1.2151781e-38
-0.02002362 -0.14011143 0.00025161728 1.0957191e-38
-0.018187763 -0.14011143 0.00025161728 1.0315059e-38
-0.016351907 -0.14011143 0.00025161728 1.1240261e-38
-0.014516052 -0.14011143 0.00025161728 1.3913585e-38
-0.012680195 -0.14011143 0.00025161728 1.6398565e-38
-0.010852311 -0.13927986 0.0032821558 1.9623617e-38
-0.0090217683 -0.13927986 0.0032821558 2.1835948e-38
-0.0071912254 -0.13927986 0.0032821558 2.3402545e-38
-0.005360683 -0.13927986 0.0032821558 2.2849723e-38
-0.0035301405 -0.13927986 0.0032821558 1.5198918e-38
-0.001699598 -0.13927986 0.0032821558 9.3920264e-39
9.1321301e-05 -0.13845308 0.0062952898 1.2714306e-38
0.0019165804 -0.13845308 0.0062952898 2.1383578e-38
0.0036919401 -0.13763104 0.0092910193 2.3509482e-38
0.0055119474 -0.13763104 0.0092910193 2.3232543e-38
0.0073319548 -0.13763104 0.0092910193 2.323399e-38
0.0091519598 -0.13763104 0.0092910193 2.2404239e-38
0.010878891 -0.13655205 0.013223257 2.2865581e-38
0.012692004 -0.13655205 0.013223257 2.3509879e-38
0.014505116 -0.13655205 0.013223257 2.3416603e-38
0.016318228 -0.13655205 0.013223257 2.3134971e-38
0.01813134 -0.13655205 0.013223257 1.3177476e-38
0.019845149 -0.13571201 0.016284671 9.5836371e-39
0.021652894 -0.13571201 0.016284671 1.0692136e-38
0.023355016 -0.13490568 0.019223299 1.1891761e-38
0.025157606 -0.13490568 0.019223299 1.3827513e-38
0.0269602 -0.13490568 0.019223299 1.299704e-38
0.028762793 -0.13490568 0.019223299 1.2627183e-38
0.030565383 -0.13490568 0.019223299 1.4285617e-38
0.032367978 -0.13490568 0.019223299 1.6221353e-38
0.034170572 -0.13490568 0.019223299 1.6774874e-38
0.035973161 -0.13490568 0.019223299 1.336507e-38
0.037775755 -0.13490568 0.019223299 1.0601371e-38
0.039578345 -0.13490568 0.019223299 2.1851054e-38
0.040898327 -0.13242932 0.028248038 2.2681916e-38
0.042685095 -0.13242932 0.028248038 2.3142544e-38
0.044642277 -0.13324992 0.025257435 2.341805e-38
0.046434291 -0.13324992 0.025257435 2.3233299e-38
0.048226301 -0.13324992 0.025257435 2.2679758e-38
0.050205559 -0.13407536 0.022249188 1.9914239e-38
0.052002847 -0.13407536 0.022249188 1.5211894e-38
0.053800128 -0.13407536 0.022249188 7.0986781e-39
0.057280727 -0.14091791 -0.0026874878 7.9280829e-39
0.059121735 -0.14091791 -0.0026874878 7.0990467e-39
0.060962744 -0.14091791 -0.0026874878 7.8369803e-39
0.062803753 -0.14091791 -0.0026874878 1.2078344e-38
0.064946897 -0.14203046 -0.0067420341 1.3829707e-38
0.066795014 -0.14203046 -0.0067420341 1.2540048e-38
0.06864313 -0.14203046 -0.0067420341 9.4061122e-39
-0.055931848 -0.14913605 -0.025780473 1.860221e-38
-0.054050345 -0.14913605 -0.025780473 2.1365547e-38
-0.052058518 -0.14828841 -0.022710953 2.0813804e-38
-0.050081905 -0.14747669 -0.019771609 1.9525937e-38
-0.048079789 -0.14636014 -0.015728269 1.9438772e-38
-0.046215914 -0.14636014 -0.015728269 2.350077e-38
-0.044264894 -0.14552824 -0.01271585 2.3508703e-38
-0.042406302 -0.14552824 -0.01271585 2.3224217e-38
-0.04054771 -0.14552824 -0.01271585 7.0885776e-39
-0.038618214 -0.14470108 -0.0097204782 6.995345e-39
-0.036699597 -0.14387859 -0.0067420341 8.6552321e-39
-0.03485148 -0.14387859 -0.0067420341 7.9190767e-39
-0.03300336 -0.14387859 -0.0067420341 7.733947e-39
-0.031155245 -0.14387859 -0.0067420341 8.8384841e-39
-0.029307125 -0.14387859 -0.0067420341 1.3906713e-38
-0.027405692 -0.14275892 -0.0026874878 1.952919e-38
-0.025564684 -0.14275892 -0.0026874878 2.1370953e-38
-0.023723673 -0.14275892 -0.0026874878 2.3213096e-38
-0.021882664 -0.14275892 -0.0026874878 2.1186237e-38
-0.02002362 -0.14194728 0.00025161728 2.0082752e-38
-0.018187763 -0.14194728 0.00025161728 2.0085989e-38
-0.016343936 -0.14111041 0.0032821558 1.8243894e-38
-0.014513394 -0.14111041 0.0032821558 1.5571677e-38
-0.012682853 -0.14111041 0.0032821558 8.9357608e-39
-0.010852311 -0.14111041 0.0032821558 5.8933078e-39
-0.0090217683 -0.14111041 0.0032821558 5.892226e-39
-0.0072097159 -0.14027832 0.0062952898 5.9829797e-39
-0.0053844568 -0.14027832 0.0062952898 6.1662878e-39
-0.0035591968 -0.14027832 0.0062952898 3.4929774e-39
-0.0017339378 -0.14027832 0.0062952898 4.2323249e-39
9.1321301e-05 -0.14027832 0.0062952898 1.529759e-38
0.0018719346 -0.13945107 0.0092910193 2.1753439e-38
0.003626442 -0.13836516 0.013223257 2.3509838e-38
0.0054395557 -0.13836516 0.013223257 2.3509844e-38
0.0073319548 -0.13945107 0.0092910193 2.3509846e-38
0.0090657789 -0.13836516 0.013223257 2.3416937e-38
0.010878891 -0.13836516 0.013223257 2.3509862e-38
0.012614172 -0.13751976 0.016284671 2.3509511e-38
0.014421917 -0.13751976 0.016284671 2.3508797e-38
0.016229661 -0.13751976 0.016284671 2.3508075e-38
0.018037407 -0.13751976 0.016284671 8.4747799e-39
0.019845149 -0.13751976 0.016284671 4.6972688e-39
0.021552423 -0.13670824 0.019223299 5.9901586e-39
0.023355016 -0.13670824 0.019223299 6.5444142e-39
0.025157606 -0.13670824 0.019223299 7.7426014e-39
0.0269602 -0.13670824 0.019223299 7.0043245e-39
0.028762793 -0.13670824 0.019223299 7.7400917e-39
0.0304354 -0.13587265 0.022249188 1.1058047e-38
0.032232691 -0.13587265 0.022249188 1.6128437e-38
0.034170572 -0.13670824 0.019223299 1.4745488e-38
0.035827264 -0.13587265 0.022249188 1.2349837e-38
0.037624549 -0.13587265 0.022249188 9.5868559e-39
0.039421838 -0.13587265 0.022249188 2.3418021e-38
0.040898327 -0.13421609 0.028248038 2.3234374e-38
0.042685095 -0.13421609 0.028248038 2.2497539e-38
0.044642277 -0.13504194 0.025257435 2.3325856e-38
0.046434291 -0.13504194 0.025257435 2.3509886e-38
0.048226301 -0.13504194 0.025257435 2.3325129e-38
0.050018318 -0.13504194 0.025257435 1.6687392e-38
0.051618941 -0.13421609 0.028248038 9.9563867e-39
0.05340571 -0.13421609 0.028248038 7.6518519e-39
0.057280727 -0.14275892 -0.0026874878 9.0344304e-39
0.059121735 -0.14275892 -0.0026874878 7.7433399e-39
0.060962744 -0.14275892 -0.0026874878 7.8362628e-39
0.063098773 -0.14387859 -0.0067420341 1.1616652e-38
0.064946897 -0.14387859 -0.0067420341 1.4198494e-38
0.066795014 -0.14387859 -0.0067420341 1.3923349e-38
0.06864313 -0.14387859 -0.0067420341 1.0419912e-38
0.070491239 -0.14387859 -0.0067420341 6.7338809e-39
-0.049943663 -0.14822401 -0.015728269 1.9712475e-38
-0.048079789 -0.14822401 -0.015728269 2.0177772e-38
-0.046215914 -0.14822401 -0.015728269 2.2118926e-38
-0.044264894 -0.14738683 -0.01271585 2.3040531e-38
-0.042406302 -0.14738683 -0.01271585 2.3036222e-38
-0.040471558 -0.14655443 -0.0097204782 1.095718e-38
-0.038618214 -0.14655443 -0.0097204782 4.3191424e-39
-0.036699597 -0.1457267 -0.0067420341 5.4272962e-39
-0.03485148 -0.1457267 -0.0067420341 6.5372101e-39
-0.03300336 -0.1457267 -0.0067420341 4.1412069e-39
-0.03108771 -0.14459993 -0.0026874878 6.7205335e-39
-0.029246701 -0.14459993 -0.0026874878 9.3005692e-39
-0.027405692 -0.14459993 -0.0026874878 1.2802177e-38
-0.025531186 -0.14378314 0.00025161728 1.8239204e-38
-0.023695329 -0.14378314 0.00025161728 2.0724924e-38
-0.021859474 -0.14378314 0.00025161728 2.0724205e-38
-0.020005021 -0.14294095 0.0032821558 2.1094758e-38
-0.018174479 -0.14294095 0.0032821558 2.1004004e-38
-0.016343936 -0.14294095 0.0032821558 1.8515111e-38
-0.014510753 -0.1421036 0.0062952898 1.3449761e-38
-0.012685494 -0.1421036 0.0062952898 4.9785528e-39
-0.010852311 -0.14294095 0.0032821558 2.1248015e-39
-0.0090349745 -0.1421036 0.0062952898 2.8602113e-39
-0.0072097159 -0.1421036 0.0062952898 3.0424418e-39
-0.0053844568 -0.1421036 0.0062952898 3.4087034e-39
-0.0035591968 -0.1421036 0.0062952898 3.3157805e-39
-0.0017339378 -0.1421036 0.0062952898 5.343357e-39
9.1321301e-05 -0.1421036 0.0062952898 1.2996302e-38
0.0018719346 -0.14127107 0.0092910193 1.769935e-38
0.003626442 -0.14017828 0.013223257 2.1664835e-38
0.0054395557 -0.14017828 0.013223257 2.3508748e-38
0.0072526676 -0.14017828 0.013223257 2.3509837e-38
0.0090657789 -0.14017828 0.013223257 2.3509846e-38
0.010878891 -0.14017828 0.013223257 2.3509135e-38
0.012614172 -0.13932751 0.016284671 2.3506266e-38
0.014421917 -0.13932751 0.016284671 2.3505912e-38
0.016229661 -0.13932751 0.016284671 2.3506993e-38
0.018037407 -0.13932751 0.016284671 7.9216061e-39
0.01974983 -0.13851084 0.019223299 4.5128775e-39
0.021552423 -0.13851084 0.019223299 5.6213761e-39
0.023355016 -0.13851084 0.019223299 6.9131967e-39
0.025157606 -0.13851084 0.019223299 6.2674713e-39
0.026840826 -0.13766994 0.022249188 6.0823682e-39
0.028638115 -0.13766994 0.022249188 6.7259398e-39
0.0304354 -0.13766994 0.022249188 7.7382826e-39
0.032232691 -0.13766994 0.022249188 1.0780727e-38
0.034029976 -0.13766994 0.022249188 1.2993048e-38
0.035827264 -0.13766994 0.022249188 9.6754446e-39
0.037624549 -0.13766994 0.022249188 8.9407677e-39
0.039421838 -0.13766994 0.022249188 2.3509859e-38
0.041058253 -0.13683395 0.025257435 2.2313135e-38
0.042850267 -0.13683395 0.025257435 2.3142544e-38
0.044642277 -0.13683395 0.025257435 2.3141109e-38
0.046610985 -0.13766994 0.022249188 2.3509527e-38
0.04840827 -0.13766994 0.022249188 2.3509883e-38
0.050018318 -0.13683395 0.025257435 1.3644942e-38
0.051618941 -0.13600285 0.028248038 8.6656507e-39
0.05340571 -0.13600285 0.028248038 9.0344304e-39
0.057280727 -0.14459993 -0.0026874878 1.0325173e-38
0.059121735 -0.14459993 -0.0026874878 1.0232625e-38
0.060962744 -0.14459993 -0.0026874878 8.3890835e-39
0.063098773 -0.1457267 -0.0067420341 1.1247515e-38
0.064946897 -0.1457267 -0.0067420341 1.4198144e-38
0.066795014 -0.1457267 -0.0067420341 1.5213735e-38
0.06864313 -0.1457267 -0.0067420341 1.1802494e-38
0.070491239 -0.1457267 -0.0067420341 7.5632899e-39
-0.044264894 -0.14924543 -0.01271585 2.3035861e-38
-0.042324897 -0.14840777 -0.0097204782 2.3492526e-38
-0.040471558 -0.14840777 -0.0097204782 1.7403316e-38
-0.038618214 -0.14840777 -0.0097204782 1.1690103e-38
-0.036699597 -0.14757483 -0.0067420341 8.0987989e-39
-0.03485148 -0.14757483 -0.0067420341 7.4584475e-39
-0.03287461 -0.14561899 0.00025161728 4.3270359e-39
-0.031038752 -0.14561899 0.00025161728 3.5887786e-39
-0.029202899 -0.14561899 0.00025161728 5.3397795e-39
-0.027405692 -0.14644094 -0.0026874878 5.4305108e-39
-0.025531186 -0.14561899 0.00025161728 7.8250832e-39
-0.023666106 -0.1447715 0.0032821558 6.8073566e-39
-0.021835564 -0.1447715 0.0032821558 7.9119063e-39
-0.020005021 -0.1447715 0.0032821558 8.650881e-39
-0.018174479 -0.1447715 0.0032821558 7.913316e-39
-0.016336013 -0.14392884 0.0062952898 7.7282311e-39
-0.014510753 -0.14392884 0.0062952898 6.1663144e-39
-0.012685494 -0.14392884 0.0062952898 3.7818131e-39
-0.010860234 -0.14392884 0.0062952898 3.5098995e-39
-0.0090349745 -0.14392884 0.0062952898 4.3378637e-39
-0.0072097159 -0.14392884 0.0062952898 4.1523921e-39
-0.0054080929 -0.14309107 0.0092910193 4.2420668e-39
-0.0035880865 -0.14309107 0.0092910193 4.2413395e-39
-0.0017680791 -0.14309107 0.0092910193 4.2402493e-39
5.1927287e-05 -0.14309107 0.0092910193 4.7015778e-39
0.0018133312 -0.14199139 0.013223257 5.7149996e-39
0.0035754503 -0.14113526 0.016284671 8.1124377e-39
0.005383194 -0.14113526 0.016284671 8.5730557e-39
0.0072526676 -0.14199139 0.013223257 8.9400432e-39
0.0090657789 -0.14199139 0.013223257 1.0875081e-38
0.010806428 -0.14113526 0.016284671 1.1426464e-38
0.012614172 -0.14113526 0.016284671 1.3176034e-38
0.014421917 -0.14113526 0.016284671 1.5664963e-38
0.016229661 -0.14113526 0.016284671 1.1978581e-38
0.018037407 -0.14113526 0.016284671 2.3916746e-39
0.01974983 -0.14031343 0.019223299 2.7626067e-39
0.021552423 -0.14031343 0.019223299 4.7923455e-39
0.023246257 -0.13946722 0.022249188 6.9135652e-39
0.025043542 -0.13946722 0.022249188 5.4377149e-39
0.026840826 -0.13946722 0.022249188 6.91141e-39
0.028638115 -0.13946722 0.022249188 7.5553375e-39
0.030306177 -0.13862596 0.025257435 6.4468277e-39
0.032098193 -0.13862596 0.025257435 7.1840214e-39
0.034029976 -0.13946722 0.022249188 5.8936329e-39
0.035827264 -0.13946722 0.022249188 5.0653114e-39
0.037624549 -0.13946722 0.022249188 8.6638318e-39
0.039421838 -0.13946722 0.022249188 2.3416589e-38
0.041058253 -0.13862596 0.025257435 2.341805e-38
0.042685095 -0.13778962 0.028248038 2.3142544e-38
0.044471864 -0.13778962 0.028248038 2.3233303e-38
0.046434291 -0.13862596 0.025257435 2.3233662e-38
0.048226301 -0.13862596 0.025257435 2.3509883e-38
0.050205559 -0.13946722 0.022249188 1.1063825e-38
0.052002847 -0.13946722 0.022249188 9.0351549e-39
0.053800128 -0.13946722 0.022249188 9.7730773e-39
0.057082325 -0.14561899 0.00025161728 1.0325897e-38
0.058918186 -0.14561899 0.00025161728 1.1524087e-38
0.060754038 -0.14561899 0.00025161728 1.0325913e-38
0.062803753 -0.14644094 -0.0026874878 1.226203e-38
0.064946897 -0.14757483 -0.0067420341 1.4844233e-38
0.066795014 -0.14757483 -0.0067420341 1.6596669e-38
0.06864313 -0.14757483 -0.0067420341 1.3093233e-38
0.070491239 -0.14757483 -0.0067420341 8.300492e-39
-0.040395834 -0.14942293 -0.0067420341 2.071301e-38
-0.038547713 -0.14942293 -0.0067420341 1.915074e-38
-0.036699597 -0.14942293 -0.0067420341 1.1413151e-38
-0.034710463 -0.14745484 0.00025161728 8.9310651e-39
-0.03287461 -0.14745484 0.00025161728 3.0355936e-39
-0.031038752 -0.14745484 0.00025161728 2.6697034e-39
-0.029202899 -0.14745484 0.00025161728 2.0254186e-39
-0.027367042 -0.14745484 0.00025161728 2.8548163e-39
-0.025531186 -0.14745484 0.00025161728 3.221801e-39
-0.023666106 -0.14660202 0.0032821558 3.5884297e-39
-0.021835564 -0.14660202 0.0032821558 3.6788261e-39
-0.020005021 -0.14660202 0.0032821558 3.7710077e-39
-0.018161273 -0.14575411 0.0062952898 4.3234556e-39
-0.016336013 -0.14575411 0.0062952898 4.692964e-39
-0.014510753 -0.14575411 0.0062952898 4.695129e-39
-0.012685494 -0.14575411 0.0062952898 4.8845635e-39
-0.010860234 -0.14575411 0.0062952898 4.0566049e-39
-0.0090349745 -0.14575411 0.0062952898 4.2413521e-39
-0.0072097159 -0.14575411 0.0062952898 4.9785528e-39
-0.0054080929 -0.14491107 0.0092910193 4.8863516e-39
-0.0035880865 -0.14491107 0.0092910193 4.148418e-39
-0.0017680791 -0.14491107 0.0092910193 3.6877916e-39
5.1927287e-05 -0.14491107 0.0092910193 3.9643728e-39
0.0018133312 -0.14380451 0.013223257 2.8576624e-39
0.0035754503 -0.14294298 0.016284671 2.6725564e-39
0.0053290953 -0.14211603 0.019223299 2.3030621e-39
0.0071316869 -0.14211603 0.019223299 2.3012684e-39
0.0089986827 -0.14294298 0.016284671 2.7604459e-39
0.010806428 -0.14294298 0.016284671 3.6816805e-39
0.012539463 -0.14211603 0.019223299 5.0628213e-39
0.014342055 -0.14211603 0.019223299 5.5256057e-39
0.016144646 -0.14211603 0.019223299 4.8834845e-39
0.01794724 -0.14211603 0.019223299 2.2119763e-39
0.01974983 -0.14211603 0.019223299 2.8580617e-39
0.021448968 -0.14126451 0.022249188 4.0562406e-39
0.023246257 -0.14126451 0.022249188 2.9491699e-39
0.025043542 -0.14126451 0.022249188 3.5930946e-39
0.026840826 -0.14126451 0.022249188 5.1593399e-39
0.028514164 -0.14041798 0.025257435 4.9727837e-39
0.030306177 -0.14041798 0.025257435 5.340483e-39
0.032098193 -0.14041798 0.025257435 4.5092804e-39
0.033890203 -0.14041798 0.025257435 5.063173e-39
0.035682216 -0.14041798 0.025257435 2.0218158e-39
0.037624549 -0.14126451 0.022249188 5.9880258e-39
0.039421838 -0.14126451 0.022249188 2.3508807e-38
0.041219123 -0.14126451 0.022249188 2.3509168e-38
0.042685095 -0.13957639 0.028248038 2.2957438e-38
0.044471864 -0.13957639 0.028248038 2.2865961e-38
0.046434291 -0.14041798 0.025257435 2.3234376e-38
0.048226301 -0.14041798 0.025257435 2.3050698e-38
0.050205559 -0.14126451 0.022249188 1.042025e-38
0.052002847 -0.14126451 0.022249188 8.2997507e-39
0.054192297 -0.14294298 0.016284671 1.0143663e-38
0.057082325 -0.14745484 0.00025161728 1.0419897e-38
0.058918186 -0.14745484 0.00025161728 1.0696485e-38
0.060754038 -0.14745484 0.00025161728 9.6819831e-39
0.062803753 -0.14828195 -0.0026874878 1.3369454e-38
0.064946897 -0.14942293 -0.0067420341 1.4568719e-38
0.066795014 -0.14942293 -0.0067420341 1.5951653e-38
0.06864313 -0.14942293 -0.0067420341 1.3923345e-38
0.070491239 -0.14942293 -0.0067420341 7.6543953e-39
-0.034710463 -0.14929073 0.00025161728 7.363745e-39
-0.03287461 -0.14929073 0.00025161728 2.4831457e-39
-0.031038752 -0.14929073 0.00025161728 1.9342992e-39
-0.029202899 -0.14929073 0.00025161728 1.6595185e-39
-0.027367042 -0.14929073 0.00025161728 2.2126951e-39
-0.025531186 -0.14929073 0.00025161728 2.0275878e-39
-0.023666106 -0.14843257 0.0032821558 2.0250669e-39
-0.021835564 -0.14843257 0.0032821558 1.4715273e-39
-0.020005021 -0.14843257 0.0032821558 1.4700854e-39
-0.018161273 -0.14757936 0.0062952898 2.0236109e-39
-0.016336013 -0.14757936 0.0062952898 3.0381174e-39
-0.014510753 -0.14757936 0.0062952898 3.5920142e-39
-0.012685494 -0.14757936 0.0062952898 2.9473763e-39
-0.010860234 -0.14757936 0.0062952898 2.1183387e-39
-0.0090349745 -0.14757936 0.0062952898 1.934302e-39
-0.0072281002 -0.14673109 0.0092910193 2.5803874e-39
-0.0054080929 -0.14673109 0.0092910193 2.8573274e-39
-0.0035880865 -0.14673109 0.0092910193 2.1208372e-39
-0.0017680791 -0.14673109 0.0092910193 1.5680194e-39
5.1927287e-05 -0.14673109 0.0092910193 1.6602136e-39
0.0018133312 -0.14561762 0.013223257 2.6736396e-39
0.0035754503 -0.14475073 0.016284671 2.857312e-39
0.0053290953 -0.14391862 0.019223299 3.1328227e-39
0.0071316869 -0.14391862 0.019223299 3.316135e-39
0.0089986827 -0.14475073 0.016284671 3.4065341e-39
0.01073687 -0.14391862 0.019223299 3.4976536e-39
0.012539463 -0.14391862 0.019223299 3.5891331e-39
0.014342055 -0.14391862 0.019223299 3.3143497e-39
0.016144646 -0.14391862 0.019223299 1.9357425e-39
0.01794724 -0.14391862 0.019223299 1.7531561e-39
0.01974983 -0.14391862 0.019223299 1.4765692e-39
0.021448968 -0.1430618 0.022249188 1.8446287e-39
0.02313813 -0.14220999 0.025257435 3.1342843e-39
0.02493014 -0.14220999 0.025257435 3.7785649e-39
0.026722154 -0.14220999 0.025257435 3.7767586e-39
0.028514164 -0.14220999 0.025257435 4.2352144e-39
0.030306177 -0.14220999 0.025257435 5.063173e-39
0.032098193 -0.14220999 0.025257435 4.6943877e-39
0.033890203 -0.14220999 0.025257435 5.2472083e-39
0.035682216 -0.14220999 0.025257435 1.6530389e-39
0.03747423 -0.14220999 0.025257435 5.5266945e-39
0.03926624 -0.14220999 0.025257435 2.3508809e-38
0.041058253 -0.14220999 0.025257435 2.3509168e-38
0.042850267 -0.14220999 0.025257435 2.1482675e-38
0.044642277 -0.14220999 0.025257435 2.1575935e-38
0.046434291 -0.14220999 0.025257435 2.1852874e-38
0.048226301 -0.14220999 0.025257435 2.1484447e-38
0.050018318 -0.14220999 0.025257435 1.1066338e-38
0.052196488 -0.14391862 0.019223299 9.8677952e-39
0.054192297 -0.14475073 0.016284671 1.1066341e-38
0.057082325 -0.14929073 0.00025161728 1.0697203e-38
-0.018161273 -0.14940463 0.0062952898 1.5647964e-39
-0.016336013 -0.14940463 0.0062952898 1.9346551e-39
-0.014510753 -0.14940463 0.0062952898 2.4878289e-39
-0.012685494 -0.14940463 0.0062952898 2.3038005e-39
-0.010860234 -0.14940463 0.0062952898 1.2907276e-39
-0.0090349745 -0.14940463 0.0062952898 9.2194509e-40
-0.0072281002 -0.14855109 0.0092910193 1.3832834e-39
-0.0054080929 -0.14855109 0.0092910193 1.9364572e-39
-0.0035880865 -0.14855109 0.0092910193 1.6598703e-39
-0.0018128934 -0.14743073 0.013223257 1.2914437e-39
2.1839514e-07 -0.14743073 0.013223257 1.199248e-39
0.0017677057 -0.14655848 0.016284671 2.1212015e-39
0.0035754503 -0.14655848 0.016284671 2.5814608e-39
0.0053290953 -0.14572121 0.019223299 3.0417173e-39
0.0071316869 -0.14572121 0.019223299 3.4090607e-39
0.008934278 -0.14572121 0.019223299 3.0395565e-39
0.01073687 -0.14572121 0.019223299 2.4860198e-39
0.012539463 -0.14572121 0.019223299 2.1161625e-39
0.014342055 -0.14572121 0.019223299 1.4722378e-39
0.016144646 -0.14572121 0.019223299 1.3829176e-39
0.01794724 -0.14572121 0.019223299 2.3981514e-39
0.01974983 -0.14572121 0.019223299 8.3082566e-40
0.021448968 -0.14485909 0.022249188 8.3046552e-40
0.02313813 -0.14400201 0.025257435 3.411576e-39
0.02493014 -0.14400201 0.025257435 3.1335444e-39
0.026722154 -0.14400201 0.025257435 3.3161294e-39
0.028514164 -0.14400201 0.025257435 7.1869011e-39
0.030306177 -0.14400201 0.025257435 7.1850976e-39
0.032098193 -0.14400201 0.025257435 7.4606055e-39
0.033890203 -0.14400201 0.025257435 6.8159606e-39
0.035682216 -0.14400201 0.025257435 1.4697267e-39
0.03747423 -0.14400201 0.025257435 4.0529896e-39
0.03926624 -0.14400201 0.025257435 2.3139294e-38
0.041058253 -0.14400201 0.025257435 2.2773039e-38
0.042850267 -0.14400201 0.025257435 1.9271047e-38
0.044642277 -0.14400201 0.025257435 2.0192998e-38
0.046434291 -0.14400201 0.025257435 1.9547983e-38
0.048226301 -0.14400201 0.025257435 1.8810774e-38
0.050018318 -0.14400201 0.025257435 1.0697559e-38
0.052002847 -0.14485909 0.022249188 1.0328773e-38
-0.0018477836 -0.14836623 0.016284671 6.4608828e-40
-4.0038954e-05 -0.14836623 0.016284671 6.4608828e-40
0.0017677057 -0.14836623 0.016284671 1.3836505e-39
0.0035754503 -0.14836623 0.016284671 1.6595185e-39
0.0053290953 -0.14752381 0.019223299 1.7513498e-39
0.0071316869 -0.14752381 0.019223299 1.6595101e-39
0.008934278 -0.14752381 0.019223299 1.5665886e-39
0.01073687 -0.14752381 0.019223299 1.3818372e-39
0.012539463 -0.14752381 0.019223299 1.380761e-39
0.014342055 -0.14752381 0.019223299 1.1974488e-39
0.016057108 -0.14665638 0.022249188 2.672932e-39
0.017854394 -0.14665638 0.022249188 2.2130328e-39
0.01974983 -0.14752381 0.019223299 6.4571833e-40
0.021448968 -0.14665638 0.022249188 1.4754664e-39
