# .PCD v0.7 - Point Cloud Data file format
VERSION 0.7
FIELDS x y z rgb
SIZE 4 4 4 4
TYPE F F F F
COUNT 1 1 1 1
WIDTH 472
HEIGHT 1
VIEWPOINT 0 0 0 1 0 0 0
POINTS 472
DATA ascii
-0.013562843 -0.11790501 -0.0044833198 1.3275804e-38
-0.017062582 -0.12140475 -0.0044833198 2.2315284e-38
-0.015312713 -0.12140475 -0.0044833198 2.3142534e-38
-0.013562843 -0.12140475 -0.0044833198 2.2129461e-38
-0.0082796216 -0.12061088 -0.0015335456 2.3234374e-38
-0.0065057073 -0.1197954 0.0014963374 2.2774116e-38
-0.0047663227 -0.1197954 0.0014963374 2.2773034e-38
-0.0030269399 -0.1197954 0.0014963374 2.3234012e-38
-0.0012875572 -0.1197954 0.0014963374 2.3418045e-38
0.00045182742 -0.1197954 0.0014963374 2.350988e-38
0.002191212 -0.1197954 0.0014963374 2.2497889e-38
-0.017062582 -0.12315463 -0.0044833198 2.286703e-38
-0.015312713 -0.12315463 -0.0044833198 2.2958867e-38
-0.013562843 -0.12315463 -0.0044833198 2.2775193e-38
-0.011858679 -0.12398534 -0.0075499192 2.295887e-38
-0.010063108 -0.12315463 -0.0044833198 2.3142541e-38
-0.0082796216 -0.12235557 -0.0015335456 2.3142541e-38
-0.0065057073 -0.12153481 0.0014963374 2.3142544e-38
-0.0047663227 -0.12153481 0.0014963374 2.3234376e-38
-0.0030269399 -0.12153481 0.0014963374 2.3234376e-38
-0.0012875572 -0.12153481 0.0014963374 2.3234374e-38
0.00045182742 -0.12153481 0.0014963374 2.3418045e-38
0.002191212 -0.12153481 0.0014963374 2.3142544e-38
0.0039305948 -0.12153481 0.0014963374 2.2591531e-38
-0.017184615 -0.12655462 -0.010535635 2.2867032e-38
-0.015312713 -0.1249045 -0.0044833198 2.2406772e-38
-0.013562843 -0.1249045 -0.0044833198 2.295887e-38
-0.011812977 -0.1249045 -0.0044833198 2.3142544e-38
-0.010063108 -0.1249045 -0.0044833198 2.2774479e-38
-0.0083132386 -0.1249045 -0.0044833198 2.3142542e-38
-0.0065349266 -0.12410025 -0.0015335456 2.3234379e-38
-0.0047663227 -0.12327419 0.0014963374 2.3234379e-38
-0.0030269399 -0.12327419 0.0014963374 2.3050347e-38
-0.0012875572 -0.12327419 0.0014963374 2.3141819e-38
0.00045182742 -0.12327419 0.0014963374 2.3141819e-38
0.002191212 -0.12327419 0.0014963374 2.2958154e-38
0.0039305948 -0.12327419 0.0014963374 2.1945811e-38
0.0056620594 -0.12245311 0.004507862 2.2867037e-38
0.0073961616 -0.12245311 0.004507862 2.3142544e-38
-0.020705573 -0.12831511 -0.010535635 2.2775193e-38
-0.018945094 -0.12831511 -0.010535635 2.2130185e-38
-0.017184615 -0.12831511 -0.010535635 2.295887e-38
-0.015312713 -0.12665437 -0.0044833198 2.3050707e-38
-0.013562843 -0.12665437 -0.0044833198 2.2405699e-38
-0.011812977 -0.12665437 -0.0044833198 2.3142544e-38
-0.010024317 -0.12584494 -0.0015335456 2.3234379e-38
-0.0082796216 -0.12584494 -0.0015335456 2.341805e-38
-0.0065349266 -0.12584494 -0.0015335456 2.3325856e-38
-0.0047663227 -0.12501357 0.0014963374 2.3234018e-38
-0.0030269399 -0.12501357 0.0014963374 2.3234018e-38
-0.0012875572 -0.12501357 0.0014963374 2.3417687e-38
0.00045182742 -0.12501357 0.0014963374 2.3509883e-38
0.002191212 -0.12501357 0.0014963374 2.3509886e-38
0.0039305948 -0.12501357 0.0014963374 2.3417691e-38
0.0056620594 -0.12418722 0.004507862 2.258902e-38
0.0073961616 -0.12418722 0.004507862 2.3050704e-38
0.0091302656 -0.12418722 0.004507862 2.3142544e-38
-0.022542413 -0.13090499 -0.013539113 2.2958867e-38
-0.020705573 -0.13007559 -0.010535635 2.3142541e-38
-0.018945094 -0.13007559 -0.010535635 2.2682283e-38
-0.017124414 -0.12925108 -0.0075499192 2.2865955e-38
-0.015312713 -0.12840421 -0.0044833198 2.3234379e-38
-0.01351371 -0.12758966 -0.0015335456 2.341805e-38
-0.011769015 -0.12758966 -0.0015335456 2.3141467e-38
-0.0099844746 -0.12675296 0.0014963374 2.3232944e-38
-0.0082450919 -0.12675296 0.0014963374 2.3232944e-38
-0.0065057073 -0.12675296 0.0014963374 2.3509168e-38
-0.0047663227 -0.12675296 0.0014963374 2.3509527e-38
-0.0030269399 -0.12675296 0.0014963374 2.3509527e-38
-0.0012875572 -0.12675296 0.0014963374 2.3509527e-38
0.00045182742 -0.12675296 0.0014963374 2.3509524e-38
0.0021938514 -0.12592132 0.004507862 2.3509527e-38
0.0039279554 -0.12592132 0.004507862 2.3507374e-38
0.0056620594 -0.12592132 0.004507862 2.28638e-38
0.0073961616 -0.12592132 0.004507862 2.3234364e-38
0.0091302656 -0.12592132 0.004507862 2.2958857e-38
0.01086437 -0.12592132 0.004507862 2.222275e-38
0.012598474 -0.12592132 0.004507862 2.2683366e-38
-0.025987014 -0.13183604 -0.010535635 1.7149826e-38
-0.024226535 -0.13183604 -0.010535635 1.917813e-38
-0.022542413 -0.13267075 -0.013539113 2.2036195e-38
-0.020705573 -0.13183604 -0.010535635 2.341805e-38
-0.018945094 -0.13183604 -0.010535635 2.341805e-38
-0.017124414 -0.13100632 -0.0075499192 2.2496097e-38
-0.015312713 -0.13015409 -0.0044833198 2.3141467e-38
-0.01351371 -0.12933435 -0.0015335456 2.3509527e-38
-0.011769015 -0.12933435 -0.0015335456 2.2864164e-38
-0.0099844746 -0.12849234 0.0014963374 2.3509168e-38
-0.0082450919 -0.12849234 0.0014963374 2.3509527e-38
-0.0064766668 -0.12765543 0.004507862 2.3509168e-38
-0.0047425628 -0.12765543 0.004507862 2.3509168e-38
-0.0030084588 -0.12765543 0.004507862 2.3508808e-38
-0.0012743548 -0.12765543 0.004507862 2.3507728e-38
0.00045974739 -0.12765543 0.004507862 2.3507725e-38
0.0021938514 -0.12765543 0.004507862 2.3508809e-38
0.0039279554 -0.12765543 0.004507862 2.3508092e-38
0.0056620594 -0.12765543 0.004507862 2.3509163e-38
0.0073961616 -0.12765543 0.004507862 2.3418023e-38
0.0091302656 -0.12765543 0.004507862 2.2867011e-38
0.01086437 -0.12765543 0.004507862 2.2591521e-38
0.012598474 -0.12765543 0.004507862 2.2867037e-38
-0.025987014 -0.13359652 -0.010535635 2.0192648e-38
-0.024226535 -0.13359652 -0.010535635 2.3049626e-38
-0.022542413 -0.13443647 -0.013539113 2.3418047e-38
-0.020776667 -0.13443647 -0.013539113 2.2772321e-38
-0.018945094 -0.13359652 -0.010535635 2.2772321e-38
-0.017124414 -0.13276155 -0.0075499192 2.3509886e-38
-0.015312713 -0.13190396 -0.0044833198 2.2403185e-38
-0.013562843 -0.13190396 -0.0044833198 2.0282685e-38
-0.011812977 -0.13190396 -0.0044833198 2.0282687e-38
-0.0099844746 -0.13023172 0.0014963374 1.8438055e-38
-0.0082450919 -0.13023172 0.0014963374 1.7055478e-38
-0.0064766668 -0.12938951 0.004507862 1.5394878e-38
-0.0047425628 -0.12938951 0.004507862 1.4011941e-38
-0.0030084588 -0.12938951 0.004507862 1.3458407e-38
-0.0012743548 -0.12938951 0.004507862 1.3919382e-38
0.00045974739 -0.12938951 0.004507862 1.5671099e-38
0.0021938514 -0.12938951 0.004507862 1.7606126e-38
0.0039279554 -0.12938951 0.004507862 2.239814e-38
0.0056620594 -0.12938951 0.004507862 2.3506276e-38
0.0073961616 -0.12938951 0.004507862 2.3509856e-38
0.0091302656 -0.12938951 0.004507862 2.323435e-38
0.01086437 -0.12938951 0.004507862 2.295886e-38
0.012550154 -0.12798826 0.0095185265 2.2958867e-38
0.014275472 -0.12798826 0.0095185265 2.3326208e-38
0.019451426 -0.12798826 0.0095185265 2.1394799e-38
0.021176744 -0.12798826 0.0095185265 1.9646338e-38
-0.029507976 -0.13535701 -0.010535635 1.0606467e-38
-0.027747497 -0.13535701 -0.010535635 1.0054018e-38
-0.025987014 -0.13535701 -0.010535635 2.0287006e-38
-0.024226535 -0.13535701 -0.010535635 2.3050347e-38
-0.022466056 -0.13535701 -0.010535635 2.3509879e-38
-0.020705573 -0.13535701 -0.010535635 2.3418045e-38
-0.018879659 -0.13451682 -0.0075499192 2.2496447e-38
-0.017062582 -0.13365383 -0.0044833198 2.3418047e-38
-0.015312713 -0.13365383 -0.0044833198 2.0837651e-38
-0.01351371 -0.13282375 -0.0015335456 1.8901546e-38
-0.011769015 -0.13282375 -0.0015335456 1.7887397e-38
-0.0099844746 -0.13197111 0.0014963374 1.6504462e-38
-0.0082450919 -0.13197111 0.0014963374 1.3922985e-38
-0.0064766668 -0.13112362 0.004507862 1.2170189e-38
-0.0047425628 -0.13112362 0.004507862 1.2262382e-38
-0.0030084588 -0.13112362 0.004507862 1.2446413e-38
-0.0012743548 -0.13112362 0.004507862 1.1801041e-38
0.00045974739 -0.13112362 0.004507862 1.1984713e-38
0.0021938514 -0.13112362 0.004507862 1.3090335e-38
0.0039279554 -0.13112362 0.004507862 1.5762204e-38
0.0056620594 -0.13112362 0.004507862 1.9541858e-38
0.0073961616 -0.13112362 0.004507862 2.3509503e-38
0.0091302656 -0.13112362 0.004507862 2.3509863e-38
0.01086437 -0.13112362 0.004507862 2.3141086e-38
0.012550154 -0.12971358 0.0095185265 2.3509876e-38
0.014275472 -0.12971358 0.0095185265 2.3509876e-38
0.01603999 -0.13055246 0.0065375194 2.3049261e-38
0.017770536 -0.13055246 0.0065375194 2.3234379e-38
0.019451426 -0.12971358 0.0095185265 2.2775202e-38
0.021176744 -0.12971358 0.0095185265 2.2039441e-38
-0.027747497 -0.13711749 -0.010535635 1.2728054e-38
-0.022466056 -0.13711749 -0.010535635 2.1758518e-38
-0.020705573 -0.13711749 -0.010535635 2.0284109e-38
-0.018879659 -0.13627206 -0.0075499192 1.9085209e-38
-0.017062582 -0.13540371 -0.0044833198 1.9823855e-38
-0.015312713 -0.13540371 -0.0044833198 1.6596653e-38
-0.01351371 -0.13456844 -0.0015335456 1.3923701e-38
-0.011769015 -0.13456844 -0.0015335456 1.3001745e-38
-0.0099844746 -0.13371049 0.0014963374 1.3738954e-38
-0.0082450919 -0.13371049 0.0014963374 1.2724802e-38
-0.0064766668 -0.13285773 0.004507862 1.2540048e-38
-0.0047425628 -0.13285773 0.004507862 1.3093221e-38
-0.0030084588 -0.13285773 0.004507862 1.3368729e-38
-0.0012743548 -0.13285773 0.004507862 1.272336e-38
0.00045974739 -0.13285773 0.004507862 1.2722997e-38
0.0021956302 -0.13228302 0.0065375194 1.3368001e-38
0.0039261766 -0.13228302 0.0065375194 1.4103396e-38
0.0056620594 -0.13285773 0.004507862 1.1798141e-38
0.0073961616 -0.13285773 0.004507862 1.4010839e-38
0.0091302656 -0.13285773 0.004507862 1.8897927e-38
0.01086437 -0.13285773 0.004507862 2.2770865e-38
0.012578901 -0.13228302 0.0065375194 2.3509873e-38
0.014309445 -0.13228302 0.0065375194 2.3325483e-38
0.01603999 -0.13228302 0.0065375194 2.3509876e-38
0.017770536 -0.13228302 0.0065375194 2.3418045e-38
0.019501081 -0.13228302 0.0065375194 2.3234374e-38
0.021268992 -0.13285773 0.004507862 2.3142544e-38
0.023003096 -0.13285773 0.004507862 2.1208232e-38
-0.022542413 -0.13973372 -0.013539113 2.092876e-38
-0.020705573 -0.13887797 -0.010535635 1.9914969e-38
-0.018945094 -0.13887797 -0.010535635 1.8347644e-38
-0.017124414 -0.1380273 -0.0075499192 1.7795552e-38
-0.015312713 -0.13715358 -0.0044833198 1.3922979e-38
-0.01351371 -0.13631313 -0.0015335456 1.2632962e-38
-0.011769015 -0.13631313 -0.0015335456 1.3831505e-38
-0.0099844746 -0.13544987 0.0014963374 1.3831149e-38
-0.0082450919 -0.13544987 0.0014963374 1.4015541e-38
-0.0065057073 -0.13544987 0.0014963374 1.4476156e-38
-0.0047663227 -0.13544987 0.0014963374 1.4568351e-38
-0.0030084588 -0.13459183 0.004507862 1.4106294e-38
-0.0012743548 -0.13459183 0.004507862 1.3184338e-38
0.00045974739 -0.13459183 0.004507862 1.2907388e-38
0.0021956302 -0.13401355 0.0065375194 1.2999218e-38
0.0039261766 -0.13401355 0.0065375194 1.4657652e-38
0.0056620594 -0.13459183 0.004507862 1.2536428e-38
0.0073961616 -0.13459183 0.004507862 1.2813015e-38
0.0091302656 -0.13459183 0.004507862 1.5210822e-38
0.01086437 -0.13459183 0.004507862 1.9544018e-38
0.012578901 -0.13401355 0.0065375194 2.2771228e-38
0.014309445 -0.13401355 0.0065375194 2.3048896e-38
0.01603999 -0.13401355 0.0065375194 2.3509876e-38
0.017800784 -0.13459183 0.004507862 2.3234012e-38
0.019534888 -0.13459183 0.004507862 2.2958504e-38
0.021268992 -0.13459183 0.004507862 2.2221305e-38
0.023003096 -0.13459183 0.004507862 2.2958873e-38
-0.025987014 -0.14063846 -0.010535635 1.8995185e-38
-0.02430816 -0.14149947 -0.013539113 1.954619e-38
-0.022542413 -0.14149947 -0.013539113 2.0006803e-38
-0.020776667 -0.14149947 -0.013539113 1.9546187e-38
-0.018945094 -0.14063846 -0.010535635 1.7517886e-38
-0.017124414 -0.13978253 -0.0075499192 1.6596653e-38
-0.015369169 -0.13978253 -0.0075499192 1.3370524e-38
-0.013613924 -0.13978253 -0.0075499192 1.3462723e-38
-0.011812977 -0.13890342 -0.0044833198 1.5398831e-38
-0.010063108 -0.13890342 -0.0044833198 1.3462367e-38
-0.0082450919 -0.13718925 0.0014963374 1.4107736e-38
-0.0065057073 -0.13718925 0.0014963374 1.4568351e-38
-0.0047663227 -0.13718925 0.0014963374 1.438396e-38
-0.0030269399 -0.13718925 0.0014963374 1.4290686e-38
-0.0012743548 -0.13632594 0.004507862 1.4290686e-38
0.00045974739 -0.13632594 0.004507862 1.456691e-38
0.0021938514 -0.13632594 0.004507862 1.4750935e-38
0.0039279554 -0.13632594 0.004507862 1.3551665e-38
0.0056620594 -0.13632594 0.004507862 1.4289584e-38
0.0073961616 -0.13632594 0.004507862 1.4473975e-38
0.0091302656 -0.13632594 0.004507862 1.3091042e-38
0.01086437 -0.13632594 0.004507862 1.4934599e-38
0.012598474 -0.13632594 0.004507862 1.9176677e-38
0.014332577 -0.13632594 0.004507862 2.1942909e-38
0.016066682 -0.13632594 0.004507862 2.3418043e-38
0.017800784 -0.13632594 0.004507862 2.3418045e-38
0.019534888 -0.13632594 0.004507862 2.3234374e-38
0.021268992 -0.13632594 0.004507862 2.2313137e-38
0.023003096 -0.13632594 0.004507862 2.3142544e-38
0.024737198 -0.13632594 0.004507862 2.2313503e-38
-0.024226535 -0.14239894 -0.010535635 1.9177407e-38
-0.022466056 -0.14239894 -0.010535635 1.9914608e-38
-0.020776667 -0.1432652 -0.013539113 1.8716426e-38
-0.018945094 -0.14239894 -0.010535635 1.5766169e-38
-0.017184615 -0.14239894 -0.010535635 1.5951283e-38
-0.015369169 -0.14153777 -0.0075499192 1.4661263e-38
-0.013613924 -0.14153777 -0.0075499192 1.4384679e-38
-0.011812977 -0.1406533 -0.0044833198 1.4201011e-38
-0.010063108 -0.1406533 -0.0044833198 1.401662e-38
-0.0083132386 -0.1406533 -0.0044833198 1.4293207e-38
-0.0065349266 -0.13980253 -0.0015335456 1.4292483e-38
-0.0047902297 -0.13980253 -0.0015335456 1.3922982e-38
-0.0030269399 -0.13892864 0.0014963374 1.4014455e-38
-0.0012875572 -0.13892864 0.0014963374 1.4383237e-38
0.00045182742 -0.13892864 0.0014963374 1.4751301e-38
0.0021938514 -0.13806005 0.004507862 1.4659458e-38
0.0039279554 -0.13806005 0.004507862 1.44747e-38
0.0056699794 -0.13892864 0.0014963374 1.3921523e-38
0.007409364 -0.13892864 0.0014963374 1.3737132e-38
0.0091302656 -0.13806005 0.004507862 1.2907374e-38
0.01086437 -0.13806005 0.004507862 1.3276157e-38
0.012598474 -0.13806005 0.004507862 1.475165e-38
0.014332577 -0.13806005 0.004507862 1.79785e-38
0.016066682 -0.13806005 0.004507862 2.3234369e-38
0.017800784 -0.13806005 0.004507862 2.3234012e-38
0.019534888 -0.13806005 0.004507862 2.3234374e-38
0.021268992 -0.13806005 0.004507862 2.3234376e-38
0.023003096 -0.13806005 0.004507862 2.2774116e-38
0.024737198 -0.13806005 0.004507862 2.3234379e-38
0.026471302 -0.13806005 0.004507862 1.4292481e-38
0.028281968 -0.13892864 0.0014963374 8.66855e-39
-0.036783595 -0.14587842 -0.016459621 1.3737498e-38
-0.035012729 -0.14587842 -0.016459621 1.4752371e-38
-0.029605396 -0.14503096 -0.013539113 1.7057631e-38
-0.024226535 -0.14415942 -0.010535635 1.92696e-38
-0.022466056 -0.14415942 -0.010535635 2.1021317e-38
-0.020705573 -0.14415942 -0.010535635 2.0007168e-38
-0.018945094 -0.14415942 -0.010535635 1.5582857e-38
-0.017184615 -0.14415942 -0.010535635 1.5583219e-38
-0.015424136 -0.14415942 -0.010535635 1.5398831e-38
-0.013613924 -0.14329304 -0.0075499192 1.5399554e-38
-0.011858679 -0.14329304 -0.0075499192 1.4754185e-38
-0.010103434 -0.14329304 -0.0075499192 1.5676141e-38
-0.0083132386 -0.14240317 -0.0044833198 1.549175e-38
-0.006563371 -0.14240317 -0.0044833198 1.521444e-38
-0.0047902297 -0.14154722 -0.0015335456 1.4661266e-38
-0.0030455329 -0.14154722 -0.0015335456 1.4383957e-38
-0.0012875572 -0.14066802 0.0014963374 1.4475433e-38
0.00045182742 -0.14066802 0.0014963374 1.4290323e-38
0.002191212 -0.14066802 0.0014963374 1.4014089e-38
0.0039305948 -0.14066802 0.0014963374 1.5213347e-38
0.0056699794 -0.14066802 0.0014963374 1.4844561e-38
0.007409364 -0.14066802 0.0014963374 1.4844561e-38
0.0091487467 -0.14066802 0.0014963374 1.3922605e-38
0.01086437 -0.13979416 0.004507862 1.3000652e-38
0.012598474 -0.13979416 0.004507862 1.2263087e-38
0.014332577 -0.13979416 0.004507862 1.4660176e-38
0.016066682 -0.13979416 0.004507862 2.111387e-38
0.017800784 -0.13979416 0.004507862 2.2773034e-38
0.019534888 -0.13979416 0.004507862 2.3049621e-38
0.021268992 -0.13979416 0.004507862 2.3234376e-38
0.023003096 -0.13979416 0.004507862 2.2497529e-38
0.024737198 -0.13979416 0.004507862 2.3234379e-38
0.026471302 -0.13979416 0.004507862 1.6412261e-38
0.028153805 -0.13920517 0.0065375194 8.8511434e-39
0.02988435 -0.13920517 0.0065375194 2.0272108e-39
-0.036783595 -0.14764927 -0.016459621 1.3368715e-38
-0.035012729 -0.14764927 -0.016459621 1.4567258e-38
-0.029605396 -0.14679669 -0.013539113 1.6872514e-38
-0.027839653 -0.14679669 -0.013539113 1.7056908e-38
-0.026073903 -0.14679669 -0.013539113 1.7886668e-38
-0.024226535 -0.1459199 -0.010535635 1.9453994e-38
-0.022466056 -0.1459199 -0.010535635 2.1666689e-38
-0.020705573 -0.1459199 -0.010535635 2.0652537e-38
-0.018945094 -0.1459199 -0.010535635 1.5582501e-38
-0.017245173 -0.14679669 -0.013539113 1.5122244e-38
-0.015424136 -0.1459199 -0.010535635 1.521444e-38
-0.013663657 -0.1459199 -0.010535635 1.5860532e-38
-0.011858679 -0.14504828 -0.0075499192 1.5676141e-38
-0.010103434 -0.14504828 -0.0075499192 1.549175e-38
-0.0083481893 -0.14504828 -0.0075499192 1.5307358e-38
-0.0065929443 -0.14504828 -0.0075499192 1.5398475e-38
-0.0048135035 -0.14415304 -0.0044833198 1.5491027e-38
-0.003063634 -0.14415304 -0.0044833198 1.5490305e-38
-0.0013008378 -0.14329191 -0.0015335456 1.5305914e-38
0.00044385903 -0.14329191 -0.0015335456 1.5489582e-38
0.002191212 -0.1424074 0.0014963374 1.567397e-38
0.0039305948 -0.1424074 0.0014963374 1.2909535e-38
0.0056699794 -0.1424074 0.0014963374 1.4476861e-38
0.007409364 -0.1424074 0.0014963374 1.5030034e-38
0.0091302656 -0.14152823 0.004507862 1.3739296e-38
0.01086437 -0.14152823 0.004507862 1.309357e-38
0.012598474 -0.14152823 0.004507862 1.2724788e-38
0.014332577 -0.14152823 0.004507862 1.3923332e-38
0.016066682 -0.14152823 0.004507862 1.8809701e-38
0.017800784 -0.14152823 0.004507862 2.2404251e-38
0.019534888 -0.14152823 0.004507862 2.3418045e-38
0.021268992 -0.14152823 0.004507862 2.3418047e-38
0.023003096 -0.14152823 0.004507862 2.3141819e-38
0.024737198 -0.14152823 0.004507862 2.341805e-38
0.026471302 -0.14152823 0.004507862 1.853204e-38
0.028153805 -0.14093573 0.0065375194 1.1524454e-38
0.02988435 -0.14093573 0.0065375194 2.8566114e-39
-0.036783595 -0.14942016 -0.016459621 1.2539311e-38
-0.034789413 -0.14768039 -0.010535635 1.263115e-38
-0.033028934 -0.14768039 -0.010535635 1.3829693e-38
-0.031268455 -0.14768039 -0.010535635 1.3737501e-38
-0.02970013 -0.14942016 -0.016459621 1.5765804e-38
-0.027839653 -0.14856245 -0.013539113 1.7055824e-38
-0.026073903 -0.14856245 -0.013539113 1.9084849e-38
-0.024226535 -0.14768039 -0.010535635 2.2127667e-38
-0.022466056 -0.14768039 -0.010535635 2.2773037e-38
-0.020705573 -0.14768039 -0.010535635 2.0376673e-38
-0.018945094 -0.14768039 -0.010535635 1.5766892e-38
-0.017184615 -0.14768039 -0.010535635 1.6320787e-38
-0.015424136 -0.14768039 -0.010535635 1.6506258e-38
-0.013663657 -0.14768039 -0.010535635 1.6598097e-38
-0.011858679 -0.14680351 -0.0075499192 1.5583945e-38
-0.010103434 -0.14680351 -0.0075499192 1.6690293e-38
-0.0083481893 -0.14680351 -0.0075499192 1.6137119e-38
-0.0065929443 -0.14680351 -0.0075499192 1.5951649e-38
-0.0048135035 -0.14590292 -0.0044833198 1.5767614e-38
-0.003063634 -0.14590292 -0.0044833198 1.5213721e-38
-0.0013008378 -0.14503662 -0.0015335456 1.4568349e-38
0.00044385903 -0.14503662 -0.0015335456 1.4936408e-38
0.002191212 -0.14414679 0.0014963374 1.5398462e-38
0.0039305948 -0.14414679 0.0014963374 1.4938202e-38
0.0056699794 -0.14414679 0.0014963374 1.4754887e-38
0.007409364 -0.14414679 0.0014963374 1.4753811e-38
0.0091302656 -0.14326234 0.004507862 1.4569419e-38
0.01086437 -0.14326234 0.004507862 1.5306984e-38
0.012598474 -0.14326234 0.004507862 1.4199918e-38
0.014332577 -0.14326234 0.004507862 1.3277963e-38
0.016066682 -0.14326234 0.004507862 1.650481e-38
0.017800784 -0.14326234 0.004507862 1.9822774e-38
0.019534888 -0.14326234 0.004507862 2.2957425e-38
0.021268992 -0.14326234 0.004507862 2.3234015e-38
0.023003096 -0.14326234 0.004507862 2.3141819e-38
0.024737198 -0.14326234 0.004507862 2.3509886e-38
0.026471302 -0.14326234 0.004507862 1.9453278e-38
0.028153805 -0.14266627 0.0065375194 1.3460562e-38
0.02988435 -0.14266627 0.0065375194 2.7633367e-39
-0.034789413 -0.14944084 -0.010535635 1.1801745e-38
-0.033028934 -0.14944084 -0.010535635 1.2630787e-38
-0.031268455 -0.14944084 -0.010535635 1.2815181e-38
-0.029507976 -0.14944084 -0.010535635 1.5027876e-38
-0.024226535 -0.14944084 -0.010535635 2.2864513e-38
-0.022466056 -0.14944084 -0.010535635 2.2680844e-38
-0.020705573 -0.14944084 -0.010535635 2.0100089e-38
-0.018945094 -0.14944084 -0.010535635 1.6965438e-38
-0.017184615 -0.14944084 -0.010535635 1.5951649e-38
-0.015424136 -0.14944084 -0.010535635 1.632151e-38
-0.013663657 -0.14944084 -0.010535635 1.6505903e-38
-0.011858679 -0.14855875 -0.0075499192 1.6598818e-38
-0.010103434 -0.14855875 -0.0075499192 1.6322231e-38
-0.0083481893 -0.14855875 -0.0075499192 1.69676e-38
-0.0065929443 -0.14855875 -0.0075499192 1.6782489e-38
-0.0048135035 -0.14765279 -0.0044833198 1.6320787e-38
-0.003063634 -0.14765279 -0.0044833198 1.6135677e-38
-0.0013137665 -0.14765279 -0.0044833198 1.5305914e-38
0.00044385903 -0.14678131 -0.0015335456 1.4936408e-38
0.002191212 -0.14588617 0.0014963374 1.5121878e-38
0.0039305948 -0.14588617 0.0014963374 1.5676847e-38
0.0056699794 -0.14588617 0.0014963374 1.4202435e-38
0.007409364 -0.14588617 0.0014963374 1.4293913e-38
0.0091302656 -0.14499645 0.004507862 1.4478304e-38
0.01086437 -0.14499645 0.004507862 1.45705e-38
0.012598474 -0.14499645 0.004507862 1.3831856e-38
0.014332577 -0.14499645 0.004507862 1.3370877e-38
0.016066682 -0.14499645 0.004507862 1.5951636e-38
0.017770536 -0.14439683 0.0065375194 1.7702277e-38
0.019501081 -0.14439683 0.0065375194 2.2404254e-38
0.021231625 -0.14439683 0.0065375194 2.3325492e-38
0.02296217 -0.14439683 0.0065375194 2.3233296e-38
0.024692714 -0.14439683 0.0065375194 2.3509883e-38
0.026423261 -0.14439683 0.0065375194 1.9360719e-38
0.028078018 -0.14351611 0.0095185265 1.5488503e-38
0.02972281 -0.14264072 0.012481593 2.4867499e-39
0.031442933 -0.14264072 0.012481593 3.5891191e-39
-0.0013137665 -0.14940263 -0.0044833198 1.6965435e-38
0.00044385903 -0.148526 -0.0015335456 1.6411538e-38
0.002191212 -0.14762555 0.0014963374 1.6320422e-38
0.0039305948 -0.14762555 0.0014963374 1.5860883e-38
0.0056699794 -0.14762555 0.0014963374 1.4755251e-38
0.007409364 -0.14762555 0.0014963374 1.4847449e-38
0.0091302656 -0.14673056 0.004507862 1.4755251e-38
0.01086437 -0.14673056 0.004507862 1.4939282e-38
0.012598474 -0.14673056 0.004507862 1.4293913e-38
0.014332577 -0.14673056 0.004507862 1.3831856e-38
0.016066682 -0.14673056 0.004507862 1.5952355e-38
0.017726108 -0.14524142 0.0095185265 1.6965791e-38
0.019451426 -0.14524142 0.0095185265 2.102132e-38
0.021176744 -0.14524142 0.0095185265 2.1850361e-38
0.02296217 -0.14612736 0.0065375194 2.2126948e-38
0.024692714 -0.14612736 0.0065375194 2.3232936e-38
0.0263527 -0.14524142 0.0095185265 1.871535e-38
0.028078018 -0.14524142 0.0095185265 1.5027525e-38
0.02972281 -0.14436086 0.012481593 2.8555324e-39
0.031442933 -0.14436086 0.012481593 3.866069e-39
0.0056699794 -0.14936493 0.0014963374 1.5309146e-38
0.007409364 -0.14936493 0.0014963374 1.5585017e-38
0.0091302656 -0.14846466 0.004507862 1.5031841e-38
0.01086437 -0.14846466 0.004507862 1.5123317e-38
0.012598474 -0.14846466 0.004507862 1.4754535e-38
0.014332577 -0.14846466 0.004507862 1.4200282e-38
0.016066682 -0.14846466 0.004507862 1.5767608e-38
0.017726108 -0.14696677 0.0095185265 1.7057987e-38
0.019451426 -0.14696677 0.0095185265 1.9639464e-38
0.021176744 -0.14696677 0.0095185265 1.9730578e-38
0.02296217 -0.14785792 0.0065375194 1.9453991e-38
0.024627382 -0.14696677 0.0095185265 2.0836565e-38
0.0263527 -0.14696677 0.0095185265 1.714874e-38
0.028002687 -0.14608096 0.012481593 1.4197761e-38
0.02972281 -0.14608096 0.012481593 2.7644157e-39
0.031442933 -0.14608096 0.012481593 3.589845e-39
0.017726108 -0.14869209 0.0095185265 1.8072139e-38
0.019451426 -0.14869209 0.0095185265 1.9639464e-38
0.021176744 -0.14869209 0.0095185265 1.862423e-38
0.022902064 -0.14869209 0.0095185265 1.6503731e-38
0.024627382 -0.14869209 0.0095185265 1.7701914e-38
0.026282564 -0.14780109 0.012481593 1.5489219e-38
0.028002687 -0.14780109 0.012481593 1.3091414e-38
0.02972281 -0.14780109 0.012481593 2.1190463e-39
0.019402072 -0.14952122 0.012481593 2.0008247e-38
0.021122195 -0.14952122 0.012481593 1.8532035e-38
0.022842318 -0.14952122 0.012481593 1.484421e-38
0.024562441 -0.14952122 0.012481593 1.5581775e-38
0.026210606 -0.14860176 0.015521608 1.4383232e-38
0.0279254 -0.14860176 0.015521608 1.1985784e-38
0.029640192 -0.14860176 0.015521608 1.0130603e-39
