# .PCD v0.7 - Point Cloud Data file format
VERSION 0.7
FIELDS x y z rgb
SIZE 4 4 4 4
TYPE F F F F
COUNT 1 1 1 1
WIDTH 916
HEIGHT 1
VIEWPOINT 0 0 0 1 0 0 0
POINTS 916
DATA ascii
0.012035573 -0.12161671 -0.018632943 4.7008729e-39
0.013990605 -0.12161671 -0.018632943 3.3179413e-39
0.0080196019 -0.12285618 -0.015686328 8.7588833e-39
0.0099694673 -0.12285618 -0.015686328 7.1901297e-39
0.012035573 -0.12357174 -0.018632943 5.4380638e-39
0.013990605 -0.12357174 -0.018632943 5.2536725e-39
0.015945634 -0.12357174 -0.018632943 3.6859825e-39
0.017900666 -0.12357174 -0.018632943 3.8703737e-39
0.019855695 -0.12357174 -0.018632943 4.2384416e-39
0.021810727 -0.12357174 -0.018632943 3.2239365e-39
0.023765756 -0.12357174 -0.018632943 4.7901861e-39
0.025720788 -0.12357174 -0.018632943 7.1876228e-39
0.027675817 -0.12357174 -0.018632943 6.6344336e-39
0.029630849 -0.12357174 -0.018632943 5.3440507e-39
0.03158588 -0.12357174 -0.018632943 5.2507929e-39
0.048858762 -0.12915494 -0.041624598 4.8848648e-39
0.050854109 -0.12915494 -0.041624598 5.8064708e-39
0.052849442 -0.12915494 -0.041624598 7.0043063e-39
0.054844782 -0.12915494 -0.041624598 7.9259165e-39
-0.0057247505 -0.12382124 -0.011660034 1.069684e-38
-0.0037819445 -0.12382124 -0.011660034 7.5636416e-39
-0.0018391404 -0.12382124 -0.011660034 5.3509353e-39
0.00010366552 -0.12382124 -0.011660034 5.9022761e-39
0.0060697366 -0.12480606 -0.015686328 7.7447118e-39
0.0078748818 -0.12382124 -0.011660034 9.8648595e-39
0.0098176878 -0.12382124 -0.011660034 1.2906601e-38
0.011919329 -0.12480606 -0.015686328 1.2444916e-38
0.013869194 -0.12480606 -0.015686328 1.0508091e-38
0.01581906 -0.12480606 -0.015686328 8.6645353e-39
0.017768921 -0.12480606 -0.015686328 6.4507612e-39
0.019718787 -0.12480606 -0.015686328 5.4355358e-39
0.021668652 -0.12480606 -0.015686328 4.9745605e-39
0.023765756 -0.12552677 -0.018632943 5.9876334e-39
0.025720788 -0.12552677 -0.018632943 7.0946886e-39
0.027675817 -0.12552677 -0.018632943 7.0946718e-39
0.029630849 -0.12552677 -0.018632943 8.0166281e-39
0.03158588 -0.12552677 -0.018632943 7.3712755e-39
0.033540912 -0.12552677 -0.018632943 7.5553151e-39
0.035495944 -0.12552677 -0.018632943 6.7266306e-39
0.037704743 -0.12652399 -0.02271002 7.5567458e-39
0.039921768 -0.12749799 -0.026692206 8.1099168e-39
0.041890934 -0.12749799 -0.026692206 8.2021096e-39
0.045076385 -0.13190506 -0.04471045 9.2162615e-39
0.047077134 -0.13190506 -0.04471045 8.9396774e-39
0.048858762 -0.13115029 -0.041624598 9.5854098e-39
0.050854109 -0.13115029 -0.041624598 8.0177324e-39
0.052849442 -0.13115029 -0.041624598 7.9251878e-39
0.054844782 -0.13115029 -0.041624598 7.3713064e-39
0.056840137 -0.13115029 -0.041624598 6.2656889e-39
0.059401616 -0.13288604 -0.048721127 8.6624249e-39
0.061409399 -0.13288604 -0.048721127 9.5840295e-39
-0.0096714702 -0.12501745 -0.0086292569 2.3509125e-38
-0.0077339783 -0.12501745 -0.0086292569 2.3509856e-38
-0.0057964884 -0.12501745 -0.0086292569 2.1666674e-38
-0.0038589984 -0.12501745 -0.0086292569 1.45705e-38
-0.0019215066 -0.12501745 -0.0086292569 1.0789752e-38
0.00010366552 -0.12576406 -0.011660034 7.1926478e-39
0.0020464677 -0.12576406 -0.011660034 7.8362039e-39
0.0039892737 -0.12576406 -0.011660034 8.6659674e-39
0.0059320796 -0.12576406 -0.011660034 6.9142476e-39
0.0078748818 -0.12576406 -0.011660034 7.5592499e-39
0.0098176878 -0.12576406 -0.011660034 1.1799883e-38
0.011760494 -0.12576406 -0.011660034 1.2906231e-38
0.013869194 -0.12675591 -0.015686328 1.2167238e-38
0.01581906 -0.12675591 -0.015686328 1.0875078e-38
0.017768921 -0.12675591 -0.015686328 7.2783765e-39
0.019718787 -0.12675591 -0.015686328 5.7106864e-39
0.021668652 -0.12675591 -0.015686328 5.7110353e-39
0.023765756 -0.1274818 -0.018632943 6.5407792e-39
0.025720788 -0.1274818 -0.018632943 6.7258781e-39
0.027675817 -0.1274818 -0.018632943 6.7247991e-39
0.029630849 -0.1274818 -0.018632943 8.1084594e-39
0.03158588 -0.1274818 -0.018632943 7.0031951e-39
0.033540912 -0.1274818 -0.018632943 6.5429428e-39
0.035742566 -0.12848614 -0.02271002 5.4365966e-39
0.037704743 -0.12848614 -0.02271002 6.5425883e-39
0.039921768 -0.12946714 -0.026692206 8.5708949e-39
0.041890934 -0.12946714 -0.026692206 9.9538322e-39
0.043860093 -0.12946714 -0.026692206 1.0691762e-38
0.046307884 -0.1311696 -0.033603124 9.5850609e-39
0.048858762 -0.13314565 -0.041624598 1.0137883e-38
0.050854109 -0.13314565 -0.041624598 8.0170303e-39
0.052849442 -0.13314565 -0.041624598 7.2801897e-39
0.054844782 -0.13314565 -0.041624598 6.173489e-39
0.056840137 -0.13314565 -0.041624598 5.251537e-39
0.059081659 -0.13390581 -0.04471045 8.2014412e-39
0.060830817 -0.13314565 -0.041624598 1.0690726e-38
0.062826157 -0.13314565 -0.041624598 9.6773013e-39
0.064821497 -0.13314565 -0.041624598 5.3469934e-39
-0.0077339783 -0.12695493 -0.0086292569 2.3509849e-38
-0.0057964884 -0.12695493 -0.0086292569 2.3048522e-38
-0.0038589984 -0.12695493 -0.0086292569 2.2682272e-38
-0.0019215066 -0.12695493 -0.0086292569 1.6044181e-38
1.5983358e-05 -0.12695493 -0.0086292569 1.2262335e-38
0.0019534733 -0.12695493 -0.0086292569 1.0417333e-38
0.003890967 -0.12695493 -0.0086292569 1.2353091e-38
0.0059320796 -0.12770687 -0.011660034 1.2352725e-38
0.0078748818 -0.12770687 -0.011660034 1.1061972e-38
0.0098176878 -0.12770687 -0.011660034 1.1706617e-38
0.011760494 -0.12770687 -0.011660034 1.2167592e-38
0.013703296 -0.12770687 -0.011660034 1.3918239e-38
0.01581906 -0.12870578 -0.015686328 1.3271092e-38
0.017768921 -0.12870578 -0.015686328 1.1333912e-38
0.019718787 -0.12870578 -0.015686328 1.0227556e-38
0.021810727 -0.12943684 -0.018632943 8.6598564e-39
0.023765756 -0.12943684 -0.018632943 7.9229892e-39
0.025720788 -0.12943684 -0.018632943 8.660543e-39
0.027893847 -0.13044833 -0.02271002 9.5824993e-39
0.029856024 -0.13044833 -0.02271002 1.1611165e-38
0.031818204 -0.13044833 -0.02271002 1.3918572e-38
0.033780389 -0.13044833 -0.02271002 1.4473188e-38
0.035742566 -0.13044833 -0.02271002 1.27204e-38
0.037704743 -0.13044833 -0.02271002 1.0231487e-38
0.039921768 -0.1314363 -0.026692206 8.1099196e-39
0.041890934 -0.1314363 -0.026692206 6.8191892e-39
0.043860093 -0.1314363 -0.026692206 6.7262887e-39
0.046037391 -0.1321819 -0.029697472 5.1596902e-39
0.04857748 -0.13415821 -0.037663393 5.1586169e-39
0.050854109 -0.13514097 -0.041624598 4.4217763e-39
0.052849442 -0.13514097 -0.041624598 5.5277679e-39
0.054844782 -0.13514097 -0.041624598 5.2518999e-39
0.056840137 -0.13514097 -0.041624598 4.8827544e-39
0.058835477 -0.13514097 -0.041624598 6.6348315e-39
0.060830817 -0.13514097 -0.041624598 1.0598882e-38
0.06249626 -0.13415821 -0.037663393 1.4933883e-38
0.064484656 -0.13415821 -0.037663393 1.299995e-38
0.066473052 -0.13415821 -0.037663393 4.8881775e-39
-0.038666256 -0.12614109 0.0023827013 1.0968348e-38
-0.0077339783 -0.12889244 -0.0086292569 2.3509488e-38
-0.0057964884 -0.12889244 -0.0086292569 2.3509859e-38
-0.0038589984 -0.12889244 -0.0086292569 2.350987e-38
-0.0019215066 -0.12889244 -0.0086292569 2.1943628e-38
1.5983358e-05 -0.12889244 -0.0086292569 1.3274715e-38
0.0019534733 -0.12889244 -0.0086292569 1.0507758e-38
0.003890967 -0.12889244 -0.0086292569 1.2075436e-38
0.005828457 -0.12889244 -0.0086292569 1.1706285e-38
0.0078748818 -0.12964968 -0.011660034 1.0968718e-38
0.0098176878 -0.12964968 -0.011660034 1.2535321e-38
0.011760494 -0.12964968 -0.011660034 1.1704844e-38
0.013703296 -0.12964968 -0.011660034 1.1703767e-38
0.015646102 -0.12964968 -0.011660034 1.2163673e-38
0.017588908 -0.12964968 -0.011660034 1.1241356e-38
0.019718787 -0.13065563 -0.015686328 1.133247e-38
0.021810727 -0.13139187 -0.018632943 1.068709e-38
0.023765756 -0.13139187 -0.018632943 1.1425004e-38
0.025720788 -0.13139187 -0.018632943 1.3545485e-38
0.027893847 -0.13241051 -0.02271002 1.4744376e-38
0.029856024 -0.13241051 -0.02271002 1.6129458e-38
0.031818204 -0.13241051 -0.02271002 1.6316005e-38
0.033780389 -0.13241051 -0.02271002 1.7609264e-38
0.035742566 -0.13241051 -0.02271002 1.7976619e-38
0.037704743 -0.13241051 -0.02271002 1.557991e-38
0.039666921 -0.13241051 -0.02271002 9.8619995e-39
0.041629106 -0.13241051 -0.02271002 4.0540503e-39
0.043591283 -0.13241051 -0.02271002 3.5920142e-39
0.045829251 -0.13340546 -0.026692206 4.5139817e-39
0.048289157 -0.13513215 -0.033603124 4.3288786e-39
0.050854109 -0.13713633 -0.041624598 4.4214372e-39
0.052554265 -0.13614662 -0.037663393 5.251195e-39
0.054542661 -0.13614662 -0.037663393 4.9756801e-39
0.056840137 -0.13713633 -0.041624598 4.7909217e-39
0.058835477 -0.13713633 -0.041624598 4.1466229e-39
0.060507864 -0.13614662 -0.037663393 7.926278e-39
0.06249626 -0.13614662 -0.037663393 1.6963257e-38
0.064484656 -0.13614662 -0.037663393 1.5766897e-38
0.066473052 -0.13614662 -0.037663393 5.0732918e-39
0.068461448 -0.13614662 -0.037663393 2.4910911e-39
-0.044420809 -0.12805928 0.0023827013 1.34573e-38
-0.042502619 -0.12805928 0.0023827013 1.5575633e-38
-0.040584438 -0.12805928 0.0023827013 1.7234784e-38
-0.038666256 -0.12805928 0.0023827013 1.7512076e-38
-0.036748074 -0.12805928 0.0023827013 1.824963e-38
-0.034829888 -0.12805928 0.0023827013 1.6036932e-38
-0.032911703 -0.12805928 0.0023827013 8.106677e-39
-0.031008353 -0.12380283 0.019300049 8.3811255e-39
-0.029119832 -0.12380283 0.019300049 3.8628348e-39
-0.0097516272 -0.12982969 -0.0046538655 1.9995608e-38
-0.0078211073 -0.12982969 -0.0046538655 2.350409e-38
-0.0058905855 -0.12982969 -0.0046538655 2.2304476e-38
-0.0039600655 -0.12982969 -0.0046538655 2.3508428e-38
-0.0019215066 -0.13082992 -0.0086292569 2.3509153e-38
1.5983358e-05 -0.13082992 -0.0086292569 2.0464179e-38
0.0019534733 -0.13082992 -0.0086292569 1.041521e-38
0.003890967 -0.13082992 -0.0086292569 8.3872548e-39
0.005828457 -0.13082992 -0.0086292569 9.8627408e-39
0.0078748818 -0.13159247 -0.011660034 9.6783495e-39
0.0098176878 -0.13159247 -0.011660034 8.4794504e-39
0.011760494 -0.13159247 -0.011660034 6.6348231e-39
0.013703296 -0.13159247 -0.011660034 8.2943417e-39
0.015646102 -0.13159247 -0.011660034 6.817771e-39
0.017588908 -0.13159247 -0.011660034 5.065331e-39
0.01953171 -0.13159247 -0.011660034 7.0007176e-39
0.021668652 -0.13260551 -0.015686328 1.2807956e-38
0.023618514 -0.13260551 -0.015686328 2.0091047e-38
0.025568379 -0.13260551 -0.015686328 2.3507673e-38
0.027893847 -0.1343727 -0.02271002 2.3508376e-38
0.029856024 -0.1343727 -0.02271002 2.3508723e-38
0.031818204 -0.1343727 -0.02271002 2.3509796e-38
0.033780389 -0.1343727 -0.02271002 2.3509795e-38
0.035742566 -0.1343727 -0.02271002 2.3509809e-38
0.037704743 -0.1343727 -0.02271002 2.3509821e-38
0.039666921 -0.1343727 -0.02271002 1.6869589e-38
0.041629106 -0.1343727 -0.02271002 5.9905215e-39
0.043591283 -0.1343727 -0.02271002 3.1313976e-39
0.045553461 -0.1343727 -0.02271002 5.3444627e-39
0.048011817 -0.13613077 -0.029697472 4.422156e-39
0.050565876 -0.138135 -0.037663393 3.8686263e-39
0.052554265 -0.138135 -0.037663393 3.1324934e-39
0.054542661 -0.138135 -0.037663393 3.0395719e-39
0.056531057 -0.138135 -0.037663393 3.6845714e-39
0.058835477 -0.13913165 -0.041624598 1.8413734e-39
0.060507864 -0.138135 -0.037663393 5.2522376e-39
0.06249626 -0.138135 -0.037663393 1.7145841e-38
0.064484656 -0.138135 -0.037663393 1.5119364e-38
0.066473052 -0.138135 -0.037663393 7.8366397e-39
-0.04633899 -0.12997745 0.0023827013 9.9549504e-39
-0.044420809 -0.12997745 0.0023827013 1.3455505e-38
-0.042502619 -0.12997745 0.0023827013 1.7047178e-38
-0.040584438 -0.12997745 0.0023827013 1.8705965e-38
-0.03864162 -0.12896039 0.0063970741 1.8060931e-38
-0.036730476 -0.12896039 0.0063970741 1.8707008e-38
-0.034819331 -0.12896039 0.0063970741 1.916763e-38
-0.032899499 -0.12645011 0.016305154 8.0126891e-39
-0.031008353 -0.12569134 0.019300049 6.8170424e-39
-0.029119832 -0.12569134 0.019300049 3.1313864e-39
-0.01160896 -0.13276742 -0.0086292569 5.6102329e-39
-0.0097516272 -0.13176022 -0.0046538655 1.8976801e-38
-0.0078211073 -0.13176022 -0.0046538655 2.2480235e-38
-0.0058905855 -0.13176022 -0.0046538655 2.3503391e-38
-0.0039600655 -0.13176022 -0.0046538655 2.3504831e-38
-0.0020295456 -0.13176022 -0.0046538655 2.3506989e-38
1.5983358e-05 -0.13276742 -0.0086292569 2.3505177e-38
0.0019534733 -0.13276742 -0.0086292569 9.3095642e-39
0.003890967 -0.13276742 -0.0086292569 8.5723621e-39
0.005828457 -0.13276742 -0.0086292569 7.0061182e-39
0.0078748818 -0.13353528 -0.011660034 7.8362432e-39
0.0098176878 -0.13353528 -0.011660034 6.7306215e-39
0.011760494 -0.13353528 -0.011660034 2.4899827e-39
0.013703296 -0.13353528 -0.011660034 4.9792647e-39
0.015646102 -0.13353528 -0.011660034 4.4250049e-39
0.017588908 -0.13353528 -0.011660034 3.6870755e-39
0.01953171 -0.13353528 -0.011660034 6.0820011e-39
0.021668652 -0.13455538 -0.015686328 9.0308193e-39
0.023618514 -0.13455538 -0.015686328 1.9354569e-38
0.025568379 -0.13455538 -0.015686328 2.3507332e-38
0.027675817 -0.1353019 -0.018632943 2.3504809e-38
0.029630849 -0.1353019 -0.018632943 2.3509116e-38
0.03158588 -0.1353019 -0.018632943 2.3509818e-38
0.033540912 -0.1353019 -0.018632943 2.341725e-38
0.035495944 -0.1353019 -0.018632943 2.3509818e-38
0.037450977 -0.1353019 -0.018632943 2.3509825e-38
0.039666921 -0.13633488 -0.02271002 2.0558133e-38
0.041629106 -0.13633488 -0.02271002 5.8064834e-39
0.043316066 -0.1353019 -0.018632943 2.7640416e-39
0.045271099 -0.1353019 -0.018632943 4.7005212e-39
0.047515638 -0.13633488 -0.02271002 4.7930853e-39
0.049477816 -0.13633488 -0.02271002 3.3186769e-39
0.051960677 -0.1381052 -0.029697472 4.3321072e-39
0.053935111 -0.1381052 -0.029697472 3.4097852e-39
0.056214273 -0.13909473 -0.033603124 3.0391936e-39
0.058519468 -0.14012341 -0.037663393 2.6689691e-39
0.06017682 -0.13909473 -0.033603124 5.2493523e-39
0.062158108 -0.13909473 -0.033603124 1.4652955e-38
0.064484656 -0.14012341 -0.037663393 1.6313936e-38
0.066473052 -0.14012341 -0.037663393 1.1152071e-38
-0.04633899 -0.13189565 0.0023827013 4.7927168e-39
-0.044420809 -0.13189565 0.0023827013 5.7114347e-39
-0.042502619 -0.13189565 0.0023827013 6.6294393e-39
-0.040552765 -0.13087155 0.0063970741 1.0961541e-38
-0.03864162 -0.13087155 0.0063970741 1.7323369e-38
-0.036704324 -0.12934943 0.012363618 1.9904472e-38
-0.034793273 -0.1283439 0.016305154 1.8613382e-38
-0.032899499 -0.1283439 0.016305154 8.1981621e-39
-0.031008353 -0.12757985 0.019300049 7.3720112e-39
-0.029119832 -0.12757985 0.019300049 5.9001308e-39
-0.027218184 -0.1283439 0.016305154 5.9012112e-39
-0.02532441 -0.1283439 0.016305154 4.5186424e-39
-0.01160896 -0.1347049 -0.0086292569 5.7971577e-39
-0.0097516272 -0.13369073 -0.0046538655 9.114034e-39
-0.0078211073 -0.13369073 -0.0046538655 8.1909945e-39
-0.0058905855 -0.13369073 -0.0046538655 9.0211055e-39
-0.0039600655 -0.13369073 -0.0046538655 9.020381e-39
-0.0020295456 -0.13369073 -0.0046538655 7.1797026e-39
-0.00021320395 -0.13268389 -0.00070708431 7.9215837e-39
0.0017103944 -0.13268389 -0.00070708431 6.0809109e-39
0.0037620161 -0.13369073 -0.0046538655 9.3999619e-39
0.005692536 -0.13369073 -0.0046538655 6.8199305e-39
0.0076230597 -0.13369073 -0.0046538655 6.2671252e-39
0.0097034369 -0.1347049 -0.0086292569 7.8358915e-39
0.011640927 -0.1347049 -0.0086292569 7.5600248e-39
0.013578421 -0.1347049 -0.0086292569 6.3621991e-39
0.01551591 -0.1347049 -0.0086292569 6.6384203e-39
0.017588908 -0.13547809 -0.011660034 7.5596521e-39
0.01953171 -0.13547809 -0.011660034 6.359667e-39
0.021474516 -0.13547809 -0.011660034 7.0028756e-39
0.023417322 -0.13547809 -0.011660034 1.2440979e-38
0.025360124 -0.13547809 -0.011660034 2.3508418e-38
0.027675817 -0.13725694 -0.018632943 2.350482e-38
0.029630849 -0.13725694 -0.018632943 2.3506249e-38
0.03158588 -0.13725694 -0.018632943 2.3509464e-38
0.033367835 -0.13650523 -0.015686328 2.3048472e-38
0.035317704 -0.13650523 -0.015686328 2.3416182e-38
0.037450977 -0.13725694 -0.018632943 2.3509821e-38
0.039406002 -0.13725694 -0.018632943 2.0649967e-38
0.041361034 -0.13725694 -0.018632943 6.9128267e-39
0.043316066 -0.13725694 -0.018632943 3.6863496e-39
0.045271099 -0.13725694 -0.018632943 5.161851e-39
0.047226124 -0.13725694 -0.018632943 5.2551341e-39
0.049181156 -0.13725694 -0.018632943 3.8729213e-39
0.051736727 -0.13931294 -0.026692206 5.1629413e-39
0.053705901 -0.13931294 -0.026692206 5.3458892e-39
0.055909529 -0.14007963 -0.029697472 6.3582334e-39
0.057883963 -0.14007963 -0.029697472 7.2780233e-39
0.06017682 -0.14107598 -0.033603124 7.7371924e-39
0.062158108 -0.14107598 -0.033603124 1.2254782e-38
0.064139381 -0.14107598 -0.033603124 1.6404326e-38
0.066120654 -0.14107598 -0.033603124 1.5944438e-38
-0.04633899 -0.13381381 0.0023827013 2.5825454e-39
-0.044420809 -0.13381381 0.0023827013 3.6867322e-39
-0.042502619 -0.13381381 0.0023827013 3.2228828e-39
-0.040552765 -0.13278268 0.0063970741 5.5266805e-39
-0.03864162 -0.13278268 0.0063970741 1.1979268e-38
-0.036704324 -0.1312501 0.012363618 1.4006837e-38
-0.034793273 -0.13023765 0.016305154 1.3267843e-38
-0.032899499 -0.13023765 0.016305154 7.7375455e-39
-0.031008353 -0.1294684 0.019300049 5.9905075e-39
-0.029119832 -0.1294684 0.019300049 6.0852269e-39
-0.027218184 -0.13023765 0.016305154 5.2565536e-39
-0.02532441 -0.13023765 0.016305154 4.7970244e-39
-0.023430638 -0.13023765 0.016305154 3.8758024e-39
-0.0039600655 -0.13562126 -0.0046538655 4.9731074e-39
-0.0021368042 -0.13460748 -0.00070708431 4.4188658e-39
-0.00021320395 -0.13460748 -0.00070708431 6.9063457e-39
0.0017103944 -0.13460748 -0.00070708431 6.7216041e-39
0.0036339965 -0.13460748 -0.00070708431 8.381494e-39
0.0055575985 -0.13460748 -0.00070708431 9.7658732e-39
0.0074811969 -0.13460748 -0.00070708431 9.0290354e-39
0.0095535796 -0.13562126 -0.0046538655 6.8177823e-39
0.0114841 -0.13562126 -0.0046538655 8.2017957e-39
0.013414619 -0.13562126 -0.0046538655 7.4649467e-39
0.01551591 -0.13664238 -0.0086292569 7.3731028e-39
0.017588908 -0.13742088 -0.011660034 7.6500428e-39
0.01953171 -0.13742088 -0.011660034 7.5574815e-39
0.021474516 -0.13742088 -0.011660034 3.6845434e-39
0.023417322 -0.13742088 -0.011660034 8.8457008e-39
0.025360124 -0.13742088 -0.011660034 2.3504447e-38
0.027518244 -0.13845511 -0.015686328 2.350877e-38
0.029630849 -0.13921197 -0.018632943 2.3506238e-38
0.03158588 -0.13921197 -0.018632943 2.2861566e-38
0.033367835 -0.13845511 -0.015686328 2.3508006e-38
0.035317704 -0.13845511 -0.015686328 2.3508012e-38
0.037267566 -0.13845511 -0.015686328 2.3507656e-38
0.039217427 -0.13845511 -0.015686328 2.1571198e-38
0.041361034 -0.13921197 -0.018632943 1.0138588e-38
0.043316066 -0.13921197 -0.018632943 5.3451493e-39
0.045271099 -0.13921197 -0.018632943 4.1469746e-39
0.047226124 -0.13921197 -0.018632943 5.5309993e-39
0.049181156 -0.13921197 -0.018632943 4.5175719e-39
0.051440001 -0.14025922 -0.02271002 5.9927019e-39
0.053705901 -0.1412821 -0.026692206 5.8997818e-39
0.055909529 -0.14205404 -0.029697472 7.188713e-39
0.057883963 -0.14205404 -0.029697472 9.6761887e-39
0.06017682 -0.14305727 -0.033603124 8.9368174e-39
0.062158108 -0.14305727 -0.033603124 8.7513485e-39
0.064139381 -0.14305727 -0.033603124 1.4099432e-38
-0.04633899 -0.13573201 0.0023827013 2.8620148e-39
-0.044420809 -0.13573201 0.0023827013 4.8888795e-39
-0.042502619 -0.13573201 0.0023827013 6.3622145e-39
-0.040584438 -0.13573201 0.0023827013 5.8072317e-39
-0.03864162 -0.13469382 0.0063970741 6.7284397e-39
-0.036704324 -0.13315077 0.012363618 6.634435e-39
-0.034793273 -0.13213144 0.016305154 7.9226627e-39
-0.032899499 -0.13213144 0.016305154 6.4478955e-39
-0.031005727 -0.13213144 0.016305154 6.2674573e-39
-0.029111955 -0.13213144 0.016305154 6.0852269e-39
-0.027218184 -0.13213144 0.016305154 4.7962971e-39
-0.02532441 -0.13213144 0.016305154 7.5643352e-39
-0.023430638 -0.13213144 0.016305154 7.9338478e-39
-0.021536864 -0.13213144 0.016305154 6.5512847e-39
-0.0023298729 -0.13469382 0.0063970741 2.0462685e-38
-0.00041872822 -0.13469382 0.0063970741 2.1655487e-38
0.0016155895 -0.13573201 0.0023827013 2.1283839e-38
0.003533775 -0.13573201 0.0023827013 1.8241747e-38
0.0054519568 -0.13573201 0.0023827013 1.5753913e-38
0.0073701423 -0.13573201 0.0023827013 1.3634498e-38
0.009288324 -0.13573201 0.0023827013 1.1883503e-38
0.011206506 -0.13573201 0.0023827013 1.0594559e-38
0.013124691 -0.13573201 0.0023827013 5.9858538e-39
0.015042873 -0.13573201 0.0023827013 6.6326539e-39
0.0170992 -0.13653107 -0.00070708431 5.895442e-39
0.019022802 -0.13653107 -0.00070708431 7.093981e-39
0.0209464 -0.13653107 -0.00070708431 2.0236095e-39
0.023067223 -0.1375518 -0.0046538655 4.6972477e-39
0.024997743 -0.1375518 -0.0046538655 1.6867069e-38
0.027140854 -0.13857989 -0.0086292569 2.0830764e-38
0.029078344 -0.13857989 -0.0086292569 1.8526225e-38
0.031188538 -0.13936369 -0.011660034 1.8526927e-38
0.033131346 -0.13936369 -0.011660034 2.2307658e-38
0.035317704 -0.14040495 -0.015686328 2.3505846e-38
0.037267566 -0.14040495 -0.015686328 2.3508012e-38
0.039217427 -0.14040495 -0.015686328 2.3509824e-38
0.041361034 -0.141167 -0.018632943 1.7790461e-38
0.043316066 -0.141167 -0.018632943 1.1889954e-38
0.045271099 -0.141167 -0.018632943 6.1749156e-39
0.047226124 -0.141167 -0.018632943 5.7153878e-39
0.049181156 -0.141167 -0.018632943 5.531721e-39
0.051440001 -0.14222141 -0.02271002 7.0990495e-39
0.053705901 -0.14325126 -0.026692206 6.0841745e-39
0.05567506 -0.14325126 -0.026692206 6.4515109e-39
0.057883963 -0.14402847 -0.029697472 1.0414117e-38
0.06017682 -0.14503856 -0.033603124 1.0965483e-38
0.062158108 -0.14503856 -0.033603124 8.659876e-39
0.064139381 -0.14503856 -0.033603124 1.1610505e-38
-0.048049681 -0.1340252 0.016305154 1.4479033e-38
-0.046155907 -0.1340252 0.016305154 6.3676123e-39
-0.044262134 -0.1340252 0.016305154 2.2195292e-39
-0.04236836 -0.1340252 0.016305154 4.431151e-39
-0.04047459 -0.1340252 0.016305154 5.9051894e-39
-0.03858082 -0.1340252 0.016305154 5.7178975e-39
-0.036687046 -0.1340252 0.016305154 4.9781618e-39
-0.034793273 -0.1340252 0.016305154 6.7262915e-39
-0.032899499 -0.1340252 0.016305154 6.3575118e-39
-0.031005727 -0.1340252 0.016305154 5.9908886e-39
-0.029111955 -0.1340252 0.016305154 4.8874194e-39
-0.027218184 -0.1340252 0.016305154 4.7966685e-39
-0.02532441 -0.1340252 0.016305154 1.1805697e-38
-0.023430638 -0.1340252 0.016305154 1.3835804e-38
-0.021536864 -0.1340252 0.016305154 1.0333096e-38
-0.019643094 -0.1340252 0.016305154 6.8285849e-39
-0.017697491 -0.13505147 0.012363618 7.1048116e-39
-0.0023298729 -0.13660498 0.0063970741 2.1566523e-38
-0.00041872822 -0.13660498 0.0063970741 2.2020315e-38
0.0014924165 -0.13660498 0.0063970741 2.3307824e-38
0.0034035612 -0.13660498 0.0063970741 2.1095493e-38
0.0053147059 -0.13660498 0.0063970741 1.648608e-38
0.0072258506 -0.13660498 0.0063970741 1.3537263e-38
0.0091369953 -0.13660498 0.0063970741 1.3998962e-38
0.01104814 -0.13660498 0.0063970741 1.2156486e-38
0.013124691 -0.13765021 0.0023827013 8.3782598e-39
0.015042873 -0.13765021 0.0023827013 6.8127236e-39
0.016961055 -0.13765021 0.0023827013 7.7357505e-39
0.019022802 -0.13845469 -0.00070708431 7.276566e-39
0.0209464 -0.13845469 -0.00070708431 4.9731074e-39
0.023067223 -0.1394823 -0.0046538655 3.1299402e-39
0.024997743 -0.1394823 -0.0046538655 1.4562529e-38
0.026928263 -0.1394823 -0.0046538655 1.8526944e-38
0.028858786 -0.1394823 -0.0046538655 1.9264142e-38
0.031015834 -0.14051737 -0.0086292569 1.7419492e-38
0.032953329 -0.14051737 -0.0086292569 2.2489885e-38
0.034890823 -0.14051737 -0.0086292569 2.350512e-38
0.037016958 -0.1413065 -0.011660034 2.3505125e-38
0.038959764 -0.1413065 -0.011660034 2.3509818e-38
0.041167296 -0.14235483 -0.015686328 2.2398079e-38
0.043117158 -0.14235483 -0.015686328 1.5669251e-38
0.04506702 -0.14235483 -0.015686328 5.6213761e-39
0.04673098 -0.1413065 -0.011660034 5.0696526e-39
0.048673786 -0.1413065 -0.011660034 4.8867089e-39
0.051440001 -0.14418359 -0.02271002 6.269286e-39
0.053705901 -0.14522041 -0.026692206 5.2551341e-39
0.05567506 -0.14522041 -0.026692206 5.5306364e-39
0.057883963 -0.1460029 -0.029697472 9.8616674e-39
0.059858397 -0.1460029 -0.029697472 1.1151319e-38
0.06183283 -0.1460029 -0.029697472 8.1999768e-39
0.063807264 -0.1460029 -0.029697472 8.1992608e-39
-0.057447657 -0.13513394 0.019300049 2.3142538e-38
-0.055559136 -0.13513394 0.019300049 2.3509886e-38
-0.053589851 -0.13408406 0.023305362 2.3508809e-38
-0.051708348 -0.13408406 0.023305362 2.3232227e-38
-0.049893565 -0.13513394 0.019300049 2.2404631e-38
-0.046155907 -0.13591899 0.016305154 1.6142154e-38
-0.044262134 -0.13591899 0.016305154 2.5911942e-39
-0.04236836 -0.13591899 0.016305154 1.3930196e-39
-0.04047459 -0.13591899 0.016305154 4.6187792e-39
-0.03858082 -0.13591899 0.016305154 5.1683307e-39
-0.036687046 -0.13591899 0.016305154 4.6115513e-39
-0.034793273 -0.13591899 0.016305154 6.6351889e-39
-0.032899499 -0.13591899 0.016305154 7.3720364e-39
-0.031005727 -0.13591899 0.016305154 5.5306448e-39
-0.029111955 -0.13591899 0.016305154 4.3342596e-39
-0.027218184 -0.13591899 0.016305154 4.7970356e-39
-0.02532441 -0.13591899 0.016305154 1.2727299e-38
-0.023430638 -0.13591899 0.016305154 1.6325086e-38
-0.021536864 -0.13591899 0.016305154 1.30064e-38
-0.019643094 -0.13591899 0.016305154 9.5944412e-39
-0.017749321 -0.13591899 0.016305154 7.8412823e-39
-0.0042410176 -0.13851611 0.0063970741 1.9995963e-38
-0.0024095792 -0.13774733 0.0093299802 1.6028674e-38
-0.00050357543 -0.13774733 0.0093299802 1.5931088e-38
0.0014024246 -0.13774733 0.0093299802 1.5099532e-38
0.0033084285 -0.13774733 0.0093299802 1.5375767e-38
0.0053147059 -0.13851611 0.0063970741 1.5191739e-38
0.0071204323 -0.13774733 0.0093299802 1.3533662e-38
0.0090264361 -0.13774733 0.0093299802 1.3626581e-38
0.010932436 -0.13774733 0.0093299802 1.3442906e-38
0.012959285 -0.13851611 0.0063970741 1.6118371e-38
0.014870429 -0.13851611 0.0063970741 1.8241739e-38
0.016781574 -0.13851611 0.0063970741 1.9810856e-38
0.01887924 -0.13956837 0.0023827013 1.7968732e-38
0.020797422 -0.13956837 0.0023827013 1.21622e-38
0.023067223 -0.14141284 -0.0046538655 8.7524009e-39
0.024997743 -0.14141284 -0.0046538655 1.3824237e-38
0.026928263 -0.14141284 -0.0046538655 2.0739272e-38
0.028858786 -0.14141284 -0.0046538655 2.3228904e-38
0.030789306 -0.14141284 -0.0046538655 2.2857947e-38
0.032953329 -0.14245488 -0.0086292569 2.3509795e-38
0.034890823 -0.14245488 -0.0086292569 2.3508717e-38
0.036828309 -0.14245488 -0.0086292569 2.3506562e-38
0.038765803 -0.14245488 -0.0086292569 2.350621e-38
0.040902562 -0.14324932 -0.011660034 2.2489187e-38
0.042845368 -0.14324932 -0.011660034 1.622134e-38
0.044788174 -0.14324932 -0.011660034 4.9752822e-39
0.04673098 -0.14324932 -0.011660034 6.0830829e-39
0.048673786 -0.14324932 -0.011660034 4.5168446e-39
0.051440001 -0.14614578 -0.02271002 4.4253734e-39
0.053091213 -0.14507706 -0.018632943 4.5175719e-39
0.055046245 -0.14507706 -0.018632943 5.2544124e-39
0.057326525 -0.14614578 -0.02271002 8.111035e-39
0.059613377 -0.1471896 -0.026692206 8.4790903e-39
0.061582536 -0.1471896 -0.026692206 5.2507985e-39
0.063551694 -0.1471896 -0.026692206 5.3415522e-39
-0.057447657 -0.13702248 0.019300049 2.3049621e-38
-0.055559136 -0.13702248 0.019300049 2.3509527e-38
-0.053589851 -0.13596557 0.023305362 2.3413028e-38
-0.051708348 -0.13596557 0.023305362 2.3507733e-38
-0.049893565 -0.13702248 0.019300049 2.3509168e-38
-0.048005044 -0.13702248 0.019300049 2.2222395e-38
-0.046116523 -0.13702248 0.019300049 2.1948682e-38
-0.044262134 -0.13781275 0.016305154 5.8198448e-39
-0.04236836 -0.13781275 0.016305154 1.6721288e-39
-0.04047459 -0.13781275 0.016305154 3.4227612e-39
-0.03858082 -0.13781275 0.016305154 3.9726727e-39
-0.036687046 -0.13781275 0.016305154 3.7839599e-39
-0.034793273 -0.13781275 0.016305154 5.5299315e-39
-0.032899499 -0.13781275 0.016305154 7.4642461e-39
-0.031005727 -0.13781275 0.016305154 7.0983446e-39
-0.029111955 -0.13781275 0.016305154 6.6388014e-39
-0.027218184 -0.13781275 0.016305154 6.4562052e-39
-0.02532441 -0.13781275 0.016305154 1.0975585e-38
-0.023430638 -0.13781275 0.016305154 1.4848514e-38
-0.021536864 -0.13781275 0.016305154 1.3833998e-38
-0.019643094 -0.13781275 0.016305154 1.2726565e-38
-0.017749321 -0.13781275 0.016305154 8.3908449e-39
-0.0042410176 -0.14042725 0.0063970741 1.8785914e-38
-0.0024095792 -0.13965334 0.0093299802 1.6203717e-38
-0.00050357543 -0.13965334 0.0093299802 1.5189565e-38
0.0014024246 -0.13965334 0.0093299802 1.5005894e-38
0.0033084285 -0.13965334 0.0093299802 1.4267979e-38
0.0052144285 -0.13965334 0.0093299802 1.3992114e-38
0.0070113931 -0.13885282 0.012363618 1.3069804e-38
0.0089120772 -0.13885282 0.012363618 1.4084675e-38
0.010812761 -0.13885282 0.012363618 1.3716609e-38
0.012713442 -0.13885282 0.012363618 1.5285728e-38
0.01474444 -0.13965334 0.0093299802 1.8422528e-38
0.016650444 -0.13965334 0.0093299802 2.0544818e-38
0.01887924 -0.14148657 0.0023827013 1.8795611e-38
0.020797422 -0.14148657 0.0023827013 1.0776383e-38
0.022870002 -0.14230187 -0.00070708431 9.1193786e-39
0.024793604 -0.14230187 -0.00070708431 7.092511e-39
0.026717203 -0.14230187 -0.00070708431 1.8248901e-38
0.028640805 -0.14230187 -0.00070708431 2.3505127e-38
0.030789306 -0.14334334 -0.0046538655 2.3509074e-38
0.032953329 -0.14439236 -0.0086292569 2.3502948e-38
0.034890823 -0.14439236 -0.0086292569 2.3132007e-38
0.036828309 -0.14439236 -0.0086292569 2.3506918e-38
0.038765803 -0.14439236 -0.0086292569 2.3502965e-38
0.040902562 -0.1451921 -0.011660034 2.211896e-38
0.042845368 -0.1451921 -0.011660034 1.8524786e-38
0.044788174 -0.1451921 -0.011660034 9.7687333e-39
0.04673098 -0.1451921 -0.011660034 9.2173714e-39
0.049477816 -0.14810793 -0.02271002 5.4388009e-39
0.051440001 -0.14810793 -0.02271002 3.3190259e-39
0.053091213 -0.1470321 -0.018632943 3.9651169e-39
0.055046245 -0.1470321 -0.018632943 5.0707456e-39
0.057326525 -0.14810793 -0.02271002 6.2678455e-39
0.059613377 -0.14915876 -0.026692206 6.4515137e-39
0.061582536 -0.14915876 -0.026692206 4.4224825e-39
0.063551694 -0.14915876 -0.026692206 5.2493537e-39
-0.06311322 -0.13891099 0.019300049 1.1714942e-38
-0.061224699 -0.13891099 0.019300049 1.2728392e-38
-0.059336178 -0.13891099 0.019300049 2.2958873e-38
-0.057447657 -0.13891099 0.019300049 2.2771953e-38
-0.055559136 -0.13891099 0.019300049 2.3508807e-38
-0.053589851 -0.13784705 0.023305362 2.3507016e-38
-0.051708348 -0.13784705 0.023305362 2.3507016e-38
-0.049893565 -0.13891099 0.019300049 2.3230433e-38
-0.048005044 -0.13891099 0.019300049 2.2958873e-38
-0.046116523 -0.13891099 0.019300049 2.139695e-38
-0.044228002 -0.13891099 0.019300049 5.8205706e-39
-0.042339481 -0.13891099 0.019300049 2.0416372e-39
-0.04045096 -0.13891099 0.019300049 2.5015294e-39
-0.03858082 -0.13970654 0.016305154 4.0659558e-39
-0.036687046 -0.13970654 0.016305154 5.0750672e-39
-0.034785397 -0.13891099 0.019300049 5.3459074e-39
-0.032896876 -0.13891099 0.019300049 6.4504599e-39
-0.031005727 -0.13970654 0.016305154 5.9912768e-39
-0.029111955 -0.13970654 0.016305154 6.546603e-39
-0.027218184 -0.13970654 0.016305154 6.0867024e-39
-0.02532441 -0.13970654 0.016305154 7.1941248e-39
-0.023430638 -0.13970654 0.016305154 1.0052187e-38
-0.021536864 -0.13970654 0.016305154 1.0420605e-38
-0.019643094 -0.13970654 0.016305154 1.0694308e-38
-0.017749321 -0.13970654 0.016305154 3.9604226e-39
-0.0061521623 -0.14233841 0.0063970741 1.6844761e-38
-0.0042410176 -0.14233841 0.0063970741 1.8134421e-38
-0.0023298729 -0.14233841 0.0063970741 1.8043304e-38
-0.00041872822 -0.14233841 0.0063970741 1.7585926e-38
0.0014924165 -0.14233841 0.0063970741 1.823274e-38
0.0033084285 -0.14155935 0.0093299802 1.6941647e-38
0.0052144285 -0.14155935 0.0093299802 1.7955804e-38
0.0070113931 -0.14075352 0.012363618 1.6389203e-38
0.0089120772 -0.14075352 0.012363618 1.5467247e-38
0.010812761 -0.14075352 0.012363618 1.4269419e-38
0.012713442 -0.14075352 0.012363618 1.4823308e-38
0.014614126 -0.14075352 0.012363618 1.8236696e-38
0.016650444 -0.14155935 0.0093299802 2.1557531e-38
0.018556444 -0.14155935 0.0093299802 1.759491e-38
0.020462448 -0.14155935 0.0093299802 1.298692e-38
0.022870002 -0.14422549 -0.00070708431 8.6562396e-39
0.024793604 -0.14422549 -0.00070708431 4.1401307e-39
0.026717203 -0.14422549 -0.00070708431 1.4559637e-38
0.028640805 -0.14422549 -0.00070708431 2.3504407e-38
0.030789306 -0.14527388 -0.0046538655 2.2763588e-38
0.032953329 -0.14632986 -0.0086292569 1.8429308e-38
0.034890823 -0.14632986 -0.0086292569 1.8060169e-38
0.036828309 -0.14632986 -0.0086292569 2.2854344e-38
0.038765803 -0.14632986 -0.0086292569 2.1472138e-38
0.040902562 -0.14713491 -0.011660034 1.8983947e-38
0.042845368 -0.14713491 -0.011660034 1.7602464e-38
0.044788174 -0.14713491 -0.011660034 1.1980705e-38
0.04673098 -0.14713491 -0.011660034 9.9549336e-39
0.048673786 -0.14713491 -0.011660034 4.9778227e-39
-0.064878844 -0.13972856 0.023305362 1.7061553e-38
-0.062997341 -0.13972856 0.023305362 1.2083e-38
-0.061115846 -0.13972856 0.023305362 1.4202077e-38
-0.059234343 -0.13972856 0.023305362 2.2220942e-38
-0.057447657 -0.14079951 0.019300049 2.3509517e-38
-0.055471346 -0.13972856 0.023305362 2.3508085e-38
-0.053589851 -0.13972856 0.023305362 2.3506657e-38
-0.051782086 -0.14079951 0.019300049 2.3506298e-38
-0.049893565 -0.14079951 0.019300049 2.3507733e-38
-0.048005044 -0.14079951 0.019300049 2.341805e-38
-0.046116523 -0.14079951 0.019300049 2.1856847e-38
-0.044228002 -0.14079951 0.019300049 1.6237238e-38
-0.042339481 -0.14079951 0.019300049 3.2387441e-39
-0.04045096 -0.14079951 0.019300049 3.3302138e-39
-0.038562439 -0.14079951 0.019300049 4.7102518e-39
-0.036673918 -0.14079951 0.019300049 5.4434952e-39
-0.034774862 -0.13972856 0.023305362 6.3597076e-39
-0.032893363 -0.13972856 0.023305362 6.8185263e-39
-0.031005727 -0.1416003 0.016305154 6.6366322e-39
-0.029111955 -0.1416003 0.016305154 6.7306215e-39
-0.027218184 -0.1416003 0.016305154 7.3763524e-39
-0.02532441 -0.1416003 0.016305154 5.2558558e-39
-0.023430638 -0.1416003 0.016305154 4.8867173e-39
-0.021536864 -0.1416003 0.016305154 7.2823645e-39
-0.019643094 -0.1416003 0.016305154 4.3292275e-39
-0.017749321 -0.1416003 0.016305154 7.0904147e-39
-0.0061521623 -0.14424954 0.0063970741 1.6474525e-38
-0.0042410176 -0.14424954 0.0063970741 1.7764897e-38
-0.0023298729 -0.14424954 0.0063970741 1.8596818e-38
-0.00041872822 -0.14424954 0.0063970741 1.8786619e-38
0.0014924165 -0.14424954 0.0063970741 1.6022556e-38
0.0034035612 -0.14424954 0.0063970741 1.6575378e-38
0.0052144285 -0.14346536 0.0093299802 1.6851612e-38
0.0070113931 -0.1426542 0.012363618 1.5652354e-38
0.0089120772 -0.1426542 0.012363618 1.4822593e-38
0.010812761 -0.1426542 0.012363618 1.3531854e-38
0.012713442 -0.1426542 0.012363618 1.4546721e-38
0.014614126 -0.1426542 0.012363618 1.8051586e-38
0.016650444 -0.14346536 0.0093299802 2.0080603e-38
0.018556444 -0.14346536 0.0093299802 1.8699818e-38
0.020462448 -0.14346536 0.0093299802 1.427622e-38
0.022870002 -0.14614908 -0.00070708431 1.298692e-38
0.024793604 -0.14614908 -0.00070708431 4.5985907e-39
0.026717203 -0.14614908 -0.00070708431 1.0131014e-38
0.028640805 -0.14614908 -0.00070708431 2.3499732e-38
0.030564403 -0.14614908 -0.00070708431 2.3408241e-38
0.032953329 -0.14826734 -0.0086292569 1.796833e-38
0.034890823 -0.14826734 -0.0086292569 1.8336037e-38
0.036828309 -0.14826734 -0.0086292569 2.0087756e-38
0.038765803 -0.14826734 -0.0086292569 2.1286668e-38
0.040703289 -0.14826734 -0.0086292569 1.9075063e-38
0.042845368 -0.14907773 -0.011660034 1.6310646e-38
0.044788174 -0.14907773 -0.011660034 1.2717549e-38
0.04673098 -0.14907773 -0.011660034 1.0507389e-38
0.050094515 -0.14720438 -0.0046538655 1.751703e-39
-0.071912341 -0.13809387 0.036369987 1.9451774e-38
-0.070162028 -0.13890465 0.033357568 2.1941782e-38
-0.068641841 -0.14161004 0.023305362 1.853199e-38
-0.066760339 -0.14161004 0.023305362 1.7888427e-38
-0.064878844 -0.14161004 0.023305362 1.6876443e-38
-0.062997341 -0.14161004 0.023305362 1.3649607e-38
-0.061115846 -0.14161004 0.023305362 1.2264528e-38
-0.059234343 -0.14161004 0.023305362 1.8070695e-38
-0.057447657 -0.14268802 0.019300049 2.1201741e-38
-0.055471346 -0.14161004 0.023305362 2.350484e-38
-0.053589851 -0.14161004 0.023305362 2.3505581e-38
-0.051782086 -0.14268802 0.019300049 2.3506657e-38
-0.049893565 -0.14268802 0.019300049 2.3507374e-38
-0.048005044 -0.14268802 0.019300049 2.3509527e-38
-0.046116523 -0.14268802 0.019300049 2.2591531e-38
-0.044228002 -0.14268802 0.019300049 2.0568274e-38
-0.042339481 -0.14268802 0.019300049 9.8750316e-39
-0.04045096 -0.14268802 0.019300049 3.6975614e-39
-0.038562439 -0.14268802 0.019300049 3.6024693e-39
-0.036656361 -0.14161004 0.023305362 5.8115617e-39
-0.034774862 -0.14161004 0.023305362 7.0047211e-39
-0.032893363 -0.14161004 0.023305362 5.9887657e-39
-0.031005727 -0.14349405 0.016305154 5.0675086e-39
-0.029111955 -0.14349405 0.016305154 6.4515109e-39
-0.027218184 -0.14349405 0.016305154 7.2819974e-39
-0.02532441 -0.14349405 0.016305154 7.2819988e-39
-0.023430638 -0.14349405 0.016305154 7.7426238e-39
-0.021536864 -0.14349405 0.016305154 9.676937e-39
-0.019643094 -0.14349405 0.016305154 1.0687492e-38
-0.017749321 -0.14349405 0.016305154 1.759928e-38
-0.010033589 -0.14537133 0.0093299802 1.5742016e-38
-0.0081275851 -0.14537133 0.0093299802 1.5095914e-38
-0.0062215831 -0.14537133 0.0093299802 1.8229831e-38
-0.0042410176 -0.14616071 0.0063970741 1.9889704e-38
-0.0023298729 -0.14616071 0.0063970741 1.9430528e-38
-0.00041872822 -0.14616071 0.0063970741 1.7774975e-38
0.0014924165 -0.14616071 0.0063970741 1.4181515e-38
0.0034035612 -0.14616071 0.0063970741 1.3259208e-38
0.0052144285 -0.14537133 0.0093299802 1.4733984e-38
0.0071204323 -0.14537133 0.0093299802 1.4087185e-38
0.0089120772 -0.14455487 0.012363618 1.104473e-38
0.010812761 -0.14455487 0.012363618 8.7394781e-39
0.012713442 -0.14455487 0.012363618 8.279216e-39
0.014614126 -0.14455487 0.012363618 1.1137275e-38
0.016650444 -0.14537133 0.0093299802 1.4734338e-38
0.018556444 -0.14537133 0.0093299802 1.7040661e-38
0.020462448 -0.14537133 0.0093299802 1.3907084e-38
0.022870002 -0.14807267 -0.00070708431 1.1049739e-38
0.024793604 -0.14807267 -0.00070708431 3.8599607e-39
0.026717203 -0.14807267 -0.00070708431 9.7604404e-39
0.028640805 -0.14807267 -0.00070708431 2.0824987e-38
0.030564403 -0.14807267 -0.00070708431 1.935056e-38
0.038511388 -0.14913492 -0.0046538655 1.9073616e-38
0.040441908 -0.14913492 -0.0046538655 1.5018456e-38
0.042372428 -0.14913492 -0.0046538655 1.2254038e-38
0.044302948 -0.14913492 -0.0046538655 8.1996027e-39
0.046233475 -0.14913492 -0.0046538655 9.5854322e-39
0.048163995 -0.14913492 -0.0046538655 4.5164844e-39
-0.075753652 -0.14076851 0.033357568 1.106053e-38
-0.073889777 -0.14076851 0.033357568 1.5669231e-38
-0.071912341 -0.13995247 0.036369987 2.0464484e-38
-0.070162028 -0.14076851 0.033357568 2.0188983e-38
-0.068298154 -0.14076851 0.033357568 1.5211505e-38
-0.066434279 -0.14076851 0.033357568 1.4844533e-38
-0.064784661 -0.14266007 0.026374882 1.3555961e-38
-0.062997341 -0.14349155 0.023305362 1.2080842e-38
-0.061115846 -0.14349155 0.023305362 1.4383586e-38
-0.059234343 -0.14349155 0.023305362 1.6317536e-38
-0.057352848 -0.14349155 0.023305362 1.8712095e-38
-0.055471346 -0.14349155 0.023305362 2.3506995e-38
-0.053589851 -0.14349155 0.023305362 2.3507016e-38
-0.051782086 -0.14457656 0.019300049 2.3507016e-38
-0.049893565 -0.14457656 0.019300049 2.3508092e-38
-0.048005044 -0.14457656 0.019300049 2.3509527e-38
-0.046116523 -0.14457656 0.019300049 2.2775202e-38
-0.044228002 -0.14457656 0.019300049 2.2316024e-38
-0.042300858 -0.14349155 0.023305362 1.7247801e-38
-0.040419359 -0.14349155 0.023305362 5.0772561e-39
-0.03853786 -0.14349155 0.023305362 3.8776143e-39
-0.036656361 -0.14349155 0.023305362 6.732439e-39
-0.034774862 -0.14349155 0.023305362 7.7422889e-39
-0.032896876 -0.14457656 0.019300049 6.1728024e-39
-0.031008353 -0.14457656 0.019300049 6.2653386e-39
-0.029119832 -0.14457656 0.019300049 8.9393621e-39
-0.027218184 -0.14538784 0.016305154 8.478384e-39
-0.02532441 -0.14538784 0.016305154 9.3081447e-39
-0.023430638 -0.14538784 0.016305154 8.9393621e-39
-0.021536864 -0.14538784 0.016305154 7.8312167e-39
-0.019643094 -0.14538784 0.016305154 1.0779673e-38
-0.017749321 -0.14538784 0.016305154 2.11027e-38
-0.010033589 -0.14727734 0.0093299802 1.2613833e-38
-0.0081275851 -0.14727734 0.0093299802 1.325991e-38
-0.0062215831 -0.14727734 0.0093299802 1.9345173e-38
-0.0042410176 -0.14807184 0.0063970741 1.9622473e-38
-0.0023298729 -0.14807184 0.0063970741 1.8055867e-38
-0.00041872822 -0.14807184 0.0063970741 1.7595617e-38
0.0014924165 -0.14807184 0.0063970741 1.390744e-38
0.0034035612 -0.14807184 0.0063970741 1.1417448e-38
0.0052144285 -0.14727734 0.0093299802 1.4090771e-38
0.0071204323 -0.14727734 0.0093299802 1.3998223e-38
0.0089120772 -0.14645557 0.012363618 9.0196622e-39
0.010812761 -0.14645557 0.012363618 8.0055116e-39
0.012713442 -0.14645557 0.012363618 7.9133146e-39
0.014614126 -0.14645557 0.012363618 7.4523336e-39
0.016650444 -0.14727734 0.0093299802 1.1417818e-38
0.018556444 -0.14727734 0.0093299802 1.6673323e-38
0.020462448 -0.14727734 0.0093299802 1.5383305e-38
0.022368452 -0.14727734 0.0093299802 1.0589132e-38
0.024274452 -0.14727734 0.0093299802 3.7674077e-39
-0.081533141 -0.14373477 0.029314226 1.3367964e-38
-0.079662174 -0.14373477 0.029314226 1.133857e-38
-0.077617526 -0.14263238 0.033357568 8.294308e-39
-0.075753652 -0.14263238 0.033357568 8.4772546e-39
-0.073889777 -0.14263238 0.033357568 1.3363261e-38
-0.071912341 -0.14181106 0.036369987 1.4285579e-38
-0.070053749 -0.14181106 0.036369987 1.0599202e-38
-0.068195157 -0.14181106 0.036369987 9.6783327e-39
-0.066434279 -0.14263238 0.033357568 1.3460523e-38
-0.064694472 -0.14373477 0.029314226 1.4014787e-38
-0.062908545 -0.14453618 0.026374882 1.7057611e-38
-0.061032429 -0.14453618 0.026374882 1.8806815e-38
-0.059156306 -0.14453618 0.026374882 1.7238048e-38
-0.057352848 -0.14537306 0.023305362 1.8067078e-38
-0.055471346 -0.14537306 0.023305362 2.3509149e-38
-0.053589851 -0.14537306 0.023305362 2.3507733e-38
-0.051782086 -0.14646508 0.019300049 2.3507374e-38
-0.049893565 -0.14646508 0.019300049 2.3508089e-38
-0.048005044 -0.14646508 0.019300049 2.350988e-38
-0.046116523 -0.14646508 0.019300049 2.2682283e-38
-0.044228002 -0.14646508 0.019300049 2.2775202e-38
-0.042300858 -0.14537306 0.023305362 2.1393723e-38
-0.040419359 -0.14537306 0.023305362 6.3661928e-39
-0.03853786 -0.14537306 0.023305362 5.8115645e-39
-0.036656361 -0.14537306 0.023305362 7.4692852e-39
-0.034774862 -0.14537306 0.023305362 7.3745826e-39
-0.032893363 -0.14537306 0.023305362 6.6344994e-39
-0.031008353 -0.14646508 0.019300049 7.6475653e-39
-0.029119832 -0.14646508 0.019300049 1.4838455e-38
-0.027231311 -0.14646508 0.019300049 1.5022842e-38
-0.010033589 -0.14918335 0.0093299802 9.6668042e-39
-0.0081275851 -0.14918335 0.0093299802 1.2895444e-38
-0.0062215831 -0.14918335 0.0093299802 2.045728e-38
-0.0043155812 -0.14918335 0.0093299802 1.7416621e-38
-0.0023298729 -0.14998297 0.0063970741 1.3544404e-38
-0.00041872822 -0.14998297 0.0063970741 1.5016658e-38
0.0014024246 -0.14918335 0.0093299802 1.3540094e-38
0.0033084285 -0.14918335 0.0093299802 1.2157527e-38
0.0052144285 -0.14918335 0.0093299802 1.6766958e-38
0.0071204323 -0.14918335 0.0093299802 1.6213432e-38
0.0089120772 -0.14835624 0.012363618 7.1786264e-39
0.010812761 -0.14835624 0.012363618 5.4269109e-39
0.012713442 -0.14835624 0.012363618 4.505679e-39
0.014614126 -0.14835624 0.012363618 5.704218e-39
0.01651481 -0.14835624 0.012363618 6.9953142e-39
0.018415494 -0.14835624 0.012363618 1.0222877e-38
0.020462448 -0.14918335 0.0093299802 1.2066787e-38
0.022368452 -0.14918335 0.0093299802 1.1144115e-38
-0.081533141 -0.14560573 0.029314226 1.2353815e-38
-0.079662174 -0.14560573 0.029314226 1.0876876e-38
-0.077617526 -0.14449625 0.033357568 1.0044949e-38
-0.075753652 -0.14449625 0.033357568 9.0297123e-39
-0.073889777 -0.14449625 0.033357568 1.1241684e-38
-0.071912341 -0.14366965 0.036369987 1.1610114e-38
-0.070053749 -0.14366965 0.036369987 9.7676458e-39
-0.068195157 -0.14366965 0.036369987 9.7683787e-39
-0.066434279 -0.14449625 0.033357568 1.2905559e-38
-0.064694472 -0.14560573 0.029314226 1.3459823e-38
-0.062823504 -0.14560573 0.029314226 1.7056175e-38
-0.060952544 -0.14560573 0.029314226 1.9450743e-38
-0.059081584 -0.14560573 0.029314226 1.6868901e-38
-0.05728019 -0.1464123 0.026374882 1.6869609e-38
-0.055471346 -0.14725454 0.023305362 2.3046361e-38
-0.053589851 -0.14725454 0.023305362 2.3509163e-38
-0.051782086 -0.14835359 0.019300049 2.3508088e-38
-0.049893565 -0.14835359 0.019300049 2.3416245e-38
-0.048005044 -0.14835359 0.019300049 2.3509876e-38
-0.046116523 -0.14835359 0.019300049 2.3418045e-38
-0.044228002 -0.14835359 0.019300049 2.2958873e-38
-0.042300858 -0.14725454 0.023305362 2.3142544e-38
-0.040419359 -0.14725454 0.023305362 6.0863647e-39
-0.03853786 -0.14725454 0.023305362 6.4554892e-39
-0.036656361 -0.14725454 0.023305362 8.0217331e-39
-0.034774862 -0.14725454 0.023305362 7.1909074e-39
-0.032893363 -0.14725454 0.023305362 6.2671588e-39
-0.031011865 -0.14725454 0.023305362 7.7401281e-39
-0.029119832 -0.14835359 0.019300049 1.6681661e-38
-0.027231311 -0.14835359 0.019300049 1.6958598e-38
-0.025342789 -0.14835359 0.019300049 1.5667848e-38
-0.081533141 -0.14747669 0.029314226 1.0231883e-38
-0.079481401 -0.14636014 0.033357568 9.7694549e-39
-0.077617526 -0.14636014 0.033357568 1.2994136e-38
-0.075753652 -0.14636014 0.033357568 1.0688157e-38
-0.073889777 -0.14636014 0.033357568 7.4598712e-39
-0.072025903 -0.14636014 0.033357568 1.0409775e-38
-0.070053749 -0.14552824 0.036369987 1.5758568e-38
-0.068195157 -0.14552824 0.036369987 1.4653674e-38
-0.066336565 -0.14552824 0.036369987 1.4655843e-38
-0.064570405 -0.14636014 0.033357568 1.36435e-38
-0.062823504 -0.14747669 0.029314226 1.2628992e-38
-0.060952544 -0.14747669 0.029314226 1.6315373e-38
-0.059081584 -0.14747669 0.029314226 1.5301928e-38
-0.05728019 -0.14828841 0.026374882 1.5118605e-38
-0.055404074 -0.14828841 0.026374882 1.954544e-38
-0.053589851 -0.14913605 0.023305362 2.3509876e-38
-0.044182353 -0.14913605 0.023305362 2.3417687e-38
-0.042300858 -0.14913605 0.023305362 2.3509168e-38
-0.040419359 -0.14913605 0.023305362 4.2406501e-39
-0.038519025 -0.14828841 0.026374882 4.8867215e-39
-0.036642909 -0.14828841 0.026374882 7.4689166e-39
-0.034774862 -0.14913605 0.023305362 6.916117e-39
-0.032893363 -0.14913605 0.023305362 5.531749e-39
-0.031011865 -0.14913605 0.023305362 6.7277713e-39
-0.027248867 -0.14913605 0.023305362 1.6037718e-38
-0.025367368 -0.14913605 0.023305362 1.4653693e-38
-0.079481401 -0.14822401 0.033357568 6.910317e-39
-0.077617526 -0.14822401 0.033357568 1.2809031e-38
-0.075753652 -0.14822401 0.033357568 1.0964031e-38
-0.073889777 -0.14822401 0.033357568 5.2461041e-39
-0.072025903 -0.14822401 0.033357568 6.5368443e-39
-0.070053749 -0.14738683 0.036369987 1.418945e-38
-0.068195157 -0.14738683 0.036369987 1.363809e-38
-0.066336565 -0.14738683 0.036369987 1.3916128e-38
-0.064570405 -0.14822401 0.033357568 1.4563307e-38
-0.062823504 -0.14934768 0.029314226 1.2443526e-38
-0.060952544 -0.14934768 0.029314226 1.124497e-38
-0.059081584 -0.14934768 0.029314226 1.2443862e-38
-0.057210617 -0.14934768 0.029314226 1.1801357e-38
-0.070053749 -0.14924543 0.036369987 1.1055519e-38
-0.068195157 -0.14924543 0.036369987 8.4751344e-39
-0.066336565 -0.14924543 0.036369987 6.6330309e-39
