# .PCD v0.7 - Point Cloud Data file format
VERSION 0.7
FIELDS x y z rgb
SIZE 4 4 4 4
TYPE F F F F
COUNT 1 1 1 1
WIDTH 933
HEIGHT 1
VIEWPOINT 0 0 0 1 0 0 0
POINTS 933
DATA ascii
-0.015032588 -0.12987436 -0.010243967 1.3637713e-38
-0.013179246 -0.12987436 -0.010243967 1.2437716e-38
-0.011234 -0.13065951 -0.013239339 6.9967281e-39
-0.0093754083 -0.13065951 -0.013239339 7.6424534e-39
0.0030549616 -0.12726043 -0.00027187169 1.9076507e-38
0.0052157678 -0.12909363 -0.0072655231 2.3504414e-38
0.0070638843 -0.12909363 -0.0072655231 2.3506203e-38
0.0089120045 -0.12909363 -0.0072655231 2.277043e-38
0.010550406 -0.12803085 -0.0032109767 2.2219046e-38
0.012391414 -0.12803085 -0.0032109767 2.277329e-38
0.014232423 -0.12803085 -0.0032109767 2.3509786e-38
0.016073432 -0.12803085 -0.0032109767 2.3044502e-38
0.01791444 -0.12803085 -0.0032109767 2.0093168e-38
0.019755453 -0.12803085 -0.0032109767 1.7606044e-38
0.021596462 -0.12803085 -0.0032109767 7.2815952e-39
0.035111018 -0.12386028 0.012699768 1.3637713e-38
0.036924131 -0.12386028 0.012699768 1.2349509e-38
0.039050944 -0.124891 0.0087675303 5.3448144e-39
0.04217812 -0.12909363 -0.0072655231 4.7941756e-39
0.044026252 -0.12909363 -0.0072655231 4.9782109e-39
0.045874368 -0.12909363 -0.0072655231 4.4214344e-39
0.047370594 -0.12803085 -0.0032109767 1.2718307e-38
0.049211603 -0.12803085 -0.0032109767 1.3458005e-38
0.051052611 -0.12803085 -0.0032109767 1.4012606e-38
0.05289362 -0.12803085 -0.0032109767 1.2354883e-38
0.054458927 -0.12726043 -0.00027187169 2.0836899e-38
0.05629478 -0.12726043 -0.00027187169 2.3418047e-38
0.058130633 -0.12726043 -0.00027187169 2.323402e-38
-0.065396592 -0.13596557 -0.026303962 1.4202784e-38
-0.063515097 -0.13596557 -0.026303962 2.2775186e-38
-0.061582472 -0.13515557 -0.023234442 2.3509879e-38
-0.059706356 -0.13515557 -0.023234442 2.2955267e-38
-0.057830237 -0.13515557 -0.023234442 2.3507362e-38
-0.055954121 -0.13515557 -0.023234442 2.3509163e-38
-0.054078005 -0.13515557 -0.023234442 2.3509521e-38
-0.052201886 -0.13515557 -0.023234442 2.3509879e-38
-0.05032577 -0.13515557 -0.023234442 2.3509876e-38
-0.048449654 -0.13515557 -0.023234442 2.3509873e-38
-0.046573535 -0.13515557 -0.023234442 2.3509511e-38
-0.044694841 -0.13437997 -0.020295098 2.3509514e-38
-0.042823881 -0.13437997 -0.020295098 1.7884865e-38
-0.040963549 -0.13331302 -0.016251758 1.1153865e-38
-0.039112881 -0.1325181 -0.013239339 1.1427568e-38
-0.037254289 -0.1325181 -0.013239339 2.2764026e-38
-0.035442829 -0.13094176 -0.0072655231 2.3506989e-38
-0.033594713 -0.13094176 -0.0072655231 2.3310346e-38
-0.031746592 -0.13094176 -0.0072655231 1.6578262e-38
-0.029898476 -0.13094176 -0.0072655231 1.7499852e-38
-0.028050357 -0.13094176 -0.0072655231 1.6301308e-38
-0.026269775 -0.12987186 -0.0032109767 1.6394222e-38
-0.024428766 -0.12987186 -0.0032109767 1.4643949e-38
-0.022506004 -0.13094176 -0.0072655231 1.0681697e-38
-0.020592608 -0.13172771 -0.010243967 8.1013072e-39
-0.018739268 -0.13172771 -0.010243967 9.117264e-39
-0.016885927 -0.13172771 -0.010243967 1.2621062e-38
-0.015032588 -0.13172771 -0.010243967 1.3083477e-38
-0.013005441 -0.13331302 -0.016251758 8.1049099e-39
-0.011234 -0.1325181 -0.013239339 6.8134452e-39
-0.0093754083 -0.1325181 -0.013239339 8.7491891e-39
-0.0076192282 -0.13172771 -0.010243967 1.6677292e-38
-0.0057658851 -0.13172771 -0.010243967 1.8889264e-38
-0.0039125457 -0.13172771 -0.010243967 2.0917205e-38
-0.0021767057 -0.13094176 -0.0072655231 1.8981095e-38
-0.00032858551 -0.13094176 -0.0072655231 5.8893155e-39
0.0013453625 -0.12987186 -0.0032109767 7.5495557e-39
0.0030549616 -0.12909628 -0.00027187169 2.2302296e-38
0.0048908181 -0.12909628 -0.00027187169 2.3508396e-38
0.0068683885 -0.12987186 -0.0032109767 2.285942e-38
0.0087093972 -0.12987186 -0.0032109767 2.350766e-38
0.010398384 -0.12909628 -0.00027187169 2.295592e-38
0.012234241 -0.12909628 -0.00027187169 2.3509818e-38
0.014070097 -0.12909628 -0.00027187169 2.3509821e-38
0.015905954 -0.12909628 -0.00027187169 2.3506581e-38
0.017741811 -0.12909628 -0.00027187169 2.0554881e-38
0.019755453 -0.12987186 -0.0032109767 1.659298e-38
0.021596462 -0.12987186 -0.0032109767 9.5875678e-39
0.022862598 -0.1275015 0.0057718009 1.806925e-38
0.026310898 -0.126711 0.0087675303 2.1757766e-38
0.02785857 -0.1256734 0.012699768 1.3459068e-38
0.029671684 -0.1256734 0.012699768 1.2994504e-38
0.03126204 -0.12486555 0.015761182 1.3269655e-38
0.033069782 -0.12486555 0.015761182 1.4098694e-38
0.035111018 -0.1256734 0.012699768 1.373099e-38
0.036924131 -0.1256734 0.012699768 1.2258026e-38
0.039050944 -0.126711 0.0087675303 4.9774626e-39
0.040870946 -0.126711 0.0087675303 4.8870872e-39
0.042690959 -0.126711 0.0087675303 4.2413661e-39
0.044765707 -0.1275015 0.0057718009 5.4359422e-39
0.04633097 -0.126711 0.0087675303 1.3732456e-38
0.048150983 -0.126711 0.0087675303 1.4011178e-38
0.050787207 -0.12909628 -0.00027187169 1.2628956e-38
0.052623075 -0.12909628 -0.00027187169 1.1155624e-38
0.054174658 -0.1282966 0.0027586669 2.3509855e-38
0.055717271 -0.1275015 0.0057718009 2.3509879e-38
0.057542529 -0.1275015 0.0057718009 2.295672e-38
0.059367787 -0.1275015 0.0057718009 2.3417333e-38
-0.075293243 -0.14233841 -0.04321225 1.3553814e-38
-0.073302396 -0.14155935 -0.040279344 1.4291374e-38
-0.071396396 -0.14155935 -0.040279344 1.7610774e-38
-0.069418579 -0.14075352 -0.037245706 1.9087344e-38
-0.067431517 -0.13970654 -0.03330417 2.295885e-38
-0.065396592 -0.13784705 -0.026303962 2.2591147e-38
-0.063515097 -0.13784705 -0.026303962 2.3142531e-38
-0.061582472 -0.13703169 -0.023234442 2.2864865e-38
-0.059706356 -0.13703169 -0.023234442 2.3509517e-38
-0.057830237 -0.13703169 -0.023234442 2.3509158e-38
-0.055954121 -0.13703169 -0.023234442 2.3508437e-38
-0.054078005 -0.13703169 -0.023234442 2.3508794e-38
-0.052201886 -0.13703169 -0.023234442 2.3509149e-38
-0.05032577 -0.13703169 -0.023234442 2.3413346e-38
-0.048436768 -0.13625093 -0.020295098 2.3509497e-38
-0.046565808 -0.13625093 -0.020295098 2.3044915e-38
-0.044691298 -0.13517688 -0.016251758 2.2493188e-38
-0.042827424 -0.13517688 -0.016251758 2.35088e-38
-0.040979348 -0.13358103 -0.010243967 2.3509165e-38
-0.039139066 -0.13278987 -0.0072655231 2.3508444e-38
-0.037290946 -0.13278987 -0.0072655231 1.9261317e-38
-0.035442829 -0.13278987 -0.0072655231 2.3499431e-38
-0.033594713 -0.13278987 -0.0072655231 2.3504109e-38
-0.031746592 -0.13278987 -0.0072655231 2.3401103e-38
-0.029898476 -0.13278987 -0.0072655231 1.5471195e-38
-0.028050357 -0.13278987 -0.0072655231 1.6484627e-38
-0.026269775 -0.13171287 -0.0032109767 1.6116565e-38
-0.024482874 -0.13093217 -0.00027187169 1.3351779e-38
-0.022647019 -0.13093217 -0.00027187169 1.280005e-38
-0.020657886 -0.13278987 -0.0072655231 1.0959021e-38
-0.018809767 -0.13278987 -0.0072655231 1.1329247e-38
-0.016961649 -0.13278987 -0.0072655231 9.9470387e-39
-0.015113531 -0.13278987 -0.0072655231 8.2893152e-39
-0.01309259 -0.13437669 -0.013239339 8.65989e-39
-0.011325907 -0.13358103 -0.010243967 7.8301265e-39
-0.0094725676 -0.13358103 -0.010243967 8.7517213e-39
-0.007721059 -0.13278987 -0.0072655231 1.7786167e-38
-0.0058729425 -0.13278987 -0.0072655231 1.8153508e-38
-0.0040248223 -0.13278987 -0.0072655231 1.8429373e-38
-0.0023366585 -0.13171287 -0.0032109767 1.7046077e-38
-0.00061674789 -0.13093217 -0.00027187169 4.1386958e-39
0.001219105 -0.13093217 -0.00027187169 7.0896622e-39
0.002919469 -0.13012715 0.0027586669 2.3041304e-38
0.0047500096 -0.13012715 0.0027586669 2.2581765e-38
0.0065805502 -0.13012715 0.0027586669 1.8250005e-38
0.0084110945 -0.13012715 0.0027586669 1.9820207e-38
0.010241635 -0.13012715 0.0027586669 2.009787e-38
0.011911046 -0.12932678 0.0057718009 2.2588949e-38
0.013736304 -0.12932678 0.0057718009 2.3233603e-38
0.015733264 -0.13012715 0.0027586669 2.2769033e-38
0.017386824 -0.12932678 0.0057718009 2.1570127e-38
0.019212082 -0.12932678 0.0057718009 1.4196986e-38
0.02103734 -0.12932678 0.0057718009 8.1138838e-39
0.028130904 -0.12853102 0.0087675303 1.5488813e-38
0.029671684 -0.12748651 0.012699768 1.262787e-38
0.03126204 -0.1266733 0.015761182 1.2165097e-38
0.033069782 -0.1266733 0.015761182 1.3270376e-38
0.035111018 -0.12748651 0.012699768 1.3270739e-38
0.036924131 -0.12748651 0.012699768 1.1799199e-38
0.038737245 -0.12748651 0.012699768 4.7948622e-39
0.040550362 -0.12748651 0.012699768 5.3495017e-39
0.042363476 -0.12748651 0.012699768 4.5190306e-39
0.044510972 -0.12853102 0.0087675303 5.6203307e-39
0.04633097 -0.12853102 0.0087675303 1.2902694e-38
0.048150983 -0.12853102 0.0087675303 1.5670344e-38
0.049970981 -0.12853102 0.0087675303 1.7054349e-38
0.051790994 -0.12853102 0.0087675303 1.4197003e-38
0.053611007 -0.12853102 0.0087675303 2.3509852e-38
0.055055257 -0.12748651 0.012699768 2.3048896e-38
0.055990051 -0.12508895 0.021725699 2.3509527e-38
0.05778734 -0.12508895 0.021725699 2.3416974e-38
-0.077204391 -0.14424954 -0.04321225 1.9085549e-38
-0.075208396 -0.14346536 -0.040279344 1.5028223e-38
-0.073219955 -0.1426542 -0.037245706 1.4475049e-38
-0.071319267 -0.1426542 -0.037245706 1.9453613e-38
-0.069325283 -0.1416003 -0.03330417 1.9730921e-38
-0.067365885 -0.14079951 -0.030309275 2.323436e-38
-0.065477356 -0.14079951 -0.030309275 2.3326198e-38
-0.063515097 -0.13972856 -0.026303962 2.3049972e-38
-0.061582472 -0.13890781 -0.023234442 2.3509873e-38
-0.059706356 -0.13890781 -0.023234442 2.3508434e-38
-0.057830237 -0.13890781 -0.023234442 2.3506992e-38
-0.055954121 -0.13890781 -0.023234442 2.3507709e-38
-0.054078005 -0.13890781 -0.023234442 2.3508063e-38
-0.052178696 -0.13812189 -0.020295098 2.3505893e-38
-0.050307732 -0.13812189 -0.020295098 2.2026076e-38
-0.048436768 -0.13812189 -0.020295098 2.322605e-38
-0.046555173 -0.13704078 -0.016251758 2.285906e-38
-0.044691298 -0.13704078 -0.016251758 2.3508402e-38
-0.042827424 -0.13704078 -0.016251758 2.350951e-38
-0.040987186 -0.134638 -0.0072655231 2.3231857e-38
-0.039156839 -0.13355388 -0.0032109767 2.3508802e-38
-0.037315831 -0.13355388 -0.0032109767 1.6774196e-38
-0.035474822 -0.13355388 -0.0032109767 1.9720852e-38
-0.033633813 -0.13355388 -0.0032109767 2.350123e-38
-0.031792801 -0.13355388 -0.0032109767 2.350591e-38
-0.029951792 -0.13355388 -0.0032109767 1.8976436e-38
-0.028110784 -0.13355388 -0.0032109767 1.5656673e-38
-0.026269775 -0.13355388 -0.0032109767 1.5380086e-38
-0.024482874 -0.13276802 -0.00027187169 1.2983725e-38
-0.022647019 -0.13276802 -0.00027187169 1.1879181e-38
-0.020746747 -0.13355388 -0.0032109767 1.1236696e-38
-0.018905738 -0.13355388 -0.0032109767 9.7637278e-39
-0.016961649 -0.134638 -0.0072655231 9.1198003e-39
-0.015113531 -0.134638 -0.0072655231 8.1999992e-39
-0.01309259 -0.13623528 -0.013239339 6.4511479e-39
-0.011417296 -0.134638 -0.0072655231 8.2961311e-39
-0.0095691793 -0.134638 -0.0072655231 1.1245309e-38
-0.007721059 -0.134638 -0.0072655231 1.8527682e-38
-0.0058729425 -0.134638 -0.0072655231 1.8249655e-38
-0.0040248223 -0.134638 -0.0072655231 1.9540031e-38
-0.0023366585 -0.13355388 -0.0032109767 1.7879788e-38
-0.00061674789 -0.13276802 -0.00027187169 4.2341186e-39
0.001219105 -0.13276802 -0.00027187169 6.8159438e-39
0.002919469 -0.13195769 0.0027586669 2.3505869e-38
0.0046100095 -0.13115202 0.0057718009 2.1661595e-38
0.0064352676 -0.13115202 0.0057718009 2.1017305e-38
0.0084110945 -0.13195769 0.0027586669 2.1480441e-38
0.010241635 -0.13195769 0.0027586669 2.092763e-38
0.011911046 -0.13115202 0.0057718009 2.1021624e-38
0.013736304 -0.13115202 0.0057718009 2.3509837e-38
0.015561566 -0.13115202 0.0057718009 2.3415496e-38
0.017386824 -0.13115202 0.0057718009 2.2032564e-38
0.019212082 -0.13115202 0.0057718009 1.3276487e-38
0.02103734 -0.13115202 0.0057718009 5.4416665e-39
0.022862598 -0.13115202 0.0057718009 7.931687e-39
0.024687864 -0.13115202 0.0057718009 7.1019292e-39
0.026310898 -0.13035102 0.0087675303 8.2993793e-39
0.028130904 -0.13035102 0.0087675303 1.364599e-38
0.029671684 -0.1292996 0.012699768 1.502675e-38
0.03126204 -0.12848105 0.015761182 1.2259086e-38
0.033069782 -0.12848105 0.015761182 1.2441702e-38
0.034877524 -0.12848105 0.015761182 1.3365459e-38
0.036924131 -0.1292996 0.012699768 1.0049276e-38
0.038737245 -0.1292996 0.012699768 5.6264081e-39
0.040550362 -0.1292996 0.012699768 4.1531081e-39
0.042363476 -0.1292996 0.012699768 5.0729176e-39
0.044510972 -0.13035102 0.0087675303 5.5288525e-39
0.04633097 -0.13035102 0.0087675303 1.4101237e-38
0.048150983 -0.13035102 0.0087675303 1.7053281e-38
0.049970981 -0.13035102 0.0087675303 1.4657264e-38
0.050876733 -0.12769531 0.01869981 1.2076146e-38
0.052679311 -0.12769531 0.01869981 2.3509859e-38
0.054481905 -0.12769531 0.01869981 2.3509873e-38
0.055697318 -0.12608187 0.024733946 2.2587929e-38
0.057489332 -0.12608187 0.024733946 2.3509527e-38
-0.077204391 -0.14616071 -0.04321225 2.350986e-38
-0.075120635 -0.14455487 -0.037245706 1.7516784e-38
-0.073219955 -0.14455487 -0.037245706 2.0466689e-38
-0.071219057 -0.14349405 -0.03330417 2.3140365e-38
-0.069325283 -0.14349405 -0.03330417 2.157304e-38
-0.067278095 -0.14161004 -0.026303962 2.350987e-38
-0.065396592 -0.14161004 -0.026303962 2.3509873e-38
-0.063515097 -0.14161004 -0.026303962 2.3233288e-38
-0.061582472 -0.14078392 -0.023234442 2.3509873e-38
-0.059706356 -0.14078392 -0.023234442 2.3509511e-38
-0.057830237 -0.14078392 -0.023234442 2.3507708e-38
-0.055954121 -0.14078392 -0.023234442 1.9904872e-38
-0.054078005 -0.14078392 -0.023234442 1.9440645e-38
-0.052178696 -0.13999285 -0.020295098 2.1099436e-38
-0.050282918 -0.13890465 -0.016251758 2.350011e-38
-0.048419043 -0.13890465 -0.016251758 2.3507299e-38
-0.046555173 -0.13890465 -0.016251758 2.350729e-38
-0.044688657 -0.13809387 -0.013239339 2.3509462e-38
-0.042832691 -0.13728772 -0.010243967 2.2864131e-38
-0.040987186 -0.13648613 -0.0072655231 2.350988e-38
-0.039156839 -0.13539489 -0.0032109767 2.3416603e-38
-0.037315831 -0.13539489 -0.0032109767 1.3826812e-38
-0.035474822 -0.13539489 -0.0032109767 1.5114671e-38
-0.033633813 -0.13539489 -0.0032109767 1.5850433e-38
-0.031826299 -0.13460387 -0.00027187169 1.7968049e-38
-0.029990442 -0.13460387 -0.00027187169 2.2760062e-38
-0.028110784 -0.13539489 -0.0032109767 2.0454092e-38
-0.026269775 -0.13539489 -0.0032109767 1.9992754e-38
-0.024482874 -0.13460387 -0.00027187169 1.6858467e-38
-0.022647019 -0.13460387 -0.00027187169 1.474013e-38
-0.020746747 -0.13539489 -0.0032109767 1.3636304e-38
-0.018905738 -0.13539489 -0.0032109767 1.2439922e-38
-0.01706473 -0.13539489 -0.0032109767 1.2442443e-38
-0.015223721 -0.13539489 -0.0032109767 1.2536074e-38
-0.013265414 -0.13648613 -0.0072655231 1.3183234e-38
-0.011417296 -0.13648613 -0.0072655231 1.4014427e-38
-0.0095691793 -0.13648613 -0.0072655231 1.5579954e-38
-0.007721059 -0.13648613 -0.0072655231 1.9820232e-38
-0.0058729425 -0.13648613 -0.0072655231 1.7238035e-38
-0.0040248223 -0.13648613 -0.0072655231 1.686889e-38
-0.0023366585 -0.13539489 -0.0032109767 1.4193772e-38
-0.00061674789 -0.13460387 -0.00027187169 2.7615221e-39
0.001219105 -0.13460387 -0.00027187169 6.1731037e-39
0.002919469 -0.13378824 0.0027586669 2.3509841e-38
0.0046100095 -0.13297729 0.0057718009 2.3509841e-38
0.0064352676 -0.13297729 0.0057718009 2.3509118e-38
0.0082605295 -0.13297729 0.0057718009 2.3323649e-38
0.010085788 -0.13297729 0.0057718009 2.3324371e-38
0.011750843 -0.13217102 0.0087675303 2.3325095e-38
0.013570853 -0.13217102 0.0087675303 2.3509853e-38
0.015390858 -0.13217102 0.0087675303 2.3509869e-38
0.017210864 -0.13217102 0.0087675303 2.2310605e-38
0.019212082 -0.13297729 0.0057718009 1.0879785e-38
0.02103734 -0.13297729 0.0057718009 1.4783475e-39
0.022862598 -0.13297729 0.0057718009 2.5857824e-39
0.024687864 -0.13297729 0.0057718009 2.0326086e-39
0.026310898 -0.13217102 0.0087675303 5.443484e-39
0.028130904 -0.13217102 0.0087675303 1.6136004e-38
0.029671684 -0.13111271 0.012699768 1.4290624e-38
0.03126204 -0.13028879 0.015761182 1.2629663e-38
0.033069782 -0.13028879 0.015761182 1.318071e-38
0.034877524 -0.13028879 0.015761182 1.3550214e-38
0.036685273 -0.13028879 0.015761182 9.128756e-39
0.038737245 -0.13111271 0.012699768 4.2452673e-39
0.040550362 -0.13111271 0.012699768 3.0474766e-39
0.042363476 -0.13111271 0.012699768 4.3371477e-39
0.044510972 -0.13217102 0.0087675303 7.0972572e-39
0.04633097 -0.13217102 0.0087675303 1.3733533e-38
0.048150983 -0.13217102 0.0087675303 1.6407557e-38
0.049970981 -0.13217102 0.0087675303 1.5486671e-38
0.050876733 -0.1294979 0.01869981 1.31825e-38
0.052679311 -0.1294979 0.01869981 2.3508779e-38
0.054481905 -0.1294979 0.01869981 2.2955619e-38
0.055697318 -0.12787388 0.024733946 2.3509883e-38
0.057489332 -0.12787388 0.024733946 2.314075e-38
0.059584629 -0.12868352 0.021725699 2.0651468e-38
-0.080822684 -0.14645557 -0.037245706 1.9730556e-38
-0.078922004 -0.14645557 -0.037245706 2.3509859e-38
-0.077021316 -0.14645557 -0.037245706 2.34173e-38
-0.075006604 -0.14538784 -0.03330417 1.8991914e-38
-0.073112831 -0.14538784 -0.03330417 2.323256e-38
-0.071142927 -0.14457656 -0.030309275 2.3509153e-38
-0.069254398 -0.14457656 -0.030309275 2.1018795e-38
-0.067278095 -0.14349155 -0.026303962 2.3508797e-38
-0.065396592 -0.14349155 -0.026303962 2.350952e-38
-0.063515097 -0.14349155 -0.026303962 2.2863429e-38
-0.061582472 -0.14266007 -0.023234442 2.3509876e-38
-0.059706356 -0.14266007 -0.023234442 2.3230402e-38
-0.057830237 -0.14266007 -0.023234442 2.3504464e-38
-0.055954121 -0.14266007 -0.023234442 1.8427934e-38
-0.05404966 -0.14186381 -0.020295098 1.8515083e-38
-0.052178696 -0.14186381 -0.020295098 2.1187302e-38
-0.050282918 -0.14076851 -0.016251758 2.3500459e-38
-0.048419043 -0.14076851 -0.016251758 2.3502606e-38
-0.046555173 -0.14076851 -0.016251758 2.350583e-38
-0.044688657 -0.13995247 -0.013239339 2.3509447e-38
-0.042832691 -0.13914107 -0.010243967 2.3509853e-38
-0.040987186 -0.13833423 -0.0072655231 2.3142534e-38
-0.039156839 -0.13723589 -0.0032109767 2.2775186e-38
-0.037315831 -0.13723589 -0.0032109767 1.466017e-38
-0.035474822 -0.13723589 -0.0032109767 1.4659088e-38
-0.033633813 -0.13723589 -0.0032109767 1.3366909e-38
-0.031826299 -0.13643973 -0.00027187169 1.2718303e-38
-0.029990442 -0.13643973 -0.00027187169 2.1106663e-38
-0.028110784 -0.13723589 -0.0032109767 2.2026461e-38
-0.026269775 -0.13723589 -0.0032109767 2.2671115e-38
-0.024428766 -0.13723589 -0.0032109767 2.1196703e-38
-0.022587758 -0.13723589 -0.0032109767 2.064497e-38
-0.020746747 -0.13723589 -0.0032109767 2.0278348e-38
-0.018905738 -0.13723589 -0.0032109767 1.9174882e-38
-0.01706473 -0.13723589 -0.0032109767 1.945363e-38
-0.015223721 -0.13723589 -0.0032109767 1.9823131e-38
-0.013265414 -0.13833423 -0.0072655231 2.0098999e-38
-0.011417296 -0.13833423 -0.0072655231 1.8162173e-38
-0.0095691793 -0.13833423 -0.0072655231 1.5304112e-38
-0.007721059 -0.13833423 -0.0072655231 1.4104489e-38
-0.0060186759 -0.13723589 -0.0032109767 9.8627716e-39
-0.0041776672 -0.13723589 -0.0032109767 1.0138279e-38
-0.0023366585 -0.13723589 -0.0032109767 8.755701e-39
-0.00061674789 -0.13643973 -0.00027187169 3.4079901e-39
0.0010889247 -0.13561879 0.0027586669 7.3723966e-39
0.0027847514 -0.13480256 0.0057718009 2.2953813e-38
0.0046100095 -0.13480256 0.0057718009 2.3509507e-38
0.0062908232 -0.13399105 0.0087675303 2.3509507e-38
0.0081108324 -0.13399105 0.0087675303 2.3508431e-38
0.0099308379 -0.13399105 0.0087675303 2.3509517e-38
0.011750843 -0.13399105 0.0087675303 2.3509163e-38
0.013570853 -0.13399105 0.0087675303 2.3509165e-38
0.015390858 -0.13399105 0.0087675303 2.2402093e-38
0.017210864 -0.13399105 0.0087675303 2.1113152e-38
0.019030869 -0.13399105 0.0087675303 1.0604292e-38
0.02103734 -0.13480256 0.0057718009 4.2449492e-39
0.022862598 -0.13480256 0.0057718009 5.6296801e-39
0.024687864 -0.13480256 0.0057718009 4.2467457e-39
0.026513122 -0.13480256 0.0057718009 5.4434924e-39
0.028130904 -0.13399105 0.0087675303 1.6228929e-38
0.029671684 -0.13292582 0.012699768 1.558173e-38
0.03126204 -0.13209651 0.015761182 1.4934919e-38
0.033069782 -0.13209651 0.015761182 1.539449e-38
0.034653395 -0.13130049 0.01869981 1.4381061e-38
0.036455989 -0.13130049 0.01869981 9.3138718e-39
0.038493015 -0.13209651 0.015761182 4.1537948e-39
0.040300753 -0.13209651 0.015761182 3.4173354e-39
0.042108502 -0.13209651 0.015761182 5.3520157e-39
0.043916252 -0.13209651 0.015761182 7.3752832e-39
0.045989688 -0.13292582 0.012699768 1.7882701e-38
0.047802802 -0.13292582 0.012699768 1.963477e-38
0.049339484 -0.13209651 0.015761182 1.3919713e-38
0.050876733 -0.13130049 0.01869981 1.1800291e-38
0.052679311 -0.13130049 0.01869981 2.3509863e-38
0.054481905 -0.13130049 0.01869981 2.3509873e-38
0.055697318 -0.1296659 0.024733946 2.286415e-38
0.057489332 -0.1296659 0.024733946 2.3325494e-38
0.059584629 -0.13048081 0.021725699 1.9361085e-38
-0.080822684 -0.14835624 -0.037245706 1.7608976e-38
-0.078922004 -0.14835624 -0.037245706 2.3509856e-38
-0.077021316 -0.14835624 -0.037245706 2.3508057e-38
-0.074919969 -0.14646508 -0.030309275 1.7147283e-38
-0.07303144 -0.14646508 -0.030309275 2.1665236e-38
-0.071142927 -0.14646508 -0.030309275 2.1204628e-38
-0.069254398 -0.14646508 -0.030309275 1.991245e-38
-0.067278095 -0.14537306 -0.026303962 2.3415885e-38
-0.065396592 -0.14537306 -0.026303962 2.3509521e-38
-0.063515097 -0.14537306 -0.026303962 2.3509521e-38
-0.061582472 -0.14453618 -0.023234442 2.3509876e-38
-0.059706356 -0.14453618 -0.023234442 2.0925154e-38
-0.057830237 -0.14453618 -0.023234442 1.7785815e-38
-0.05592062 -0.14373477 -0.020295098 1.6581863e-38
-0.05404966 -0.14373477 -0.020295098 1.8696952e-38
-0.052146792 -0.14263238 -0.016251758 2.2290047e-38
-0.050282918 -0.14263238 -0.016251758 2.312159e-38
-0.048419043 -0.14263238 -0.016251758 2.1926629e-38
-0.046547249 -0.14181106 -0.013239339 2.1287003e-38
-0.044686031 -0.14099441 -0.010243967 2.1660843e-38
-0.042832691 -0.14099441 -0.010243967 2.3141418e-38
-0.040987186 -0.14018236 -0.0072655231 2.2314202e-38
-0.039139066 -0.14018236 -0.0072655231 2.3142528e-38
-0.037290946 -0.14018236 -0.0072655231 2.3050691e-38
-0.035474822 -0.1390769 -0.0032109767 2.3234364e-38
-0.033633813 -0.1390769 -0.0032109767 2.3418038e-38
-0.031792801 -0.1390769 -0.0032109767 2.3047814e-38
-0.029951792 -0.1390769 -0.0032109767 2.3509156e-38
-0.028110784 -0.1390769 -0.0032109767 2.3506276e-38
-0.026269775 -0.1390769 -0.0032109767 2.3508082e-38
-0.024482874 -0.13827558 -0.00027187169 2.3508082e-38
-0.022647019 -0.13827558 -0.00027187169 2.3508441e-38
-0.020746747 -0.1390769 -0.0032109767 2.3509158e-38
-0.018905738 -0.1390769 -0.0032109767 2.3233288e-38
-0.01706473 -0.1390769 -0.0032109767 2.295778e-38
-0.015113531 -0.14018236 -0.0072655231 2.258972e-38
-0.013382712 -0.1390769 -0.0032109767 2.3509879e-38
-0.011541702 -0.1390769 -0.0032109767 2.3508441e-38
-0.0097006932 -0.1390769 -0.0032109767 2.3508091e-38
-0.0078596845 -0.1390769 -0.0032109767 2.3507374e-38
-0.0060186759 -0.1390769 -0.0032109767 2.0925898e-38
-0.0041776672 -0.1390769 -0.0032109767 2.0741507e-38
-0.0023366585 -0.1390769 -0.0032109767 1.7975637e-38
-0.00061674789 -0.13827558 -0.00027187169 1.5486711e-38
0.0010889247 -0.13744931 0.0027586669 1.6685604e-38
0.0027847514 -0.13662781 0.0057718009 2.35088e-38
0.0044708177 -0.13581105 0.0087675303 2.323149e-38
0.0062908232 -0.13581105 0.0087675303 2.3509517e-38
0.0081108324 -0.13581105 0.0087675303 2.3508801e-38
0.0099308379 -0.13581105 0.0087675303 2.3507729e-38
0.011540562 -0.13473894 0.012699768 2.3507374e-38
0.013353676 -0.13473894 0.012699768 2.3230789e-38
0.015166786 -0.13473894 0.012699768 2.3509168e-38
0.016979899 -0.13473894 0.012699768 2.157378e-38
0.019030869 -0.13581105 0.0087675303 1.0604304e-38
0.020850882 -0.13581105 0.0087675303 4.89069e-39
0.022670887 -0.13581105 0.0087675303 5.0765064e-39
0.024490893 -0.13581105 0.0087675303 5.630399e-39
0.026310898 -0.13581105 0.0087675303 8.4855979e-39
0.028130904 -0.13581105 0.0087675303 1.8165049e-38
0.029671684 -0.13473894 0.012699768 1.8163582e-38
0.03126204 -0.13390426 0.015761182 1.7607887e-38
0.033069782 -0.13390426 0.015761182 1.6593036e-38
0.034653395 -0.13310309 0.01869981 1.3920084e-38
0.036455989 -0.13310309 0.01869981 8.2990122e-39
0.038258582 -0.13310309 0.01869981 2.9549027e-39
0.040061172 -0.13310309 0.01869981 1.6656184e-39
0.041863766 -0.13310309 0.01869981 3.2315148e-39
0.043916252 -0.13390426 0.015761182 7.0072196e-39
0.045989688 -0.13473894 0.012699768 1.6501209e-38
0.047802802 -0.13473894 0.012699768 1.7239127e-38
0.049339484 -0.13390426 0.015761182 1.1338605e-38
0.050876733 -0.13310309 0.01869981 1.1247126e-38
0.052679311 -0.13310309 0.01869981 2.2772658e-38
0.054481905 -0.13310309 0.01869981 2.3509873e-38
0.055697318 -0.13145791 0.024733946 2.3509879e-38
0.057489332 -0.13145791 0.024733946 2.3509883e-38
0.059584629 -0.1322781 0.021725699 1.8531324e-38
-0.080585524 -0.14835359 -0.030309275 1.3366538e-38
-0.078697011 -0.14835359 -0.030309275 2.1571946e-38
-0.076808482 -0.14835359 -0.030309275 2.3509495e-38
-0.07480409 -0.14725454 -0.026303962 1.9636562e-38
-0.072922587 -0.14725454 -0.026303962 1.9914961e-38
-0.071041092 -0.14725454 -0.026303962 1.9085566e-38
-0.069159597 -0.14725454 -0.026303962 1.972842e-38
-0.067278095 -0.14725454 -0.026303962 2.3507725e-38
-0.065396592 -0.14725454 -0.026303962 2.3509524e-38
-0.063458592 -0.1464123 -0.023234442 2.2864153e-38
-0.061582472 -0.1464123 -0.023234442 2.1942913e-38
-0.059662547 -0.14560573 -0.020295098 1.4564377e-38
-0.057791587 -0.14560573 -0.020295098 1.4097993e-38
-0.05592062 -0.14560573 -0.020295098 1.3999667e-38
-0.05404966 -0.14560573 -0.020295098 1.6205512e-38
-0.052146792 -0.14449625 -0.016251758 2.3393876e-38
-0.050282918 -0.14449625 -0.016251758 2.2842122e-38
-0.048419043 -0.14449625 -0.016251758 2.1186903e-38
-0.046547249 -0.14366965 -0.013239339 1.8243105e-38
-0.044686031 -0.14284773 -0.010243967 1.8432551e-38
-0.042832691 -0.14284773 -0.010243967 2.3509841e-38
-0.040987186 -0.14203046 -0.0072655231 2.35095e-38
-0.039139066 -0.14203046 -0.0072655231 2.3326192e-38
-0.037290946 -0.14203046 -0.0072655231 2.3418033e-38
-0.035474822 -0.14091791 -0.0032109767 2.1944704e-38
-0.033662155 -0.14011143 -0.00027187169 2.2773388e-38
-0.031826299 -0.14011143 -0.00027187169 2.3509879e-38
-0.029951792 -0.14091791 -0.0032109767 2.332261e-38
-0.028110784 -0.14091791 -0.0032109767 2.3508445e-38
-0.026269775 -0.14091791 -0.0032109767 2.3507728e-38
-0.024482874 -0.14011143 -0.00027187169 2.3506287e-38
-0.022647019 -0.14011143 -0.00027187169 2.3507365e-38
-0.020811163 -0.14011143 -0.00027187169 2.3508802e-38
-0.018975308 -0.14011143 -0.00027187169 2.3509517e-38
-0.017139452 -0.14011143 -0.00027187169 2.3509873e-38
-0.015303595 -0.14011143 -0.00027187169 2.350987e-38
-0.01346774 -0.14011143 -0.00027187169 2.3509149e-38
-0.011631884 -0.14011143 -0.00027187169 2.350879e-38
-0.0097960271 -0.14011143 -0.00027187169 2.3507358e-38
-0.0078596845 -0.14091791 -0.0032109767 2.3508085e-38
-0.0060186759 -0.14091791 -0.0032109767 2.3413734e-38
-0.0041776672 -0.14091791 -0.0032109767 2.3508809e-38
-0.0023366585 -0.14091791 -0.0032109767 2.3508446e-38
-0.00049564987 -0.14091791 -0.0032109767 2.3509883e-38
0.0010889247 -0.13927986 0.0027586669 2.3509876e-38
0.0027847514 -0.13845308 0.0057718009 2.350987e-38
0.0044708177 -0.13763104 0.0087675303 2.2957052e-38
0.0059536137 -0.13571201 0.015761182 2.3509869e-38
0.0077613592 -0.13571201 0.015761182 2.3509873e-38
0.0097274482 -0.13655205 0.012699768 2.350952e-38
0.011540562 -0.13655205 0.012699768 2.3509168e-38
0.013353676 -0.13655205 0.012699768 2.3509168e-38
0.015166786 -0.13655205 0.012699768 2.3509524e-38
0.016979899 -0.13655205 0.012699768 2.1573777e-38
0.018793009 -0.13655205 0.012699768 1.5674347e-38
0.020850882 -0.13763104 0.0087675303 1.2081232e-38
0.022670887 -0.13763104 0.0087675303 9.8696015e-39
0.024490893 -0.13763104 0.0087675303 1.1438005e-38
0.026310898 -0.13763104 0.0087675303 1.5307714e-38
0.028130904 -0.13763104 0.0087675303 2.1575217e-38
0.029671684 -0.13655205 0.012699768 2.314001e-38
0.03126204 -0.13571201 0.015761182 2.240136e-38
0.033069782 -0.13571201 0.015761182 2.0648567e-38
0.034877524 -0.13571201 0.015761182 1.7699029e-38
0.036685273 -0.13571201 0.015761182 1.3091765e-38
0.038258582 -0.13490568 0.01869981 8.3926652e-39
0.040061172 -0.13490568 0.01869981 6.2743265e-39
0.041863766 -0.13490568 0.01869981 6.6427531e-39
0.043916252 -0.13571201 0.015761182 1.0142233e-38
0.045724001 -0.13571201 0.015761182 1.9267442e-38
0.047531735 -0.13571201 0.015761182 1.8439115e-38
0.049339484 -0.13571201 0.015761182 1.0602483e-38
0.051147234 -0.13571201 0.015761182 1.1432241e-38
0.052954968 -0.13571201 0.015761182 2.2957414e-38
0.054481905 -0.13490568 0.01869981 2.3509873e-38
0.055990051 -0.13407536 0.021725699 2.2496083e-38
0.05778734 -0.13407536 0.021725699 2.350988e-38
0.059584629 -0.13407536 0.021725699 1.7610084e-38
-0.076685593 -0.14913605 -0.026303962 1.5117173e-38
-0.074715286 -0.14828841 -0.023234442 1.2260191e-38
-0.072839171 -0.14828841 -0.023234442 1.3369431e-38
-0.071041092 -0.14913605 -0.026303962 1.2171615e-38
-0.069159597 -0.14913605 -0.026303962 1.6318264e-38
-0.067210823 -0.14828841 -0.023234442 2.2678686e-38
-0.065334707 -0.14828841 -0.023234442 2.3509527e-38
-0.063458592 -0.14828841 -0.023234442 2.3509886e-38
-0.061533511 -0.14747669 -0.020295098 2.3418047e-38
-0.059662547 -0.14747669 -0.020295098 1.373534e-38
-0.057791587 -0.14747669 -0.020295098 4.8791531e-39
-0.05592062 -0.14747669 -0.020295098 4.3187794e-39
-0.054010667 -0.14636014 -0.016251758 7.0763555e-39
-0.052146792 -0.14636014 -0.016251758 1.9335474e-38
-0.050282918 -0.14636014 -0.016251758 2.0904219e-38
-0.048405841 -0.14552824 -0.013239339 2.0355347e-38
-0.046547249 -0.14552824 -0.013239339 1.7873604e-38
-0.044686031 -0.14470108 -0.010243967 1.9814404e-38
-0.042832691 -0.14470108 -0.010243967 2.3503717e-38
-0.040987186 -0.14387859 -0.0072655231 2.3508783e-38
-0.039139066 -0.14387859 -0.0072655231 2.3506981e-38
-0.037315831 -0.14275892 -0.0032109767 2.3509866e-38
-0.035474822 -0.14275892 -0.0032109767 2.3509873e-38
-0.033691376 -0.14111041 0.0027586669 2.1849277e-38
-0.031860836 -0.14111041 0.0027586669 2.193932e-38
-0.029951792 -0.14275892 -0.0032109767 2.1846048e-38
-0.028110784 -0.14275892 -0.0032109767 2.3507374e-38
-0.026318731 -0.14194728 -0.00027187169 2.3506657e-38
-0.024482874 -0.14194728 -0.00027187169 2.3504856e-38
-0.022708125 -0.14111041 0.0027586669 2.3505211e-38
-0.020877583 -0.14111041 0.0027586669 2.3507367e-38
-0.01904704 -0.14111041 0.0027586669 2.3507358e-38
-0.017216498 -0.14111041 0.0027586669 2.3509153e-38
-0.015385956 -0.14111041 0.0027586669 2.3509149e-38
-0.013642583 -0.14027832 0.0057718009 2.3506625e-38
-0.011817325 -0.14027832 0.0057718009 2.3505906e-38
-0.0098943301 -0.14111041 0.0027586669 2.3505916e-38
-0.0079601742 -0.14194728 -0.00027187169 2.3507723e-38
-0.0060186759 -0.14275892 -0.0032109767 2.3507013e-38
-0.0041776672 -0.14275892 -0.0032109767 2.3508451e-38
-0.0023366585 -0.14275892 -0.0032109767 2.3138948e-38
-0.00049564987 -0.14275892 -0.0032109767 2.3509523e-38
0.0010889247 -0.14111041 0.0027586669 2.3142174e-38
0.0027847514 -0.14027832 0.0057718009 2.3142168e-38
0.0042881146 -0.13836516 0.012699768 2.2865937e-38
0.0059536137 -0.13751976 0.015761182 2.3234001e-38
0.0077613592 -0.13751976 0.015761182 2.3417679e-38
0.009569101 -0.13751976 0.015761182 2.3509521e-38
0.011376847 -0.13751976 0.015761182 2.3509527e-38
0.013184592 -0.13751976 0.015761182 2.3509168e-38
0.014992338 -0.13751976 0.015761182 2.3323689e-38
0.016800079 -0.13751976 0.015761182 2.3232936e-38
0.018793009 -0.13836516 0.012699768 2.341805e-38
0.020850882 -0.13945107 0.0087675303 2.2958873e-38
0.022670887 -0.13945107 0.0087675303 2.2499687e-38
0.024490893 -0.13945107 0.0087675303 2.2591521e-38
0.026310898 -0.13945107 0.0087675303 2.3142544e-38
0.028130904 -0.13945107 0.0087675303 2.3325856e-38
0.029671684 -0.13836516 0.012699768 2.3507733e-38
0.031484798 -0.13836516 0.012699768 2.3508807e-38
0.033069782 -0.13751976 0.015761182 2.3508797e-38
0.034877524 -0.13751976 0.015761182 2.3509156e-38
0.036685273 -0.13751976 0.015761182 2.3509168e-38
0.038258582 -0.13670824 0.01869981 2.3049273e-38
0.040061172 -0.13670824 0.01869981 2.1946513e-38
0.041863766 -0.13670824 0.01869981 2.2591521e-38
0.043666359 -0.13670824 0.01869981 2.3234376e-38
0.045724001 -0.13751976 0.015761182 2.3509883e-38
0.047271546 -0.13670824 0.01869981 2.350988e-38
0.049074139 -0.13670824 0.01869981 2.2957064e-38
0.051147234 -0.13751976 0.015761182 2.3049256e-38
0.052679311 -0.13670824 0.01869981 2.3509876e-38
0.054481905 -0.13670824 0.01869981 2.2957417e-38
0.055990051 -0.13587265 0.021725699 2.3509876e-38
0.05778734 -0.13587265 0.021725699 2.3418045e-38
0.059584629 -0.13587265 0.021725699 1.6872519e-38
-0.061533511 -0.14934768 -0.020295098 2.3142544e-38
-0.059662547 -0.14934768 -0.020295098 1.0694327e-38
-0.057791587 -0.14934768 -0.020295098 4.6022117e-39
-0.05592062 -0.14934768 -0.020295098 3.6734198e-39
-0.054010667 -0.14822401 -0.016251758 5.9700247e-39
-0.052123025 -0.14738683 -0.013239339 1.7397932e-38
-0.050264433 -0.14738683 -0.013239339 1.9059592e-38
-0.048405841 -0.14738683 -0.013239339 1.7957546e-38
-0.046539374 -0.14655443 -0.010243967 1.6582869e-38
-0.044686031 -0.14655443 -0.010243967 1.9166519e-38
-0.042835303 -0.1457267 -0.0072655231 2.2114302e-38
-0.040987186 -0.1457267 -0.0072655231 2.3503379e-38
-0.039139066 -0.1457267 -0.0072655231 2.3504827e-38
-0.037315831 -0.14459993 -0.0032109767 2.3506629e-38
-0.035474822 -0.14459993 -0.0032109767 2.3508079e-38
-0.033691376 -0.14294095 0.0027586669 1.9539713e-38
-0.031860836 -0.14294095 0.0027586669 1.4099097e-38
-0.029951792 -0.14459993 -0.0032109767 1.1884611e-38
-0.028110784 -0.14459993 -0.0032109767 1.3540897e-38
-0.026318731 -0.14378314 -0.00027187169 1.5567041e-38
-0.024538668 -0.14294095 0.0027586669 1.6210969e-38
-0.022708125 -0.14294095 0.0027586669 1.8055235e-38
-0.020877583 -0.14294095 0.0027586669 1.9716906e-38
-0.019118361 -0.1421036 0.0057718009 2.008784e-38
-0.017293101 -0.1421036 0.0057718009 2.1195985e-38
-0.015467843 -0.1421036 0.0057718009 2.1932824e-38
-0.013642583 -0.1421036 0.0057718009 2.3312157e-38
-0.011817325 -0.1421036 0.0057718009 2.3498712e-38
-0.009992063 -0.1421036 0.0057718009 2.3499802e-38
-0.0080637857 -0.14294095 0.0027586669 2.3506293e-38
-0.0061243176 -0.14378314 -0.00027187169 2.3504502e-38
-0.0042884611 -0.14378314 -0.00027187169 2.3507733e-38
-0.0025721602 -0.14294095 0.0027586669 2.3508092e-38
-0.00074161589 -0.14294095 0.0027586669 2.3509168e-38
0.00095948949 -0.1421036 0.0057718009 2.341805e-38
0.0027847514 -0.1421036 0.0057718009 2.3234374e-38
0.0042881146 -0.14017828 0.012699768 2.3234372e-38
0.0059536137 -0.13932751 0.015761182 2.3050698e-38
0.0077613592 -0.13932751 0.015761182 2.31411e-38
0.009569101 -0.13932751 0.015761182 2.3509527e-38
0.011376847 -0.13932751 0.015761182 2.3508451e-38
0.013184592 -0.13932751 0.015761182 2.3507733e-38
0.014992338 -0.13932751 0.015761182 2.3509161e-38
0.016800079 -0.13932751 0.015761182 2.350916e-38
0.018793009 -0.14017828 0.012699768 2.3417691e-38
0.020850882 -0.14127107 0.0087675303 2.2774125e-38
0.022670887 -0.14127107 0.0087675303 2.295887e-38
0.024490893 -0.14127107 0.0087675303 2.286703e-38
0.026310898 -0.14127107 0.0087675303 2.3234376e-38
0.02785857 -0.14017828 0.012699768 2.3509527e-38
0.029454291 -0.13932751 0.015761182 2.3505222e-38
0.03126204 -0.13932751 0.015761182 2.3507374e-38
0.033069782 -0.13932751 0.015761182 2.3508441e-38
0.034653395 -0.13851084 0.01869981 2.350736e-38
0.036455989 -0.13851084 0.01869981 2.3508092e-38
0.038258582 -0.13851084 0.01869981 2.3508809e-38
0.040061172 -0.13851084 0.01869981 2.2775202e-38
0.041863766 -0.13851084 0.01869981 2.2867034e-38
0.043666359 -0.13851084 0.01869981 2.277376e-38
0.045468953 -0.13851084 0.01869981 2.2773039e-38
0.047271546 -0.13851084 0.01869981 2.341805e-38
0.049074139 -0.13851084 0.01869981 2.3418047e-38
0.050876733 -0.13851084 0.01869981 2.3418045e-38
0.052679311 -0.13851084 0.01869981 2.3418043e-38
0.054481905 -0.13851084 0.01869981 2.2773388e-38
0.055990051 -0.13766994 0.021725699 2.2681193e-38
0.05778734 -0.13766994 0.021725699 2.3418043e-38
0.059584629 -0.13766994 0.021725699 1.6042758e-38
-0.052123025 -0.14924543 -0.013239339 1.3439646e-38
-0.050264433 -0.14924543 -0.013239339 1.7403681e-38
-0.048392713 -0.14840777 -0.010243967 1.7867522e-38
-0.046539374 -0.14840777 -0.010243967 1.8518992e-38
-0.044683419 -0.14757483 -0.0072655231 1.9994492e-38
-0.042835303 -0.14757483 -0.0072655231 2.2571317e-38
-0.040987186 -0.14757483 -0.0072655231 2.2570615e-38
-0.039139066 -0.14757483 -0.0072655231 2.091326e-38
-0.037315831 -0.14644094 -0.0032109767 1.556808e-38
-0.035474822 -0.14644094 -0.0032109767 1.3633782e-38
-0.033691376 -0.1447715 0.0027586669 1.0315825e-38
-0.031860836 -0.1447715 0.0027586669 5.1532387e-39
-0.029990442 -0.14561899 -0.00027187169 2.3877313e-39
-0.028154586 -0.14561899 -0.00027187169 2.7550789e-39
-0.026369208 -0.1447715 0.0027586669 4.1358581e-39
-0.024538668 -0.1447715 0.0027586669 3.765275e-39
-0.022768879 -0.14392884 0.0057718009 3.7667071e-39
-0.020943621 -0.14392884 0.0057718009 3.8596174e-39
-0.019118361 -0.14392884 0.0057718009 3.1238446e-39
-0.017293101 -0.14392884 0.0057718009 3.7710077e-39
-0.015467843 -0.14392884 0.0057718009 4.5078496e-39
-0.013642583 -0.14392884 0.0057718009 3.9521549e-39
-0.011817325 -0.14392884 0.0057718009 5.426206e-39
-0.009992063 -0.14392884 0.0057718009 5.242905e-39
-0.0080637857 -0.1447715 0.0027586669 6.9042354e-39
-0.0062332451 -0.1447715 0.0027586669 5.2465259e-39
-0.0044027008 -0.1447715 0.0027586669 5.0642969e-39
-0.0025721602 -0.1447715 0.0027586669 5.3430417e-39
-0.00074161589 -0.1447715 0.0027586669 4.8845775e-39
0.00095948949 -0.14392884 0.0057718009 5.3473493e-39
0.0027847514 -0.14392884 0.0057718009 4.1495194e-39
0.0042881146 -0.14199139 0.012699768 5.0714757e-39
0.0059536137 -0.14113526 0.015761182 4.8863656e-39
0.0077613592 -0.14113526 0.015761182 5.5310189e-39
0.009569101 -0.14113526 0.015761182 6.2675106e-39
0.011376847 -0.14113526 0.015761182 6.1749632e-39
0.013184592 -0.14113526 0.015761182 7.280945e-39
0.014992338 -0.14113526 0.015761182 6.6344812e-39
0.016800079 -0.14113526 0.015761182 7.5567934e-39
0.018793009 -0.14199139 0.012699768 8.5727516e-39
0.020850882 -0.14309107 0.0087675303 7.9288242e-39
0.022670887 -0.14309107 0.0087675303 9.3124747e-39
0.024490893 -0.14309107 0.0087675303 8.2983199e-39
0.026310898 -0.14309107 0.0087675303 9.9567623e-39
0.02785857 -0.14199139 0.012699768 1.2167668e-38
0.029454291 -0.14113526 0.015761182 1.3824691e-38
0.03126204 -0.14113526 0.015761182 1.5851551e-38
0.033069782 -0.14113526 0.015761182 1.5852602e-38
0.034653395 -0.14031343 0.01869981 1.5760407e-38
0.036455989 -0.14031343 0.01869981 1.7052254e-38
0.038258582 -0.14031343 0.01869981 1.7976731e-38
0.040061172 -0.14031343 0.01869981 1.8901549e-38
0.041863766 -0.14031343 0.01869981 2.0561781e-38
0.043666359 -0.14031343 0.01869981 2.1667415e-38
0.045468953 -0.14031343 0.01869981 2.1020969e-38
0.047271546 -0.14031343 0.01869981 2.1481585e-38
0.049074139 -0.14031343 0.01869981 2.1020601e-38
0.050876733 -0.14031343 0.01869981 2.1942194e-38
0.052679311 -0.14031343 0.01869981 2.3141092e-38
0.054481905 -0.14031343 0.01869981 2.3509873e-38
0.055990051 -0.13946722 0.021725699 2.341804e-38
0.05778734 -0.13946722 0.021725699 2.2866308e-38
-0.044683419 -0.14942293 -0.0072655231 2.0452245e-38
-0.042835303 -0.14942293 -0.0072655231 2.1277693e-38
-0.040987186 -0.14942293 -0.0072655231 2.0353944e-38
-0.039139066 -0.14942293 -0.0072655231 1.8511838e-38
-0.037315831 -0.14828195 -0.0032109767 1.4826179e-38
-0.035498008 -0.14745484 -0.00027187169 1.2431262e-38
-0.033691376 -0.14660202 0.0027586669 5.8871828e-39
-0.031860836 -0.14660202 0.0027586669 5.5205666e-39
-0.030030293 -0.14660202 0.0027586669 3.3096778e-39
-0.028154586 -0.14745484 -0.00027187169 3.4025951e-39
-0.026369208 -0.14660202 0.0027586669 3.9572108e-39
-0.024538668 -0.14660202 0.0027586669 3.4962327e-39
-0.022768879 -0.14575411 0.0057718009 3.4969487e-39
-0.020943621 -0.14575411 0.0057718009 4.5121797e-39
-0.019118361 -0.14575411 0.0057718009 4.0519148e-39
-0.017293101 -0.14575411 0.0057718009 2.8544492e-39
-0.015467843 -0.14575411 0.0057718009 3.4068999e-39
-0.013642583 -0.14575411 0.0057718009 3.5891275e-39
-0.011817325 -0.14575411 0.0057718009 4.4185281e-39
-0.009992063 -0.14575411 0.0057718009 2.4824297e-39
-0.0080637857 -0.14660202 0.0027586669 3.0359678e-39
-0.0062332451 -0.14660202 0.0027586669 3.2210863e-39
-0.0044027008 -0.14660202 0.0027586669 9.1835496e-40
-0.0026910268 -0.14575411 0.0057718009 7.3468397e-40
-0.00086576864 -0.14575411 0.0057718009 8.2651947e-40
0.00095948949 -0.14575411 0.0057718009 2.7626291e-39
0.0027847514 -0.14575411 0.0057718009 1.2878549e-39
0.0044708177 -0.14491107 0.0087675303 6.4356594e-40
0.0061012246 -0.14380451 0.012699768 1.5651649e-39
0.0079143383 -0.14380451 0.012699768 2.2094609e-39
0.0097274482 -0.14380451 0.012699768 1.6559326e-39
0.011376847 -0.14294298 0.015761182 1.471191e-39
0.013184592 -0.14294298 0.015761182 2.1161947e-39
0.014992338 -0.14294298 0.015761182 1.7466751e-39
0.016800079 -0.14294298 0.015761182 2.1158093e-39
0.018793009 -0.14380451 0.012699768 2.5775134e-39
0.020606123 -0.14380451 0.012699768 3.0388516e-39
0.022670887 -0.14491107 0.0087675303 3.3161574e-39
0.02423235 -0.14380451 0.012699768 3.7771356e-39
0.026045457 -0.14380451 0.012699768 4.6990918e-39
0.02785857 -0.14380451 0.012699768 5.7125263e-39
0.029454291 -0.14294298 0.015761182 6.9107164e-39
0.03126204 -0.14294298 0.015761182 7.0954636e-39
0.033069782 -0.14294298 0.015761182 7.3724022e-39
0.034877524 -0.14294298 0.015761182 7.8333803e-39
0.036685273 -0.14294298 0.015761182 8.5709566e-39
0.038258582 -0.14211603 0.01869981 9.4025151e-39
0.040061172 -0.14211603 0.01869981 1.0141154e-38
0.041863766 -0.14211603 0.01869981 1.0510299e-38
0.043666359 -0.14211603 0.01869981 1.1892883e-38
0.045468953 -0.14211603 0.01869981 1.032484e-38
0.047271546 -0.14211603 0.01869981 9.95497e-39
0.049074139 -0.14211603 0.01869981 1.0784005e-38
0.050876733 -0.14211603 0.01869981 1.1613398e-38
0.052679311 -0.14211603 0.01869981 2.2493199e-38
0.054481905 -0.14211603 0.01869981 2.2955619e-38
0.056284498 -0.14211603 0.01869981 2.2681193e-38
0.058087092 -0.14211603 0.01869981 2.1301144e-38
-0.035498008 -0.14929073 -0.00027187169 1.1324553e-38
-0.033691376 -0.14843257 0.0027586669 3.9514375e-39
-0.031860836 -0.14843257 0.0027586669 3.5851745e-39
-0.030030293 -0.14843257 0.0027586669 2.7575774e-39
-0.028199751 -0.14843257 0.0027586669 2.1150905e-39
-0.026369208 -0.14843257 0.0027586669 2.5775106e-39
-0.024538668 -0.14843257 0.0027586669 1.933223e-39
-0.022768879 -0.14757936 0.0057718009 1.2889297e-39
-0.020943621 -0.14757936 0.0057718009 1.9342992e-39
-0.019118361 -0.14757936 0.0057718009 1.5662327e-39
-0.017293101 -0.14757936 0.0057718009 1.1978075e-39
-0.015467843 -0.14757936 0.0057718009 2.1190421e-39
-0.013642583 -0.14757936 0.0057718009 2.1179561e-39
-0.011817325 -0.14757936 0.0057718009 3.5923673e-39
-0.009992063 -0.14757936 0.0057718009 2.8544492e-39
-0.0081668049 -0.14757936 0.0057718009 3.8682466e-39
-0.0063415468 -0.14757936 0.0057718009 4.421426e-39
-0.0044027008 -0.14843257 0.0027586669 2.8537429e-39
-0.0026910268 -0.14757936 0.0057718009 2.9466574e-39
-0.00086576864 -0.14757936 0.0057718009 3.4998312e-39
0.00095948949 -0.14757936 0.0057718009 3.4076356e-39
0.0027847514 -0.14757936 0.0057718009 2.6700691e-39
0.0044708177 -0.14673109 0.0087675303 1.8410287e-39
0.0062908232 -0.14673109 0.0087675303 1.4718903e-39
0.0081108324 -0.14673109 0.0087675303 1.2875046e-39
0.0097274482 -0.14561762 0.012699768 1.1949545e-39
0.011540562 -0.14561762 0.012699768 1.1946041e-39
0.013184592 -0.14475073 0.015761182 1.3786297e-39
0.014992338 -0.14475073 0.015761182 1.1938615e-39
0.016800079 -0.14475073 0.015761182 1.6544753e-39
0.018607825 -0.14475073 0.015761182 1.8385064e-39
0.020606123 -0.14561762 0.012699768 1.3778912e-39
0.022419237 -0.14561762 0.012699768 1.2856969e-39
0.02423235 -0.14561762 0.012699768 1.2867731e-39
0.025838807 -0.14475073 0.015761182 1.2867731e-39
0.027646549 -0.14475073 0.015761182 1.0109079e-39
0.029454291 -0.14475073 0.015761182 1.1027434e-39
0.03126204 -0.14475073 0.015761182 1.1960138e-39
0.033069782 -0.14475073 0.015761182 1.1956579e-39
0.034653395 -0.14391862 0.01869981 9.2015002e-40
0.036455989 -0.14391862 0.01869981 1.1045413e-39
0.038258582 -0.14391862 0.01869981 1.381847e-39
0.040061172 -0.14391862 0.01869981 1.2896514e-39
0.041863766 -0.14391862 0.01869981 7.372021e-40
0.043666359 -0.14391862 0.01869981 9.1841101e-41
0.045468953 -0.14391862 0.01869981 2.7551209e-40
0.047271546 -0.14391862 0.01869981 5.5101298e-40
0.049074139 -0.14391862 0.01869981 7.3468397e-40
0.050876733 -0.14391862 0.01869981 4.3295807e-39
0.052679311 -0.14391862 0.01869981 2.0003555e-38
0.054481905 -0.14391862 0.01869981 2.1941823e-38
-0.031895176 -0.14940463 0.0057718009 2.9430477e-39
-0.030069917 -0.14940463 0.0057718009 3.2214408e-39
-0.028244657 -0.14940463 0.0057718009 1.4711658e-39
-0.026419397 -0.14940463 0.0057718009 1.9332244e-39
-0.024594139 -0.14940463 0.0057718009 1.2892941e-39
-0.022768879 -0.14940463 0.0057718009 7.361203e-40
-0.021009278 -0.14855109 0.0087675303 9.2086609e-40
-0.01918927 -0.14855109 0.0087675303 8.2974806e-40
-0.017369263 -0.14855109 0.0087675303 1.1985292e-39
-0.015467843 -0.14940463 0.0057718009 2.5807406e-39
-0.013642583 -0.14940463 0.0057718009 1.5651495e-39
-0.011817325 -0.14940463 0.0057718009 2.670774e-39
-0.009992063 -0.14940463 0.0057718009 2.1172457e-39
-0.0081668049 -0.14940463 0.0057718009 2.5782294e-39
-0.0063415468 -0.14940463 0.0057718009 2.9473763e-39
-0.0045162886 -0.14940463 0.0057718009 2.0250641e-39
-0.0026910268 -0.14940463 0.0057718009 1.8406728e-39
-0.00086576864 -0.14940463 0.0057718009 1.7484772e-39
0.00095948949 -0.14940463 0.0057718009 2.026499e-39
0.0027847514 -0.14940463 0.0057718009 2.3952815e-39
0.0044708177 -0.14855109 0.0087675303 2.1186946e-39
0.0062908232 -0.14855109 0.0087675303 1.1963824e-39
0.0079143383 -0.14743073 0.012699768 7.3540984e-40
0.0097274482 -0.14743073 0.012699768 1.0116422e-39
0.011376847 -0.14655848 0.015761182 1.0120079e-39
0.013184592 -0.14655848 0.015761182 9.1909064e-40
0.014992338 -0.14655848 0.015761182 1.9325083e-39
0.016800079 -0.14655848 0.015761182 2.3931221e-39
0.018607825 -0.14655848 0.015761182 2.4842387e-39
0.020415567 -0.14655848 0.015761182 1.7477527e-39
0.022223316 -0.14655848 0.015761182 1.7477527e-39
0.024031058 -0.14655848 0.015761182 1.8403085e-39
0.025838807 -0.14655848 0.015761182 1.2871347e-39
0.027646549 -0.14655848 0.015761182 5.5101298e-40
0.029454291 -0.14655848 0.015761182 7.3468397e-40
0.03126204 -0.14655848 0.015761182 9.2015002e-40
0.033069782 -0.14655848 0.015761182 8.279558e-40
0.034653395 -0.14572121 0.01869981 2.7550649e-40
0.036455989 -0.14572121 0.01869981 6.4392467e-40
0.038258582 -0.14572121 0.01869981 1.1059818e-39
0.040061172 -0.14572121 0.01869981 7.371993e-40
0.041863766 -0.14572121 0.01869981 0
0.043666359 -0.14572121 0.01869981 2.8025969e-45
0.045468953 -0.14572121 0.01869981 1.0134359e-39
0.047271546 -0.14572121 0.01869981 1.2889339e-39
0.049074139 -0.14572121 0.01869981 8.2723693e-40
0.050876733 -0.14572121 0.01869981 3.9615156e-39
0.052679311 -0.14572121 0.01869981 1.9727687e-38
0.054481905 -0.14572121 0.01869981 2.1112062e-38
0.056284498 -0.14572121 0.01869981 1.7887743e-38
0.05778734 -0.14485909 0.021725699 1.7797712e-38
0.059889685 -0.14572121 0.01869981 1.6416583e-38
0.061692279 -0.14572121 0.01869981 1.5403155e-38
0.063494876 -0.14572121 0.01869981 1.6231837e-38
0.064024776 -0.14230286 0.030697629 1.6138557e-38
0.065806329 -0.14230286 0.030697629 1.0051482e-38
0.0061012246 -0.14924385 0.012699768 2.1201337e-39
0.0079143383 -0.14924385 0.012699768 1.6588025e-39
0.009569101 -0.14836623 0.015761182 1.6588081e-39
0.011376847 -0.14836623 0.015761182 1.7506492e-39
0.013184592 -0.14836623 0.015761182 1.9343174e-39
0.014992338 -0.14836623 0.015761182 1.6562815e-39
0.016627476 -0.14752381 0.01869981 1.4715259e-39
0.018430069 -0.14752381 0.01869981 1.3793317e-39
0.020232663 -0.14752381 0.01869981 1.5637216e-39
0.022223316 -0.14836623 0.015761182 1.9332244e-39
