# .PCD v0.7 - Point Cloud Data file format
VERSION 0.7
FIELDS x y z rgb
SIZE 4 4 4 4
TYPE F F F F
COUNT 1 1 1 1
WIDTH 877
HEIGHT 1
VIEWPOINT 0 0 0 1 0 0 0
POINTS 877
DATA ascii
0.0093693016 -0.12230973 -0.028437532 4.2377592e-39
0.011343732 -0.12230973 -0.028437532 4.4214372e-39
0.0093693016 -0.12428416 -0.028437532 6.4504571e-39
0.011343732 -0.12428416 -0.028437532 5.0668094e-39
0.013199604 -0.12355967 -0.025432266 6.2653526e-39
0.015168766 -0.12355967 -0.025432266 1.4562959e-38
0.017137926 -0.12355967 -0.025432266 1.1889996e-38
0.019107088 -0.12355967 -0.025432266 1.0877278e-38
0.0092612831 -0.12552883 -0.025432266 1.1059876e-38
0.011230442 -0.12552883 -0.025432266 9.3996382e-39
0.013199604 -0.12552883 -0.025432266 6.6337694e-39
0.015168766 -0.12552883 -0.025432266 8.2018111e-39
0.017137926 -0.12552883 -0.025432266 8.4794686e-39
0.022853404 -0.1245618 -0.02145008 5.806496e-39
0.024815582 -0.1245618 -0.02145008 6.2649588e-39
0.026983734 -0.12552883 -0.025432266 5.711069e-39
0.028952893 -0.12552883 -0.025432266 6.4464816e-39
0.030922055 -0.12552883 -0.025432266 5.8014723e-39
0.032891218 -0.12552883 -0.025432266 5.2522432e-39
0.034860376 -0.12552883 -0.025432266 4.3309974e-39
0.036829542 -0.12552883 -0.025432266 4.6079402e-39
0.055690877 -0.12915494 -0.04036466 6.9142869e-39
-0.0068878857 -0.12307997 -0.0073693162 1.8347644e-38
-0.0049503958 -0.12307997 -0.0073693162 7.3792531e-39
-0.0030129058 -0.12307997 -0.0073693162 6.1821617e-39
-0.001075414 -0.12307997 -0.0073693162 5.8140868e-39
0.00086207595 -0.12307997 -0.0073693162 6.3661522e-39
0.0027995659 -0.12307997 -0.0073693162 5.8115252e-39
0.0048353663 -0.12382124 -0.010400093 6.2699937e-39
0.0067781722 -0.12382124 -0.010400093 8.5730922e-39
0.0089716045 -0.12552677 -0.017373003 1.0599246e-38
0.010926637 -0.12552677 -0.017373003 1.2442443e-38
0.013042509 -0.12652399 -0.02145008 1.2258052e-38
0.015004686 -0.12652399 -0.02145008 8.4780281e-39
0.016966864 -0.12652399 -0.02145008 6.0820123e-39
0.018615015 -0.12480606 -0.014426387 4.5157586e-39
0.020891223 -0.12652399 -0.02145008 4.8845369e-39
0.022853404 -0.12652399 -0.02145008 6.2671112e-39
0.024815582 -0.12652399 -0.02145008 5.8965308e-39
0.026983734 -0.12749799 -0.025432266 5.7103445e-39
0.028952893 -0.12749799 -0.025432266 6.5379486e-39
0.030922055 -0.12749799 -0.025432266 5.8936582e-39
0.032891218 -0.12749799 -0.025432266 4.4213979e-39
0.034860376 -0.12749799 -0.025432266 3.8696563e-39
0.036829542 -0.12749799 -0.025432266 5.6213718e-39
0.038798701 -0.12749799 -0.025432266 6.4504094e-39
0.04076786 -0.12749799 -0.025432266 5.896514e-39
0.043458376 -0.13018142 -0.036403455 4.6050521e-39
0.045172695 -0.12918831 -0.032343186 4.6050521e-39
0.047153976 -0.12918831 -0.032343186 8.569467e-39
0.049423572 -0.13018142 -0.036403455 6.357495e-39
0.051411968 -0.13018142 -0.036403455 6.8191948e-39
0.053695537 -0.13115029 -0.04036466 6.2663895e-39
0.055690877 -0.13115029 -0.04036466 7.0050406e-39
0.057686232 -0.13115029 -0.04036466 7.7433315e-39
-0.012832317 -0.12306587 0.00055285636 1.8432241e-38
-0.010908714 -0.12306587 0.00055285636 2.3509129e-38
-0.0089851143 -0.12306587 0.00055285636 2.3414779e-38
-0.0070615141 -0.12306587 0.00055285636 2.3325478e-38
-0.0050444929 -0.12403814 -0.0033939248 1.8165773e-38
-0.003113973 -0.12403814 -0.0033939248 9.224972e-39
-0.001183453 -0.12403814 -0.0033939248 8.6728716e-39
0.00086207595 -0.12501745 -0.0073693162 5.4442001e-39
0.0027995659 -0.12501745 -0.0073693162 5.9955648e-39
0.0048353663 -0.12576406 -0.010400093 6.7316893e-39
0.0067781722 -0.12576406 -0.010400093 6.9142827e-39
0.0088656945 -0.12675591 -0.014426387 6.9121247e-39
0.010926637 -0.1274818 -0.017373003 1.0230807e-38
0.012881665 -0.1274818 -0.017373003 1.4010828e-38
0.014715287 -0.12675591 -0.014426387 1.2812285e-38
0.016665153 -0.12675591 -0.014426387 7.4652999e-39
0.018615015 -0.12675591 -0.014426387 5.344799e-39
0.020891223 -0.12848614 -0.02145008 5.4369946e-39
0.022853404 -0.12848614 -0.02145008 5.9898054e-39
0.024815582 -0.12848614 -0.02145008 5.5273854e-39
0.026777763 -0.12848614 -0.02145008 5.9869216e-39
0.02873994 -0.12848614 -0.02145008 7.183304e-39
0.030922055 -0.12946714 -0.025432266 7.3684141e-39
0.032891218 -0.12946714 -0.025432266 7.2794541e-39
0.034860376 -0.12946714 -0.025432266 6.4514884e-39
0.036829542 -0.12946714 -0.025432266 7.3723629e-39
0.038798701 -0.12946714 -0.025432266 8.0173694e-39
0.04076786 -0.12946714 -0.025432266 7.4631152e-39
0.042737026 -0.12946714 -0.025432266 5.5266469e-39
0.044909049 -0.13020746 -0.028437532 5.2500572e-39
0.046883482 -0.13020746 -0.028437532 8.2003201e-39
0.048857909 -0.13020746 -0.028437532 7.0014196e-39
0.050832342 -0.13020746 -0.028437532 7.0017854e-39
0.05340036 -0.13216983 -0.036403455 7.647882e-39
0.055388756 -0.13216983 -0.036403455 8.2025006e-39
0.057686232 -0.13314565 -0.04036466 8.2954263e-39
0.059681572 -0.13314565 -0.04036466 1.0508846e-38
-0.037795529 -0.12322696 0.0076570148 8.5676775e-39
-0.035884384 -0.12322696 0.0076570148 1.0134282e-38
-0.033973239 -0.12322696 0.0076570148 1.160797e-38
-0.012832317 -0.12498946 0.00055285636 1.6492879e-38
-0.010908714 -0.12498946 0.00055285636 2.2763627e-38
-0.0089851143 -0.12498946 0.00055285636 2.3505523e-38
-0.0070615141 -0.12498946 0.00055285636 2.350986e-38
-0.0051379139 -0.12498946 0.00055285636 2.2590439e-38
-0.0032143136 -0.12498946 0.00055285636 2.0657583e-38
-0.001183453 -0.12596865 -0.0033939248 1.0516784e-38
0.00074706879 -0.12596865 -0.0033939248 7.8409361e-39
0.0027995659 -0.12695493 -0.0073693162 7.9313227e-39
0.0048353663 -0.12770687 -0.010400093 7.1926674e-39
0.0067781722 -0.12770687 -0.010400093 7.0990243e-39
0.0088656945 -0.12870578 -0.014426387 8.1113699e-39
0.01081556 -0.12870578 -0.014426387 8.848572e-39
0.012765422 -0.12870578 -0.014426387 1.0969074e-38
0.014715287 -0.12870578 -0.014426387 1.4564348e-38
0.016492195 -0.12770687 -0.010400093 1.1337871e-38
0.018435001 -0.12770687 -0.010400093 7.9262766e-39
0.020891223 -0.13044833 -0.02145008 6.174561e-39
0.022853404 -0.13044833 -0.02145008 5.3444388e-39
0.024815582 -0.13044833 -0.02145008 5.8950889e-39
0.026777763 -0.13044833 -0.02145008 7.3694917e-39
0.02873994 -0.13044833 -0.02145008 8.8431742e-39
0.030702118 -0.13044833 -0.02145008 1.0319022e-38
0.032891218 -0.1314363 -0.025432266 7.648231e-39
0.034860376 -0.1314363 -0.025432266 7.9266157e-39
0.036829542 -0.1314363 -0.025432266 8.2939563e-39
0.038798701 -0.1314363 -0.025432266 9.0304409e-39
0.04076786 -0.1314363 -0.025432266 1.0781795e-38
0.042737026 -0.1314363 -0.025432266 1.2256562e-38
0.044909049 -0.1321819 -0.028437532 1.2901932e-38
0.046883482 -0.1321819 -0.028437532 1.3639497e-38
0.048857909 -0.1321819 -0.028437532 1.3453673e-38
0.050832342 -0.1321819 -0.028437532 1.3177811e-38
0.05340036 -0.13415821 -0.036403455 1.4377439e-38
0.055388756 -0.13415821 -0.036403455 1.4470361e-38
0.057686232 -0.13514097 -0.04036466 1.2719735e-38
0.059927754 -0.13590656 -0.043450512 1.465657e-38
0.061928503 -0.13590656 -0.043450512 1.3827535e-38
-0.039706673 -0.12513812 0.0076570148 9.1212086e-39
-0.037795529 -0.12513812 0.0076570148 1.0317228e-38
-0.035884384 -0.12513812 0.0076570148 1.2897623e-38
-0.033973239 -0.12513812 0.0076570148 1.6123028e-38
-0.03015352 -0.12440531 0.010589921 1.4279119e-38
-0.012766576 -0.12789918 -0.0033939248 1.1603617e-38
-0.010836055 -0.12789918 -0.0033939248 1.5938618e-38
-0.0089055346 -0.12789918 -0.0033939248 2.0643846e-38
-0.0069750147 -0.12789918 -0.0033939248 2.3509853e-38
-0.0051379139 -0.12691309 0.00055285636 2.3418035e-38
-0.0032143136 -0.12691309 0.00055285636 2.1947958e-38
-0.001183453 -0.12789918 -0.0033939248 1.7338541e-38
0.00074706879 -0.12789918 -0.0033939248 1.2265619e-38
0.0027995659 -0.12889244 -0.0073693162 8.668536e-39
0.0048353663 -0.12964968 -0.010400093 7.8380368e-39
0.0067781722 -0.12964968 -0.010400093 7.7447454e-39
0.0088656945 -0.13065563 -0.014426387 8.112072e-39
0.01081556 -0.13065563 -0.014426387 7.8351207e-39
0.012765422 -0.13065563 -0.014426387 9.7701514e-39
0.014549389 -0.12964968 -0.010400093 1.5671403e-38
0.016492195 -0.12964968 -0.010400093 1.3458365e-38
0.018435001 -0.12964968 -0.010400093 1.0692147e-38
0.020377804 -0.12964968 -0.010400093 8.9393607e-39
0.022514746 -0.13065563 -0.014426387 7.0947251e-39
0.024611849 -0.13139187 -0.017373003 7.1851116e-39
0.026566882 -0.13139187 -0.017373003 7.9219396e-39
0.02852191 -0.13139187 -0.017373003 8.2896291e-39
0.030702118 -0.13241051 -0.02145008 1.0595596e-38
0.032664295 -0.13241051 -0.02145008 1.1059824e-38
0.03462648 -0.13241051 -0.02145008 1.1522245e-38
0.036588658 -0.13241051 -0.02145008 1.0875433e-38
0.038550835 -0.13241051 -0.02145008 1.0690318e-38
0.040513013 -0.13241051 -0.02145008 1.2072887e-38
0.042737026 -0.13340546 -0.025432266 1.3639494e-38
0.044706184 -0.13340546 -0.025432266 1.4836958e-38
0.046675343 -0.13340546 -0.025432266 1.5021349e-38
0.048857909 -0.13415633 -0.028437532 1.6219179e-38
0.050832342 -0.13415633 -0.028437532 1.5758565e-38
0.05340036 -0.13614662 -0.036403455 1.585185e-38
0.055388756 -0.13614662 -0.036403455 1.5483434e-38
0.057377152 -0.13614662 -0.036403455 1.2995243e-38
0.059681572 -0.13713633 -0.04036466 1.3272555e-38
0.061928503 -0.13790731 -0.043450512 1.3181446e-38
0.063929252 -0.13790731 -0.043450512 8.0195751e-39
-0.041656528 -0.12805928 0.0036426419 1.419124e-38
-0.039706673 -0.12704925 0.0076570148 1.9906281e-38
-0.037795529 -0.12704925 0.0076570148 1.9166551e-38
-0.035884384 -0.12704925 0.0076570148 1.8796327e-38
-0.033973239 -0.12704925 0.0076570148 1.7597421e-38
-0.032059524 -0.12631132 0.010589921 1.3264592e-38
-0.03015352 -0.12631132 0.010589921 1.5662405e-38
-0.016535487 -0.13159247 -0.010400093 9.9448316e-39
-0.01459268 -0.13159247 -0.010400093 6.4428368e-39
-0.012700359 -0.13082992 -0.0073693162 2.5724701e-39
-0.010762868 -0.13082992 -0.0073693162 6.6290246e-39
-0.0089055346 -0.12982969 -0.0033939248 1.6311728e-38
-0.0069750147 -0.12982969 -0.0033939248 1.8341132e-38
-0.0051379139 -0.12883668 0.00055285636 2.304708e-38
-0.0032143136 -0.12883668 0.00055285636 2.2867029e-38
-0.001183453 -0.12982969 -0.0033939248 2.2775202e-38
0.00074706879 -0.12982969 -0.0033939248 2.092985e-38
0.0027995659 -0.13082992 -0.0073693162 1.1708478e-38
0.0047370596 -0.13082992 -0.0073693162 1.1154922e-38
0.0067781722 -0.13159247 -0.010400093 1.28137e-38
0.0088656945 -0.13260551 -0.014426387 1.262857e-38
0.01081556 -0.13260551 -0.014426387 1.3549439e-38
0.012606586 -0.13159247 -0.010400093 1.3088104e-38
0.014549389 -0.13159247 -0.010400093 1.4194102e-38
0.016492195 -0.13159247 -0.010400093 1.5024603e-38
0.018435001 -0.13159247 -0.010400093 1.4563999e-38
0.020377804 -0.13159247 -0.010400093 1.4932074e-38
0.022514746 -0.13260551 -0.014426387 1.3640612e-38
0.024464607 -0.13260551 -0.014426387 1.3270739e-38
0.026566882 -0.13334687 -0.017373003 1.2624993e-38
0.02852191 -0.13334687 -0.017373003 1.1979248e-38
0.030476943 -0.13334687 -0.017373003 1.5113897e-38
0.032431971 -0.13334687 -0.017373003 1.3640573e-38
0.03462648 -0.1343727 -0.02145008 1.3457626e-38
0.036588658 -0.1343727 -0.02145008 1.2074329e-38
0.038550835 -0.1343727 -0.02145008 1.1520073e-38
0.040513013 -0.1343727 -0.02145008 1.1611909e-38
0.042475197 -0.1343727 -0.02145008 1.1979972e-38
0.044706184 -0.13537462 -0.025432266 1.4377062e-38
0.046675343 -0.13537462 -0.025432266 1.6589401e-38
0.048857909 -0.13613077 -0.028437532 1.6681601e-38
0.050832342 -0.13613077 -0.028437532 1.5944045e-38
0.053097807 -0.13711344 -0.032343186 1.5022453e-38
0.05507908 -0.13711344 -0.032343186 1.46544e-38
0.057377152 -0.138135 -0.036403455 1.2995243e-38
0.059681572 -0.13913165 -0.04036466 1.2534267e-38
0.061676912 -0.13913165 -0.04036466 1.4470021e-38
0.063672252 -0.13913165 -0.04036466 1.4195598e-38
0.065667592 -0.13913165 -0.04036466 7.5600416e-39
-0.045309812 -0.12645011 0.017565094 8.7535247e-39
-0.043574713 -0.12997745 0.0036426419 1.1056239e-38
-0.041656528 -0.12997745 0.0036426419 1.3912481e-38
-0.039706673 -0.12896039 0.0076570148 1.796835e-38
-0.037795529 -0.12896039 0.0076570148 2.1562889e-38
-0.035884384 -0.12896039 0.0076570148 2.2207537e-38
-0.033973239 -0.12896039 0.0076570148 1.9994492e-38
-0.032059524 -0.12821732 0.010589921 1.7875078e-38
-0.03015352 -0.12821732 0.010589921 1.4834436e-38
-0.016482539 -0.13455538 -0.014426387 7.5517362e-39
-0.01459268 -0.13353528 -0.010400093 4.0551518e-39
-0.012649876 -0.13353528 -0.010400093 7.3863003e-40
-0.010707072 -0.13353528 -0.010400093 1.7506141e-39
-0.0089055346 -0.13176022 -0.0033939248 1.2534231e-38
-0.0069750147 -0.13176022 -0.0033939248 1.8522995e-38
-0.0051379139 -0.13076027 0.00055285636 2.3504814e-38
-0.0032143136 -0.13076027 0.00055285636 2.3509866e-38
-0.001183453 -0.13176022 -0.0033939248 2.2958859e-38
0.00074706879 -0.13176022 -0.0033939248 2.3047463e-38
0.0027995659 -0.13276742 -0.0073693162 1.8803939e-38
0.0047370596 -0.13276742 -0.0073693162 1.2165471e-38
0.0066745495 -0.13276742 -0.0073693162 1.4654014e-38
0.0087209744 -0.13353528 -0.010400093 1.5851462e-38
0.01066378 -0.13353528 -0.010400093 1.5850371e-38
0.012606586 -0.13353528 -0.010400093 1.5758176e-38
0.014549389 -0.13353528 -0.010400093 1.6773055e-38
0.016492195 -0.13353528 -0.010400093 1.7972335e-38
0.018435001 -0.13353528 -0.010400093 1.6590131e-38
0.02056488 -0.13455538 -0.014426387 1.6591577e-38
0.02232061 -0.13353528 -0.010400093 1.4471078e-38
0.024263415 -0.13353528 -0.010400093 1.2996302e-38
0.026206218 -0.13353528 -0.010400093 1.4010085e-38
0.028364338 -0.13455538 -0.014426387 1.3640929e-38
0.0303142 -0.13455538 -0.014426387 1.2073239e-38
0.032264065 -0.13455538 -0.014426387 1.2995911e-38
0.034213927 -0.13455538 -0.014426387 1.3825672e-38
0.036342036 -0.1353019 -0.017373003 1.2902999e-38
0.038297068 -0.1353019 -0.017373003 1.3917151e-38
0.040252093 -0.1353019 -0.017373003 1.2626058e-38
0.042475197 -0.13633488 -0.02145008 1.2256922e-38
0.044706184 -0.13734378 -0.025432266 1.474765e-38
0.046675343 -0.13734378 -0.025432266 1.5208997e-38
0.048644509 -0.13734378 -0.025432266 1.539376e-38
0.050613668 -0.13734378 -0.025432266 1.484095e-38
0.053097807 -0.13909473 -0.032343186 1.3550577e-38
0.05507908 -0.13909473 -0.032343186 1.3549858e-38
0.057060368 -0.13909473 -0.032343186 1.2718659e-38
0.059365563 -0.14012341 -0.036403455 1.1611589e-38
0.061676912 -0.14112701 -0.04036466 1.3270026e-38
0.063672252 -0.14112701 -0.04036466 1.4469657e-38
-0.047203586 -0.1283439 0.017565094 3.1350144e-39
-0.045309812 -0.1283439 0.017565094 5.0689534e-39
-0.043416042 -0.1283439 0.017565094 3.3143371e-39
-0.041522268 -0.1283439 0.017565094 9.1208289e-39
-0.039706673 -0.13087155 0.0076570148 1.4835138e-38
-0.037777528 -0.13012333 0.010589921 1.8889929e-38
-0.035871528 -0.13012333 0.010589921 2.2760342e-38
-0.033973239 -0.13087155 0.0076570148 2.3500793e-38
-0.032059524 -0.13012333 0.010589921 2.3499006e-38
-0.03015352 -0.13012333 0.010589921 1.935274e-38
-0.028239805 -0.13087155 0.0076570148 8.7563736e-39
-0.016482539 -0.13650523 -0.014426387 4.695129e-39
-0.01459268 -0.13547809 -0.010400093 2.8598694e-39
-0.012649876 -0.13547809 -0.010400093 1.2961338e-39
-0.010707072 -0.13547809 -0.010400093 3.8739849e-39
-0.0088253776 -0.1347049 -0.0073693162 1.2258731e-38
-0.0069750147 -0.13369073 -0.0033939248 1.7506681e-38
-0.0051379139 -0.13268389 0.00055285636 2.3502645e-38
-0.0032143136 -0.13268389 0.00055285636 2.3509859e-38
-0.0012907116 -0.13268389 0.00055285636 2.350987e-38
0.00063288864 -0.13268389 0.00055285636 2.3509517e-38
0.0026775887 -0.13369073 -0.0033939248 2.3509153e-38
0.0046081087 -0.13369073 -0.0033939248 2.1660544e-38
0.0065386286 -0.13369073 -0.0033939248 2.0000643e-38
0.0086120395 -0.1347049 -0.0073693162 1.8801007e-38
0.01066378 -0.13547809 -0.010400093 1.870844e-38
0.012606586 -0.13547809 -0.010400093 1.9169418e-38
0.014549389 -0.13547809 -0.010400093 1.9723318e-38
0.016492195 -0.13547809 -0.010400093 1.6589401e-38
0.018435001 -0.13547809 -0.010400093 1.566853e-38
0.020377804 -0.13547809 -0.010400093 1.6037682e-38
0.02232061 -0.13547809 -0.010400093 1.6775965e-38
0.024263415 -0.13547809 -0.010400093 1.3918255e-38
0.026206218 -0.13547809 -0.010400093 1.2166171e-38
0.028149024 -0.13547809 -0.010400093 1.1981407e-38
0.03009183 -0.13547809 -0.010400093 1.198104e-38
0.032264065 -0.13650523 -0.014426387 1.3825307e-38
0.034213927 -0.13650523 -0.014426387 1.6037281e-38
0.036163796 -0.13650523 -0.014426387 1.8342174e-38
0.038297068 -0.13725694 -0.017373003 1.834182e-38
0.040252093 -0.13725694 -0.017373003 1.640536e-38
0.042207126 -0.13725694 -0.017373003 9.3995794e-39
0.044437375 -0.13829704 -0.02145008 9.4928652e-39
0.046399552 -0.13829704 -0.02145008 8.7563904e-39
0.048644509 -0.13931294 -0.025432266 8.0199156e-39
0.050613668 -0.13931294 -0.025432266 6.3607614e-39
0.053097807 -0.14107598 -0.032343186 5.8072317e-39
0.05507908 -0.14107598 -0.032343186 6.4522381e-39
0.057060368 -0.14107598 -0.032343186 6.173489e-39
0.059365563 -0.14211179 -0.036403455 5.7103459e-39
0.061676912 -0.14312236 -0.04036466 9.4892835e-39
0.063672252 -0.14312236 -0.04036466 1.6127733e-38
-0.047158953 -0.1294684 0.020559989 3.1389926e-39
-0.045309812 -0.13023765 0.017565094 2.8127704e-40
-0.043416042 -0.13023765 0.017565094 1.7553071e-39
-0.041522268 -0.13023765 0.017565094 4.6108213e-39
-0.039683532 -0.13202934 0.010589921 9.6779557e-39
-0.037777528 -0.13202934 0.010589921 1.9722222e-38
-0.035871528 -0.13202934 0.010589921 2.2853261e-38
-0.033973239 -0.13278268 0.0076570148 2.349791e-38
-0.032059524 -0.13202934 0.010589921 2.3498284e-38
-0.03015352 -0.13202934 0.010589921 2.0548774e-38
-0.028239805 -0.13278268 0.0076570148 1.0691408e-38
-0.016482539 -0.13845511 -0.014426387 5.0631926e-39
-0.014532675 -0.13845511 -0.014426387 4.4268294e-39
-0.012649876 -0.13742088 -0.010400093 2.6776263e-39
-0.010707072 -0.13742088 -0.010400093 4.4260923e-39
-0.0088253776 -0.13664238 -0.0073693162 9.8605772e-39
-0.0070615141 -0.13460748 0.00055285636 1.6676557e-38
-0.0051379139 -0.13460748 0.00055285636 2.3507681e-38
-0.0032143136 -0.13460748 0.00055285636 2.3509856e-38
-0.0013746833 -0.13381381 0.0036426419 2.2865218e-38
0.0005435003 -0.13381381 0.0036426419 2.3509879e-38
0.002556487 -0.13460748 0.00055285636 2.3232209e-38
0.0044800891 -0.13460748 0.00055285636 2.1755622e-38
0.0064036911 -0.13460748 0.00055285636 1.8435487e-38
0.0086120395 -0.13664238 -0.0073693162 1.9356351e-38
0.010549529 -0.13664238 -0.0073693162 1.990916e-38
0.012487019 -0.13664238 -0.0073693162 1.8802812e-38
0.014424513 -0.13664238 -0.0073693162 1.7328048e-38
0.016362004 -0.13664238 -0.0073693162 1.6406821e-38
0.018435001 -0.13742088 -0.010400093 1.5116447e-38
0.020377804 -0.13742088 -0.010400093 1.3733157e-38
0.02232061 -0.13742088 -0.010400093 1.483986e-38
0.024263415 -0.13742088 -0.010400093 1.2258015e-38
0.026206218 -0.13742088 -0.010400093 1.3455468e-38
0.028149024 -0.13742088 -0.010400093 1.4837312e-38
0.03009183 -0.13742088 -0.010400093 1.5759619e-38
0.032034632 -0.13742088 -0.010400093 1.7880117e-38
0.033977438 -0.13742088 -0.010400093 1.9355603e-38
0.036163796 -0.13845511 -0.014426387 2.2582094e-38
0.038113657 -0.13845511 -0.014426387 2.1475748e-38
0.040063519 -0.13845511 -0.014426387 2.0093542e-38
0.042207126 -0.13921197 -0.017373003 8.0159233e-39
0.044437375 -0.14025922 -0.02145008 6.6340818e-39
0.046399552 -0.14025922 -0.02145008 5.7132158e-39
0.04836173 -0.14025922 -0.02145008 5.0696554e-39
0.050613668 -0.1412821 -0.025432266 3.963675e-39
0.053097807 -0.14305727 -0.032343186 4.7019631e-39
0.05507908 -0.14305727 -0.032343186 5.3458934e-39
0.057060368 -0.14305727 -0.032343186 4.9756675e-39
0.059365563 -0.1441002 -0.036403455 3.4983738e-39
0.061676912 -0.14511769 -0.04036466 5.7099844e-39
0.063672252 -0.14511769 -0.04036466 1.4192347e-38
-0.047158953 -0.13135691 0.020559989 3.7529575e-40
-0.045270432 -0.13135691 0.020559989 1.0049832e-40
-0.043381911 -0.13135691 0.020559989 4.3418378e-39
-0.041522268 -0.13213144 0.017565094 5.9073362e-39
-0.039683532 -0.13393532 0.010589921 6.0873849e-39
-0.037777528 -0.13393532 0.010589921 9.5846755e-39
-0.035871528 -0.13393532 0.010589921 1.1513931e-38
-0.033973239 -0.13469382 0.0076570148 2.2018821e-38
-0.032062095 -0.13469382 0.0076570148 2.3500809e-38
-0.03015095 -0.13469382 0.0076570148 2.3504444e-38
-0.028239805 -0.13469382 0.0076570148 1.908014e-38
-0.012950647 -0.13469382 0.0076570148 6.271458e-39
-0.011039502 -0.13469382 0.0076570148 7.4667558e-39
-0.0089851143 -0.13653107 0.00055285636 7.8304838e-39
-0.0070615141 -0.13653107 0.00055285636 1.2618873e-38
-0.0052110488 -0.13573201 0.0036426419 2.3313564e-38
-0.0032928651 -0.13573201 0.0036426419 2.3507694e-38
-0.0013746833 -0.13573201 0.0036426419 2.3325835e-38
0.0005435003 -0.13573201 0.0036426419 2.3509879e-38
0.0024616821 -0.13573201 0.0036426419 2.3509879e-38
0.0043798676 -0.13573201 0.0036426419 2.3324756e-38
0.0062980494 -0.13573201 0.0036426419 1.4565081e-38
0.0084691523 -0.1375518 -0.0033939248 1.2997024e-38
0.010399672 -0.1375518 -0.0033939248 1.2720791e-38
0.012330192 -0.1375518 -0.0033939248 1.2075066e-38
0.014424513 -0.13857989 -0.0073693162 1.0415549e-38
0.016362004 -0.13857989 -0.0073693162 9.3092111e-39
0.018435001 -0.13936369 -0.010400093 8.5716474e-39
0.020236984 -0.13857989 -0.0073693162 7.1879941e-39
0.022174478 -0.13857989 -0.0073693162 7.4638565e-39
0.024111968 -0.13857989 -0.0073693162 9.6750985e-39
0.026049457 -0.13857989 -0.0073693162 2.0645285e-38
0.027986947 -0.13857989 -0.0073693162 2.3505858e-38
0.029924437 -0.13857989 -0.0073693162 2.3509811e-38
0.032034632 -0.13936369 -0.010400093 2.350909e-38
0.033977438 -0.13936369 -0.010400093 2.3506929e-38
0.035920244 -0.13936369 -0.010400093 2.3509811e-38
0.03786305 -0.13936369 -0.010400093 2.3504774e-38
0.039805856 -0.13936369 -0.010400093 2.3227115e-38
0.042207126 -0.141167 -0.017373003 9.4910534e-39
0.044437375 -0.14222141 -0.02145008 6.1731037e-39
0.046399552 -0.14222141 -0.02145008 4.7912595e-39
0.04836173 -0.14222141 -0.02145008 5.8994161e-39
0.050323907 -0.14222141 -0.02145008 5.1622182e-39
0.053097807 -0.14503856 -0.032343186 5.7161178e-39
0.05507908 -0.14503856 -0.032343186 4.6086913e-39
0.057377152 -0.14608859 -0.036403455 5.3448116e-39
0.059365563 -0.14608859 -0.036403455 5.4359268e-39
0.061676912 -0.14711304 -0.04036466 6.9088891e-39
0.063672252 -0.14711304 -0.04036466 1.502283e-38
-0.049047474 -0.13324542 0.020559989 2.1945095e-38
-0.045270432 -0.13324542 0.020559989 2.9607237e-39
-0.043381911 -0.13324542 0.020559989 4.1606948e-39
-0.041522268 -0.1340252 0.017565094 4.6209344e-39
-0.039683532 -0.13584132 0.010589921 3.3258572e-39
-0.037777528 -0.13584132 0.010589921 5.6238858e-39
-0.035871528 -0.13584132 0.010589921 4.0490127e-39
-0.033973239 -0.13660498 0.0076570148 1.2432288e-38
-0.032062095 -0.13660498 0.0076570148 2.1927011e-38
-0.03015095 -0.13660498 0.0076570148 2.3037715e-38
-0.028273739 -0.13324542 0.020559989 1.8157834e-38
-0.015009456 -0.1340252 0.017565094 6.452978e-39
-0.013115683 -0.1340252 0.017565094 6.4544102e-39
-0.011039502 -0.13660498 0.0076570148 7.4653167e-39
-0.0091283591 -0.13660498 0.0076570148 6.2624407e-39
-0.0072172144 -0.13660498 0.0076570148 1.114267e-38
-0.0053060697 -0.13660498 0.0076570148 2.2114304e-38
-0.0032928651 -0.13765021 0.0036426419 2.3506968e-38
-0.0013746833 -0.13765021 0.0036426419 2.350986e-38
0.0005435003 -0.13765021 0.0036426419 2.2864865e-38
0.0024616821 -0.13765021 0.0036426419 2.3234374e-38
0.0043798676 -0.13765021 0.0036426419 2.3234004e-38
0.0062980494 -0.13765021 0.0036426419 1.2262356e-38
0.0084691523 -0.1394823 -0.0033939248 1.060139e-38
0.010399672 -0.1394823 -0.0033939248 1.0970173e-38
0.012330192 -0.1394823 -0.0033939248 1.0970176e-38
0.014260712 -0.1394823 -0.0033939248 8.3887009e-39
0.016191233 -0.1394823 -0.0033939248 7.2823617e-39
0.018299494 -0.14051737 -0.0073693162 6.5444366e-39
0.020236984 -0.14051737 -0.0073693162 6.1742107e-39
0.022174478 -0.14051737 -0.0073693162 3.8682298e-39
0.024111968 -0.14051737 -0.0073693162 6.8163151e-39
0.026049457 -0.14051737 -0.0073693162 2.1473241e-38
0.027986947 -0.14051737 -0.0073693162 2.3502973e-38
0.029924437 -0.14051737 -0.0073693162 2.3506204e-38
0.031861927 -0.14051737 -0.0073693162 2.3509806e-38
0.033799421 -0.14051737 -0.0073693162 2.3508367e-38
0.035736915 -0.14051737 -0.0073693162 2.3507651e-38
0.03786305 -0.1413065 -0.010400093 2.3509454e-38
0.039805856 -0.1413065 -0.010400093 2.350694e-38
0.042013388 -0.14235483 -0.014426387 1.2072168e-38
0.044162158 -0.14312203 -0.017373003 6.7255544e-39
0.04611719 -0.14312203 -0.017373003 4.2380857e-39
0.04836173 -0.14418359 -0.02145008 4.5164816e-39
0.050323907 -0.14418359 -0.02145008 4.239906e-39
0.053097807 -0.14701982 -0.032343186 4.9781969e-39
0.05507908 -0.14701982 -0.032343186 3.6874581e-39
0.057060368 -0.14701982 -0.032343186 4.6079724e-39
0.059365563 -0.148077 -0.036403455 4.8831146e-39
0.061353959 -0.148077 -0.036403455 5.5266805e-39
0.063342355 -0.148077 -0.036403455 1.2718303e-38
-0.052824516 -0.13513394 0.020559989 2.3507374e-38
-0.049047474 -0.13513394 0.020559989 2.295672e-38
-0.047158953 -0.13513394 0.020559989 2.2316024e-38
-0.045270432 -0.13513394 0.020559989 2.066155e-38
-0.043381911 -0.13513394 0.020559989 2.8703119e-39
-0.041522268 -0.13591899 0.017565094 2.4086093e-39
-0.039683532 -0.13774733 0.010589921 4.6180506e-39
-0.037777528 -0.13774733 0.010589921 5.1647279e-39
-0.035884384 -0.13851611 0.0076570148 5.9887124e-39
-0.033973239 -0.13851611 0.0076570148 1.0131733e-38
-0.032062095 -0.13851611 0.0076570148 1.4647526e-38
-0.03016226 -0.13513394 0.020559989 1.2713615e-38
-0.028273739 -0.13513394 0.020559989 9.1230261e-39
-0.026385218 -0.13513394 0.020559989 7.102613e-39
-0.024496697 -0.13513394 0.020559989 8.9472445e-39
-0.020758279 -0.13408406 0.024565302 1.3361179e-38
-0.016903229 -0.13591899 0.017565094 8.3811955e-39
-0.015009456 -0.13591899 0.017565094 7.5578949e-39
-0.013115683 -0.13591899 0.017565094 7.1912563e-39
-0.011093498 -0.13774733 0.010589921 7.4645922e-39
-0.0091874963 -0.13774733 0.010589921 6.2624407e-39
-0.0072814925 -0.13774733 0.010589921 9.5749953e-39
-0.0053754905 -0.13774733 0.010589921 1.4646107e-38
-0.003394925 -0.13851611 0.0076570148 1.3084895e-38
-0.0013746833 -0.13956837 0.0036426419 1.0876527e-38
0.0005435003 -0.13956837 0.0036426419 9.7719997e-39
0.0024616821 -0.13956837 0.0036426419 7.0994152e-39
0.0043798676 -0.13956837 0.0036426419 6.0849004e-39
0.0064036911 -0.14037828 0.00055285636 3.0424418e-39
0.0083272895 -0.14037828 0.00055285636 6.728825e-39
0.010250892 -0.14037828 0.00055285636 6.6366294e-39
0.01217449 -0.14037828 0.00055285636 6.176017e-39
0.014098092 -0.14037828 0.00055285636 4.1484362e-39
0.016021695 -0.14037828 0.00055285636 5.992353e-39
0.018121753 -0.14141284 -0.0033939248 5.0696722e-39
0.020052277 -0.14141284 -0.0033939248 6.1745723e-39
0.021982796 -0.14141284 -0.0033939248 4.2370123e-39
0.023913316 -0.14141284 -0.0033939248 6.2624183e-39
0.025843836 -0.14141284 -0.0033939248 1.8061639e-38
0.027986947 -0.14245488 -0.0073693162 2.230082e-38
0.029924437 -0.14245488 -0.0073693162 2.350692e-38
0.031861927 -0.14245488 -0.0073693162 2.3504762e-38
0.033799421 -0.14245488 -0.0073693162 2.3506204e-38
0.035736915 -0.14245488 -0.0073693162 2.3505847e-38
0.03786305 -0.14324932 -0.010400093 2.3509455e-38
0.039805856 -0.14324932 -0.010400093 2.3504421e-38
0.042013388 -0.14430468 -0.014426387 1.4191589e-38
0.044162158 -0.14507706 -0.017373003 8.2921612e-39
0.04611719 -0.14507706 -0.017373003 4.6983408e-39
0.04836173 -0.14614578 -0.02145008 3.7778404e-39
0.050323907 -0.14614578 -0.02145008 3.3190287e-39
0.052582823 -0.1471896 -0.025432266 4.5179376e-39
0.054551996 -0.1471896 -0.025432266 4.3335477e-39
0.056521155 -0.1471896 -0.025432266 4.2399116e-39
0.058490314 -0.1471896 -0.025432266 2.6711439e-39
-0.056601562 -0.13702248 0.020559989 2.350988e-38
-0.054713041 -0.13702248 0.020559989 2.2953126e-38
-0.052824516 -0.13702248 0.020559989 2.3507374e-38
-0.050935995 -0.13702248 0.020559989 2.3505581e-38
-0.049047474 -0.13702248 0.020559989 2.3508451e-38
-0.047158953 -0.13702248 0.020559989 2.3417691e-38
-0.045270432 -0.13702248 0.020559989 2.240786e-38
-0.043381911 -0.13702248 0.020559989 8.5813949e-39
-0.041522268 -0.13781275 0.017565094 2.497928e-39
-0.039659597 -0.13885282 0.013623559 3.1418527e-39
-0.037758913 -0.13885282 0.013623559 5.5356881e-39
-0.035858229 -0.13885282 0.013623559 4.4257251e-39
-0.033947181 -0.13781275 0.017565094 2.670404e-39
-0.032050781 -0.13702248 0.020559989 4.9731186e-39
-0.03016226 -0.13702248 0.020559989 8.5680573e-39
-0.028273739 -0.13702248 0.020559989 6.3582446e-39
-0.026385218 -0.13702248 0.020559989 5.5349412e-39
-0.024521276 -0.13596557 0.024565302 7.5639611e-39
-0.022639778 -0.13596557 0.024565302 1.2722256e-38
-0.020758279 -0.13596557 0.024565302 1.5760061e-38
-0.01887678 -0.13596557 0.024565302 1.5663943e-38
-0.016942611 -0.13702248 0.020559989 7.0911938e-39
-0.015054089 -0.13702248 0.020559989 2.5800609e-39
-0.013115683 -0.13781275 0.017565094 4.6097787e-39
-0.011221911 -0.13781275 0.017565094 6.5433436e-39
-0.0091874963 -0.13965334 0.010589921 6.4471837e-39
-0.0072814925 -0.13965334 0.010589921 6.8091405e-39
-0.0053754905 -0.13965334 0.010589921 6.2556023e-39
-0.003394925 -0.14042725 0.0076570148 4.3259541e-39
-0.0013746833 -0.14148657 0.0036426419 3.4987172e-39
0.0005435003 -0.14148657 0.0036426419 5.159693e-39
0.0043798676 -0.14148657 0.0036426419 4.0533567e-39
0.0083272895 -0.14230187 0.00055285636 7.925576e-39
0.010250892 -0.14230187 0.00055285636 4.7912889e-39
0.01217449 -0.14230187 0.00055285636 5.2529929e-39
0.014098092 -0.14230187 0.00055285636 5.8987252e-39
0.016021695 -0.14230187 0.00055285636 5.8998042e-39
0.018121753 -0.14334334 -0.0033939248 5.253709e-39
0.020052277 -0.14334334 -0.0033939248 5.6213985e-39
0.021982796 -0.14334334 -0.0033939248 5.2511614e-39
0.023913316 -0.14334334 -0.0033939248 5.8014359e-39
0.025843836 -0.14334334 -0.0033939248 1.2345504e-38
0.027986947 -0.14439236 -0.0073693162 2.0087759e-38
0.029924437 -0.14439236 -0.0073693162 2.3505114e-38
0.032034632 -0.1451921 -0.010400093 2.3509802e-38
0.033977438 -0.1451921 -0.010400093 2.3509806e-38
0.035920244 -0.1451921 -0.010400093 2.3507649e-38
0.03786305 -0.1451921 -0.010400093 2.3507652e-38
0.039805856 -0.1451921 -0.010400093 2.3409701e-38
0.042013388 -0.14625455 -0.014426387 1.5297576e-38
0.044437375 -0.14810793 -0.02145008 9.6750957e-39
0.046399552 -0.14810793 -0.02145008 3.5919932e-39
0.04836173 -0.14810793 -0.02145008 3.7778404e-39
0.050323907 -0.14810793 -0.02145008 3.226833e-39
0.052582823 -0.14915876 -0.025432266 2.8584177e-39
0.054551996 -0.14915876 -0.025432266 2.6736705e-39
0.056521155 -0.14915876 -0.025432266 2.6733103e-39
0.058490314 -0.14915876 -0.025432266 2.6725859e-39
-0.058490083 -0.13891099 0.020559989 2.0194409e-38
-0.056601562 -0.13891099 0.020559989 2.3509879e-38
-0.054713041 -0.13891099 0.020559989 2.3507016e-38
-0.052824516 -0.13891099 0.020559989 2.3507733e-38
-0.050935995 -0.13891099 0.020559989 2.3504505e-38
-0.049047474 -0.13891099 0.020559989 2.3508451e-38
-0.047158953 -0.13891099 0.020559989 2.3231494e-38
-0.045270432 -0.13891099 0.020559989 2.3234012e-38
-0.043381911 -0.13891099 0.020559989 1.890406e-38
-0.041522268 -0.13970654 0.017565094 5.7208192e-39
-0.039628498 -0.13970654 0.017565094 1.9407984e-39
-0.037734725 -0.13970654 0.017565094 4.428993e-39
-0.035840951 -0.13970654 0.017565094 4.2438646e-39
-0.033939302 -0.13891099 0.020559989 5.348752e-39
-0.032050781 -0.13891099 0.020559989 4.5175494e-39
-0.03016226 -0.13891099 0.020559989 7.0036141e-39
-0.028273739 -0.13891099 0.020559989 8.1114064e-39
-0.026402775 -0.13784705 0.024565302 6.180319e-39
-0.024540111 -0.13703169 0.027634822 6.0891995e-39
-0.022663996 -0.13703169 0.027634822 8.6667269e-39
-0.02078788 -0.13703169 0.027634822 1.0414872e-38
-0.018911762 -0.13703169 0.027634822 9.0276636e-39
-0.016995281 -0.13784705 0.024565302 5.3405671e-39
-0.015054089 -0.13891099 0.020559989 4.9767942e-39
-0.013165568 -0.13891099 0.020559989 5.2551481e-39
-0.011221911 -0.13970654 0.017565094 5.4373505e-39
-0.009328139 -0.13970654 0.017565094 6.5400954e-39
-0.0073479796 -0.14075352 0.013623559 8.1009681e-39
-0.0053754905 -0.14155935 0.010589921 6.9935317e-39
-0.0034694886 -0.14155935 0.010589921 6.0765809e-39
0.010134417 -0.14340474 0.0036426419 5.3415886e-39
0.012052598 -0.14340474 0.0036426419 5.7114571e-39
0.013970784 -0.14340474 0.0036426419 3.960822e-39
0.016021695 -0.14422549 0.00055285636 4.9760529e-39
0.017945293 -0.14422549 0.00055285636 5.2529901e-39
0.020052277 -0.14527388 -0.0033939248 4.3299408e-39
0.021982796 -0.14527388 -0.0033939248 5.3433542e-39
0.023913316 -0.14527388 -0.0033939248 4.9731074e-39
0.025843836 -0.14527388 -0.0033939248 7.7367958e-39
0.027986947 -0.14632986 -0.0073693162 1.7691389e-38
0.029924437 -0.14632986 -0.0073693162 2.220861e-38
0.032034632 -0.14713491 -0.010400093 2.1840918e-38
0.033977438 -0.14713491 -0.010400093 2.1381383e-38
0.035920244 -0.14713491 -0.010400093 2.1841285e-38
0.03786305 -0.14713491 -0.010400093 2.1840929e-38
0.039805856 -0.14713491 -0.010400093 2.2210439e-38
0.042013388 -0.14820443 -0.014426387 1.5757475e-38
-0.058388252 -0.13972856 0.024565302 1.7332379e-38
-0.056506753 -0.13972856 0.024565302 2.2586473e-38
-0.054713041 -0.14079951 0.020559989 2.3507009e-38
-0.052824516 -0.14079951 0.020559989 2.3508451e-38
-0.050935995 -0.14079951 0.020559989 2.3507016e-38
-0.049047474 -0.14079951 0.020559989 2.3509163e-38
-0.047158953 -0.14079951 0.020559989 2.3508077e-38
-0.045270432 -0.14079951 0.020559989 2.3509876e-38
-0.043381911 -0.14079951 0.020559989 2.2679762e-38
-0.041522268 -0.1416003 0.017565094 1.6779616e-38
-0.039628498 -0.1416003 0.017565094 2.8588016e-39
-0.037734725 -0.1416003 0.017565094 2.5832839e-39
-0.035840951 -0.1416003 0.017565094 5.3509367e-39
-0.033939302 -0.14079951 0.020559989 5.2601577e-39
-0.032047272 -0.13972856 0.024565302 5.3509142e-39
-0.030165773 -0.13972856 0.024565302 6.6377182e-39
-0.028284274 -0.13972856 0.024565302 7.283089e-39
-0.026402775 -0.13972856 0.024565302 6.642023e-39
-0.024540111 -0.13890781 0.027634822 5.6289431e-39
-0.022663996 -0.13890781 0.027634822 6.1785267e-39
-0.02078788 -0.13890781 0.027634822 7.8359153e-39
-0.018911762 -0.13890781 0.027634822 7.7394415e-39
-0.016995281 -0.13972856 0.024565302 4.9739425e-39
-0.015054089 -0.14079951 0.020559989 5.1619043e-39
-0.013165568 -0.14079951 0.020559989 4.8863656e-39
-0.011277047 -0.14079951 0.020559989 5.7142976e-39
-0.009388526 -0.14079951 0.020559989 6.1720289e-39
-0.0073479796 -0.1426542 0.013623559 8.1942399e-39
-0.0053754905 -0.14346536 0.010589921 7.6403403e-39
-0.0034694886 -0.14346536 0.010589921 5.3390158e-39
0.0061607985 -0.14424954 0.0076570148 1.381638e-38
0.0080719432 -0.14424954 0.0076570148 1.1512934e-38
0.0099830879 -0.14424954 0.0076570148 8.6566726e-39
0.011894233 -0.14424954 0.0076570148 6.261031e-39
0.013970784 -0.14532293 0.0036426419 4.5114748e-39
0.016021695 -0.14614908 0.00055285636 5.5274218e-39
0.017945293 -0.14614908 0.00055285636 4.7905686e-39
0.019868895 -0.14614908 0.00055285636 3.684207e-39
0.021982796 -0.14720438 -0.0033939248 5.6202942e-39
0.023913316 -0.14720438 -0.0033939248 3.1292228e-39
0.025843836 -0.14720438 -0.0033939248 3.0352349e-39
0.027774356 -0.14720438 -0.0033939248 1.363586e-38
0.029924437 -0.14826734 -0.0073693162 1.9627494e-38
0.032034632 -0.14907773 -0.010400093 1.8798465e-38
0.033977438 -0.14907773 -0.010400093 1.7876873e-38
0.035920244 -0.14907773 -0.010400093 2.036508e-38
0.03786305 -0.14907773 -0.010400093 2.1656541e-38
0.039805856 -0.14907773 -0.010400093 2.101082e-38
-0.058388252 -0.14161004 0.024565302 1.3732066e-38
-0.056506753 -0.14161004 0.024565302 1.5484522e-38
-0.054713041 -0.14268802 0.020559989 2.3509517e-38
-0.052824516 -0.14268802 0.020559989 2.3509527e-38
-0.050935995 -0.14268802 0.020559989 2.3324778e-38
-0.049047474 -0.14268802 0.020559989 2.2495368e-38
-0.047158953 -0.14268802 0.020559989 2.3509879e-38
-0.045270432 -0.14268802 0.020559989 2.3509158e-38
-0.043381911 -0.14268802 0.020559989 2.3509527e-38
-0.04149339 -0.14268802 0.020559989 2.2770174e-38
-0.039604869 -0.14268802 0.020559989 6.5448247e-39
-0.037716348 -0.14268802 0.020559989 3.6874735e-39
-0.035827823 -0.14268802 0.020559989 3.8740087e-39
-0.033939302 -0.14268802 0.020559989 4.9835737e-39
-0.032047272 -0.14161004 0.024565302 6.6423761e-39
-0.030165773 -0.14161004 0.024565302 6.7302782e-39
-0.028284274 -0.14161004 0.024565302 6.4544102e-39
-0.026402775 -0.14161004 0.024565302 6.1810448e-39
-0.024540111 -0.14078392 0.027634822 6.3665081e-39
-0.022663996 -0.14078392 0.027634822 7.3785132e-39
-0.02078788 -0.14078392 0.027634822 8.9433432e-39
-0.018911762 -0.14078392 0.027634822 8.8483058e-39
-0.016995281 -0.14161004 0.024565302 7.0043946e-39
-0.015054089 -0.14268802 0.020559989 4.9775074e-39
-0.013165568 -0.14268802 0.020559989 4.240636e-39
-0.011277047 -0.14268802 0.020559989 5.8057771e-39
-0.009388526 -0.14268802 0.020559989 6.4482599e-39
-0.0074343653 -0.14349405 0.017565094 6.4435935e-39
0.0061607985 -0.14616071 0.0076570148 1.630134e-38
0.0080719432 -0.14616071 0.0076570148 1.4181928e-38
0.0099830879 -0.14616071 0.0076570148 1.1786646e-38
0.011894233 -0.14616071 0.0076570148 1.0038168e-38
0.013805377 -0.14616071 0.0076570148 9.2105681e-39
0.015716523 -0.14616071 0.0076570148 8.8439407e-39
0.017807148 -0.1472411 0.0036426419 7.3709602e-39
0.019725334 -0.1472411 0.0036426419 7.1869151e-39
0.021792494 -0.14807267 0.00055285636 7.1872584e-39
0.023716096 -0.14807267 0.00055285636 4.7894364e-39
0.025639698 -0.14807267 0.00055285636 1.6533977e-39
0.027774356 -0.14913492 -0.0033939248 1.0041317e-38
-0.060269751 -0.14349155 0.024565302 1.9444947e-38
-0.058388252 -0.14349155 0.024565302 1.3082367e-38
-0.056506753 -0.14349155 0.024565302 1.3546242e-38
-0.054713041 -0.14457656 0.020559989 2.3229681e-38
-0.052824516 -0.14457656 0.020559989 2.323365e-38
-0.050935995 -0.14457656 0.020559989 2.3142544e-38
-0.049047474 -0.14457656 0.020559989 2.2958873e-38
-0.047158953 -0.14457656 0.020559989 2.2958873e-38
-0.045270432 -0.14457656 0.020559989 2.3142544e-38
-0.043381911 -0.14457656 0.020559989 2.3509527e-38
-0.04149339 -0.14457656 0.020559989 2.3508809e-38
-0.039604869 -0.14457656 0.020559989 7.9259585e-39
-0.037716348 -0.14457656 0.020559989 4.5161467e-39
-0.035827823 -0.14457656 0.020559989 4.0565937e-39
-0.033939302 -0.14457656 0.020559989 5.2565564e-39
-0.032047272 -0.14349155 0.024565302 6.7320508e-39
-0.030165773 -0.14349155 0.024565302 6.5458897e-39
-0.028284274 -0.14349155 0.024565302 5.5321007e-39
-0.026402775 -0.14349155 0.024565302 5.3516373e-39
-0.024540111 -0.14266007 0.027634822 6.4579821e-39
-0.022663996 -0.14266007 0.027634822 7.3781615e-39
-0.02078788 -0.14266007 0.027634822 7.7455259e-39
-0.018911762 -0.14266007 0.027634822 7.1905683e-39
-0.016995281 -0.14349155 0.024565302 5.8072737e-39
-0.015054089 -0.14457656 0.020559989 4.8860195e-39
-0.013165568 -0.14457656 0.020559989 3.9629673e-39
-0.011277047 -0.14457656 0.020559989 4.7905574e-39
-0.009328139 -0.14538784 0.017565094 5.2490034e-39
-0.0074343653 -0.14538784 0.017565094 6.1677087e-39
0.0043798676 -0.1491593 0.0036426419 1.6389569e-38
0.0080719432 -0.14807184 0.0076570148 1.390174e-38
0.0099830879 -0.14807184 0.0076570148 1.2520965e-38
0.011894233 -0.14807184 0.0076570148 1.1694085e-38
0.013805377 -0.14807184 0.0076570148 1.132854e-38
0.015716523 -0.14807184 0.0076570148 1.1238858e-38
0.017807148 -0.1491593 0.0036426419 1.013502e-38
0.019725334 -0.1491593 0.0036426419 1.1243158e-38
0.021792494 -0.1499963 0.00055285636 9.3999507e-39
0.023716096 -0.1499963 0.00055285636 7.6471408e-39
0.025639698 -0.1499963 0.00055285636 2.3909515e-39
-0.064032748 -0.14537306 0.024565302 1.79756e-38
-0.062151249 -0.14537306 0.024565302 2.1938207e-38
-0.060269751 -0.14537306 0.024565302 2.2762555e-38
-0.058388252 -0.14537306 0.024565302 1.6584722e-38
-0.056506753 -0.14537306 0.024565302 1.6772364e-38
-0.054713041 -0.14646508 0.020559989 1.9173781e-38
-0.052824516 -0.14646508 0.020559989 2.2680827e-38
-0.050862256 -0.14537306 0.024565302 2.2406772e-38
-0.048980758 -0.14537306 0.024565302 2.2775202e-38
-0.047099262 -0.14537306 0.024565302 2.1394432e-38
-0.04521776 -0.14537306 0.024565302 2.2867037e-38
-0.043381911 -0.14646508 0.020559989 2.2589378e-38
-0.04149339 -0.14646508 0.020559989 2.2956362e-38
-0.039604869 -0.14646508 0.020559989 8.0192247e-39
-0.037716348 -0.14646508 0.020559989 3.9626058e-39
-0.035827823 -0.14646508 0.020559989 4.4239329e-39
-0.033939302 -0.14646508 0.020559989 4.7012274e-39
-0.032047272 -0.14537306 0.024565302 5.7153878e-39
-0.030165773 -0.14537306 0.024565302 5.5313847e-39
-0.028284274 -0.14537306 0.024565302 4.8867313e-39
-0.026402775 -0.14537306 0.024565302 4.9814157e-39
-0.024540111 -0.14453618 0.027634822 5.7189779e-39
-0.022663996 -0.14453618 0.027634822 5.6257285e-39
-0.02078788 -0.14453618 0.027634822 5.3484367e-39
-0.018911762 -0.14453618 0.027634822 4.4254042e-39
-0.016942611 -0.14646508 0.020559989 2.8577156e-39
-0.015054089 -0.14646508 0.020559989 2.9484651e-39
-0.013165568 -0.14646508 0.020559989 3.5005487e-39
-0.011221911 -0.1472816 0.017565094 3.5902178e-39
0.0080719432 -0.14998297 0.0076570148 9.8433272e-39
0.0099830879 -0.14998297 0.0076570148 9.3841511e-39
0.011894233 -0.14998297 0.0076570148 8.833494e-39
-0.063724317 -0.14449625 0.034617506 1.5484879e-38
-0.060106449 -0.14560573 0.030574165 2.2949474e-38
-0.058235489 -0.14560573 0.030574165 1.7141147e-38
-0.056434099 -0.1464123 0.027634822 1.6405742e-38
-0.054713041 -0.14835359 0.020559989 1.6039126e-38
-0.052824516 -0.14835359 0.020559989 2.3509863e-38
-0.050862256 -0.14725454 0.024565302 2.3234369e-38
-0.048980758 -0.14725454 0.024565302 2.2958873e-38
-0.047099262 -0.14725454 0.024565302 2.2775202e-38
-0.04521776 -0.14725454 0.024565302 2.2775202e-38
-0.043381911 -0.14835359 0.020559989 2.2775202e-38
-0.041454762 -0.14725454 0.024565302 2.2958873e-38
-0.039573267 -0.14725454 0.024565302 1.060429e-38
-0.037716348 -0.14835359 0.020559989 3.1346402e-39
-0.035827823 -0.14835359 0.020559989 3.5026969e-39
-0.033928771 -0.14725454 0.024565302 3.5930946e-39
-0.032047272 -0.14725454 0.024565302 5.6210481e-39
-0.030165773 -0.14725454 0.024565302 5.5299469e-39
-0.028284274 -0.14725454 0.024565302 5.2551537e-39
-0.026402775 -0.14725454 0.024565302 5.7164696e-39
-0.024521276 -0.14725454 0.024565302 5.3484031e-39
-0.022663996 -0.1464123 0.027634822 4.7945259e-39
-0.02078788 -0.1464123 0.027634822 4.8867313e-39
-0.018911762 -0.1464123 0.027634822 4.6097815e-39
-0.016942611 -0.14835359 0.020559989 3.3186797e-39
-0.015054089 -0.14835359 0.020559989 1.3796946e-39
-0.013115683 -0.14917539 0.017565094 3.4983907e-39
-0.011221911 -0.14917539 0.017565094 4.5103734e-39
-0.080359213 -0.14552824 0.037629925 1.1244263e-38
-0.061860442 -0.14636014 0.034617506 1.4839158e-38
-0.059996568 -0.14636014 0.034617506 1.364241e-38
-0.058235489 -0.14747669 0.030574165 1.2628973e-38
-0.056364521 -0.14747669 0.030574165 1.1891042e-38
-0.054625254 -0.14913605 0.024565302 1.1153477e-38
-0.052743755 -0.14913605 0.024565302 1.7884123e-38
-0.047099262 -0.14913605 0.024565302 2.3234379e-38
-0.04521776 -0.14913605 0.024565302 2.2867037e-38
-0.043336261 -0.14913605 0.024565302 2.2591531e-38
-0.041454762 -0.14913605 0.024565302 2.2591525e-38
-0.039573267 -0.14913605 0.024565302 1.3741454e-38
-0.037691768 -0.14913605 0.024565302 4.1516662e-39
-0.033928771 -0.14913605 0.024565302 3.1324962e-39
-0.032047272 -0.14913605 0.024565302 4.790584e-39
-0.030165773 -0.14913605 0.024565302 2.302381e-39
-0.028284274 -0.14913605 0.024565302 2.2109001e-39
-0.026402775 -0.14913605 0.024565302 2.3030845e-39
-0.024521276 -0.14913605 0.024565302 1.6577123e-39
-0.022663996 -0.14828841 0.027634822 7.3647763e-40
-0.02078788 -0.14828841 0.027634822 1.1063363e-39
-0.01887678 -0.14913605 0.024565302 1.3829204e-39
-0.080359213 -0.14738683 0.037629925 8.9393762e-39
-0.078366697 -0.14655443 0.040625297 8.0159653e-39
-0.076513357 -0.14655443 0.040625297 7.0936321e-39
-0.074660011 -0.14655443 0.040625297 8.8456867e-39
-0.072806679 -0.14655443 0.040625297 1.1611544e-38
-0.070953339 -0.14655443 0.040625297 1.1150561e-38
-0.0691 -0.14655443 0.040625297 1.1242759e-38
-0.065490477 -0.14738683 0.037629925 1.6590135e-38
-0.063631885 -0.14738683 0.037629925 1.2717217e-38
-0.061773293 -0.14738683 0.037629925 9.7702074e-39
-0.059996568 -0.14822401 0.034617506 8.3015626e-39
-0.058235489 -0.14934768 0.030574165 1.0700085e-38
-0.056364521 -0.14934768 0.030574165 1.152587e-38
-0.082217805 -0.14924543 0.037629925 1.3919385e-38
-0.080359213 -0.14924543 0.037629925 9.4918311e-39
-0.078366697 -0.14840777 0.040625297 7.4617125e-39
-0.076513357 -0.14840777 0.040625297 6.0780452e-39
-0.074660011 -0.14840777 0.040625297 1.0042436e-38
-0.072806679 -0.14840777 0.040625297 1.5758914e-38
-0.070953339 -0.14840777 0.040625297 1.4099029e-38
-0.0691 -0.14840777 0.040625297 9.1208289e-39
-0.067246653 -0.14840777 0.040625297 8.0155715e-39
-0.065393314 -0.14840777 0.040625297 7.8311943e-39
-0.063539974 -0.14840777 0.040625297 7.2783947e-39
-0.061686635 -0.14840777 0.040625297 5.4377331e-39
-0.059914701 -0.14924543 0.037629925 5.2591152e-39
