# .PCD v0.7 - Point Cloud Data file format
VERSION 0.7
FIELDS x y z rgb
SIZE 4 4 4 4
TYPE F F F F
COUNT 1 1 1 1
WIDTH 894
HEIGHT 1
VIEWPOINT 0 0 0 1 0 0 0
POINTS 894
DATA ascii
-0.0627129 -0.13562126 -0.076611668 1.1064541e-38
-0.06464342 -0.1375518 -0.076611668 1.0972345e-38
-0.0627129 -0.1375518 -0.076611668 1.456761e-38
-0.06078238 -0.1375518 -0.076611668 1.6593385e-38
-0.05906444 -0.13857989 -0.080587059 2.2031842e-38
-0.064411588 -0.13845469 -0.072664887 1.2262368e-38
-0.062487997 -0.13845469 -0.072664887 1.5488125e-38
-0.06078238 -0.1394823 -0.076611668 1.6777043e-38
-0.058851853 -0.1394823 -0.076611668 1.9356353e-38
-0.025228977 -0.13063805 -0.042643577 2.2682649e-38
-0.0232694 -0.12958528 -0.038600236 1.3924072e-38
-0.021405526 -0.12958528 -0.038600236 6.1796548e-39
0.0027170423 -0.11891381 0.0023854673 2.6632294e-39
0.0045090541 -0.11891381 0.0023854673 3.767049e-39
-0.064411588 -0.14037828 -0.072664887 1.1985781e-38
-0.062487997 -0.14037828 -0.072664887 1.3182871e-38
-0.060564391 -0.14037828 -0.072664887 1.548486e-38
-0.058640793 -0.14037828 -0.072664887 1.5575965e-38
-0.056717195 -0.14037828 -0.072664887 1.2625353e-38
-0.038685665 -0.13513394 -0.052657753 2.3509873e-38
-0.036660202 -0.13408406 -0.04865244 2.3509158e-38
-0.034679137 -0.13327946 -0.04558292 2.3509524e-38
-0.032803021 -0.13327946 -0.04558292 2.3509527e-38
-0.030926906 -0.13327946 -0.04558292 2.3416615e-38
-0.028861023 -0.13144915 -0.038600236 2.3509527e-38
-0.026997149 -0.13144915 -0.038600236 2.2588296e-38
-0.025133274 -0.13144915 -0.038600236 2.3234379e-38
-0.0232694 -0.13144915 -0.038600236 2.2958873e-38
-0.021344785 -0.13065951 -0.035587817 2.1392288e-38
-0.019486193 -0.13065951 -0.035587817 1.6691396e-38
-0.011983745 -0.12909363 -0.029614002 4.9814745e-39
-0.010135625 -0.12909363 -0.029614002 7.4009438e-40
0.0027170423 -0.12070583 0.0023854673 1.5013788e-38
0.0045090541 -0.12070583 0.0023854673 1.7872568e-38
0.0063010668 -0.12070583 0.0023854673 2.156147e-38
0.0080930786 -0.12070583 0.0023854673 2.0547681e-38
0.0099141011 -0.12149437 -0.00062277913 1.4741517e-38
0.011711388 -0.12149437 -0.00062277913 8.1063168e-39
0.013508675 -0.12149437 -0.00062277913 2.2072805e-39
-0.062487997 -0.14230187 -0.072664887 1.4104827e-38
-0.060393743 -0.14148657 -0.069575101 1.4378512e-38
-0.058475561 -0.14148657 -0.069575101 1.2625345e-38
-0.056349747 -0.14042725 -0.065560728 1.0136426e-38
-0.054438598 -0.14042725 -0.065560728 6.5400911e-39
-0.044351228 -0.13702248 -0.052657753 1.8802516e-38
-0.042462707 -0.13702248 -0.052657753 1.622141e-38
-0.040574186 -0.13702248 -0.052657753 1.6039493e-38
-0.038541701 -0.13596557 -0.04865244 2.3508409e-38
-0.036555257 -0.13515557 -0.04558292 2.3508783e-38
-0.034583796 -0.13437997 -0.042643577 2.3509151e-38
-0.032712832 -0.13437997 -0.042643577 2.3508434e-38
-0.030841868 -0.13437997 -0.042643577 2.3508797e-38
-0.028779157 -0.1325181 -0.035587817 2.350952e-38
-0.026920564 -0.1325181 -0.035587817 2.3509521e-38
-0.025061972 -0.1325181 -0.035587817 2.3509879e-38
-0.02320338 -0.1325181 -0.035587817 2.2865958e-38
-0.021284387 -0.13172771 -0.032592446 2.268229e-38
-0.019431047 -0.13172771 -0.032592446 2.2775202e-38
-0.017577708 -0.13172771 -0.032592446 2.2591531e-38
-0.015679978 -0.13094176 -0.029614002 2.2131636e-38
-0.013831861 -0.13094176 -0.029614002 2.0193753e-38
-0.011937536 -0.12987186 -0.025559455 1.6874348e-38
-0.010096526 -0.12987186 -0.025559455 1.0327717e-38
0.00092766806 -0.12329166 -0.00062277913 1.5756407e-38
0.0027170423 -0.12249784 0.0023854673 1.8058402e-38
0.0045090541 -0.12249784 0.0023854673 2.0086703e-38
0.0063010668 -0.12249784 0.0023854673 2.2115725e-38
0.0081168143 -0.12329166 -0.00062277913 2.1655823e-38
0.0099141011 -0.12329166 -0.00062277913 1.9352738e-38
0.011711388 -0.12329166 -0.00062277913 1.5482683e-38
0.013508675 -0.12329166 -0.00062277913 9.4914191e-39
-0.062311925 -0.14340474 -0.069575101 1.3182874e-38
-0.060172029 -0.14233841 -0.065560728 1.4839493e-38
-0.058260888 -0.14233841 -0.065560728 1.0413012e-38
-0.056198038 -0.14155935 -0.062627822 8.9382453e-39
-0.053943492 -0.13970654 -0.055652648 8.7535065e-39
-0.051905312 -0.13891099 -0.052657753 9.7666033e-39
-0.050016798 -0.13891099 -0.052657753 1.3362938e-38
-0.047949195 -0.13784705 -0.04865244 1.4563588e-38
-0.045935839 -0.13703169 -0.04558292 2.0833263e-38
-0.044059724 -0.13703169 -0.04558292 1.9724107e-38
-0.042304702 -0.13784705 -0.04865244 1.6958249e-38
-0.0404232 -0.13784705 -0.04865244 1.640754e-38
-0.038541701 -0.13784705 -0.04865244 2.3509831e-38
-0.036555257 -0.13703169 -0.04558292 2.3509846e-38
-0.034452643 -0.13517688 -0.038600236 2.3509856e-38
-0.032588769 -0.13517688 -0.038600236 2.3509856e-38
-0.030724898 -0.13517688 -0.038600236 2.3509856e-38
-0.028779157 -0.13437669 -0.035587817 2.3506982e-38
-0.026920564 -0.13437669 -0.035587817 2.3509504e-38
-0.025061972 -0.13437669 -0.035587817 2.332439e-38
-0.02313773 -0.13358103 -0.032592446 2.3509876e-38
-0.021284387 -0.13358103 -0.032592446 2.3234379e-38
-0.019376215 -0.13278987 -0.029614002 2.2406066e-38
-0.017411605 -0.13093217 -0.02262035 2.2867037e-38
-0.015575752 -0.13093217 -0.02262035 2.2867037e-38
-0.013739895 -0.13093217 -0.02262035 2.3142185e-38
-0.011835162 -0.12932678 -0.016576678 2.212769e-38
-0.010009903 -0.12932678 -0.016576678 2.341805e-38
0.00092503056 -0.12428986 0.0023854673 2.2028594e-38
0.0027170423 -0.12428986 0.0023854673 2.3505871e-38
0.0045222417 -0.12508895 -0.00062277913 2.3509108e-38
0.0063195275 -0.12508895 -0.00062277913 2.3509106e-38
0.0081168143 -0.12508895 -0.00062277913 2.3508385e-38
0.0099141011 -0.12508895 -0.00062277913 2.3509824e-38
0.011711388 -0.12508895 -0.00062277913 2.3505865e-38
0.013508675 -0.12508895 -0.00062277913 1.7975216e-38
-0.062083177 -0.14424954 -0.065560728 1.419667e-38
-0.060172029 -0.14424954 -0.065560728 1.4933132e-38
-0.058104046 -0.14346536 -0.062627822 9.6765348e-39
-0.056041129 -0.1426542 -0.059594184 7.6482366e-39
-0.053943492 -0.1416003 -0.055652648 1.1704137e-38
-0.051905312 -0.14079951 -0.052657753 1.1427204e-38
-0.049830697 -0.13972856 -0.04865244 1.3271818e-38
-0.047949195 -0.13972856 -0.04865244 1.1522212e-38
-0.045935839 -0.13890781 -0.04558292 2.0464836e-38
-0.043938614 -0.13812189 -0.042643577 2.0093238e-38
-0.041908138 -0.13704078 -0.038600236 1.7050429e-38
-0.040044263 -0.13704078 -0.038600236 1.8067048e-38
-0.038180392 -0.13704078 -0.038600236 2.3509809e-38
-0.036316518 -0.13704078 -0.038600236 2.350766e-38
-0.034452643 -0.13704078 -0.038600236 2.3509834e-38
-0.032588769 -0.13704078 -0.038600236 2.3508751e-38
-0.030637749 -0.13623528 -0.035587817 2.2307691e-38
-0.028697751 -0.13543437 -0.032592446 2.3135658e-38
-0.026844412 -0.13543437 -0.032592446 2.3509485e-38
-0.024991069 -0.13543437 -0.032592446 2.3509846e-38
-0.02313773 -0.13543437 -0.032592446 2.3508777e-38
-0.021224335 -0.134638 -0.029614002 2.3417324e-38
-0.019247465 -0.13276802 -0.02262035 2.341805e-38
-0.017361127 -0.13195769 -0.019589812 2.2128016e-38
-0.015530586 -0.13195769 -0.019589812 2.3509876e-38
-0.013700046 -0.13195769 -0.019589812 2.2955996e-38
-0.011801019 -0.13035102 -0.013580948 2.3509527e-38
-0.0099430941 -0.1292996 -0.0096487105 2.3509869e-38
-0.0081299804 -0.1292996 -0.0096487105 2.3509866e-38
-0.0044378974 -0.12528224 0.0053760707 1.4382155e-38
-0.00086175464 -0.1244873 0.0083491504 1.5212262e-38
0.00091980211 -0.1244873 0.0083491504 2.2770126e-38
0.0027091764 -0.12528224 0.0053760707 2.3508762e-38
0.0045090541 -0.12608187 0.0023854673 2.3508756e-38
0.0063010668 -0.12608187 0.0023854673 2.3509837e-38
0.0081168143 -0.12688623 -0.00062277913 2.3509832e-38
0.0099141011 -0.12688623 -0.00062277913 2.350731e-38
0.011677104 -0.12608187 0.0023854673 2.3509475e-38
0.01342979 -0.12528224 0.0053760707 2.350804e-38
0.015216558 -0.12528224 0.0053760707 1.6502262e-38
-0.063994326 -0.14616071 -0.065560728 1.2353127e-38
-0.062083177 -0.14616071 -0.065560728 1.2076172e-38
-0.060010046 -0.14537133 -0.062627822 1.0600303e-38
-0.057941817 -0.14455487 -0.059594184 6.3589411e-39
-0.055837266 -0.14349405 -0.055652648 6.2663951e-39
-0.05379384 -0.14268802 -0.052657753 1.2443145e-38
-0.051905312 -0.14268802 -0.052657753 1.3641691e-38
-0.049830697 -0.14161004 -0.04865244 1.6130596e-38
-0.047811955 -0.14078392 -0.04558292 1.5763222e-38
-0.045809574 -0.13999285 -0.042643577 2.2216919e-38
-0.043938614 -0.13999285 -0.042643577 2.0001743e-38
-0.041908138 -0.13890465 -0.038600236 1.5945138e-38
-0.039930705 -0.13809387 -0.035587817 1.8711332e-38
-0.038072113 -0.13809387 -0.035587817 2.3506565e-38
-0.036213521 -0.13809387 -0.035587817 2.3508365e-38
-0.034354929 -0.13809387 -0.035587817 2.3509085e-38
-0.03240443 -0.13728772 -0.032592446 2.2399862e-38
-0.030551091 -0.13728772 -0.032592446 1.5207168e-38
-0.028616808 -0.13648613 -0.029614002 1.5850746e-38
-0.026768688 -0.13648613 -0.029614002 1.72344e-38
-0.024920568 -0.13648613 -0.029614002 1.6590836e-38
-0.023072451 -0.13648613 -0.029614002 1.46569e-38
-0.021083318 -0.13460387 -0.02262035 1.2997406e-38
-0.019191667 -0.13378824 -0.019589812 1.216837e-38
-0.01731094 -0.13297729 -0.016576678 1.4473964e-38
-0.015441034 -0.13217102 -0.013580948 2.2401709e-38
-0.013621025 -0.13217102 -0.013580948 2.3508797e-38
-0.011756204 -0.13111271 -0.0096487105 2.3508794e-38
-0.0098852329 -0.1294979 -0.0036486685 2.3508054e-38
-0.0080587678 -0.12868352 -0.00062277913 2.3506249e-38
-0.0062430203 -0.12787388 0.0023854673 2.350951e-38
-0.0044378974 -0.12706901 0.0053760707 2.3509876e-38
-0.0026511289 -0.12706901 0.0053760707 2.1850713e-38
-0.00086175464 -0.12626885 0.0083491504 2.3418035e-38
0.00091980211 -0.12626885 0.0083491504 2.350986e-38
0.0027091764 -0.12706901 0.0053760707 2.3509853e-38
0.0045090541 -0.12787388 0.0023854673 2.3140701e-38
0.0063010668 -0.12787388 0.0023854673 2.3508403e-38
0.0080930786 -0.12787388 0.0023854673 2.3507677e-38
0.0098850913 -0.12787388 0.0023854673 2.3507679e-38
0.01164302 -0.12706901 0.0053760707 2.3509844e-38
0.01342979 -0.12706901 0.0053760707 2.3047066e-38
0.015216558 -0.12706901 0.0053760707 1.6502265e-38
0.017003328 -0.12706901 0.0053760707 2.3045054e-39
-0.063643865 -0.14645557 -0.059594184 1.1063108e-38
-0.061743177 -0.14645557 -0.059594184 1.0417369e-38
-0.059842505 -0.14645557 -0.059594184 8.4812483e-39
-0.057941817 -0.14645557 -0.059594184 5.1611266e-39
-0.055837266 -0.14538784 -0.055652648 5.6213985e-39
-0.05379384 -0.14457656 -0.052657753 1.1245689e-38
-0.051905312 -0.14457656 -0.052657753 1.1706648e-38
-0.049830697 -0.14349155 -0.04865244 1.3550552e-38
-0.047811955 -0.14266007 -0.04558292 1.5946557e-38
-0.045809574 -0.14186381 -0.042643577 1.9358151e-38
-0.043772012 -0.14076851 -0.038600236 1.9634017e-38
-0.041789297 -0.13995247 -0.035587817 1.7328401e-38
-0.039930705 -0.13995247 -0.035587817 2.01861e-38
-0.037964452 -0.13914107 -0.032592446 2.120024e-38
-0.036111109 -0.13914107 -0.032592446 2.221437e-38
-0.03425777 -0.13914107 -0.032592446 2.3507264e-38
-0.03240443 -0.13914107 -0.032592446 2.3506196e-38
-0.030551091 -0.13914107 -0.032592446 1.2901543e-38
-0.028616808 -0.13833423 -0.029614002 1.2807553e-38
-0.026768688 -0.13833423 -0.029614002 1.6864526e-38
-0.024920568 -0.13833423 -0.029614002 1.622132e-38
-0.022983588 -0.13723589 -0.025559455 1.0599199e-38
-0.021083318 -0.13643973 -0.02262035 1.0322997e-38
-0.019136198 -0.13480256 -0.016576678 1.1521546e-38
-0.017261039 -0.13399105 -0.013580948 1.2074343e-38
-0.015441034 -0.13399105 -0.013580948 1.4193044e-38
-0.013569318 -0.13292582 -0.0096487105 1.9076909e-38
-0.011721317 -0.13209651 -0.0065872967 2.2487425e-38
-0.0098852329 -0.13130049 -0.0036486685 2.3509119e-38
-0.0080587678 -0.13048081 -0.00062277913 2.3509119e-38
-0.0062430203 -0.1296659 0.0023854673 2.3506259e-38
-0.0044378974 -0.12885578 0.0053760707 2.3509869e-38
-0.0026511289 -0.12885578 0.0053760707 2.3326198e-38
-0.00086175464 -0.1280504 0.0083491504 2.3142528e-38
0.00091980211 -0.1280504 0.0083491504 2.268334e-38
0.002701357 -0.1280504 0.0083491504 2.2682974e-38
0.0044959448 -0.12885578 0.0053760707 2.2773007e-38
0.0062827142 -0.12885578 0.0053760707 2.3417291e-38
0.0080694836 -0.12885578 0.0053760707 2.3507324e-38
0.009856252 -0.12885578 0.0053760707 2.3509485e-38
0.01164302 -0.12885578 0.0053760707 2.3509846e-38
0.01342979 -0.12885578 0.0053760707 2.1940003e-38
0.01517225 -0.1280504 0.0083491504 1.7053644e-38
0.016953805 -0.1280504 0.0083491504 3.9622317e-39
-0.061743177 -0.14835624 -0.059594184 9.6805271e-39
-0.059842505 -0.14835624 -0.059594184 7.0986781e-39
-0.057941817 -0.14835624 -0.059594184 5.2540467e-39
-0.055837266 -0.1472816 -0.055652648 6.451885e-39
-0.05379384 -0.14646508 -0.052657753 1.1337885e-38
-0.051712193 -0.14537306 -0.04865244 1.0416617e-38
-0.049830697 -0.14537306 -0.04865244 1.2259808e-38
-0.047811955 -0.14453618 -0.04558292 1.6960006e-38
-0.045635886 -0.14263238 -0.038600236 1.7697206e-38
-0.043772012 -0.14263238 -0.038600236 1.8065952e-38
-0.041789297 -0.14181106 -0.035587817 1.7881193e-38
-0.039817791 -0.14099441 -0.032592446 2.1290289e-38
-0.037964452 -0.14099441 -0.032592446 2.3410064e-38
-0.036009278 -0.14018236 -0.029614002 2.2673186e-38
-0.034161158 -0.14018236 -0.029614002 1.9262655e-38
-0.032313041 -0.14018236 -0.029614002 1.8524022e-38
-0.030464925 -0.14018236 -0.029614002 1.2162172e-38
-0.028506614 -0.1390769 -0.025559455 1.4006448e-38
-0.026665606 -0.1390769 -0.025559455 1.3730225e-38
-0.024824597 -0.1390769 -0.025559455 1.1150912e-38
-0.022983588 -0.1390769 -0.025559455 7.4638201e-39
-0.020961456 -0.13662781 -0.016576678 1.1428257e-38
-0.019081049 -0.13581105 -0.013580948 1.3547679e-38
-0.017195541 -0.13473894 -0.0096487105 1.2901576e-38
-0.015382431 -0.13473894 -0.0096487105 1.2715742e-38
-0.013569318 -0.13473894 -0.0096487105 1.3818507e-38
-0.011721317 -0.13390426 -0.0065872967 1.6952437e-38
-0.0098852329 -0.13310309 -0.0036486685 2.1286333e-38
-0.0080587678 -0.1322781 -0.00062277913 2.3506951e-38
-0.0062430203 -0.13145791 0.0023854673 2.3507695e-38
-0.0044378974 -0.13064255 0.0053760707 2.2863415e-38
-0.0026433095 -0.12983195 0.0083491504 2.3234364e-38
-0.00085907429 -0.12899835 0.01140663 2.2223805e-38
0.00091712177 -0.12899835 0.01140663 2.295885e-38
0.002693316 -0.12899835 0.01140663 2.3234353e-38
0.0044829138 -0.12983195 0.0083491504 2.3417654e-38
0.0062644696 -0.12983195 0.0083491504 2.3509848e-38
0.0080460254 -0.12983195 0.0083491504 2.3509123e-38
0.0098275812 -0.12983195 0.0083491504 2.3509482e-38
0.011609137 -0.12983195 0.0083491504 2.3504444e-38
0.013390694 -0.12983195 0.0083491504 1.9170175e-38
0.01517225 -0.12983195 0.0083491504 1.1979647e-38
0.016953805 -0.12983195 0.0083491504 3.9600737e-39
0.018735362 -0.12983195 0.0083491504 4.1455495e-39
0.020516917 -0.12983195 0.0083491504 3.6852959e-39
-0.06151858 -0.14917539 -0.055652648 8.1132014e-39
-0.059624813 -0.14917539 -0.055652648 4.9781787e-39
-0.05773104 -0.14917539 -0.055652648 4.0562224e-39
-0.055837266 -0.14917539 -0.055652648 5.8987112e-39
-0.05379384 -0.14835359 -0.052657753 1.0876901e-38
-0.051712193 -0.14725454 -0.04865244 1.0048186e-38
-0.049688078 -0.1464123 -0.04558292 1.3273238e-38
-0.047680534 -0.14560573 -0.042643577 1.7512115e-38
-0.045635886 -0.14449625 -0.038600236 1.5021743e-38
-0.043772012 -0.14449625 -0.038600236 1.4192642e-38
-0.041789297 -0.14366965 -0.035587817 2.0829637e-38
-0.039817791 -0.14284773 -0.032592446 2.2855457e-38
-0.037857395 -0.14203046 -0.029614002 2.3315356e-38
-0.036009278 -0.14203046 -0.029614002 2.2486638e-38
-0.034161158 -0.14203046 -0.029614002 1.8060872e-38
-0.032188635 -0.14091791 -0.025559455 1.6400283e-38
-0.030347623 -0.14091791 -0.025559455 1.4373422e-38
-0.028506614 -0.14091791 -0.025559455 1.649573e-38
-0.026590884 -0.14011143 -0.02262035 1.4007535e-38
-0.024755031 -0.14011143 -0.02262035 1.2257979e-38
-0.022919174 -0.14011143 -0.02262035 1.0782863e-38
-0.020961456 -0.13845308 -0.016576678 1.4008653e-38
-0.019081049 -0.13763104 -0.013580948 1.3546959e-38
-0.017195541 -0.13655205 -0.0096487105 1.2161846e-38
-0.015382431 -0.13655205 -0.0096487105 1.1790901e-38
-0.013569318 -0.13655205 -0.0096487105 1.4922329e-38
-0.011721317 -0.13571201 -0.0065872967 1.5935758e-38
-0.0098852329 -0.13490568 -0.0036486685 1.658255e-38
-0.0080587678 -0.13407536 -0.00062277913 2.3501188e-38
-0.0062614791 -0.13407536 -0.00062277913 2.3509133e-38
-0.0044248663 -0.13161351 0.0083491504 2.2217689e-38
-0.0026433095 -0.13161351 0.0083491504 2.2958863e-38
-0.00085907429 -0.13077454 0.01140663 2.176319e-38
0.00091712177 -0.13077454 0.01140663 2.2591133e-38
0.002693316 -0.13077454 0.01140663 2.332581e-38
0.004469512 -0.13077454 0.01140663 2.3507677e-38
0.0062644696 -0.13161351 0.0083491504 2.3509116e-38
0.0080460254 -0.13161351 0.0083491504 2.3508397e-38
0.0098275812 -0.13161351 0.0083491504 2.350732e-38
0.011609137 -0.13161351 0.0083491504 2.3501562e-38
0.013390694 -0.13161351 0.0083491504 1.9995614e-38
0.01517225 -0.13161351 0.0083491504 1.1975684e-38
0.016953805 -0.13161351 0.0083491504 3.3111015e-39
0.018735362 -0.13161351 0.0083491504 3.774609e-39
0.020516917 -0.13161351 0.0083491504 5.5284896e-39
0.022298474 -0.13161351 0.0083491504 4.6079752e-39
0.023866594 -0.12913923 0.01736626 7.0986978e-39
0.02563234 -0.12913923 0.01736626 1.4566544e-38
0.036118861 -0.12831511 0.020369738 4.1520403e-39
0.037766788 -0.12749584 0.023355454 7.010458e-39
-0.053593688 -0.14913605 -0.04865244 7.3738217e-39
-0.051712193 -0.14913605 -0.04865244 7.4659865e-39
-0.049688078 -0.14828841 -0.04558292 1.3364715e-38
-0.047680534 -0.14747669 -0.042643577 1.6311778e-38
-0.045635886 -0.14636014 -0.038600236 1.142432e-38
-0.043647893 -0.14552824 -0.035587817 1.2624232e-38
-0.041671131 -0.14470108 -0.032592446 2.2211845e-38
-0.039705515 -0.14387859 -0.029614002 2.2393038e-38
-0.037857395 -0.14387859 -0.029614002 2.2114658e-38
-0.035870653 -0.14275892 -0.025559455 2.3036222e-38
-0.034029644 -0.14275892 -0.025559455 1.741263e-38
-0.032188635 -0.14275892 -0.025559455 1.6121535e-38
-0.030347623 -0.14275892 -0.025559455 1.8612263e-38
-0.028506614 -0.14275892 -0.025559455 1.7048906e-38
-0.026513837 -0.14111041 -0.019589812 1.1980673e-38
-0.024683297 -0.14111041 -0.019589812 1.0691375e-38
-0.022852756 -0.14111041 -0.019589812 1.1428234e-38
-0.020961456 -0.14027832 -0.016576678 1.3363287e-38
-0.019081049 -0.13945107 -0.013580948 1.3823186e-38
-0.017195541 -0.13836516 -0.0096487105 1.474296e-38
-0.015382431 -0.13836516 -0.0096487105 1.6767663e-38
-0.013529062 -0.13751976 -0.0065872967 1.8146653e-38
-0.011687826 -0.13670824 -0.0036486685 1.9437028e-38
-0.0098560527 -0.13587265 -0.00062277913 1.8332825e-38
-0.0080587678 -0.13587265 -0.00062277913 2.3500106e-38
-0.0062614791 -0.13587265 -0.00062277913 2.2489583e-38
-0.0044248663 -0.13339506 0.0083491504 1.5026795e-38
-0.0026433095 -0.13339506 0.0083491504 1.5309146e-38
-0.00085907429 -0.13255073 0.01140663 1.5309495e-38
0.00091712177 -0.13255073 0.01140663 1.6411859e-38
0.002693316 -0.13255073 0.01140663 2.1570842e-38
0.004469512 -0.13255073 0.01140663 2.3509108e-38
0.0062457062 -0.13255073 0.01140663 2.3508748e-38
0.0080219023 -0.13255073 0.01140663 2.3502265e-38
0.0097980974 -0.13255073 0.01140663 2.2942256e-38
0.011609137 -0.13339506 0.0083491504 2.2940462e-38
0.013390694 -0.13339506 0.0083491504 2.211107e-38
0.01517225 -0.13339506 0.0083491504 1.4922342e-38
0.016902879 -0.13255073 0.01140663 2.1122164e-39
0.018679073 -0.13255073 0.01140663 7.6450248e-39
0.020455269 -0.13255073 0.01140663 2.2030065e-38
0.022231463 -0.13255073 0.01140663 2.350916e-38
0.023866594 -0.13090499 0.01736626 2.2772674e-38
0.02563234 -0.13090499 0.01736626 2.3418045e-38
0.027398087 -0.13090499 0.01736626 2.3142544e-38
0.029076941 -0.13007559 0.020369738 2.2958873e-38
0.030837422 -0.13007559 0.020369738 2.2867037e-38
0.032597903 -0.13007559 0.020369738 2.2958873e-38
0.034358382 -0.13007559 0.020369738 2.2130191e-38
0.036011543 -0.12925108 0.023355454 2.0470667e-38
-0.047680534 -0.14934768 -0.042643577 1.6034473e-38
-0.045635886 -0.14822401 -0.038600236 1.096262e-38
-0.043647893 -0.14738683 -0.035587817 1.3360362e-38
-0.041671131 -0.14655443 -0.032592446 1.9536732e-38
-0.039705515 -0.1457267 -0.029614002 1.9901593e-38
-0.037857395 -0.1457267 -0.029614002 2.2296888e-38
-0.035870653 -0.14459993 -0.025559455 2.3495773e-38
-0.034029644 -0.14459993 -0.025559455 1.0863877e-38
-0.032188635 -0.14459993 -0.025559455 1.0125585e-38
-0.030347623 -0.14459993 -0.025559455 1.7504475e-38
-0.028426744 -0.14378314 -0.02262035 1.7786833e-38
-0.026513837 -0.14294095 -0.019589812 9.308083e-39
-0.024683297 -0.14294095 -0.019589812 1.0415512e-38
-0.022786714 -0.1421036 -0.016576678 1.8251433e-38
-0.020961456 -0.1421036 -0.016576678 1.9356004e-38
-0.019081049 -0.14127107 -0.013580948 1.6312468e-38
-0.017195541 -0.14017828 -0.0096487105 1.5387611e-38
-0.015382431 -0.14017828 -0.0096487105 1.8610854e-38
-0.013529062 -0.13932751 -0.0065872967 2.1095831e-38
-0.011687826 -0.13851084 -0.0036486685 2.0265347e-38
-0.0098560527 -0.13766994 -0.00062277913 1.8331384e-38
-0.0080587678 -0.13766994 -0.00062277913 2.1009025e-38
-0.0062430203 -0.13683395 0.0023854673 1.8433697e-38
-0.0044248663 -0.13517661 0.0083491504 8.4823497e-39
-0.0026433095 -0.13517661 0.0083491504 6.3672564e-39
-0.00085907429 -0.13432692 0.01140663 1.1345806e-38
0.00091712177 -0.13432692 0.01140663 1.5210787e-38
0.002693316 -0.13432692 0.01140663 2.1567225e-38
0.004469512 -0.13432692 0.01140663 2.3503336e-38
0.0062457062 -0.13432692 0.01140663 2.3501175e-38
0.0080219023 -0.13432692 0.01140663 2.3216308e-38
0.0097980974 -0.13432692 0.01140663 2.0356088e-38
0.011574293 -0.13432692 0.01140663 2.0078431e-38
0.013350488 -0.13432692 0.01140663 2.1369181e-38
0.015126683 -0.13432692 0.01140663 2.035792e-38
0.016902879 -0.13432692 0.01140663 9.2980553e-39
0.018679073 -0.13432692 0.01140663 1.1422522e-38
0.02039399 -0.13348235 0.014445752 2.322789e-38
0.022164857 -0.13348235 0.014445752 2.350952e-38
0.023866594 -0.13267075 0.01736626 2.2680841e-38
0.025555981 -0.13183604 0.020369738 2.3142541e-38
0.027316462 -0.13183604 0.020369738 2.1392986e-38
0.029076941 -0.13183604 0.020369738 2.2867037e-38
0.030837422 -0.13183604 0.020369738 2.1577744e-38
0.032501053 -0.13100632 0.023355454 2.2867037e-38
0.034256298 -0.13100632 0.023355454 2.2867037e-38
-0.045506485 -0.14924543 -0.035587817 8.9332371e-39
-0.043647893 -0.14924543 -0.035587817 1.1975642e-38
-0.041671131 -0.14840777 -0.032592446 1.9720421e-38
-0.039705515 -0.14757483 -0.029614002 1.9625724e-38
-0.037857395 -0.14757483 -0.029614002 1.630489e-38
-0.035870653 -0.14644094 -0.025559455 1.7964045e-38
-0.034029644 -0.14644094 -0.025559455 7.8218014e-39
-0.032188635 -0.14644094 -0.025559455 1.0311785e-38
-0.030347623 -0.14644094 -0.025559455 1.5937158e-38
-0.028426744 -0.14561899 -0.02262035 1.3267815e-38
-0.026513837 -0.1447715 -0.019589812 7.7378832e-39
-0.024611976 -0.14392884 -0.016576678 1.0228607e-38
-0.022786714 -0.14392884 -0.016576678 1.7789376e-38
-0.020901054 -0.14309107 -0.013580948 1.8803908e-38
-0.019081049 -0.14309107 -0.013580948 2.0277959e-38
-0.017195541 -0.14199139 -0.0096487105 2.0275784e-38
-0.015336804 -0.14113526 -0.0065872967 2.0826797e-38
-0.013529062 -0.14113526 -0.0065872967 2.1652612e-38
-0.011687826 -0.14031343 -0.0036486685 1.8516881e-38
-0.0098270439 -0.13862596 0.0023854673 1.6582201e-38
-0.0080350302 -0.13862596 0.0023854673 1.6676923e-38
-0.0062430203 -0.13862596 0.0023854673 1.2532461e-38
-0.0044378974 -0.13778962 0.0053760707 2.6725803e-39
-0.0026433095 -0.13695817 0.0083491504 2.6772634e-39
-0.00085907429 -0.13610314 0.01140663 1.6321122e-38
0.00091712177 -0.13610314 0.01140663 1.7880856e-38
0.002693316 -0.13610314 0.01140663 2.0733863e-38
0.004469512 -0.13610314 0.01140663 1.953172e-38
0.0062457062 -0.13610314 0.01140663 2.0357883e-38
0.0079979235 -0.13525321 0.014445752 2.3120159e-38
0.0097687896 -0.13525321 0.014445752 2.256483e-38
0.011574293 -0.13610314 0.01140663 2.1826914e-38
0.013350488 -0.13610314 0.01140663 2.2289698e-38
0.015126683 -0.13610314 0.01140663 2.183305e-38
0.016852256 -0.13525321 0.014445752 2.3500864e-38
0.018623123 -0.13525321 0.014445752 2.3505194e-38
0.020335102 -0.13443647 0.01736626 2.3508797e-38
0.022100849 -0.13443647 0.01736626 2.3509521e-38
0.023866594 -0.13443647 0.01736626 2.3049626e-38
0.025555981 -0.13359652 0.020369738 2.3142544e-38
0.027316462 -0.13359652 0.020369738 2.2958873e-38
0.029076941 -0.13359652 0.020369738 2.2958873e-38
0.030837422 -0.13359652 0.020369738 2.2867037e-38
0.032501053 -0.13276155 0.023355454 2.1301146e-38
0.034256298 -0.13276155 0.023355454 1.530843e-38
0.036011543 -0.13276155 0.023355454 1.3003548e-38
0.037539992 -0.13107903 0.029371828 1.0237319e-38
0.039284687 -0.13107903 0.029371828 7.5629269e-39
-0.039705515 -0.14942293 -0.029614002 1.8244595e-38
-0.037857395 -0.14942293 -0.029614002 1.7230443e-38
-0.035870653 -0.14828195 -0.025559455 1.5017396e-38
-0.034029644 -0.14828195 -0.025559455 5.8911078e-39
-0.032188635 -0.14828195 -0.025559455 6.9059674e-39
-0.030347623 -0.14828195 -0.025559455 1.2713207e-38
-0.028426744 -0.14745484 -0.02262035 1.3079116e-38
-0.026513837 -0.14660202 -0.019589812 1.1880573e-38
-0.024611976 -0.14575411 -0.016576678 1.08693e-38
-0.022786714 -0.14575411 -0.016576678 1.9262348e-38
-0.020821765 -0.14380451 -0.0096487105 1.9634019e-38
-0.019008655 -0.14380451 -0.0096487105 1.8529476e-38
-0.01714455 -0.14294298 -0.0065872967 1.7884109e-38
-0.01529301 -0.14211603 -0.0036486685 1.7422417e-38
-0.013450626 -0.14126451 -0.00062277913 1.7142604e-38
-0.011619058 -0.14041798 0.0023854673 1.8431188e-38
-0.0098270439 -0.14041798 0.0023854673 1.2714337e-38
-0.0080114361 -0.13957639 0.0053760707 1.1700185e-38
-0.0062246658 -0.13957639 0.0053760707 1.1609787e-38
-0.0044248663 -0.13873972 0.0083491504 3.4987298e-39
-0.0026433095 -0.13873972 0.0083491504 4.8834579e-39
-0.00085907429 -0.13787933 0.01140663 1.8527321e-38
0.00091712177 -0.13787933 0.01140663 1.9444937e-38
0.002693316 -0.13787933 0.01140663 1.6951688e-38
0.0044561904 -0.13702409 0.014445752 1.7315436e-38
0.0062270574 -0.13702409 0.014445752 1.8694417e-38
0.0079979235 -0.13702409 0.014445752 2.2379371e-38
0.0097687896 -0.13702409 0.014445752 2.2470489e-38
0.011539657 -0.13702409 0.014445752 2.1549622e-38
0.013310523 -0.13702409 0.014445752 2.1922008e-38
0.01508139 -0.13702409 0.014445752 2.2572784e-38
0.016852256 -0.13702409 0.014445752 2.3500507e-38
0.018569356 -0.13620223 0.01736626 2.3508435e-38
0.020335102 -0.13620223 0.01736626 2.3231492e-38
0.022100849 -0.13620223 0.01736626 2.3509527e-38
0.023795502 -0.13535701 0.020369738 2.341805e-38
0.025555981 -0.13535701 0.020369738 2.3417333e-38
0.027316462 -0.13535701 0.020369738 2.3325138e-38
0.029076941 -0.13535701 0.020369738 2.2864153e-38
0.030837422 -0.13535701 0.020369738 2.2773388e-38
0.032597903 -0.13535701 0.020369738 1.7521107e-38
0.034256298 -0.13451682 0.023355454 1.3188643e-38
0.036011543 -0.13451682 0.023355454 1.2635859e-38
0.037539992 -0.13282375 0.029371828 1.088344e-38
0.039284687 -0.13282375 0.029371828 7.1026999e-39
0.041029386 -0.13282375 0.029371828 5.626111e-39
0.042774081 -0.13282375 0.029371828 6.8242493e-39
-0.028426744 -0.14929073 -0.02262035 1.4092194e-38
-0.026513837 -0.14843257 -0.019589812 1.9438822e-38
-0.024611976 -0.14757936 -0.016576678 1.9441699e-38
-0.022786714 -0.14757936 -0.016576678 1.8246754e-38
-0.020821765 -0.14561762 -0.0096487105 1.3272872e-38
-0.019008655 -0.14561762 -0.0096487105 1.0324417e-38
-0.01714455 -0.14475073 -0.0065872967 1.0418059e-38
-0.015247915 -0.1430618 -0.00062277913 9.126968e-39
-0.013411067 -0.14220999 0.0023854673 1.1060929e-38
-0.011584975 -0.14136316 0.0053760707 1.142792e-38
-0.0097982045 -0.14136316 0.0053760707 1.0504166e-38
-0.0080114361 -0.14136316 0.0053760707 1.0318695e-38
-0.0062246658 -0.14136316 0.0053760707 7.4609825e-39
-0.0044248663 -0.14052127 0.0083491504 2.3905928e-39
-0.0026352685 -0.13965552 0.01140663 7.5538829e-39
-0.00085907429 -0.13965552 0.01140663 2.1013355e-38
0.00091712177 -0.13965552 0.01140663 2.0733877e-38
0.0026853234 -0.13879494 0.014445752 1.446205e-38
0.0044561904 -0.13879494 0.014445752 1.1783704e-38
0.0062270574 -0.13879494 0.014445752 1.1779393e-38
0.0079979235 -0.13879494 0.014445752 1.7769238e-38
0.0097687896 -0.13879494 0.014445752 2.3488975e-38
0.011539657 -0.13879494 0.014445752 2.2933646e-38
0.013310523 -0.13879494 0.014445752 2.3030165e-38
0.015037864 -0.13796796 0.01736626 2.350447e-38
0.016803611 -0.13796796 0.01736626 2.3508072e-38
0.018569356 -0.13796796 0.01736626 2.3509517e-38
0.020274542 -0.13711749 0.020369738 2.350988e-38
0.022035021 -0.13711749 0.020369738 2.341805e-38
0.023795502 -0.13711749 0.020369738 2.341805e-38
0.025555981 -0.13711749 0.020369738 2.3509168e-38
0.027316462 -0.13711749 0.020369738 2.3509168e-38
0.029076941 -0.13711749 0.020369738 2.3509524e-38
0.03074581 -0.13627206 0.023355454 1.8992283e-38
0.032501053 -0.13627206 0.023355454 1.9732712e-38
0.034256298 -0.13627206 0.023355454 2.0471367e-38
0.036011543 -0.13627206 0.023355454 1.5400286e-38
0.037539992 -0.13456844 0.029371828 1.3648592e-38
0.039165158 -0.13371049 0.032401711 1.088093e-38
0.040904544 -0.13371049 0.032401711 5.532842e-39
0.042643927 -0.13371049 0.032401711 7.7447678e-39
0.04438331 -0.13371049 0.032401711 1.0510251e-38
-0.024611976 -0.14940463 -0.016576678 1.9166555e-38
-0.022786714 -0.14940463 -0.016576678 1.8523699e-38
-0.020821765 -0.14743073 -0.0096487105 1.5207171e-38
-0.019008655 -0.14743073 -0.0096487105 1.0876135e-38
-0.01714455 -0.14655848 -0.0065872967 1.1338555e-38
-0.015247915 -0.14485909 -0.00062277913 1.1246363e-38
-0.013411067 -0.14400201 0.0023854673 1.2444556e-38
-0.011584975 -0.14314993 0.0053760707 8.1099308e-39
-0.0097982045 -0.14314993 0.0053760707 9.4910716e-39
-0.0080114361 -0.14314993 0.0053760707 9.3981599e-39
-0.0062246658 -0.14314993 0.0053760707 5.3408361e-39
-0.0044248663 -0.14230286 0.0083491504 4.0500945e-39
-0.0026352685 -0.1414317 0.01140663 1.0042087e-38
-0.00085907429 -0.1414317 0.01140663 1.9722261e-38
0.00091712177 -0.1414317 0.01140663 2.0274698e-38
0.0026853234 -0.14056583 0.014445752 1.1421755e-38
0.0044561904 -0.14056583 0.014445752 7.9143698e-39
0.0062270574 -0.14056583 0.014445752 7.2657662e-39
0.0079748807 -0.13973372 0.01736626 1.2148907e-38
0.0097406264 -0.13973372 0.01736626 2.1183725e-38
0.011506372 -0.13973372 0.01736626 2.1831619e-38
0.013272119 -0.13973372 0.01736626 2.3505551e-38
0.015037864 -0.13973372 0.01736626 2.3507352e-38
0.016803611 -0.13973372 0.01736626 2.3508074e-38
0.018514063 -0.13887797 0.020369738 2.3325483e-38
0.020274542 -0.13887797 0.020369738 2.3050703e-38
0.022035021 -0.13887797 0.020369738 2.2497173e-38
0.023795502 -0.13887797 0.020369738 2.3141467e-38
0.025480075 -0.1380273 0.023355454 2.3416615e-38
0.02723532 -0.1380273 0.023355454 2.3047115e-38
0.028990565 -0.1380273 0.023355454 2.0374521e-38
0.030651717 -0.13715358 0.026422054 2.1204628e-38
0.032401584 -0.13715358 0.026422054 2.2404946e-38
0.034151454 -0.13715358 0.026422054 2.0376285e-38
0.036011543 -0.1380273 0.023355454 1.7424974e-38
0.037539992 -0.13631313 0.029371828 2.0835512e-38
0.039165158 -0.13544987 0.032401711 1.9174923e-38
0.040904544 -0.13544987 0.032401711 1.6408681e-38
0.042643927 -0.13544987 0.032401711 1.1523715e-38
0.04438331 -0.13544987 0.032401711 1.346016e-38
-0.022634879 -0.14924385 -0.0096487105 1.6586869e-38
-0.020760037 -0.14836623 -0.0065872967 1.8063069e-38
-0.018898197 -0.14752381 -0.0036486685 1.5483021e-38
-0.0170452 -0.14665638 -0.00062277913 1.5669209e-38
-0.015203081 -0.14579402 0.0023854673 1.566957e-38
-0.013371743 -0.1449367 0.0053760707 1.5116765e-38
-0.011584975 -0.1449367 0.0053760707 6.9117253e-39
-0.0097982045 -0.1449367 0.0053760707 8.2010334e-39
-0.0080114361 -0.1449367 0.0053760707 8.0162904e-39
-0.0062246658 -0.1449367 0.0053760707 5.3411878e-39
-0.0044248663 -0.14408441 0.0083491504 7.8290363e-39
-0.0026433095 -0.14408441 0.0083491504 1.2806161e-38
-0.00085907429 -0.14320792 0.01140663 1.9352405e-38
0.00091712177 -0.14320792 0.01140663 1.8708458e-38
0.002693316 -0.14320792 0.01140663 1.179306e-38
0.0044561904 -0.14233668 0.014445752 7.5491872e-39
0.0062091351 -0.14149947 0.01736626 2.8469004e-39
0.0079748807 -0.14149947 0.01736626 7.4508917e-39
0.0097116632 -0.14063846 0.020369738 1.8514016e-38
0.011472143 -0.14063846 0.020369738 2.1559358e-38
0.013272119 -0.14149947 0.01736626 2.3500151e-38
0.014993102 -0.14063846 0.020369738 2.3508434e-38
0.016753582 -0.14063846 0.020369738 2.3509513e-38
0.018514063 -0.14063846 0.020369738 2.2865587e-38
0.020274542 -0.14063846 0.020369738 2.295887e-38
0.022035021 -0.14063846 0.020369738 2.3142544e-38
0.023795502 -0.14063846 0.020369738 2.341805e-38
0.025480075 -0.13978253 0.023355454 2.3509527e-38
0.02715198 -0.13890342 0.026422054 2.203296e-38
0.028901849 -0.13890342 0.026422054 1.963732e-38
0.030651717 -0.13890342 0.026422054 2.3509883e-38
0.032401584 -0.13890342 0.026422054 1.9913506e-38
0.034151454 -0.13890342 0.026422054 1.2167629e-38
0.035901319 -0.13890342 0.026422054 1.4194509e-38
0.037539992 -0.13805781 0.029371828 2.3320452e-38
0.039284687 -0.13805781 0.029371828 2.101486e-38
0.041029386 -0.13805781 0.029371828 1.8711045e-38
0.042774081 -0.13805781 0.029371828 1.4748769e-38
0.044518776 -0.13805781 0.029371828 1.3275421e-38
0.047862079 -0.13718925 0.032401711 1.3275769e-38
0.049601462 -0.13718925 0.032401711 1.4195935e-38
0.051340844 -0.13718925 0.032401711 1.3548765e-38
0.053080231 -0.13718925 0.032401711 1.1335336e-38
-0.018842489 -0.14845367 -0.00062277913 1.9904081e-38
-0.0170452 -0.14845367 -0.00062277913 1.9537448e-38
-0.015158512 -0.14672346 0.0053760707 1.7510584e-38
-0.013332646 -0.14586596 0.0083491504 1.4838717e-38
-0.01155109 -0.14586596 0.0083491504 7.2797665e-39
-0.0097982045 -0.14672346 0.0053760707 8.1095398e-39
-0.0080114361 -0.14672346 0.0053760707 6.4493136e-39
-0.0062246658 -0.14672346 0.0053760707 4.5114216e-39
-0.0044248663 -0.14586596 0.0083491504 8.3818471e-39
-0.0026433095 -0.14586596 0.0083491504 1.2896922e-38
-0.00085907429 -0.14498411 0.01140663 1.9074742e-38
0.00091712177 -0.14498411 0.01140663 1.7787944e-38
0.002693316 -0.14498411 0.01140663 8.8460399e-39
0.0044561904 -0.14410757 0.014445752 6.9063443e-39
0.0062091351 -0.1432652 0.01736626 4.4156372e-39
0.0079748807 -0.1432652 0.01736626 5.2425196e-39
0.0097116632 -0.14239894 0.020369738 6.0726502e-39
0.011472143 -0.14239894 0.020369738 1.5570609e-38
0.013272119 -0.1432652 0.01736626 2.3508077e-38
0.014993102 -0.14239894 0.020369738 2.3509517e-38
0.016753582 -0.14239894 0.020369738 2.350988e-38
0.018514063 -0.14239894 0.020369738 2.2591519e-38
0.020274542 -0.14239894 0.020369738 2.2867034e-38
0.022035021 -0.14239894 0.020369738 2.3142538e-38
0.02372483 -0.14153777 0.023355454 2.3049621e-38
0.025480075 -0.14153777 0.023355454 2.2770876e-38
0.02715198 -0.1406533 0.026422054 2.0281599e-38
0.028901849 -0.1406533 0.026422054 1.9821356e-38
0.030561207 -0.13980253 0.029371828 2.2495018e-38
0.032207623 -0.13892864 0.032401711 2.00961e-38
0.03394701 -0.13892864 0.032401711 1.1795958e-38
0.035686392 -0.13892864 0.032401711 1.0042086e-38
0.037539992 -0.13980253 0.029371828 1.9721562e-38
0.039165158 -0.13892864 0.032401711 2.2025758e-38
0.040904544 -0.13892864 0.032401711 1.870816e-38
0.042643927 -0.13892864 0.032401711 1.2534641e-38
0.04438331 -0.13892864 0.032401711 1.1153491e-38
0.046263475 -0.13980253 0.029371828 9.680139e-39
0.047862079 -0.13892864 0.032401711 1.1338933e-38
0.049601462 -0.13892864 0.032401711 1.3273239e-38
0.051340844 -0.13892864 0.032401711 1.3362557e-38
0.053080231 -0.13892864 0.032401711 1.2437716e-38
0.054819614 -0.13892864 0.032401711 9.3952746e-39
-0.016995095 -0.14937802 0.0023854673 1.8978875e-38
-0.015158512 -0.14851023 0.0053760707 1.7045641e-38
-0.013332646 -0.14764751 0.0083491504 1.4744352e-38
-0.01155109 -0.14764751 0.0083491504 8.3843036e-39
-0.0097695328 -0.14764751 0.0083491504 8.1095314e-39
-0.0079879779 -0.14764751 0.0083491504 6.0805227e-39
-0.006206423 -0.14764751 0.0083491504 5.3404577e-39
-0.0044248663 -0.14764751 0.0083491504 9.7633411e-39
-0.0026433095 -0.14764751 0.0083491504 1.381636e-38
-0.00085907429 -0.1467603 0.01140663 1.8704523e-38
0.00091712177 -0.1467603 0.01140663 1.7142939e-38
0.002693316 -0.1467603 0.01140663 5.8975846e-39
0.0044561904 -0.14587842 0.014445752 3.0370286e-39
0.0062091351 -0.14503096 0.01736626 1.5612034e-39
0.0079748807 -0.14503096 0.01736626 2.6653818e-39
0.0096828705 -0.14329304 0.023355454 2.1125751e-39
0.011438115 -0.14329304 0.023355454 1.29009e-38
0.013272119 -0.14503096 0.01736626 2.2676521e-38
0.014993102 -0.14415942 0.020369738 2.31411e-38
0.016753582 -0.14415942 0.020369738 2.3142544e-38
0.018514063 -0.14415942 0.020369738 2.22231e-38
0.020274542 -0.14415942 0.020369738 2.2407488e-38
0.021969585 -0.14329304 0.023355454 2.3234372e-38
0.02372483 -0.14329304 0.023355454 1.9638018e-38
0.025480075 -0.14329304 0.023355454 1.9912803e-38
0.02715198 -0.14240317 0.026422054 1.9173807e-38
0.028901849 -0.14240317 0.026422054 2.2033688e-38
0.030561207 -0.14154722 0.029371828 2.12032e-38
0.032207623 -0.14066802 0.032401711 1.9264897e-38
0.03394701 -0.14066802 0.032401711 1.5114275e-38
0.035686392 -0.14066802 0.032401711 1.5203588e-38
0.037539992 -0.14154722 0.029371828 1.8889987e-38
0.039165158 -0.14066802 0.032401711 1.4279873e-38
0.040904544 -0.14066802 0.032401711 1.5612034e-39
0.042643927 -0.14066802 0.032401711 3.1288893e-39
0.04438331 -0.14066802 0.032401711 5.897621e-39
0.046263475 -0.14154722 0.029371828 6.0837849e-39
0.04800817 -0.14154722 0.029371828 5.8075372e-39
0.049752865 -0.14154722 0.029371828 6.5422197e-39
0.051340844 -0.14066802 0.032401711 7.5534948e-39
0.053080231 -0.14066802 0.032401711 1.0130665e-38
0.054986954 -0.14154722 0.029371828 1.1053358e-38
0.056731649 -0.14154722 0.029371828 1.0874746e-38
-0.013332646 -0.14942907 0.0083491504 1.4279421e-38
-0.01155109 -0.14942907 0.0083491504 7.9211703e-39
-0.0097695328 -0.14942907 0.0083491504 7.3701685e-39
-0.0079879779 -0.14942907 0.0083491504 6.2641951e-39
-0.006206423 -0.14942907 0.0083491504 6.6297546e-39
-0.0044248663 -0.14942907 0.0083491504 1.1790203e-38
-0.0026352685 -0.14853649 0.01140663 1.5566992e-38
-0.00085907429 -0.14853649 0.01140663 1.7873321e-38
0.00091712177 -0.14853649 0.01140663 1.4469987e-38
0.0026853234 -0.14764927 0.014445752 1.6580612e-39
0.0044433884 -0.14679669 0.01736626 1.4718791e-39
0.0061907033 -0.1459199 0.020369738 2.1158037e-39
0.0079511832 -0.1459199 0.020369738 1.4700854e-39
0.0096828705 -0.14504828 0.023355454 9.1835496e-40
0.011438115 -0.14504828 0.023355454 9.8613297e-39
0.013232622 -0.1459199 0.020369738 2.3509527e-38
0.014948606 -0.14504828 0.023355454 2.3142544e-38
0.01670385 -0.14504828 0.023355454 2.2958873e-38
0.01840264 -0.14415304 0.026422054 2.2867037e-38
0.020152507 -0.14415304 0.026422054 2.2958867e-38
0.021969585 -0.14504828 0.023355454 2.341804e-38
0.023652244 -0.14415304 0.026422054 1.5211542e-38
0.025402112 -0.14415304 0.026422054 1.603914e-38
0.027071815 -0.14329191 0.029371828 1.8158569e-38
0.028816512 -0.14329191 0.029371828 2.0465275e-38
0.03046824 -0.1424074 0.032401711 1.954259e-38
0.032207623 -0.1424074 0.032401711 1.6683417e-38
0.03394701 -0.1424074 0.032401711 1.4837684e-38
0.035686392 -0.1424074 0.032401711 1.6218453e-38
0.037425775 -0.1424074 0.032401711 1.2990537e-38
0.039165158 -0.1424074 0.032401711 9.7629977e-39
0.040904544 -0.1424074 0.032401711 2.0203809e-39
0.042643927 -0.1424074 0.032401711 1.2856969e-39
0.04438331 -0.1424074 0.032401711 6.5411856e-39
0.046263475 -0.14329191 0.029371828 8.5716138e-39
0.04800817 -0.14329191 0.029371828 7.9265821e-39
0.049752865 -0.14329191 0.029371828 6.9106211e-39
0.05149756 -0.14329191 0.029371828 5.800703e-39
0.053242259 -0.14329191 0.029371828 9.1165129e-39
0.054986954 -0.14329191 0.029371828 1.363484e-38
0.056731649 -0.14329191 0.029371828 1.1427917e-38
0.0026853234 -0.14942016 0.014445752 9.2014862e-40
0.0044433884 -0.14856245 0.01736626 2.2105091e-39
0.0061907033 -0.14768039 0.020369738 1.4718791e-39
0.0079511832 -0.14768039 0.020369738 6.4284847e-40
0.0096828705 -0.14680351 0.023355454 2.8551793e-39
0.011438115 -0.14680351 0.023355454 1.0693254e-38
0.013193361 -0.14680351 0.023355454 2.341805e-38
0.014902903 -0.14590292 0.026422054 2.2681931e-38
0.016603637 -0.14503662 0.029371828 2.2867037e-38
0.018348334 -0.14503662 0.029371828 2.2958873e-38
0.020093029 -0.14503662 0.029371828 2.2958504e-38
0.021837726 -0.14503662 0.029371828 2.2956698e-38
0.023582423 -0.14503662 0.029371828 1.0415929e-38
0.025250088 -0.14414679 0.032401711 1.1059134e-38
0.026989473 -0.14414679 0.032401711 1.5207222e-38
0.028728856 -0.14414679 0.032401711 1.3917576e-38
0.03046824 -0.14414679 0.032401711 1.1520484e-38
0.032207623 -0.14414679 0.032401711 1.2811553e-38
0.03394701 -0.14414679 0.032401711 1.7328404e-38
0.037539992 -0.14503662 0.029371828 3.7731475e-39
0.039284687 -0.14503662 0.029371828 2.2047694e-39
0.041029386 -0.14503662 0.029371828 1.3775324e-39
0.042774081 -0.14503662 0.029371828 1.6530389e-39
0.044518776 -0.14503662 0.029371828 7.8308342e-39
0.046263475 -0.14503662 0.029371828 1.0690299e-38
0.04800817 -0.14503662 0.029371828 1.1612951e-38
0.049752865 -0.14503662 0.029371828 9.9519867e-39
0.05149756 -0.14503662 0.029371828 5.1557022e-39
0.053242259 -0.14503662 0.029371828 6.3520887e-39
0.054986954 -0.14503662 0.029371828 1.2253713e-38
0.056899738 -0.14590292 0.026422054 1.1059134e-38
0.0061907033 -0.14944084 0.020369738 1.1956551e-39
0.0079511832 -0.14944084 0.020369738 5.5101298e-40
0.0096828705 -0.14855875 0.023355454 2.6715125e-39
0.011438115 -0.14855875 0.023355454 1.3091063e-38
0.013153035 -0.14765279 0.026422054 2.3049273e-38
0.014902903 -0.14765279 0.026422054 2.3142544e-38
0.016603637 -0.14678131 0.029371828 2.3142544e-38
0.018348334 -0.14678131 0.029371828 2.2958151e-38
0.020093029 -0.14678131 0.029371828 2.2772674e-38
0.021837726 -0.14678131 0.029371828 2.0742564e-38
0.023510706 -0.14588617 0.032401711 8.2017929e-39
0.025250088 -0.14588617 0.032401711 1.004354e-38
0.026989473 -0.14588617 0.032401711 1.3085277e-38
0.028641732 -0.14499645 0.035413235 1.3269318e-38
0.030375836 -0.14499645 0.035413235 9.5836413e-39
0.032207623 -0.14588617 0.032401711 1.0783604e-38
0.03394701 -0.14588617 0.032401711 1.5855792e-38
0.035398047 -0.14351611 0.0404239 1.3920402e-38
0.039165158 -0.14588617 0.032401711 9.1835496e-40
0.040904544 -0.14588617 0.032401711 1.0101905e-39
0.042643927 -0.14588617 0.032401711 1.3775324e-39
0.04438331 -0.14588617 0.032401711 1.0503414e-38
0.046263475 -0.14678131 0.029371828 1.1425689e-38
0.04800817 -0.14678131 0.029371828 1.0781019e-38
0.049752865 -0.14678131 0.029371828 1.1611858e-38
0.051340844 -0.14588617 0.032401711 5.4337198e-39
0.053080231 -0.14588617 0.032401711 6.9996274e-39
0.054819614 -0.14588617 0.032401711 1.1333926e-38
0.056558996 -0.14588617 0.032401711 1.2627905e-38
0.058298383 -0.14588617 0.032401711 1.1707389e-38
0.013153035 -0.14940263 0.026422054 2.341805e-38
0.014858942 -0.148526 0.029371828 2.2957079e-38
0.016553169 -0.14762555 0.032401711 2.341805e-38
0.018292554 -0.14762555 0.032401711 2.3048907e-38
0.020031938 -0.14762555 0.032401711 1.9267799e-38
0.021771321 -0.14762555 0.032401711 1.5393416e-38
0.023510706 -0.14762555 0.032401711 4.9742256e-39
0.025250088 -0.14762555 0.032401711 7.7382882e-39
0.026989473 -0.14762555 0.032401711 9.2126966e-39
0.028641732 -0.14673056 0.035413235 9.4882073e-39
0.030375836 -0.14673056 0.035413235 3.8664221e-39
0.031947412 -0.14524142 0.0404239 8.2024795e-39
0.033672728 -0.14524142 0.0404239 1.4934914e-38
0.035398047 -0.14524142 0.0404239 1.1248532e-38
0.037123367 -0.14524142 0.0404239 2.7694142e-40
0.039165158 -0.14762555 0.032401711 9.2086609e-40
0.040904544 -0.14762555 0.032401711 7.3468397e-40
0.042643927 -0.14762555 0.032401711 6.4471809e-39
0.04438331 -0.14762555 0.032401711 1.2622821e-38
0.046122696 -0.14762555 0.032401711 1.1148733e-38
0.047862079 -0.14762555 0.032401711 1.5113852e-38
0.049752865 -0.148526 0.029371828 1.3639809e-38
0.051340844 -0.14762555 0.032401711 8.4772419e-39
0.053080231 -0.14762555 0.032401711 5.8039722e-39
0.054819614 -0.14762555 0.032401711 9.0319207e-39
0.056558996 -0.14762555 0.032401711 1.023118e-38
0.058298383 -0.14762555 0.032401711 8.8493245e-39
0.060037766 -0.14762555 0.032401711 8.6649361e-39
0.016553169 -0.14936493 0.032401711 2.3324775e-38
0.018292554 -0.14936493 0.032401711 2.1664531e-38
0.020031938 -0.14936493 0.032401711 1.6592684e-38
0.021771321 -0.14936493 0.032401711 1.2534992e-38
0.023510706 -0.14936493 0.032401711 4.421049e-39
0.025250088 -0.14936493 0.032401711 8.0152366e-39
0.026989473 -0.14936493 0.032401711 8.5673272e-39
0.028641732 -0.14846466 0.035413235 5.8929309e-39
0.030375836 -0.14846466 0.035413235 2.6675342e-39
0.031947412 -0.14696677 0.0404239 8.3872225e-39
0.033672728 -0.14696677 0.0404239 1.1709143e-38
0.035398047 -0.14696677 0.0404239 7.1933695e-39
0.037123367 -0.14696677 0.0404239 1.793662e-42
0.038848683 -0.14696677 0.0404239 8.3010679e-40
0.040780459 -0.14846466 0.035413235 2.0257619e-39
0.042514563 -0.14846466 0.035413235 9.5829001e-39
0.04438331 -0.14936493 0.032401711 1.2254746e-38
0.046122696 -0.14936493 0.032401711 1.2992284e-38
0.047862079 -0.14936493 0.032401711 1.5021302e-38
0.051340844 -0.14936493 0.032401711 5.1589307e-39
0.053080231 -0.14936493 0.032401711 4.7001498e-39
0.054819614 -0.14936493 0.032401711 9.5872581e-39
0.056558996 -0.14936493 0.032401711 9.7716466e-39
0.058298383 -0.14936493 0.032401711 9.2184728e-39
0.060037766 -0.14936493 0.032401711 9.3106684e-39
0.061777148 -0.14936493 0.032401711 9.3106712e-39
0.032044105 -0.14958845 0.037442893 1.1798458e-38
0.033774652 -0.14958845 0.037442893 1.2077203e-38
0.035398047 -0.14869209 0.0404239 8.2068025e-39
0.037123367 -0.14869209 0.0404239 1.0155714e-39
0.038848683 -0.14869209 0.0404239 8.2903059e-40
0.040574003 -0.14869209 0.0404239 5.9901698e-39
