# .PCD v0.7 - Point Cloud Data file format
VERSION 0.7
FIELDS x y z rgb
SIZE 4 4 4 4
TYPE F F F F
COUNT 1 1 1 1
WIDTH 818
HEIGHT 1
VIEWPOINT 0 0 0 1 0 0 0
POINTS 818
DATA ascii
0.044795807 -0.12749799 -0.041771762 4.4246517e-39
0.046764966 -0.12749799 -0.041771762 5.5280664e-40
0.048451353 -0.12652399 -0.037789576 9.2198432e-41
0.05041353 -0.12652399 -0.037789576 3.6843079e-40
0.039075378 -0.13020746 -0.044777028 1.0136423e-38
0.041049812 -0.13020746 -0.044777028 8.4783476e-39
0.042826649 -0.12946714 -0.041771762 7.6496771e-39
0.044795807 -0.12946714 -0.041771762 4.8841852e-39
0.046489175 -0.12848614 -0.037789576 2.7550649e-40
0.048451353 -0.12848614 -0.037789576 9.1835496e-41
0.05041353 -0.12848614 -0.037789576 9.1842503e-41
0.052375719 -0.12848614 -0.037789576 7.0064923e-45
0.038888324 -0.1314363 -0.041771762 1.3454375e-38
0.040857483 -0.1314363 -0.041771762 1.1334966e-38
0.042826649 -0.1314363 -0.041771762 7.2801701e-39
0.044795807 -0.1314363 -0.041771762 3.316851e-39
0.046489175 -0.13044833 -0.037789576 4.5953621e-40
0.048451353 -0.13044833 -0.037789576 9.1835496e-41
0.05041353 -0.13044833 -0.037789576 7.3756784e-40
0.052375719 -0.13044833 -0.037789576 7.3721191e-40
0.038888324 -0.13340546 -0.041771762 1.7970875e-38
0.040857483 -0.13340546 -0.041771762 1.5299012e-38
0.042826649 -0.13340546 -0.041771762 8.5705432e-39
0.044526998 -0.13241051 -0.037789576 2.3019859e-39
0.046489175 -0.13241051 -0.037789576 5.5101298e-40
0.048451353 -0.13241051 -0.037789576 2.7550649e-40
0.05041353 -0.13241051 -0.037789576 3.6806365e-40
0.052375719 -0.13241051 -0.037789576 1.1981901e-39
0.054337889 -0.13241051 -0.037789576 9.2198432e-41
0.056300074 -0.13241051 -0.037789576 2.765506e-39
-0.039569974 -0.12554805 -0.0027159387 1.5209722e-38
-0.03766929 -0.12554805 -0.0027159387 1.5394109e-38
0.038640458 -0.1343727 -0.037789576 2.3504416e-38
0.040602636 -0.1343727 -0.037789576 2.2490274e-38
0.04256482 -0.1343727 -0.037789576 1.63139e-38
0.044526998 -0.1343727 -0.037789576 8.5702013e-39
0.046206813 -0.13334687 -0.033712499 4.4224909e-39
0.047952604 -0.13260551 -0.030765884 4.6079724e-39
0.049902465 -0.13260551 -0.030765884 3.7785761e-39
0.051852327 -0.13260551 -0.030765884 5.4381002e-39
-0.03766929 -0.12744872 -0.0027159387 1.7880493e-38
-0.035768606 -0.12744872 -0.0027159387 1.8526941e-38
-0.031963784 -0.12645011 0.0012255972 6.0855772e-39
-0.030070011 -0.12645011 0.0012255972 1.0170064e-39
-0.028176239 -0.12645011 0.0012255972 2.6743627e-39
-0.026265189 -0.12744872 -0.0027159387 3.4036531e-39
-0.024364505 -0.12744872 -0.0027159387 9.6689622e-39
0.04256482 -0.13633488 -0.037789576 2.0277604e-38
0.044526998 -0.13633488 -0.037789576 1.3640248e-38
0.046002734 -0.13455538 -0.030765884 5.8961819e-39
0.047666695 -0.13353528 -0.02673959 5.989102e-39
0.049609501 -0.13353528 -0.02673959 6.265333e-39
0.051552307 -0.13353528 -0.02673959 6.9107024e-39
0.052960753 -0.13176022 -0.019733422 5.8047107e-39
0.056821793 -0.13176022 -0.019733422 8.2010698e-39
-0.03766929 -0.12934943 -0.0027159387 1.7232238e-38
-0.035768606 -0.12934943 -0.0027159387 2.0369403e-38
-0.033857554 -0.1283439 0.0012255972 1.8343981e-38
-0.031963784 -0.1283439 0.0012255972 1.2999162e-38
-0.030070011 -0.1283439 0.0012255972 6.2717775e-39
-0.028176239 -0.1283439 0.0012255972 7.0993802e-39
-0.026265189 -0.12934943 -0.0027159387 8.0144841e-39
-0.024364505 -0.12934943 -0.0027159387 6.9970784e-39
-0.022463823 -0.12934943 -0.0027159387 1.1607568e-38
-0.02060115 -0.1283439 0.0012255972 1.8154532e-38
0.039194521 -0.13268389 -0.01578664 2.2491378e-38
0.041118126 -0.13268389 -0.01578664 1.990955e-38
0.043576498 -0.1347049 -0.023708813 1.3179634e-38
0.045513991 -0.1347049 -0.023708813 5.5270434e-39
0.047451477 -0.1347049 -0.023708813 5.8958274e-39
0.049609501 -0.13547809 -0.02673959 7.1865662e-39
0.05103023 -0.13369073 -0.019733422 8.5695006e-39
0.052960753 -0.13369073 -0.019733422 8.3847478e-39
0.054891273 -0.13369073 -0.019733422 7.5549844e-39
0.056821793 -0.13369073 -0.019733422 8.4762148e-39
-0.035768606 -0.1312501 -0.0027159387 2.2672496e-38
-0.033857554 -0.13023765 0.0012255972 2.2306235e-38
-0.031961158 -0.1294684 0.0042204922 1.6867776e-38
-0.030072637 -0.1294684 0.0042204922 1.1982849e-38
-0.028176239 -0.13023765 0.0012255972 1.3643094e-38
-0.026282467 -0.13023765 0.0012255972 1.5579558e-38
-0.024388693 -0.13023765 0.0012255972 1.2721489e-38
-0.022494921 -0.13023765 0.0012255972 1.2443816e-38
-0.02060115 -0.13023765 0.0012255972 1.6222394e-38
0.0081615672 -0.13278268 -0.0086824829 1.1057677e-38
0.010072712 -0.13278268 -0.0086824829 1.5668905e-38
0.011983857 -0.13278268 -0.0086824829 1.6038053e-38
0.013774157 -0.13202934 -0.0057495767 1.2997038e-38
0.015680157 -0.13202934 -0.0057495767 8.8478812e-39
0.01758616 -0.13202934 -0.0057495767 9.0322724e-39
0.031725023 -0.13562126 -0.019733422 2.3504807e-38
0.033423718 -0.13460748 -0.01578664 2.3136023e-38
0.035347324 -0.13460748 -0.01578664 2.2675767e-38
0.037270922 -0.13460748 -0.01578664 2.1754176e-38
0.039194521 -0.13460748 -0.01578664 2.0187935e-38
0.041118126 -0.13460748 -0.01578664 1.7513907e-38
0.043041725 -0.13460748 -0.01578664 1.170523e-38
0.044965323 -0.13460748 -0.01578664 5.3433767e-39
0.046888929 -0.13460748 -0.01578664 5.7121592e-39
0.048812527 -0.13460748 -0.01578664 6.9107024e-39
0.05103023 -0.13562126 -0.019733422 7.3716805e-39
0.052960753 -0.13562126 -0.019733422 7.8319384e-39
0.054583326 -0.13460748 -0.01578664 6.3568055e-39
0.056506932 -0.13460748 -0.01578664 8.2003538e-39
-0.039515242 -0.13135691 0.0042204922 1.0683116e-38
-0.037626721 -0.13135691 0.0042204922 1.4095431e-38
-0.0357382 -0.13135691 0.0042204922 2.0919347e-38
-0.033857554 -0.13213144 0.0012255972 2.1935659e-38
-0.031961158 -0.13135691 0.0042204922 2.2766138e-38
-0.030072637 -0.13135691 0.0042204922 2.350586e-38
-0.028184116 -0.13135691 0.0042204922 2.3508741e-38
-0.026282467 -0.13213144 0.0012255972 2.2590026e-38
-0.024388693 -0.13213144 0.0012255972 2.323433e-38
-0.022494921 -0.13213144 0.0012255972 2.2497833e-38
-0.02060115 -0.13213144 0.0012255972 2.0281895e-38
-0.018707376 -0.13213144 0.0012255972 1.8434737e-38
0.0079471096 -0.13315077 -0.0027159387 2.2305195e-38
0.0098477937 -0.13315077 -0.0027159387 1.6682705e-38
0.011983857 -0.13469382 -0.0086824829 1.3087438e-38
0.013649158 -0.13315077 -0.0027159387 8.5712943e-39
0.015549842 -0.13315077 -0.0027159387 9.6772873e-39
0.017450526 -0.13315077 -0.0027159387 1.004607e-38
0.01935121 -0.13315077 -0.0027159387 8.6627753e-39
0.021251891 -0.13315077 -0.0027159387 8.1096015e-39
0.023152575 -0.13315077 -0.0027159387 6.8177837e-39
0.025053259 -0.13315077 -0.0027159387 9.6754867e-39
0.026953943 -0.13315077 -0.0027159387 8.6602557e-39
0.029794503 -0.1375518 -0.019733422 8.6613291e-39
0.031725023 -0.1375518 -0.019733422 8.5698496e-39
0.033423718 -0.13653107 -0.01578664 8.294699e-39
0.035347324 -0.13653107 -0.01578664 7.464581e-39
0.037270922 -0.13653107 -0.01578664 5.8057813e-39
0.039447103 -0.1375518 -0.019733422 5.068582e-39
0.041118126 -0.13653107 -0.01578664 5.5292028e-39
0.043041725 -0.13653107 -0.01578664 5.0682275e-39
0.044751335 -0.13573201 -0.012696856 3.6852959e-39
0.046669517 -0.13573201 -0.012696856 5.6214041e-39
0.048587706 -0.13573201 -0.012696856 6.0823822e-39
0.050736126 -0.13653107 -0.01578664 5.2519027e-39
0.05265972 -0.13653107 -0.01578664 6.3575314e-39
0.054583326 -0.13653107 -0.01578664 6.9107024e-39
0.056260437 -0.13573201 -0.012696856 1.2626108e-38
0.058178619 -0.13573201 -0.012696856 1.2533913e-38
0.0600968 -0.13573201 -0.012696856 1.3364025e-38
0.062014982 -0.13573201 -0.012696856 1.1890326e-38
0.063933164 -0.13573201 -0.012696856 6.2671056e-39
0.065851346 -0.13573201 -0.012696856 8.2961255e-39
0.067769527 -0.13573201 -0.012696856 1.797776e-38
-0.045128137 -0.13220255 0.0082258051 1.115133e-38
-0.043246638 -0.13220255 0.0082258051 1.4744064e-38
-0.041365139 -0.13220255 0.0082258051 1.6308141e-38
-0.039483644 -0.13220255 0.0082258051 1.7228649e-38
-0.037602141 -0.13220255 0.0082258051 1.8519744e-38
-0.035720646 -0.13220255 0.0082258051 2.0826077e-38
-0.033849679 -0.13324542 0.0042204922 2.1288497e-38
-0.031961158 -0.13324542 0.0042204922 2.3508393e-38
-0.030072637 -0.13324542 0.0042204922 2.3509108e-38
-0.028184116 -0.13324542 0.0042204922 2.3509828e-38
-0.026295595 -0.13324542 0.0042204922 2.2499641e-38
-0.024407072 -0.13324542 0.0042204922 2.2591491e-38
-0.022518551 -0.13324542 0.0042204922 2.2958835e-38
-0.02063003 -0.13324542 0.0042204922 2.3050662e-38
-0.018707376 -0.1340252 0.0012255972 2.1293903e-38
0.0041457415 -0.13505147 -0.0027159387 2.3504465e-38
0.0060464256 -0.13505147 -0.0027159387 2.3505547e-38
0.0079471096 -0.13505147 -0.0027159387 2.2213011e-38
0.0098477937 -0.13505147 -0.0027159387 1.4009041e-38
0.011868153 -0.13584132 -0.0057495767 1.1889622e-38
0.013649158 -0.13505147 -0.0027159387 9.8616786e-39
0.015549842 -0.13505147 -0.0027159387 1.0322662e-38
0.017450526 -0.13505147 -0.0027159387 9.8624031e-39
0.01935121 -0.13505147 -0.0027159387 8.939372e-39
0.021251891 -0.13505147 -0.0027159387 8.8468162e-39
0.022955619 -0.1340252 0.0012255972 8.384759e-39
0.024849389 -0.1340252 0.0012255972 7.2776926e-39
0.026953943 -0.13505147 -0.0027159387 6.3550161e-39
0.029184159 -0.13660498 -0.0086824829 5.1575491e-39
0.031324055 -0.13765021 -0.012696856 4.4221392e-39
0.033242237 -0.13765021 -0.012696856 5.438089e-39
0.035160419 -0.13765021 -0.012696856 5.8990672e-39
0.037078608 -0.13765021 -0.012696856 5.0696694e-39
0.039194521 -0.13845469 -0.01578664 4.5164957e-39
0.040914971 -0.13765021 -0.012696856 4.5164985e-39
0.042833153 -0.13765021 -0.012696856 4.2406318e-39
0.044751335 -0.13765021 -0.012696856 4.0562406e-39
0.046669517 -0.13765021 -0.012696856 4.9774766e-39
0.048587706 -0.13765021 -0.012696856 5.8072373e-39
0.050736126 -0.13845469 -0.01578664 4.6079752e-39
0.05265972 -0.13845469 -0.01578664 5.5288525e-39
0.054583326 -0.13845469 -0.01578664 7.0036197e-39
0.056260437 -0.13765021 -0.012696856 1.4101964e-38
0.058178619 -0.13765021 -0.012696856 1.4378551e-38
0.0600968 -0.13765021 -0.012696856 1.4378904e-38
0.062014982 -0.13765021 -0.012696856 1.354985e-38
0.063933164 -0.13765021 -0.012696856 7.7422385e-39
0.065851346 -0.13765021 -0.012696856 7.4663676e-39
0.067769527 -0.13765021 -0.012696856 1.7885564e-38
0.069687724 -0.13765021 -0.012696856 1.8069625e-38
-0.050772633 -0.13408406 0.0082258051 2.2499695e-38
-0.048891135 -0.13408406 0.0082258051 2.2683363e-38
-0.047009639 -0.13408406 0.0082258051 2.3509879e-38
-0.045128137 -0.13408406 0.0082258051 2.2676507e-38
-0.043246638 -0.13408406 0.0082258051 2.1843854e-38
-0.041365139 -0.13408406 0.0082258051 2.2762919e-38
-0.039483644 -0.13408406 0.0082258051 2.3499041e-38
-0.037602141 -0.13408406 0.0082258051 2.2484526e-38
-0.035720646 -0.13408406 0.0082258051 2.3507683e-38
-0.033839144 -0.13408406 0.0082258051 2.3508403e-38
-0.031957649 -0.13408406 0.0082258051 2.3507686e-38
-0.030072637 -0.13513394 0.0042204922 2.3506244e-38
-0.028184116 -0.13513394 0.0042204922 2.2400253e-38
-0.026295595 -0.13513394 0.0042204922 2.2958838e-38
-0.024407072 -0.13513394 0.0042204922 2.2407829e-38
-0.022518551 -0.13513394 0.0042204922 2.2224154e-38
-0.02063003 -0.13513394 0.0042204922 2.3418025e-38
-0.018707376 -0.13591899 0.0012255972 2.3509859e-38
-0.0017448161 -0.13513394 0.0042204922 1.9076889e-38
0.00014370494 -0.13513394 0.0042204922 1.9537532e-38
0.0041457415 -0.13695215 -0.0027159387 1.6035189e-38
0.0059116669 -0.13591899 0.0012255972 1.4191995e-38
0.0078054368 -0.13591899 0.0012255972 1.3178563e-38
0.0096992105 -0.13591899 0.0012255972 8.5702237e-39
0.011748478 -0.13695215 -0.0027159387 8.8475295e-39
0.013649158 -0.13695215 -0.0027159387 8.5716642e-39
0.015549842 -0.13695215 -0.0027159387 9.8631233e-39
0.017450526 -0.13695215 -0.0027159387 9.0333655e-39
0.01935121 -0.13695215 -0.0027159387 8.2947228e-39
0.021251891 -0.13695215 -0.0027159387 8.2018083e-39
0.022955619 -0.13591899 0.0012255972 8.4776791e-39
0.024849389 -0.13591899 0.0012255972 7.3702526e-39
0.026953943 -0.13695215 -0.0027159387 7.1855012e-39
0.029184159 -0.13851611 -0.0086824829 5.8962015e-39
0.031095304 -0.13851611 -0.0086824829 7.0969027e-39
0.033006448 -0.13851611 -0.0086824829 6.9143093e-39
0.034917589 -0.13851611 -0.0086824829 5.531735e-39
0.037078608 -0.13956837 -0.012696856 4.0566049e-39
0.039194521 -0.14037828 -0.01578664 4.0569608e-39
0.040914971 -0.13956837 -0.012696856 4.2413521e-39
0.042833153 -0.13956837 -0.012696856 4.3335477e-39
0.044751335 -0.13956837 -0.012696856 4.7945245e-39
0.046669517 -0.13956837 -0.012696856 5.163307e-39
0.048587706 -0.13956837 -0.012696856 6.914661e-39
0.050505888 -0.13956837 -0.012696856 7.0979761e-39
0.05265972 -0.14037828 -0.01578664 7.1894501e-39
0.054583326 -0.14037828 -0.01578664 7.9259389e-39
0.056260437 -0.13956837 -0.012696856 1.2903784e-38
0.058178619 -0.13956837 -0.012696856 1.2811228e-38
0.0600968 -0.13956837 -0.012696856 1.2350963e-38
0.062014982 -0.13956837 -0.012696856 1.3734603e-38
0.063933164 -0.13956837 -0.012696856 8.7567533e-39
0.065851346 -0.13956837 -0.012696856 7.7440335e-39
0.067769527 -0.13956837 -0.012696856 1.8530933e-38
0.070980355 -0.14324932 -0.02673959 1.7701195e-38
0.072923154 -0.14324932 -0.02673959 1.023301e-38
0.073524088 -0.13956837 -0.012696856 4.9782291e-39
-0.052654132 -0.13596557 0.0082258051 2.1118197e-38
-0.050772633 -0.13596557 0.0082258051 2.2591531e-38
-0.048891135 -0.13596557 0.0082258051 2.2867037e-38
-0.047009639 -0.13596557 0.0082258051 2.2956709e-38
-0.045128137 -0.13596557 0.0082258051 2.1570524e-38
-0.043246638 -0.13596557 0.0082258051 2.2028971e-38
-0.041365139 -0.13596557 0.0082258051 2.3040952e-38
-0.039483644 -0.13596557 0.0082258051 2.174877e-38
-0.037602141 -0.13596557 0.0082258051 1.9351684e-38
-0.035720646 -0.13596557 0.0082258051 2.350337e-38
-0.033839144 -0.13596557 0.0082258051 2.3508413e-38
-0.031957649 -0.13596557 0.0082258051 2.3506619e-38
-0.030076148 -0.13596557 0.0082258051 2.3509153e-38
-0.028194649 -0.13596557 0.0082258051 2.2310249e-38
-0.02631315 -0.13596557 0.0082258051 2.2867012e-38
-0.024431651 -0.13596557 0.0082258051 2.3142524e-38
-0.022518551 -0.13702248 0.0042204922 2.3509869e-38
-0.020668656 -0.13596557 0.0082258051 2.3509873e-38
-0.018787157 -0.13596557 0.0082258051 2.2587566e-38
-0.0017448161 -0.13702248 0.0042204922 1.2350596e-38
0.00014370494 -0.13702248 0.0042204922 1.3454077e-38
0.0020322278 -0.13702248 0.0042204922 1.3822862e-38
0.0040178932 -0.13781275 0.0012255972 1.2440648e-38
0.0059116669 -0.13781275 0.0012255972 1.0967313e-38
0.0078054368 -0.13781275 0.0012255972 1.0875836e-38
0.0096992105 -0.13781275 0.0012255972 8.387273e-39
0.011592984 -0.13781275 0.0012255972 7.3738413e-39
0.013486754 -0.13781275 0.0012255972 7.0057777e-39
0.015380528 -0.13781275 0.0012255972 6.3614873e-39
0.017450526 -0.13885282 -0.0027159387 6.6377182e-39
0.01935121 -0.13885282 -0.0027159387 6.1756625e-39
0.021251891 -0.13885282 -0.0027159387 6.7284761e-39
0.023152575 -0.13885282 -0.0027159387 6.6348455e-39
0.025053259 -0.13885282 -0.0027159387 7.4638902e-39
0.026953943 -0.13885282 -0.0027159387 6.8181606e-39
0.029184159 -0.14042725 -0.0086824829 6.173873e-39
0.031095304 -0.14042725 -0.0086824829 4.1480873e-39
0.033006448 -0.14042725 -0.0086824829 4.9789269e-39
0.034917589 -0.14042725 -0.0086824829 4.9789269e-39
0.036828738 -0.14042725 -0.0086824829 5.1636741e-39
0.03899679 -0.14148657 -0.012696856 6.1789023e-39
0.040914971 -0.14148657 -0.012696856 5.9945082e-39
0.042833153 -0.14148657 -0.012696856 4.8881592e-39
0.044751335 -0.14148657 -0.012696856 4.9796318e-39
0.046669517 -0.14148657 -0.012696856 6.2703706e-39
0.048587706 -0.14148657 -0.012696856 7.3763552e-39
0.050505888 -0.14148657 -0.012696856 8.5741824e-39
0.05265972 -0.14230187 -0.01578664 8.6652962e-39
0.054583326 -0.14230187 -0.01578664 9.4014249e-39
0.056506932 -0.14230187 -0.01578664 1.1798511e-38
0.058430523 -0.14230187 -0.01578664 1.1613401e-38
0.060354128 -0.14230187 -0.01578664 1.1613396e-38
0.062277734 -0.14230187 -0.01578664 1.1245323e-38
0.064201325 -0.14230187 -0.01578664 7.9269927e-39
0.065851346 -0.14148657 -0.012696856 7.6518379e-39
0.067769527 -0.14148657 -0.012696856 1.6779571e-38
0.069687724 -0.14148657 -0.012696856 1.7148376e-38
0.071605906 -0.14148657 -0.012696856 1.1339709e-38
0.073524088 -0.14148657 -0.012696856 6.7299405e-39
-0.060016826 -0.13625093 0.014234669 1.2815883e-38
-0.052654132 -0.13784705 0.0082258051 2.2958873e-38
-0.050772633 -0.13784705 0.0082258051 2.2958873e-38
-0.048891135 -0.13784705 0.0082258051 2.2589017e-38
-0.047009639 -0.13784705 0.0082258051 2.3509886e-38
-0.045128137 -0.13784705 0.0082258051 2.3507356e-38
-0.043246638 -0.13784705 0.0082258051 2.3413352e-38
-0.041365139 -0.13784705 0.0082258051 2.2305195e-38
-0.039483644 -0.13784705 0.0082258051 2.1843854e-38
-0.037602141 -0.13784705 0.0082258051 2.2581419e-38
-0.035720646 -0.13784705 0.0082258051 2.3508421e-38
-0.033839144 -0.13784705 0.0082258051 2.3507702e-38
-0.031957649 -0.13784705 0.0082258051 2.3509153e-38
-0.030076148 -0.13784705 0.0082258051 2.2587932e-38
-0.028194649 -0.13784705 0.0082258051 2.3234379e-38
-0.02631315 -0.13784705 0.0082258051 2.3418042e-38
-0.024431651 -0.13784705 0.0082258051 2.3509869e-38
-0.022550153 -0.13784705 0.0082258051 2.3416234e-38
-0.020668656 -0.13784705 0.0082258051 2.3415884e-38
-0.018787157 -0.13784705 0.0082258051 2.3509886e-38
-0.0036333371 -0.13891099 0.0042204922 8.0181345e-39
-0.0018536672 -0.13784705 0.0082258051 8.1117735e-39
2.7831644e-05 -0.13784705 0.0082258051 8.6620704e-39
0.0020322278 -0.13891099 0.0042204922 8.753543e-39
0.0039207488 -0.13891099 0.0042204922 7.6479157e-39
0.0058092698 -0.13891099 0.0042204922 7.0961782e-39
0.0078054368 -0.13970654 0.0012255972 7.5582326e-39
0.0096992105 -0.13970654 0.0012255972 6.7291908e-39
0.011592984 -0.13970654 0.0012255972 6.4536829e-39
0.013486754 -0.13970654 0.0012255972 8.2061159e-39
0.015380528 -0.13970654 0.0012255972 7.6533023e-39
0.017450526 -0.14075352 -0.0027159387 8.6667381e-39
0.01935121 -0.14075352 -0.0027159387 7.3759993e-39
0.021251891 -0.14075352 -0.0027159387 7.8362614e-39
0.023152575 -0.14075352 -0.0027159387 6.267498e-39
0.025053259 -0.14075352 -0.0027159387 8.755345e-39
0.026953943 -0.14075352 -0.0027159387 7.0036281e-39
0.029184159 -0.14233841 -0.0086824829 6.728123e-39
0.031095304 -0.14233841 -0.0086824829 6.3615013e-39
0.033006448 -0.14233841 -0.0086824829 7.0083098e-39
0.034917589 -0.14233841 -0.0086824829 6.4551332e-39
0.036828738 -0.14233841 -0.0086824829 5.994511e-39
0.038739879 -0.14233841 -0.0086824829 6.6402405e-39
0.040651027 -0.14233841 -0.0086824829 6.2718126e-39
0.042833153 -0.14340474 -0.012696856 5.9026671e-39
0.044751335 -0.14340474 -0.012696856 6.732425e-39
0.046669517 -0.14340474 -0.012696856 6.8235416e-39
0.048812527 -0.14422549 -0.01578664 5.8090267e-39
0.050736126 -0.14422549 -0.01578664 5.9005035e-39
0.05265972 -0.14422549 -0.01578664 5.1622182e-39
0.054583326 -0.14422549 -0.01578664 5.3458906e-39
0.056506932 -0.14422549 -0.01578664 5.7135941e-39
0.058430523 -0.14422549 -0.01578664 4.975313e-39
0.060354128 -0.14422549 -0.01578664 5.1600588e-39
0.062277734 -0.14422549 -0.01578664 4.8845411e-39
0.064201325 -0.14422549 -0.01578664 3.3182874e-39
0.065851346 -0.14340474 -0.012696856 4.3327924e-39
0.067769527 -0.14340474 -0.012696856 1.1340026e-38
0.069687724 -0.14340474 -0.012696856 1.4382501e-38
0.071605906 -0.14340474 -0.012696856 1.1616286e-38
0.073524088 -0.14340474 -0.012696856 9.2192141e-39
-0.067362443 -0.13704078 0.01827801 1.8068886e-38
-0.065498561 -0.13704078 0.01827801 2.1941467e-38
-0.063758753 -0.13812189 0.014234669 2.184892e-38
-0.06188779 -0.13812189 0.014234669 1.4012646e-38
-0.054468356 -0.13890781 0.011295325 2.3509883e-38
-0.052654132 -0.13972856 0.0082258051 2.3049273e-38
-0.050772633 -0.13972856 0.0082258051 2.3417691e-38
-0.048891135 -0.13972856 0.0082258051 2.295672e-38
-0.046963893 -0.13890781 0.011295325 2.3232227e-38
-0.045087773 -0.13890781 0.011295325 2.3509165e-38
-0.043246638 -0.13972856 0.0082258051 2.3506635e-38
-0.041335538 -0.13890781 0.011295325 2.3508428e-38
-0.039459422 -0.13890781 0.011295325 2.3507341e-38
-0.037583306 -0.13890781 0.011295325 2.3509504e-38
-0.035707191 -0.13890781 0.011295325 2.3507708e-38
-0.033831075 -0.13890781 0.011295325 2.3509153e-38
-0.031954955 -0.13890781 0.011295325 2.3416245e-38
-0.030076148 -0.13972856 0.0082258051 2.2314589e-38
-0.028194649 -0.13972856 0.0082258051 2.2867037e-38
-0.02631315 -0.13972856 0.0082258051 2.3231138e-38
-0.024431651 -0.13972856 0.0082258051 2.3507716e-38
-0.022550153 -0.13972856 0.0082258051 2.3509153e-38
-0.020698255 -0.13890781 0.011295325 2.3509153e-38
-0.018822137 -0.13890781 0.011295325 2.350952e-38
-0.016905658 -0.13972856 0.0082258051 2.3509163e-38
-0.015024157 -0.13972856 0.0082258051 2.3505927e-38
-0.01131767 -0.13890781 0.011295325 2.1560444e-38
-0.0095008202 -0.13812189 0.014234669 1.2710738e-38
-0.0076298565 -0.13812189 0.014234669 1.1054818e-38
-0.0057588946 -0.13812189 0.014234669 8.6616991e-39
-0.0038132034 -0.13890781 0.011295325 6.6380882e-39
-0.0019370858 -0.13890781 0.011295325 6.0852787e-39
-6.0969964e-05 -0.13890781 0.011295325 7.0958237e-39
0.0020322278 -0.14079951 0.0042204922 6.7266768e-39
0.0039207488 -0.14079951 0.0042204922 7.3727651e-39
0.0058092698 -0.14079951 0.0042204922 6.7284719e-39
0.0078054368 -0.1416003 0.0012255972 6.3604083e-39
0.0096992105 -0.1416003 0.0012255972 6.3622033e-39
0.011592984 -0.1416003 0.0012255972 6.0859766e-39
0.013486754 -0.1416003 0.0012255972 7.1012047e-39
0.015380528 -0.1416003 0.0012255972 7.1012047e-39
0.017450526 -0.1426542 -0.0027159387 7.2855959e-39
0.01935121 -0.1426542 -0.0027159387 7.6536582e-39
0.021251891 -0.1426542 -0.0027159387 7.191964e-39
0.023152575 -0.1426542 -0.0027159387 7.3756364e-39
0.025053259 -0.1426542 -0.0027159387 7.3745602e-39
0.026953943 -0.1426542 -0.0027159387 7.1894501e-39
0.028854627 -0.1426542 -0.0027159387 6.5448023e-39
0.030360047 -0.14079951 0.0042204922 6.3618516e-39
0.032248568 -0.14079951 0.0042204922 6.6388014e-39
0.034917589 -0.14424954 -0.0086824829 7.1008558e-39
0.036828738 -0.14424954 -0.0086824829 5.6257243e-39
0.038739879 -0.14424954 -0.0086824829 4.8881592e-39
0.040651027 -0.14424954 -0.0086824829 5.3494905e-39
0.042833153 -0.14532293 -0.012696856 4.7041183e-39
0.044751335 -0.14532293 -0.012696856 4.7966713e-39
0.046669517 -0.14532293 -0.012696856 4.611201e-39
0.048812527 -0.14614908 -0.01578664 3.6885258e-39
0.050206747 -0.14424954 -0.0086824829 4.7023148e-39
0.052117899 -0.14424954 -0.0086824829 4.1480621e-39
0.054583326 -0.14614908 -0.01578664 3.4101369e-39
0.056506932 -0.14614908 -0.01578664 4.7919923e-39
0.058430523 -0.14614908 -0.01578664 4.6990778e-39
0.060354128 -0.14614908 -0.01578664 3.6852818e-39
0.062277734 -0.14614908 -0.01578664 1.5655082e-39
0.064201325 -0.14614908 -0.01578664 2.3041382e-39
0.066124931 -0.14614908 -0.01578664 3.2267994e-39
0.068048537 -0.14614908 -0.01578664 1.0510617e-38
0.069687724 -0.14532293 -0.012696856 1.3921875e-38
0.071605906 -0.14532293 -0.012696856 1.1801029e-38
0.073524088 -0.14532293 -0.012696856 1.0510305e-38
-0.077113613 -0.14161004 0.0082258051 1.5669992e-38
-0.075232118 -0.14161004 0.0082258051 1.622352e-38
-0.073229522 -0.14078392 0.011295325 1.6131322e-38
-0.071353406 -0.14078392 0.011295325 1.4840583e-38
-0.06922631 -0.13890465 0.01827801 1.4011544e-38
-0.067362443 -0.13890465 0.01827801 1.6500835e-38
-0.065498561 -0.13890465 0.01827801 2.3509869e-38
-0.063758753 -0.13999285 0.014234669 2.3139294e-38
-0.06188779 -0.13999285 0.014234669 2.0742564e-38
-0.060016826 -0.13999285 0.014234669 2.0832947e-38
-0.058145866 -0.13999285 0.014234669 2.3509859e-38
-0.056274898 -0.13999285 0.014234669 2.3508795e-38
-0.054468356 -0.14078392 0.011295325 2.3508085e-38
-0.05259224 -0.14078392 0.011295325 2.3046761e-38
-0.050716124 -0.14078392 0.011295325 2.3508809e-38
-0.048840009 -0.14078392 0.011295325 2.3231868e-38
-0.046963893 -0.14078392 0.011295325 2.3509168e-38
-0.045087773 -0.14078392 0.011295325 2.2862721e-38
-0.043211658 -0.14078392 0.011295325 2.0927321e-38
-0.041335538 -0.14078392 0.011295325 2.1203539e-38
-0.039436232 -0.13999285 0.014234669 2.3509149e-38
-0.037565269 -0.13999285 0.014234669 2.350987e-38
-0.035707191 -0.14078392 0.011295325 2.3324041e-38
-0.033831075 -0.14078392 0.011295325 2.3509158e-38
-0.031954955 -0.14078392 0.011295325 2.341805e-38
-0.030076148 -0.14161004 0.0082258051 2.2775202e-38
-0.028194649 -0.14161004 0.0082258051 2.2867037e-38
-0.02631315 -0.14161004 0.0082258051 2.3508446e-38
-0.024431651 -0.14161004 0.0082258051 2.3508441e-38
-0.022550153 -0.14161004 0.0082258051 2.350663e-38
-0.020698255 -0.14078392 0.011295325 2.3508784e-38
-0.018822137 -0.14078392 0.011295325 2.3322229e-38
-0.016946021 -0.14078392 0.011295325 1.953861e-38
-0.015113709 -0.13999285 0.014234669 1.6857381e-38
-0.013242748 -0.13999285 0.014234669 1.7038891e-38
-0.011371784 -0.13999285 0.014234669 1.6025452e-38
-0.0095008202 -0.13999285 0.014234669 6.2563184e-39
-0.0076298565 -0.13999285 0.014234669 2.1147275e-39
-0.0057588946 -0.13999285 0.014234669 2.7550649e-40
-0.0038132034 -0.14078392 0.011295325 1.1063476e-39
-0.0019370858 -0.14078392 0.011295325 2.2126979e-39
-6.0969964e-05 -0.14078392 0.011295325 2.3030845e-39
0.0020322278 -0.14268802 0.0042204922 2.0250528e-39
0.0039207488 -0.14268802 0.0042204922 2.4867499e-39
0.0058092698 -0.14268802 0.0042204922 1.9350152e-39
0.0078054368 -0.14349405 0.0012255972 1.6595073e-39
0.0096992105 -0.14349405 0.0012255972 1.6602262e-39
0.011592984 -0.14349405 0.0012255972 7.3970622e-40
0.013486754 -0.14349405 0.0012255972 1.3857945e-39
0.015549842 -0.14455487 -0.0027159387 2.122998e-39
0.017450526 -0.14455487 -0.0027159387 2.5839762e-39
0.019492161 -0.14537133 -0.0057495767 3.5048506e-39
0.021398164 -0.14537133 -0.0057495767 2.5825342e-39
0.023304168 -0.14537133 -0.0057495767 3.0427935e-39
0.025210168 -0.14537133 -0.0057495767 2.672932e-39
0.027116172 -0.14537133 -0.0057495767 3.13355e-39
0.028636936 -0.14349405 0.0012255972 2.5800203e-39
0.030360047 -0.14268802 0.0042204922 3.1346374e-39
0.032248568 -0.14268802 0.0042204922 2.5821825e-39
0.034137089 -0.14268802 0.0042204922 2.7669339e-39
0.03602561 -0.14268802 0.0042204922 1.9371732e-39
0.038739879 -0.14616071 -0.0086824829 2.214116e-39
0.040651027 -0.14616071 -0.0086824829 2.9516811e-39
0.042833153 -0.1472411 -0.012696856 2.0297234e-39
0.044751335 -0.1472411 -0.012696856 1.6609409e-39
0.046384457 -0.14616071 -0.0086824829 2.6747298e-39
0.048295606 -0.14616071 -0.0086824829 3.6881629e-39
0.050206747 -0.14616071 -0.0086824829 4.7937874e-39
0.052117899 -0.14616071 -0.0086824829 3.686721e-39
0.054342255 -0.1472411 -0.012696856 4.8845411e-39
0.056260437 -0.1472411 -0.012696856 7.8340824e-39
0.058752313 -0.14913492 -0.019733422 6.6348203e-39
0.060682833 -0.14913492 -0.019733422 3.5001689e-39
0.062613353 -0.14913492 -0.019733422 5.5299105e-39
0.066474393 -0.14913492 -0.019733422 7.5607101e-39
0.068404913 -0.14913492 -0.019733422 8.5745061e-39
0.069972128 -0.14807267 -0.01578664 1.1986119e-38
0.071895733 -0.14807267 -0.01578664 1.1156012e-38
0.073819339 -0.14807267 -0.01578664 9.1277205e-39
-0.082951233 -0.14457656 0.0042204922 1.3366913e-38
-0.081062719 -0.14457656 0.0042204922 1.2535709e-38
-0.079174191 -0.14457656 0.0042204922 1.2074365e-38
-0.077113613 -0.14349155 0.0082258051 1.2903401e-38
-0.075232118 -0.14349155 0.0082258051 1.336473e-38
-0.073229522 -0.14266007 0.011295325 1.6314987e-38
-0.071242608 -0.14186381 0.014234669 1.9265247e-38
-0.06922631 -0.14076851 0.01827801 1.3918983e-38
-0.067362443 -0.14076851 0.01827801 1.6592306e-38
-0.065498561 -0.14076851 0.01827801 2.3509863e-38
-0.063758753 -0.14186381 0.014234669 2.3230764e-38
-0.061972827 -0.14266007 0.011295325 2.2769786e-38
-0.060016826 -0.14186381 0.014234669 2.0924421e-38
-0.058145866 -0.14186381 0.014234669 2.2399551e-38
-0.056274898 -0.14186381 0.014234669 2.3506996e-38
-0.054535631 -0.14349155 0.0082258051 2.3508807e-38
-0.05259224 -0.14266007 0.011295325 2.3508451e-38
-0.050716124 -0.14266007 0.011295325 2.3508092e-38
-0.048840009 -0.14266007 0.011295325 2.3507374e-38
-0.046963893 -0.14266007 0.011295325 2.3509168e-38
-0.045087773 -0.14266007 0.011295325 2.3509527e-38
-0.043211658 -0.14266007 0.011295325 2.1389383e-38
-0.041307196 -0.14186381 0.014234669 1.9730214e-38
-0.039436232 -0.14186381 0.014234669 2.3049612e-38
-0.037565269 -0.14186381 0.014234669 2.3509876e-38
-0.035694305 -0.14186381 0.014234669 2.2864868e-38
-0.033823341 -0.14186381 0.014234669 2.3233296e-38
-0.031954955 -0.14266007 0.011295325 2.3418047e-38
-0.03007884 -0.14266007 0.011295325 2.3142534e-38
-0.028202722 -0.14266007 0.011295325 2.2405682e-38
-0.02631315 -0.14349155 0.0082258051 2.35088e-38
-0.024431651 -0.14349155 0.0082258051 2.3509156e-38
-0.022550153 -0.14349155 0.0082258051 2.3324393e-38
-0.020698255 -0.14266007 0.011295325 2.3509853e-38
-0.018822137 -0.14266007 0.011295325 2.3507318e-38
-0.016984673 -0.14186381 0.014234669 1.6398529e-38
-0.015113709 -0.14186381 0.014234669 1.5006598e-38
-0.013242748 -0.14186381 0.014234669 1.2515519e-38
-0.011371784 -0.14186381 0.014234669 1.1045437e-38
-0.0095008202 -0.14186381 0.014234669 4.0454254e-39
-0.0076298565 -0.14186381 0.014234669 1.1045371e-39
-0.0057588946 -0.14186381 0.014234669 9.3629158e-41
-0.0038132034 -0.14266007 0.011295325 4.6097114e-40
-0.0019370858 -0.14266007 0.011295325 6.4392467e-40
-6.0969964e-05 -0.14266007 0.011295325 1.2878493e-39
0.0020322278 -0.14457656 0.0042204922 6.4284847e-40
0.0039207488 -0.14457656 0.0042204922 1.0119841e-39
0.0058092698 -0.14457656 0.0042204922 7.361189e-40
0.0076977909 -0.14457656 0.0042204922 9.2122482e-40
0.0096992105 -0.14538784 0.0012255972 9.2265975e-40
0.011592984 -0.14538784 0.0012255972 9.3629158e-41
0.013486754 -0.14538784 0.0012255972 2.7873508e-40
0.015680157 -0.14727734 -0.0057495767 9.2337722e-40
0.017717291 -0.14807184 -0.0086824829 1.5687424e-39
0.019628435 -0.14807184 -0.0086824829 2.3059445e-39
0.021398164 -0.14727734 -0.0057495767 1.4758251e-39
0.023304168 -0.14727734 -0.0057495767 2.1197498e-39
0.025210168 -0.14727734 -0.0057495767 2.4874505e-39
0.027116172 -0.14727734 -0.0057495767 3.5012423e-39
0.028636936 -0.14538784 0.0012255972 3.1328199e-39
0.030360047 -0.14457656 0.0042204922 3.4101313e-39
0.032248568 -0.14457656 0.0042204922 2.8576792e-39
0.034137089 -0.14457656 0.0042204922 3.1342661e-39
0.03602561 -0.14457656 0.0042204922 2.4888966e-39
0.038739879 -0.14807184 -0.0086824829 2.3974241e-39
0.040651027 -0.14807184 -0.0086824829 3.1349891e-39
0.042562168 -0.14807184 -0.0086824829 2.7662066e-39
0.044751335 -0.1491593 -0.012696856 3.1349891e-39
0.046384457 -0.14807184 -0.0086824829 3.3183014e-39
0.048295606 -0.14807184 -0.0086824829 4.9774626e-39
0.050206747 -0.14807184 -0.0086824829 4.9774598e-39
0.052117899 -0.14807184 -0.0086824829 3.2250198e-39
0.054029033 -0.14807184 -0.0086824829 5.4369946e-39
0.056260437 -0.1491593 -0.012696856 8.9400656e-39
0.069972128 -0.1499963 -0.01578664 1.1156714e-38
0.071895733 -0.1499963 -0.01578664 1.1432593e-38
0.073819339 -0.1499963 -0.01578664 8.1132042e-39
-0.082951233 -0.14646508 0.0042204922 1.3090323e-38
-0.081062719 -0.14646508 0.0042204922 1.161375e-38
-0.079174191 -0.14646508 0.0042204922 9.3084936e-39
-0.077285677 -0.14646508 0.0042204922 7.8322761e-39
-0.075232118 -0.14537306 0.0082258051 1.2442409e-38
-0.073229522 -0.14453618 0.011295325 1.6775601e-38
-0.071242608 -0.14373477 0.014234669 1.7420971e-38
-0.06922631 -0.14263238 0.01827801 1.4010454e-38
-0.067362443 -0.14263238 0.01827801 1.9172699e-38
-0.065498561 -0.14263238 0.01827801 2.3509502e-38
-0.063634694 -0.14263238 0.01827801 2.350843e-38
-0.061972827 -0.14453618 0.011295325 2.1663074e-38
-0.060016826 -0.14373477 0.014234669 2.0833302e-38
-0.058145866 -0.14373477 0.014234669 2.1569788e-38
-0.056274898 -0.14373477 0.014234669 2.3509153e-38
-0.054468356 -0.14453618 0.011295325 2.3508445e-38
-0.052654132 -0.14537306 0.0082258051 2.3229713e-38
-0.050716124 -0.14453618 0.011295325 2.3508451e-38
-0.048840009 -0.14453618 0.011295325 2.3508809e-38
-0.046963893 -0.14453618 0.011295325 2.3508809e-38
-0.045087773 -0.14453618 0.011295325 2.2864163e-38
-0.043211658 -0.14453618 0.011295325 2.2588645e-38
-0.041307196 -0.14373477 0.014234669 2.0468498e-38
-0.039436232 -0.14373477 0.014234669 2.3418038e-38
-0.037565269 -0.14373477 0.014234669 2.341804e-38
-0.035694305 -0.14373477 0.014234669 2.3509879e-38
-0.033823341 -0.14373477 0.014234669 2.3048907e-38
-0.031952381 -0.14373477 0.014234669 2.2957064e-38
-0.030081416 -0.14373477 0.014234669 2.3509863e-38
-0.028210452 -0.14373477 0.014234669 2.3417302e-38
-0.02633949 -0.14373477 0.014234669 2.350915e-38
-0.024468526 -0.14373477 0.014234669 2.3509873e-38
-0.022597563 -0.14373477 0.014234669 2.3509144e-38
-0.020726599 -0.14373477 0.014234669 2.3509853e-38
-0.018855637 -0.14373477 0.014234669 2.2856541e-38
-0.016984673 -0.14373477 0.014234669 1.4459532e-38
-0.01517397 -0.14263238 0.01827801 1.8323468e-38
-0.013310095 -0.14263238 0.01827801 1.1499558e-38
-0.011371784 -0.14373477 0.014234669 7.4498015e-39
-0.0095008202 -0.14373477 0.014234669 2.3877229e-39
-0.0076298565 -0.14373477 0.014234669 1.0123429e-39
-0.0057588946 -0.14373477 0.014234669 3.7057058e-40
-0.0038132034 -0.14453618 0.011295325 3.6770072e-40
-0.0019370858 -0.14453618 0.011295325 6.4284847e-40
2.7831644e-05 -0.14537306 0.0082258051 9.1835496e-40
0.0020322278 -0.14646508 0.0042204922 9.1835496e-40
0.0039207488 -0.14646508 0.0042204922 7.3468397e-40
0.0058092698 -0.14646508 0.0042204922 8.268782e-40
0.0076977909 -0.14646508 0.0042204922 1.2892843e-39
0.0096992105 -0.1472816 0.0012255972 2.211958e-39
0.011592984 -0.1472816 0.0012255972 2.1204855e-39
0.013486754 -0.1472816 0.0012255972 3.226833e-39
0.015806146 -0.14998297 -0.0086824829 2.6736565e-39
0.017717291 -0.14998297 -0.0086824829 3.4115788e-39
0.019628435 -0.14998297 -0.0086824829 3.1342661e-39
0.02153958 -0.14998297 -0.0086824829 4.1480536e-39
0.023450725 -0.14998297 -0.0086824829 4.5153914e-39
0.025210168 -0.14918335 -0.0057495767 6.8199164e-39
0.027116172 -0.14918335 -0.0057495767 7.1879773e-39
0.028636936 -0.1472816 0.0012255972 7.4645642e-39
0.030360047 -0.14646508 0.0042204922 9.2170028e-39
0.032248568 -0.14646508 0.0042204922 9.0329745e-39
0.034137089 -0.14646508 0.0042204922 8.7563904e-39
0.03602561 -0.14646508 0.0042204922 5.6221019e-39
0.038739879 -0.14998297 -0.0086824829 2.4874547e-39
0.040651027 -0.14998297 -0.0086824829 1.1052545e-39
0.042562168 -0.14998297 -0.0086824829 9.2086609e-40
0.046384457 -0.14998297 -0.0086824829 6.082734e-39
0.048295606 -0.14998297 -0.0086824829 6.3593208e-39
0.050206747 -0.14998297 -0.0086824829 5.0678604e-39
0.052117899 -0.14998297 -0.0086824829 2.947714e-39
0.054029033 -0.14998297 -0.0086824829 5.1600476e-39
0.055940181 -0.14998297 -0.0086824829 8.2014216e-39
0.071229339 -0.14998297 -0.0086824829 9.5886804e-39
0.073140487 -0.14998297 -0.0086824829 8.7585708e-39
-0.082951233 -0.14835359 0.0042204922 1.2260561e-38
-0.081062719 -0.14835359 0.0042204922 1.0784345e-38
-0.079174191 -0.14835359 0.0042204922 9.1233779e-39
-0.077285677 -0.14835359 0.0042204922 6.9103142e-39
-0.075232118 -0.14725454 0.0082258051 6.9099457e-39
-0.073229522 -0.1464123 0.011295325 1.1058746e-38
-0.071242608 -0.14560573 0.014234669 1.2072898e-38
-0.06922631 -0.14449625 0.01827801 1.3640227e-38
-0.067362443 -0.14449625 0.01827801 2.0831854e-38
-0.065498561 -0.14449625 0.01827801 2.258394e-38
-0.063634694 -0.14449625 0.01827801 2.3505544e-38
-0.06188779 -0.14560573 0.014234669 2.2123689e-38
-0.060016826 -0.14560573 0.014234669 1.9082298e-38
-0.058145866 -0.14560573 0.014234669 1.8345452e-38
-0.056274898 -0.14560573 0.014234669 2.3230399e-38
-0.054468356 -0.1464123 0.011295325 2.3509517e-38
-0.05259224 -0.1464123 0.011295325 2.34141e-38
-0.050772633 -0.14725454 0.0082258051 2.3508451e-38
-0.048791047 -0.14560573 0.014234669 2.3508809e-38
-0.046920083 -0.14560573 0.014234669 2.3417333e-38
-0.045087773 -0.1464123 0.011295325 2.3326213e-38
-0.043211658 -0.1464123 0.011295325 2.3142535e-38
-0.041307196 -0.14560573 0.014234669 1.99164e-38
-0.039436232 -0.14560573 0.014234669 2.2865937e-38
-0.037565269 -0.14560573 0.014234669 2.3509873e-38
-0.035694305 -0.14560573 0.014234669 2.3233288e-38
-0.033823341 -0.14560573 0.014234669 2.3509524e-38
-0.031952381 -0.14560573 0.014234669 2.3509873e-38
-0.030081416 -0.14560573 0.014234669 2.3322581e-38
-0.028210452 -0.14560573 0.014234669 2.3509848e-38
-0.02633949 -0.14560573 0.014234669 2.3509863e-38
-0.024493339 -0.14449625 0.01827801 2.3509869e-38
-0.022629466 -0.14449625 0.01827801 2.3049248e-38
-0.020765591 -0.14449625 0.01827801 2.240099e-38
-0.018901717 -0.14449625 0.01827801 2.0458747e-38
-0.017037842 -0.14449625 0.01827801 1.6303816e-38
-0.01517397 -0.14449625 0.01827801 1.6020747e-38
-0.013310095 -0.14449625 0.01827801 1.1226577e-38
-0.011446221 -0.14449625 0.01827801 8.6490706e-39
-0.0095008202 -0.14560573 0.014234669 3.4000658e-39
-0.0076298565 -0.14560573 0.014234669 1.0101905e-39
-0.0057588946 -0.14560573 0.014234669 5.5137171e-40
-0.003735166 -0.14725454 0.0082258051 8.279544e-40
-0.0018536672 -0.14725454 0.0082258051 1.3800436e-39
2.7831644e-05 -0.14725454 0.0082258051 2.2994747e-39
0.0020322278 -0.14835359 0.0042204922 1.5612034e-39
0.0039207488 -0.14835359 0.0042204922 1.7459506e-39
0.0058092698 -0.14835359 0.0042204922 1.0101905e-39
0.0076977909 -0.14835359 0.0042204922 1.0101905e-39
0.0096992105 -0.14917539 0.0012255972 1.8399427e-39
0.011592984 -0.14917539 0.0012255972 2.4860338e-39
0.013486754 -0.14917539 0.0012255972 4.0537224e-39
0.026743162 -0.14917539 0.0012255972 1.2624993e-38
0.028636936 -0.14917539 0.0012255972 1.327108e-38
0.030360047 -0.14835359 0.0042204922 1.1980702e-38
0.032248568 -0.14835359 0.0042204922 1.2165817e-38
0.034137089 -0.14835359 0.0042204922 1.1704844e-38
0.036212023 -0.14917539 0.0012255972 7.2798184e-39
-0.077113613 -0.14913605 0.0082258051 7.9237445e-39
-0.075232118 -0.14913605 0.0082258051 9.7672885e-39
-0.073229522 -0.14828841 0.011295325 1.0136426e-38
-0.071090184 -0.14636014 0.01827801 1.0505211e-38
-0.06922631 -0.14636014 0.01827801 1.0597049e-38
-0.067362443 -0.14636014 0.01827801 1.4838417e-38
-0.065498561 -0.14636014 0.01827801 1.5023535e-38
-0.063634694 -0.14636014 0.01827801 1.6590509e-38
-0.06188779 -0.14747669 0.014234669 2.0280131e-38
-0.060016826 -0.14747669 0.014234669 1.6318223e-38
-0.058145866 -0.14747669 0.014234669 1.3645269e-38
-0.056274898 -0.14747669 0.014234669 1.797776e-38
-0.054468356 -0.14828841 0.011295325 2.350987e-38
-0.05259224 -0.14828841 0.011295325 2.3509168e-38
-0.050662011 -0.14747669 0.014234669 2.3508809e-38
-0.048723698 -0.14636014 0.01827801 2.3232227e-38
-0.046859823 -0.14636014 0.01827801 2.3509886e-38
-0.045049123 -0.14747669 0.014234669 2.3418047e-38
-0.043178156 -0.14747669 0.014234669 2.1852511e-38
-0.041307196 -0.14747669 0.014234669 1.5214777e-38
-0.039436232 -0.14747669 0.014234669 1.4937109e-38
-0.037565269 -0.14747669 0.014234669 1.3091763e-38
-0.035694305 -0.14747669 0.014234669 8.4805448e-39
-0.033823341 -0.14747669 0.014234669 8.2947214e-39
-0.031952381 -0.14747669 0.014234669 9.6758482e-39
-0.030081416 -0.14747669 0.014234669 1.3270376e-38
-0.028210452 -0.14747669 0.014234669 1.5851851e-38
-0.026357213 -0.14636014 0.01827801 1.4011908e-38
-0.024493339 -0.14636014 0.01827801 1.1615911e-38
-0.022629466 -0.14636014 0.01827801 9.1262743e-39
-0.020765591 -0.14636014 0.01827801 5.4362883e-39
-0.018901717 -0.14636014 0.01827801 3.9557521e-39
-0.017037842 -0.14636014 0.01827801 4.0436317e-39
-0.01517397 -0.14636014 0.01827801 8.0047872e-39
-0.013310095 -0.14636014 0.01827801 7.8196742e-39
-0.011446221 -0.14636014 0.01827801 8.0044312e-39
-0.0095008202 -0.14747669 0.014234669 3.5823018e-39
-0.0076298565 -0.14747669 0.014234669 2.2040519e-39
-0.0056893192 -0.14828841 0.011295325 5.2486489e-39
-0.003735166 -0.14913605 0.0082258051 6.3589523e-39
-0.0018536672 -0.14913605 0.0082258051 7.5567766e-39
2.7831644e-05 -0.14913605 0.0082258051 8.382936e-39
-0.072954059 -0.14822401 0.01827801 8.1999544e-39
-0.071090184 -0.14822401 0.01827801 1.0873272e-38
-0.06922631 -0.14822401 0.01827801 1.2993774e-38
-0.067259446 -0.14738683 0.021290429 1.5114641e-38
-0.065400854 -0.14738683 0.021290429 1.2901954e-38
-0.063634694 -0.14822401 0.01827801 1.1979647e-38
-0.06188779 -0.14934768 0.014234669 1.474839e-38
-0.060016826 -0.14934768 0.014234669 1.5214389e-38
-0.058145866 -0.14934768 0.014234669 1.1989337e-38
-0.056274898 -0.14934768 0.014234669 1.4383924e-38
-0.050662011 -0.14934768 0.014234669 2.3140384e-38
-0.048723698 -0.14822401 0.01827801 2.3509168e-38
-0.046859823 -0.14822401 0.01827801 2.3509883e-38
-0.045049123 -0.14934768 0.014234669 2.3418043e-38
-0.043178156 -0.14934768 0.014234669 2.1022025e-38
-0.041307196 -0.14934768 0.014234669 1.3831117e-38
-0.039436232 -0.14934768 0.014234669 1.1986123e-38
-0.037565269 -0.14934768 0.014234669 1.05092e-38
-0.035694305 -0.14934768 0.014234669 4.3302981e-39
-0.033812709 -0.14822401 0.01827801 3.7753307e-39
-0.031948835 -0.14822401 0.01827801 3.5887786e-39
-0.03008496 -0.14822401 0.01827801 3.1259942e-39
-0.028221086 -0.14822401 0.01827801 5.2475643e-39
-0.026357213 -0.14822401 0.01827801 3.9611471e-39
-0.024493339 -0.14822401 0.01827801 3.4090607e-39
-0.022629466 -0.14822401 0.01827801 2.6700691e-39
-0.020765591 -0.14822401 0.01827801 9.1835496e-40
-0.018901717 -0.14822401 0.01827801 1.1938671e-39
-0.017037842 -0.14822401 0.01827801 2.1122332e-39
-0.01517397 -0.14822401 0.01827801 1.9285454e-39
-0.013310095 -0.14822401 0.01827801 2.2958874e-39
-0.011446221 -0.14822401 0.01827801 3.3060779e-39
-0.0095008202 -0.14934768 0.014234669 3.2142424e-39
-0.0076298565 -0.14934768 0.014234669 4.7772395e-39
-0.067259446 -0.14924543 0.021290429 1.078109e-38
-0.065400854 -0.14924543 0.021290429 7.8311971e-39
-0.028229009 -0.14924543 0.021290429 2.0218158e-39
-0.026370417 -0.14924543 0.021290429 7.3468397e-40
-0.024511825 -0.14924543 0.021290429 8.2723693e-40
-0.022653233 -0.14924543 0.021290429 1.1949433e-39
-0.020794641 -0.14924543 0.021290429 7.3469098e-40
