# .PCD v0.7 - Point Cloud Data file format
VERSION 0.7
FIELDS x y z rgb
SIZE 4 4 4 4
TYPE F F F F
COUNT 1 1 1 1
WIDTH 932
HEIGHT 1
VIEWPOINT 0 0 0 1 0 0 0
POINTS 932
DATA ascii
-0.03710188 -0.12596865 -0.0071434886 2.3505522e-38
-0.03517136 -0.12596865 -0.0071434886 2.3501542e-38
-0.03324084 -0.12596865 -0.0071434886 2.3502256e-38
-0.03131032 -0.12596865 -0.0071434886 2.2848251e-38
-0.029379798 -0.12596865 -0.0071434886 1.8700178e-38
-0.027449276 -0.12596865 -0.0071434886 1.5936481e-38
-0.025480419 -0.12695493 -0.01111888 1.6030129e-38
0.064198464 -0.12322696 0.0039074509 1.9639475e-38
0.066109613 -0.12322696 0.0039074509 8.2072173e-39
0.068020761 -0.12322696 0.0039074509 6.0867178e-39
-0.067064434 -0.13713633 -0.044114225 1.0971985e-38
-0.065069087 -0.13713633 -0.044114225 1.0327331e-38
-0.063073739 -0.13713633 -0.044114225 1.0235134e-38
-0.061078403 -0.13713633 -0.044114225 1.0971981e-38
-0.059083059 -0.13713633 -0.044114225 1.1156012e-38
-0.057087716 -0.13713633 -0.044114225 1.0695031e-38
-0.055092376 -0.13713633 -0.044114225 1.0694308e-38
-0.053097032 -0.13713633 -0.044114225 1.0970895e-38
-0.040993631 -0.12964968 -0.014149657 2.3045994e-38
-0.039042857 -0.12889244 -0.01111888 2.3509495e-38
-0.037105367 -0.12889244 -0.01111888 2.3508762e-38
-0.03517136 -0.12789918 -0.0071434886 2.3505505e-38
-0.03324084 -0.12789918 -0.0071434886 2.3504781e-38
-0.03131032 -0.12789918 -0.0071434886 2.3491103e-38
-0.029379798 -0.12789918 -0.0071434886 1.9158998e-38
-0.027417911 -0.12889244 -0.01111888 1.6394941e-38
-0.021709615 -0.12691309 -0.0031967075 5.983707e-39
-0.019786015 -0.12691309 -0.0031967075 4.9713627e-39
-0.0063208099 -0.12691309 -0.0031967075 4.9749501e-39
-0.0044865981 -0.12614109 -0.00010692189 4.7887609e-39
-0.00042198971 -0.12789918 -0.0071434886 3.9597177e-39
0.0015085302 -0.12789918 -0.0071434886 3.0388376e-39
0.0034390539 -0.12789918 -0.0071434886 2.9473609e-39
0.0053695738 -0.12789918 -0.0071434886 3.0413544e-39
0.05689526 -0.12614109 -0.00010692189 7.382811e-40
0.058813442 -0.12614109 -0.00010692189 1.7057998e-38
0.060731623 -0.12614109 -0.00010692189 2.065363e-38
0.062649801 -0.12614109 -0.00010692189 2.0561435e-38
0.064198464 -0.12513812 0.0039074509 2.1114608e-38
0.066109613 -0.12513812 0.0039074509 1.0973089e-38
0.068020761 -0.12513812 0.0039074509 7.8384376e-39
-0.073280647 -0.14091717 -0.051210754 1.0510288e-38
-0.071149796 -0.13990806 -0.047200076 1.0970913e-38
-0.069149047 -0.13990806 -0.047200076 9.0355235e-39
-0.067064434 -0.13913165 -0.044114225 8.6685332e-39
-0.065069087 -0.13913165 -0.044114225 8.4841391e-39
-0.063073739 -0.13913165 -0.044114225 8.5766921e-39
-0.061078403 -0.13913165 -0.044114225 9.1287869e-39
-0.059083059 -0.13913165 -0.044114225 9.865633e-39
-0.057087716 -0.13913165 -0.044114225 1.2077968e-38
-0.055092376 -0.13913165 -0.044114225 1.6594475e-38
-0.053097032 -0.13913165 -0.044114225 2.0466328e-38
-0.042936437 -0.13159247 -0.014149657 2.3509506e-38
-0.040993631 -0.13159247 -0.014149657 2.3509866e-38
-0.039050825 -0.13159247 -0.014149657 2.3509504e-38
-0.037105367 -0.13082992 -0.01111888 1.7695048e-38
-0.035167873 -0.13082992 -0.01111888 1.7960805e-38
-0.03324084 -0.12982969 -0.0071434886 2.0261005e-38
-0.03131032 -0.12982969 -0.0071434886 2.1000013e-38
-0.029355403 -0.13082992 -0.01111888 1.7313995e-38
-0.027417911 -0.13082992 -0.01111888 1.6025423e-38
-0.025518756 -0.12982969 -0.0071434886 7.3608429e-39
-0.00042198971 -0.12982969 -0.0071434886 7.2798394e-39
0.0015085302 -0.12982969 -0.0071434886 6.911773e-39
0.0034390539 -0.12982969 -0.0071434886 7.188713e-39
0.0053695738 -0.12982969 -0.0071434886 7.3738217e-39
0.0073000938 -0.12982969 -0.0071434886 6.0841563e-39
0.0092306137 -0.12982969 -0.0071434886 6.0845122e-39
0.011161134 -0.12982969 -0.0071434886 5.9001209e-39
0.013091654 -0.12982969 -0.0071434886 5.8079253e-39
0.015022177 -0.12982969 -0.0071434886 4.5161103e-39
0.016613416 -0.12805928 -0.00010692189 4.7923413e-39
0.018531598 -0.12805928 -0.00010692189 4.4228441e-39
0.033877067 -0.12805928 -0.00010692189 2.7622662e-39
0.054398481 -0.12631132 0.0068403571 5.5424157e-40
0.05689526 -0.12805928 -0.00010692189 6.4554892e-39
0.058813442 -0.12805928 -0.00010692189 2.3234379e-38
0.060731623 -0.12805928 -0.00010692189 2.258902e-38
0.062649801 -0.12805928 -0.00010692189 2.3234379e-38
0.064198464 -0.12704925 0.0039074509 2.2128039e-38
0.066109613 -0.12704925 0.0039074509 1.5582149e-38
0.068020761 -0.12704925 0.0039074509 8.9440635e-39
0.070322543 -0.12805928 -0.00010692189 5.7175738e-39
0.072240725 -0.12805928 -0.00010692189 5.1644e-39
-0.073280647 -0.14292495 -0.051210754 1.0417019e-38
-0.071149796 -0.14190884 -0.047200076 1.0969838e-38
-0.069149047 -0.14190884 -0.047200076 9.0355249e-39
-0.067064434 -0.14112701 -0.044114225 7.3795922e-39
-0.065069087 -0.14112701 -0.044114225 5.6285913e-39
-0.063073739 -0.14112701 -0.044114225 7.0108069e-39
-0.061078403 -0.14112701 -0.044114225 1.0973421e-38
-0.059083059 -0.14112701 -0.044114225 1.2262368e-38
-0.057087716 -0.14112701 -0.044114225 1.4197037e-38
-0.055092376 -0.14112701 -0.044114225 2.2493925e-38
-0.053097032 -0.14112701 -0.044114225 2.2032223e-38
-0.051101688 -0.14112701 -0.044114225 2.3322959e-38
-0.048936166 -0.13734378 -0.029181829 2.3509869e-38
-0.046928603 -0.13633488 -0.025199642 2.3509873e-38
-0.044966426 -0.13633488 -0.025199642 2.3509879e-38
-0.042936437 -0.13353528 -0.014149657 2.2958154e-38
-0.040993631 -0.13353528 -0.014149657 2.3142544e-38
-0.039050825 -0.13353528 -0.014149657 2.2774843e-38
-0.037105367 -0.13276742 -0.01111888 9.678009e-39
-0.035167873 -0.13276742 -0.01111888 7.7288981e-39
-0.033230383 -0.13276742 -0.01111888 1.1873353e-38
-0.03131032 -0.13176022 -0.0071434886 1.6392015e-38
-0.029379798 -0.13176022 -0.0071434886 1.602431e-38
-0.027449276 -0.13176022 -0.0071434886 1.3075129e-38
-0.025518756 -0.13176022 -0.0071434886 7.54486e-39
-0.023633216 -0.13076027 -0.0031967075 7.3608303e-39
-0.021709615 -0.13076027 -0.0031967075 8.5597196e-39
-0.019786015 -0.13076027 -0.0031967075 9.0210691e-39
-0.0063208099 -0.13076027 -0.0031967075 7.1901577e-39
-0.0044865981 -0.12997745 -0.00010692189 8.4805448e-39
-0.0025684163 -0.12997745 -0.00010692189 6.727746e-39
-0.00042198971 -0.13176022 -0.0071434886 7.5571452e-39
0.0015085302 -0.13176022 -0.0071434886 7.0039602e-39
0.0034390539 -0.13176022 -0.0071434886 6.3578593e-39
0.0053695738 -0.13176022 -0.0071434886 6.8188262e-39
0.0073000938 -0.13176022 -0.0071434886 6.2652783e-39
0.0092306137 -0.13176022 -0.0071434886 5.4358722e-39
0.011161134 -0.13176022 -0.0071434886 4.4231706e-39
0.013091654 -0.13176022 -0.0071434886 5.4373071e-39
0.052492488 -0.12821732 0.0068403571 1.851076e-39
0.054398481 -0.12821732 0.0068403571 6.8159157e-42
0.056304488 -0.12821732 0.0068403571 1.0605734e-38
0.058210496 -0.12821732 0.0068403571 2.3325497e-38
0.060376186 -0.12896039 0.0039074509 2.2957079e-38
0.062649801 -0.12997745 -0.00010692189 2.341805e-38
0.064198464 -0.12896039 0.0039074509 2.3325138e-38
0.066109613 -0.12896039 0.0039074509 1.2907391e-38
0.068404362 -0.12997745 -0.00010692189 9.2188469e-39
0.070322543 -0.12997745 -0.00010692189 5.5310189e-39
0.072240725 -0.12997745 -0.00010692189 6.0845486e-39
-0.071055114 -0.14312236 -0.044114225 1.5303033e-38
-0.068945177 -0.14211179 -0.040153019 1.419848e-38
-0.066956773 -0.14211179 -0.040153019 9.1313092e-39
-0.064968377 -0.14211179 -0.040153019 1.3004602e-38
-0.062979981 -0.14211179 -0.040153019 2.1669915e-38
-0.060991585 -0.14211179 -0.040153019 2.3234369e-38
-0.059083059 -0.14312236 -0.044114225 2.3049259e-38
-0.057087716 -0.14312236 -0.044114225 2.350988e-38
-0.055092376 -0.14312236 -0.044114225 2.2586123e-38
-0.053097032 -0.14312236 -0.044114225 2.3415881e-38
-0.050944846 -0.14007963 -0.032187097 2.3509514e-38
-0.048936166 -0.13931294 -0.029181829 2.2863063e-38
-0.046928603 -0.13829704 -0.025199642 2.304854e-38
-0.044966426 -0.13829704 -0.025199642 2.3418047e-38
-0.042961143 -0.13650523 -0.01817595 2.1667779e-38
-0.040993631 -0.13547809 -0.014149657 1.8903001e-38
-0.039050825 -0.13547809 -0.014149657 2.1209335e-38
-0.037105367 -0.1347049 -0.01111888 7.6507981e-39
-0.035167873 -0.1347049 -0.01111888 7.3626407e-39
-0.033230383 -0.1347049 -0.01111888 9.016739e-39
-0.03131032 -0.13369073 -0.0071434886 1.0676965e-38
-0.029379798 -0.13369073 -0.0071434886 1.1599276e-38
-0.027449276 -0.13369073 -0.0071434886 1.4919392e-38
-0.025518756 -0.13369073 -0.0071434886 1.7593065e-38
-0.023633216 -0.13268389 -0.0031967075 2.1373089e-38
-0.021709615 -0.13268389 -0.0031967075 2.3032259e-38
-0.015938813 -0.13268389 -0.0031967075 2.2018506e-38
-0.014015213 -0.13268389 -0.0031967075 1.6397461e-38
-0.012005113 -0.13369073 -0.0071434886 1.4833382e-38
-0.010074591 -0.13369073 -0.0071434886 1.0594905e-38
-0.0081440713 -0.13369073 -0.0071434886 9.2148546e-39
-0.0063208099 -0.13268389 -0.0031967075 6.7277348e-39
-0.0044865981 -0.13189565 -0.00010692189 6.3603942e-39
-0.0025684163 -0.13189565 -0.00010692189 7.5596563e-39
-0.00055000931 -0.13268389 -0.0031967075 7.0972348e-39
0.0013735928 -0.13268389 -0.0031967075 6.4514969e-39
0.0032971911 -0.13268389 -0.0031967075 7.0035804e-39
0.0052207932 -0.13268389 -0.0031967075 1.520898e-38
0.0073000938 -0.13369073 -0.0071434886 1.9448886e-38
0.0092306137 -0.13369073 -0.0071434886 2.1938876e-38
0.011161134 -0.13369073 -0.0071434886 2.0648489e-38
0.013091654 -0.13369073 -0.0071434886 2.0280422e-38
0.014695235 -0.13189565 -0.00010692189 2.0189669e-38
0.016613416 -0.13189565 -0.00010692189 1.8807822e-38
0.018531598 -0.13189565 -0.00010692189 1.7057917e-38
0.033877067 -0.13189565 -0.00010692189 9.8591478e-39
0.035338461 -0.13012333 0.0068403571 8.2010586e-39
0.037244469 -0.13012333 0.0068403571 6.5458393e-39
0.038667396 -0.1283439 0.013815532 1.1987539e-38
0.0403485 -0.12757985 0.016810426 1.3554513e-38
0.042237021 -0.12757985 0.016810426 9.958165e-39
0.043827079 -0.12655805 0.020815739 6.5444001e-39
0.045708574 -0.12655805 0.020815739 6.1756176e-39
0.047590081 -0.12655805 0.020815739 9.0347696e-39
0.049471576 -0.12655805 0.020815739 1.3463039e-38
0.052245159 -0.12934943 0.0098739956 1.033378e-38
0.054145832 -0.12934943 0.0098739956 7.843792e-39
0.056046519 -0.12934943 0.0098739956 1.3462717e-38
0.057947207 -0.12934943 0.0098739956 2.231171e-38
0.060116488 -0.13012333 0.0068403571 2.3232944e-38
0.062287334 -0.13087155 0.0039074509 2.3509527e-38
0.064198464 -0.13087155 0.0039074509 2.2495018e-38
0.066109613 -0.13087155 0.0039074509 6.6373665e-39
0.068020761 -0.13087155 0.0039074509 5.5302987e-39
0.069931909 -0.13087155 0.0039074509 5.8068799e-39
0.071843043 -0.13087155 0.0039074509 6.8210319e-39
-0.074910372 -0.1441002 -0.040153019 8.6645829e-39
-0.072921969 -0.1441002 -0.040153019 1.530267e-38
-0.070933573 -0.1441002 -0.040153019 1.705475e-38
-0.068827711 -0.14305727 -0.036092751 1.3829698e-38
-0.06684643 -0.14305727 -0.036092751 1.0513165e-38
-0.064865157 -0.14305727 -0.036092751 1.9549415e-38
-0.062883876 -0.14305727 -0.036092751 2.3142538e-38
-0.060817 -0.14205404 -0.032187097 2.3234376e-38
-0.05884257 -0.14205404 -0.032187097 2.2311696e-38
-0.056940041 -0.14305727 -0.036092751 2.3509879e-38
-0.055026393 -0.1441002 -0.040153019 2.3509876e-38
-0.053097032 -0.14511769 -0.044114225 2.3509873e-38
-0.050944846 -0.14205404 -0.032187097 2.2770511e-38
-0.048936166 -0.1412821 -0.029181829 2.3509516e-38
-0.046928603 -0.14025922 -0.025199642 2.2956701e-38
-0.044966426 -0.14025922 -0.025199642 2.2311694e-38
-0.042961143 -0.13845511 -0.01817595 1.5305191e-38
-0.040993631 -0.13742088 -0.014149657 1.8072148e-38
-0.039050825 -0.13742088 -0.014149657 2.240499e-38
-0.037108023 -0.13742088 -0.014149657 1.3180735e-38
-0.035167873 -0.13664238 -0.01111888 8.2846054e-39
-0.033230383 -0.13664238 -0.01111888 9.8472256e-39
-0.03131032 -0.13562126 -0.0071434886 1.0770254e-38
-0.029379798 -0.13562126 -0.0071434886 1.1507818e-38
-0.027449276 -0.13562126 -0.0071434886 1.5656974e-38
-0.025518756 -0.13562126 -0.0071434886 1.9621386e-38
-0.023633216 -0.13460748 -0.0031967075 2.2294343e-38
-0.021709615 -0.13460748 -0.0031967075 2.1833011e-38
-0.019786015 -0.13460748 -0.0031967075 2.2569146e-38
-0.017862415 -0.13460748 -0.0031967075 2.3029773e-38
-0.015938813 -0.13460748 -0.0031967075 2.2569885e-38
-0.014015213 -0.13460748 -0.0031967075 1.731654e-38
-0.012091612 -0.13460748 -0.0031967075 1.6397108e-38
-0.010074591 -0.13562126 -0.0071434886 1.2896196e-38
-0.008244412 -0.13460748 -0.0031967075 1.1885284e-38
-0.0063208099 -0.13460748 -0.0031967075 9.6751069e-39
-0.0044865981 -0.13381381 -0.00010692189 5.7157269e-39
-0.0025684163 -0.13381381 -0.00010692189 7.3770447e-39
-0.00055000931 -0.13460748 -0.0031967075 5.3476618e-39
0.0013735928 -0.13460748 -0.0031967075 4.8863207e-39
0.0032971911 -0.13460748 -0.0031967075 7.1897667e-39
0.0052207932 -0.13460748 -0.0031967075 2.0188989e-38
0.0071443915 -0.13460748 -0.0031967075 2.2032896e-38
0.0090679936 -0.13460748 -0.0031967075 2.3509821e-38
0.010858867 -0.13381381 -0.00010692189 2.3509824e-38
0.012777049 -0.13381381 -0.00010692189 2.3508742e-38
0.014695235 -0.13381381 -0.00010692189 2.3509832e-38
0.016613416 -0.13381381 -0.00010692189 2.3509844e-38
0.018531598 -0.13381381 -0.00010692189 2.3049597e-38
0.020242147 -0.13278268 0.0039074509 1.7979569e-38
0.022153292 -0.13278268 0.0039074509 7.6540295e-39
0.024064437 -0.13278268 0.0039074509 3.2293582e-39
0.025975581 -0.13278268 0.0039074509 4.4275314e-39
0.028122514 -0.13381381 -0.00010692189 5.0703701e-39
0.030040696 -0.13381381 -0.00010692189 1.1336059e-38
0.031958885 -0.13381381 -0.00010692189 1.3638792e-38
0.033877067 -0.13381381 -0.00010692189 1.3452256e-38
0.035338461 -0.13202934 0.0068403571 9.6733048e-39
0.037244469 -0.13202934 0.0068403571 7.280505e-39
0.038667396 -0.13023765 0.013815532 1.6594062e-38
0.0403485 -0.1294684 0.016810426 1.5947638e-38
0.042237021 -0.1294684 0.016810426 1.3363284e-38
0.043827079 -0.12843956 0.020815739 1.0411557e-38
0.045708574 -0.12843956 0.020815739 1.2439137e-38
0.047590081 -0.12843956 0.020815739 1.5112832e-38
0.049791101 -0.1294684 0.016810426 1.815781e-38
0.0519238 -0.13023765 0.013815532 1.733343e-38
0.054145832 -0.1312501 0.0098739956 1.6597677e-38
0.056046519 -0.1312501 0.0098739956 2.0652889e-38
0.057947207 -0.1312501 0.0098739956 2.341805e-38
0.05984788 -0.1312501 0.0098739956 2.341805e-38
0.061748568 -0.1312501 0.0098739956 2.341805e-38
0.063649252 -0.1312501 0.0098739956 2.3509886e-38
0.065549925 -0.1312501 0.0098739956 4.7941728e-39
0.067450613 -0.1312501 0.0098739956 4.4246714e-39
0.069931909 -0.13278268 0.0039074509 5.9001546e-39
-0.084034875 -0.141167 -0.021122565 1.1891797e-38
-0.082079843 -0.141167 -0.021122565 1.1061315e-38
-0.08012481 -0.141167 -0.021122565 1.2721191e-38
-0.078323469 -0.14222141 -0.025199642 1.2536076e-38
-0.076361291 -0.14222141 -0.025199642 1.1798511e-38
-0.074535266 -0.14325126 -0.029181829 1.1891427e-38
-0.072566099 -0.14325126 -0.029181829 1.6409016e-38
-0.070596941 -0.14325126 -0.029181829 1.6224626e-38
-0.068714723 -0.14402847 -0.032187097 1.2630434e-38
-0.066740289 -0.14402847 -0.032187097 1.226344e-38
-0.064765856 -0.14402847 -0.032187097 2.3234367e-38
-0.062720299 -0.14325126 -0.029181829 2.3234379e-38
-0.060751136 -0.14325126 -0.029181829 2.341805e-38
-0.05878197 -0.14325126 -0.029181829 2.3418047e-38
-0.05686814 -0.14402847 -0.032187097 2.3418042e-38
-0.054843653 -0.14325126 -0.029181829 2.3233282e-38
-0.052815143 -0.14222141 -0.025199642 1.5304458e-38
-0.050852962 -0.14222141 -0.025199642 8.942609e-39
-0.048890784 -0.14222141 -0.025199642 1.0509935e-38
-0.046860874 -0.14040495 -0.01817595 8.0199268e-39
-0.044855326 -0.13857989 -0.01111888 5.2551341e-39
-0.042917836 -0.13857989 -0.01111888 3.2271876e-39
-0.040980347 -0.13857989 -0.01111888 1.6503007e-38
-0.039042857 -0.13857989 -0.01111888 1.7424261e-38
-0.037105367 -0.13857989 -0.01111888 1.4286001e-38
-0.035167873 -0.13857989 -0.01111888 1.6030129e-38
-0.033230383 -0.13857989 -0.01111888 1.9254076e-38
-0.03131032 -0.1375518 -0.0071434886 2.1006149e-38
-0.029379798 -0.1375518 -0.0071434886 1.9900519e-38
-0.027449276 -0.1375518 -0.0071434886 1.897856e-38
-0.025518756 -0.1375518 -0.0071434886 1.833283e-38
-0.023633216 -0.13653107 -0.0031967075 1.7686026e-38
-0.021709615 -0.13653107 -0.0031967075 1.639421e-38
-0.019832063 -0.13573201 -0.00010692189 1.7222538e-38
-0.01791388 -0.13573201 -0.00010692189 1.6945957e-38
-0.015995696 -0.13573201 -0.00010692189 1.6300233e-38
-0.014077514 -0.13573201 -0.00010692189 1.6301678e-38
-0.012159331 -0.13573201 -0.00010692189 1.5473718e-38
-0.010241147 -0.13573201 -0.00010692189 1.4369531e-38
-0.0083229635 -0.13573201 -0.00010692189 1.4464245e-38
-0.0064047817 -0.13573201 -0.00010692189 1.631211e-38
-0.0044865981 -0.13573201 -0.00010692189 1.6594087e-38
-0.0025684163 -0.13573201 -0.00010692189 1.6412214e-38
-0.0006502308 -0.13573201 -0.00010692189 1.106487e-38
0.0013735928 -0.13653107 -0.0031967075 2.9505768e-39
0.0031861365 -0.13573201 -0.00010692189 5.5320545e-39
0.0051043183 -0.13573201 -0.00010692189 2.3417288e-38
0.0070225 -0.13573201 -0.00010692189 2.3509844e-38
0.0089406855 -0.13573201 -0.00010692189 2.3509848e-38
0.010858867 -0.13573201 -0.00010692189 2.3417288e-38
0.012597568 -0.13469382 0.0039074509 2.3140348e-38
0.014508713 -0.13469382 0.0039074509 2.3326184e-38
0.016419858 -0.13469382 0.0039074509 2.3509869e-38
0.018331002 -0.13469382 0.0039074509 2.3326208e-38
0.020242147 -0.13469382 0.0039074509 1.9639114e-38
0.022153292 -0.13469382 0.0039074509 7.470381e-39
0.024064437 -0.13469382 0.0039074509 3.4126915e-39
0.025975581 -0.13469382 0.0039074509 3.9662029e-39
0.027886726 -0.13469382 0.0039074509 6.7298928e-39
0.029797867 -0.13469382 0.0039074509 1.2811186e-38
0.031958885 -0.13573201 -0.00010692189 1.6311742e-38
0.033877067 -0.13573201 -0.00010692189 1.6217049e-38
0.035338461 -0.13393532 0.0068403571 1.1054441e-38
0.037244469 -0.13393532 0.0068403571 9.1226113e-39
0.038667396 -0.13213144 0.013815532 1.8343609e-38
0.0403485 -0.13135691 0.016810426 1.9171248e-38
0.042237021 -0.13135691 0.016810426 1.8708112e-38
0.043827079 -0.13032107 0.020815739 1.7507372e-38
0.045708574 -0.13032107 0.020815739 2.211571e-38
0.047590081 -0.13032107 0.020815739 2.1101222e-38
0.049791101 -0.13135691 0.016810426 1.7784341e-38
0.0519238 -0.13213144 0.013815532 1.8342893e-38
0.053817574 -0.13213144 0.013815532 1.9544686e-38
0.055711348 -0.13213144 0.013815532 2.350987e-38
0.057605121 -0.13213144 0.013815532 2.341805e-38
0.05984788 -0.13315077 0.0098739956 2.2864882e-38
0.061748568 -0.13315077 0.0098739956 2.2772684e-38
0.063649252 -0.13315077 0.0098739956 2.2772323e-38
0.065549925 -0.13315077 0.0098739956 4.7019771e-39
0.067450613 -0.13315077 0.0098739956 4.4253874e-39
0.069351301 -0.13315077 0.0098739956 5.0707568e-39
-0.084210008 -0.14418359 -0.025199642 1.2167662e-38
-0.082079843 -0.14312203 -0.021122565 1.2627917e-38
-0.08012481 -0.14312203 -0.021122565 1.4011206e-38
-0.078323469 -0.14418359 -0.025199642 1.5025356e-38
-0.076361291 -0.14418359 -0.025199642 1.6500486e-38
-0.074535266 -0.14522041 -0.029181829 1.5947315e-38
-0.072566099 -0.14522041 -0.029181829 1.6593407e-38
-0.070596941 -0.14522041 -0.029181829 1.5487061e-38
-0.068627775 -0.14522041 -0.029181829 1.4381431e-38
-0.066658616 -0.14522041 -0.029181829 1.4382859e-38
-0.064588219 -0.14418359 -0.025199642 2.3141452e-38
-0.062626034 -0.14418359 -0.025199642 2.3509527e-38
-0.06066386 -0.14418359 -0.025199642 2.203477e-38
-0.058701679 -0.14418359 -0.025199642 2.341805e-38
-0.056812812 -0.14522041 -0.029181829 2.341804e-38
-0.05477732 -0.14418359 -0.025199642 2.2865573e-38
-0.05275438 -0.14312203 -0.021122565 1.0972337e-38
-0.050799351 -0.14312203 -0.021122565 5.900872e-39
-0.048844319 -0.14312203 -0.021122565 6.6377196e-39
-0.046860874 -0.14235483 -0.01817595 5.8997832e-39
-0.044911008 -0.14235483 -0.01817595 4.4242832e-39
-0.042917836 -0.14051737 -0.01111888 3.133173e-39
-0.040980347 -0.14051737 -0.01111888 1.355021e-38
-0.039042857 -0.14051737 -0.01111888 1.6130271e-38
-0.037105367 -0.14051737 -0.01111888 1.7602526e-38
-0.035167873 -0.14051737 -0.01111888 2.0457694e-38
-0.033230383 -0.14051737 -0.01111888 2.257746e-38
-0.03131032 -0.1394823 -0.0071434886 2.340794e-38
-0.029379798 -0.1394823 -0.0071434886 2.2025005e-38
-0.027449276 -0.1394823 -0.0071434886 1.9166938e-38
-0.025518756 -0.1394823 -0.0071434886 1.7783643e-38
-0.023633216 -0.13845469 -0.0031967075 1.7781848e-38
-0.021709615 -0.13845469 -0.0031967075 1.8425423e-38
-0.019832063 -0.13765021 -0.00010692189 1.7686419e-38
-0.01791388 -0.13765021 -0.00010692189 1.6855942e-38
-0.015995696 -0.13765021 -0.00010692189 1.6210216e-38
-0.014077514 -0.13765021 -0.00010692189 1.7040696e-38
-0.012159331 -0.13765021 -0.00010692189 1.630421e-38
-0.010241147 -0.13765021 -0.00010692189 1.4554651e-38
-0.0083229635 -0.13765021 -0.00010692189 1.5385851e-38
-0.0065138787 -0.13660498 0.0039074509 1.843226e-38
-0.004602734 -0.13660498 0.0039074509 1.9359251e-38
-0.0025684163 -0.13765021 -0.00010692189 2.1113486e-38
-0.0006502308 -0.13765021 -0.00010692189 1.8900439e-38
0.001267951 -0.13765021 -0.00010692189 3.9654687e-39
0.0031861365 -0.13765021 -0.00010692189 5.5324398e-39
0.0049529895 -0.13660498 0.0039074509 2.3418036e-38
0.0068641342 -0.13660498 0.0039074509 2.3326199e-38
0.0087752789 -0.13660498 0.0039074509 2.2588634e-38
0.010686424 -0.13660498 0.0039074509 2.3509873e-38
0.012466438 -0.13584132 0.0068403571 2.3418038e-38
0.014372438 -0.13584132 0.0068403571 2.341804e-38
0.016278442 -0.13584132 0.0068403571 2.3234374e-38
0.018184446 -0.13584132 0.0068403571 2.3142544e-38
0.020242147 -0.13660498 0.0039074509 2.0469959e-38
0.022153292 -0.13660498 0.0039074509 8.0231974e-39
0.024064437 -0.13660498 0.0039074509 2.3074257e-39
0.025975581 -0.13660498 0.0039074509 3.0446138e-39
0.027886726 -0.13660498 0.0039074509 7.376351e-39
0.029797867 -0.13660498 0.0039074509 1.2350575e-38
0.031709015 -0.13660498 0.0039074509 1.732662e-38
0.033620156 -0.13660498 0.0039074509 1.7047534e-38
0.035338461 -0.13584132 0.0068403571 1.0501994e-38
0.037244469 -0.13584132 0.0068403571 1.1059084e-38
0.038459979 -0.13324542 0.016810426 1.9633275e-38
0.040064082 -0.13220255 0.020815739 2.1751653e-38
0.041945577 -0.13220255 0.020815739 1.8153143e-38
0.044125542 -0.13324542 0.016810426 1.7136075e-38
0.045708574 -0.13220255 0.020815739 2.0361835e-38
0.047590081 -0.13220255 0.020815739 2.0637365e-38
0.049791101 -0.13324542 0.016810426 1.9533176e-38
0.0519238 -0.1340252 0.013815532 1.8062701e-38
0.053817574 -0.1340252 0.013815532 1.9910586e-38
0.055711348 -0.1340252 0.013815532 2.3232557e-38
0.057605121 -0.1340252 0.013815532 2.341805e-38
0.059498895 -0.1340252 0.013815532 2.3141466e-38
0.061748568 -0.13505147 0.0098739956 2.304927e-38
0.063286424 -0.1340252 0.013815532 1.9638032e-38
0.065180197 -0.1340252 0.013815532 3.4119572e-39
0.068967745 -0.1340252 0.013815532 6.3622145e-39
-0.084210008 -0.14614578 -0.025199642 1.1614844e-38
-0.082079843 -0.14507706 -0.021122565 1.2074742e-38
-0.08012481 -0.14507706 -0.021122565 1.6039507e-38
-0.078323469 -0.14614578 -0.025199642 1.8067809e-38
-0.076361291 -0.14614578 -0.025199642 1.8713178e-38
-0.074535266 -0.1471896 -0.029181829 1.7606833e-38
-0.072436929 -0.14614578 -0.025199642 1.8344401e-38
-0.070474751 -0.14614578 -0.025199642 1.6501211e-38
-0.068512574 -0.14614578 -0.025199642 1.4841687e-38
-0.066550389 -0.14614578 -0.025199642 1.5395929e-38
-0.064588219 -0.14614578 -0.025199642 2.3509876e-38
-0.062626034 -0.14614578 -0.025199642 2.3508809e-38
-0.060574502 -0.14507706 -0.021122565 2.3047838e-38
-0.058619473 -0.14507706 -0.021122565 2.341805e-38
-0.056739498 -0.14614578 -0.025199642 1.9362147e-38
-0.054709408 -0.14507706 -0.021122565 1.5767223e-38
-0.052710466 -0.14430468 -0.01817595 1.5690984e-39
-0.050760601 -0.14430468 -0.01817595 2.5821909e-39
-0.048810739 -0.14430468 -0.01817595 6.4533312e-39
-0.046822045 -0.14324932 -0.014149657 1.060104e-38
-0.044879243 -0.14324932 -0.014149657 1.0600303e-38
-0.042917836 -0.14245488 -0.01111888 7.9258913e-39
-0.04096292 -0.14141284 -0.0071434886 1.3271444e-38
-0.0390324 -0.14141284 -0.0071434886 2.3507715e-38
-0.03710188 -0.14141284 -0.0071434886 2.3507367e-38
-0.035167873 -0.14245488 -0.01111888 2.3507718e-38
-0.033230383 -0.14245488 -0.01111888 2.3508431e-38
-0.03131032 -0.14141284 -0.0071434886 2.3508434e-38
-0.029379798 -0.14141284 -0.0071434886 2.3508435e-38
-0.027449276 -0.14141284 -0.0071434886 2.3506635e-38
-0.025518756 -0.14141284 -0.0071434886 2.3506999e-38
-0.023633216 -0.14037828 -0.0031967075 2.3506643e-38
-0.021750245 -0.13956837 -0.00010692189 2.3507006e-38
-0.019832063 -0.13956837 -0.00010692189 2.3506286e-38
-0.01791388 -0.13956837 -0.00010692189 2.3505205e-38
-0.015995696 -0.13956837 -0.00010692189 2.3505927e-38
-0.014158458 -0.13851611 0.0039074509 2.3500162e-38
-0.012247313 -0.13851611 0.0039074509 2.3505201e-38
-0.010336168 -0.13851611 0.0039074509 2.2300893e-38
-0.0084250234 -0.13851611 0.0039074509 2.3501596e-38
-0.0065138787 -0.13851611 0.0039074509 2.3507711e-38
-0.004602734 -0.13851611 0.0039074509 2.3508787e-38
-0.0025684163 -0.13956837 -0.00010692189 2.323256e-38
-0.0006502308 -0.13956837 -0.00010692189 2.3233285e-38
0.001267951 -0.13956837 -0.00010692189 1.1801394e-38
0.0031861365 -0.13956837 -0.00010692189 1.2722997e-38
0.0049529895 -0.13851611 0.0039074509 2.304927e-38
0.0068641342 -0.13851611 0.0039074509 2.341805e-38
0.0087752789 -0.13851611 0.0039074509 2.341805e-38
0.010686424 -0.13851611 0.0039074509 2.2773763e-38
0.012466438 -0.13774733 0.0068403571 2.2865955e-38
0.014372438 -0.13774733 0.0068403571 2.2682283e-38
0.016278442 -0.13774733 0.0068403571 2.23135e-38
0.018184446 -0.13774733 0.0068403571 2.3142544e-38
0.020242147 -0.13851611 0.0039074509 2.0562511e-38
0.022153292 -0.13851611 0.0039074509 9.8674645e-39
0.024064437 -0.13851611 0.0039074509 2.6769243e-39
0.025975581 -0.13851611 0.0039074509 4.7062987e-39
0.027886726 -0.13851611 0.0039074509 9.3142683e-39
0.029797867 -0.13851611 0.0039074509 1.3643846e-38
0.031709015 -0.13851611 0.0039074509 2.0093942e-38
0.033620156 -0.13851611 0.0039074509 1.9262034e-38
0.035338461 -0.13774733 0.0068403571 1.1426113e-38
0.036571451 -0.13513394 0.016810426 1.2443474e-38
0.038182579 -0.13408406 0.020815739 1.9635089e-38
0.039846115 -0.13327946 0.023885259 1.9724436e-38
0.041722231 -0.13327946 0.023885259 1.2714691e-38
0.043827079 -0.13408406 0.020815739 1.2434477e-38
0.045708574 -0.13408406 0.020815739 1.1787301e-38
0.047350574 -0.13327946 0.023885259 1.5659168e-38
0.04922669 -0.13327946 0.023885259 2.2944778e-38
0.05167963 -0.13513394 0.016810426 2.0275046e-38
0.053817574 -0.13591899 0.013815532 2.3229274e-38
0.055711348 -0.13591899 0.013815532 2.3509866e-38
0.057605121 -0.13591899 0.013815532 2.341805e-38
0.059498895 -0.13591899 0.013815532 2.341805e-38
0.061748568 -0.13695215 0.0098739956 2.341805e-38
0.063286424 -0.13591899 0.013815532 1.8808627e-38
0.065180197 -0.13591899 0.013815532 4.0573266e-39
-0.086172193 -0.14810793 -0.025199642 1.2258779e-38
-0.084210008 -0.14810793 -0.025199642 1.170596e-38
-0.082247823 -0.14810793 -0.025199642 1.0414858e-38
-0.080285653 -0.14810793 -0.025199642 1.4840243e-38
-0.078323469 -0.14810793 -0.025199642 1.677707e-38
-0.076361291 -0.14810793 -0.025199642 1.7330243e-38
-0.074399114 -0.14810793 -0.025199642 1.6501565e-38
-0.072436929 -0.14810793 -0.025199642 1.7699752e-38
-0.070474751 -0.14810793 -0.025199642 1.6132429e-38
-0.068512574 -0.14810793 -0.025199642 1.4841687e-38
-0.066550389 -0.14810793 -0.025199642 1.6039856e-38
-0.064588219 -0.14810793 -0.025199642 2.3509514e-38
-0.062626034 -0.14810793 -0.025199642 2.2676909e-38
-0.060574502 -0.1470321 -0.021122565 2.3508451e-38
-0.058619473 -0.1470321 -0.021122565 2.3141467e-38
-0.056664441 -0.1470321 -0.021122565 1.4937836e-38
-0.054660331 -0.14625455 -0.01817595 1.0236918e-38
-0.052710466 -0.14625455 -0.01817595 7.4042369e-40
-0.050707657 -0.1451921 -0.014149657 1.1992593e-39
-0.04873031 -0.14439236 -0.01111888 7.006149e-39
-0.04679282 -0.14439236 -0.01111888 9.6783607e-39
-0.044879243 -0.1451921 -0.014149657 9.5850637e-39
-0.042917836 -0.14439236 -0.01111888 8.5694488e-39
-0.04096292 -0.14334334 -0.0071434886 1.575927e-38
-0.0390324 -0.14334334 -0.0071434886 2.3507348e-38
-0.03710188 -0.14334334 -0.0071434886 2.3503042e-38
-0.03517136 -0.14334334 -0.0071434886 2.3506998e-38
-0.03324084 -0.14334334 -0.0071434886 2.3508074e-38
-0.03131032 -0.14334334 -0.0071434886 2.2954906e-38
-0.029379798 -0.14334334 -0.0071434886 2.3509524e-38
-0.027449276 -0.14334334 -0.0071434886 2.3509168e-38
-0.025518756 -0.14334334 -0.0071434886 2.3509168e-38
-0.023633216 -0.14230187 -0.0031967075 2.3414822e-38
-0.021750245 -0.14148657 -0.00010692189 2.3506657e-38
-0.019832063 -0.14148657 -0.00010692189 2.3506298e-38
-0.01791388 -0.14148657 -0.00010692189 2.3506657e-38
-0.015995696 -0.14148657 -0.00010692189 2.3507374e-38
-0.014158458 -0.14042725 0.0039074509 2.350341e-38
-0.012247313 -0.14042725 0.0039074509 2.350773e-38
-0.010336168 -0.14042725 0.0039074509 2.3504845e-38
-0.0084250234 -0.14042725 0.0039074509 2.3508445e-38
-0.0065138787 -0.14042725 0.0039074509 2.3508802e-38
-0.004602734 -0.14042725 0.0039074509 2.3509156e-38
-0.0025684163 -0.14148657 -0.00010692189 2.3322962e-38
-0.0006502308 -0.14148657 -0.00010692189 2.3509521e-38
0.001267951 -0.14148657 -0.00010692189 2.3415895e-38
0.0030418448 -0.14042725 0.0039074509 2.3509168e-38
0.0048424304 -0.13965334 0.0068403571 2.3509168e-38
0.0067484304 -0.13965334 0.0068403571 2.2772332e-38
0.0087752789 -0.14042725 0.0039074509 2.2495748e-38
0.010686424 -0.14042725 0.0039074509 2.3234379e-38
0.012466438 -0.13965334 0.0068403571 2.3142544e-38
0.014372438 -0.13965334 0.0068403571 2.3142544e-38
0.016278442 -0.13965334 0.0068403571 2.2958867e-38
0.018331002 -0.14042725 0.0039074509 2.3142541e-38
0.020242147 -0.14042725 0.0039074509 2.1575933e-38
0.022153292 -0.14042725 0.0039074509 1.6505176e-38
0.024064437 -0.14042725 0.0039074509 1.1067078e-38
0.025975581 -0.14042725 0.0039074509 1.0424591e-38
0.027886726 -0.14042725 0.0039074509 1.2820955e-38
0.029797867 -0.14042725 0.0039074509 1.6228223e-38
0.031709015 -0.14042725 0.0039074509 2.0465621e-38
0.033432461 -0.13965334 0.0068403571 1.9911005e-38
0.035139002 -0.13885282 0.0098739956 1.4656928e-38
0.036571451 -0.13702248 0.016810426 1.392223e-38
0.038182579 -0.13596557 0.020815739 1.7886642e-38
0.039637387 -0.13437997 0.026824603 1.8161802e-38
0.041508354 -0.13437997 0.026824603 1.4102317e-38
0.043379314 -0.13437997 0.026824603 1.4005793e-38
0.045250282 -0.13437997 0.026824603 1.2436663e-38
0.047121245 -0.13437997 0.026824603 1.4925223e-38
0.048992205 -0.13437997 0.026824603 2.1750568e-38
0.051353071 -0.13596557 0.020815739 2.0186468e-38
0.053568143 -0.13702248 0.016810426 2.2218017e-38
0.055711348 -0.13781275 0.013815532 2.350987e-38
0.057605121 -0.13781275 0.013815532 2.2957428e-38
0.059498895 -0.13781275 0.013815532 2.2588648e-38
0.061392669 -0.13781275 0.013815532 2.2957431e-38
0.063010752 -0.13702248 0.016810426 1.8256174e-38
0.064899266 -0.13702248 0.016810426 5.1643944e-39
-0.064484566 -0.14898713 -0.021122565 2.3507352e-38
-0.062529534 -0.14898713 -0.021122565 2.3507733e-38
-0.060574502 -0.14898713 -0.021122565 2.3507733e-38
-0.058619473 -0.14898713 -0.021122565 2.2495382e-38
-0.056610193 -0.14820443 -0.01817595 1.4200271e-38
-0.054593265 -0.14713491 -0.014149657 1.7552805e-39
-0.052650463 -0.14713491 -0.014149657 2.1523944e-42
-0.050707657 -0.14713491 -0.014149657 3.5873241e-43
-0.04873031 -0.14632986 -0.01111888 7.9281053e-39
-0.04679282 -0.14632986 -0.01111888 9.401055e-39
-0.044823963 -0.14527388 -0.0071434886 9.9531217e-39
-0.04289344 -0.14527388 -0.0071434886 9.7669018e-39
-0.04096292 -0.14527388 -0.0071434886 2.0367243e-38
-0.0390324 -0.14527388 -0.0071434886 2.3502296e-38
-0.03710188 -0.14527388 -0.0071434886 2.3506993e-38
-0.03517136 -0.14527388 -0.0071434886 2.3508427e-38
-0.03324084 -0.14527388 -0.0071434886 2.3509866e-38
-0.03131032 -0.14527388 -0.0071434886 2.3509873e-38
-0.029379798 -0.14527388 -0.0071434886 2.3509879e-38
-0.027449276 -0.14527388 -0.0071434886 2.2588292e-38
-0.025556818 -0.14422549 -0.0031967075 2.3234379e-38
-0.023668429 -0.14340474 -0.00010692189 2.3325497e-38
-0.021750245 -0.14340474 -0.00010692189 2.3509168e-38
-0.01989189 -0.14233841 0.0039074509 2.3508809e-38
-0.017980745 -0.14233841 0.0039074509 2.3508451e-38
-0.0160696 -0.14233841 0.0039074509 2.350701e-38
-0.014158458 -0.14233841 0.0039074509 2.3508088e-38
-0.012247313 -0.14233841 0.0039074509 2.3508807e-38
-0.010336168 -0.14233841 0.0039074509 2.3508807e-38
-0.0084250234 -0.14233841 0.0039074509 2.3508445e-38
-0.0065138787 -0.14233841 0.0039074509 2.350952e-38
-0.004602734 -0.14233841 0.0039074509 2.3508431e-38
-0.0027815811 -0.14155935 0.0068403571 2.3509149e-38
-0.00087557733 -0.14155935 0.0068403571 2.3506995e-38
0.0011307001 -0.14233841 0.0039074509 2.3509163e-38
0.0030418448 -0.14233841 0.0039074509 2.3508092e-38
0.0048424304 -0.14155935 0.0068403571 2.2677978e-38
0.0067484304 -0.14155935 0.0068403571 2.3509168e-38
0.0086544342 -0.14155935 0.0068403571 2.3232944e-38
0.010686424 -0.14233841 0.0039074509 2.3141467e-38
0.012466438 -0.14155935 0.0068403571 2.2957075e-38
0.014231488 -0.14075352 0.0098739956 2.3418047e-38
0.016132168 -0.14075352 0.0098739956 2.2865229e-38
0.018184446 -0.14155935 0.0068403571 2.3418043e-38
0.020090446 -0.14155935 0.0068403571 2.2773391e-38
0.02199645 -0.14155935 0.0068403571 2.3418045e-38
0.02390245 -0.14155935 0.0068403571 2.2498971e-38
0.025808454 -0.14155935 0.0068403571 2.2224189e-38
0.027714454 -0.14155935 0.0068403571 2.2224189e-38
0.029436953 -0.14075352 0.0098739956 2.3142544e-38
0.031092301 -0.13970654 0.013815532 2.3509883e-38
0.032986075 -0.13970654 0.013815532 2.3509876e-38
0.034879848 -0.13970654 0.013815532 2.3509873e-38
0.036571451 -0.13891099 0.016810426 2.2313486e-38
0.038182579 -0.13784705 0.020815739 2.3142534e-38
0.039637387 -0.13625093 0.026824603 2.30507e-38
0.041508354 -0.13625093 0.026824603 2.3509524e-38
0.043379314 -0.13625093 0.026824603 2.3504844e-38
0.045250282 -0.13625093 0.026824603 2.3507723e-38
0.046805769 -0.13517688 0.030867944 2.3506995e-38
0.04866964 -0.13517688 0.030867944 2.3509142e-38
0.050533522 -0.13517688 0.030867944 2.3509848e-38
0.053234566 -0.13784705 0.020815739 2.3234343e-38
0.055456672 -0.13891099 0.016810426 2.3326199e-38
0.057345185 -0.13891099 0.016810426 2.3234015e-38
0.059498895 -0.13970654 0.013815532 2.3418047e-38
0.061392669 -0.13970654 0.013815532 2.185108e-38
0.063010752 -0.13891099 0.016810426 1.7703e-38
0.064899266 -0.13891099 0.016810426 6.0863507e-39
-0.054593265 -0.14907773 -0.014149657 1.8474789e-39
-0.052650463 -0.14907773 -0.014149657 2.1523944e-42
-0.050707657 -0.14907773 -0.014149657 3.5873241e-43
-0.04873031 -0.14826734 -0.01111888 7.18982e-39
-0.04679282 -0.14826734 -0.01111888 8.4787357e-39
-0.044823963 -0.14720438 -0.0071434886 8.2921584e-39
-0.04289344 -0.14720438 -0.0071434886 5.7092263e-39
-0.04096292 -0.14720438 -0.0071434886 1.8798111e-38
-0.0390324 -0.14720438 -0.0071434886 2.3496528e-38
-0.03710188 -0.14720438 -0.0071434886 2.3506622e-38
-0.03517136 -0.14720438 -0.0071434886 2.3508046e-38
-0.03324084 -0.14720438 -0.0071434886 2.3509482e-38
-0.03131032 -0.14720438 -0.0071434886 2.3509851e-38
-0.029379798 -0.14720438 -0.0071434886 2.3508777e-38
-0.027449276 -0.14720438 -0.0071434886 2.3509149e-38
-0.025556818 -0.14614908 -0.0031967075 2.3509879e-38
-0.023668429 -0.14532293 -0.00010692189 2.3509883e-38
-0.021750245 -0.14532293 -0.00010692189 2.3509883e-38
-0.01989189 -0.14424954 0.0039074509 2.3231854e-38
-0.017980745 -0.14424954 0.0039074509 2.3509161e-38
-0.0160696 -0.14424954 0.0039074509 2.3509156e-38
-0.014158458 -0.14424954 0.0039074509 2.3045656e-38
-0.012247313 -0.14424954 0.0039074509 2.3509156e-38
-0.010336168 -0.14424954 0.0039074509 2.3415158e-38
-0.0084250234 -0.14424954 0.0039074509 2.3509879e-38
-0.006593585 -0.14346536 0.0068403571 2.3509869e-38
-0.0046875812 -0.14346536 0.0068403571 2.3508049e-38
-0.0027815811 -0.14346536 0.0068403571 2.3509485e-38
-0.00087557733 -0.14346536 0.0068403571 2.3509136e-38
0.0011307001 -0.14424954 0.0039074509 2.3505542e-38
0.0030418448 -0.14424954 0.0039074509 2.3508794e-38
0.0048424304 -0.14346536 0.0068403571 2.3508802e-38
0.0067484304 -0.14346536 0.0068403571 2.3507006e-38
0.0086544342 -0.14346536 0.0068403571 2.3507366e-38
0.010560434 -0.14346536 0.0068403571 2.3509521e-38
0.012466438 -0.14346536 0.0068403571 2.3508798e-38
0.014231488 -0.1426542 0.0098739956 2.3509879e-38
0.016132168 -0.1426542 0.0098739956 2.3509876e-38
0.018032853 -0.1426542 0.0098739956 2.3140016e-38
0.020090446 -0.14346536 0.0068403571 2.3509879e-38
0.021834221 -0.1426542 0.0098739956 2.3509521e-38
0.023734905 -0.1426542 0.0098739956 2.341805e-38
0.025635585 -0.1426542 0.0098739956 2.2499695e-38
0.027536273 -0.1426542 0.0098739956 2.2316024e-38
0.029198527 -0.1416003 0.013815532 2.3141822e-38
0.031092301 -0.1416003 0.013815532 2.3509879e-38
0.032794409 -0.14079951 0.016810426 2.3509873e-38
0.03468293 -0.14079951 0.016810426 2.350987e-38
0.036301084 -0.13972856 0.020815739 2.3234369e-38
0.038182579 -0.13972856 0.020815739 2.2958867e-38
0.039637387 -0.13812189 0.026824603 2.2958873e-38
0.041508354 -0.13812189 0.026824603 2.295672e-38
0.043379314 -0.13812189 0.026824603 2.3508451e-38
0.044941895 -0.13704078 0.030867944 2.3507733e-38
0.046805769 -0.13704078 0.030867944 2.3508445e-38
0.048429314 -0.13623528 0.03388036 2.2861981e-38
0.050287921 -0.13623528 0.03388036 2.3418023e-38
0.052734125 -0.13812189 0.026824603 2.3142518e-38
0.054855052 -0.13890781 0.023885259 2.3142168e-38
0.056731168 -0.13890781 0.023885259 2.350988e-38
0.059233714 -0.14079951 0.016810426 2.350988e-38
0.061748568 -0.1426542 0.0098739956 2.0560339e-38
0.063286424 -0.1416003 0.013815532 1.67814e-38
0.065180197 -0.1416003 0.013815532 7.1008586e-39
-0.048685003 -0.14913492 -0.0071434886 8.0195779e-39
-0.046754483 -0.14913492 -0.0071434886 9.6772761e-39
-0.044823963 -0.14913492 -0.0071434886 9.3988633e-39
-0.04289344 -0.14913492 -0.0071434886 7.2758149e-39
-0.04096292 -0.14913492 -0.0071434886 1.6399945e-38
-0.039022021 -0.14807267 -0.0031967075 1.6580772e-38
-0.037098423 -0.14807267 -0.0031967075 1.4182968e-38
-0.03517136 -0.14913492 -0.0071434886 1.3448617e-38
-0.03324084 -0.14913492 -0.0071434886 1.4188695e-38
-0.03131032 -0.14913492 -0.0071434886 2.0459807e-38
-0.029379798 -0.14913492 -0.0071434886 2.3509478e-38
-0.027480416 -0.14807267 -0.0031967075 2.3509848e-38
-0.025556818 -0.14807267 -0.0031967075 2.3509859e-38
-0.023668429 -0.1472411 -0.00010692189 2.3508783e-38
-0.021750245 -0.1472411 -0.00010692189 2.3509143e-38
-0.01989189 -0.14616071 0.0039074509 2.350986e-38
-0.017980745 -0.14616071 0.0039074509 2.3508779e-38
-0.0160696 -0.14616071 0.0039074509 2.2491741e-38
-0.014158458 -0.14616071 0.0039074509 1.0782536e-38
-0.012247313 -0.14616071 0.0039074509 6.9106827e-39
-0.010336168 -0.14616071 0.0039074509 6.5426247e-39
-0.0084250234 -0.14616071 0.0039074509 8.0181205e-39
-0.006593585 -0.14537133 0.0068403571 1.9081588e-38
-0.0046875812 -0.14537133 0.0068403571 2.3508402e-38
-0.0027815811 -0.14537133 0.0068403571 2.3505878e-38
-0.00087557733 -0.14537133 0.0068403571 2.0553464e-38
0.0010304227 -0.14537133 0.0068403571 1.6312113e-38
0.0030418448 -0.14616071 0.0039074509 1.6865298e-38
0.0047280714 -0.14455487 0.0098739956 2.350555e-38
0.0066287555 -0.14455487 0.0098739956 2.3508434e-38
0.0085294358 -0.14455487 0.0098739956 2.3508793e-38
0.01043012 -0.14455487 0.0098739956 2.3509149e-38
0.012330804 -0.14455487 0.0098739956 2.3509504e-38
0.014048349 -0.14349405 0.013815532 2.2677582e-38
0.015942123 -0.14349405 0.013815532 2.3509503e-38
0.017835896 -0.14349405 0.013815532 2.3509866e-38
0.019729666 -0.14349405 0.013815532 2.2769786e-38
0.02162344 -0.14349405 0.013815532 2.3047454e-38
0.023517214 -0.14349405 0.013815532 2.3509879e-38
0.025240324 -0.14268802 0.016810426 2.3234379e-38
0.027128845 -0.14268802 0.016810426 2.3234376e-38
0.029198527 -0.14349405 0.013815532 2.350843e-38
0.030905887 -0.14268802 0.016810426 2.3509504e-38
0.032794409 -0.14268802 0.016810426 2.3505907e-38
0.03468293 -0.14268802 0.016810426 2.3509507e-38
0.036301084 -0.14161004 0.020815739 2.3418026e-38
0.038182579 -0.14161004 0.020815739 2.2958857e-38
0.040064082 -0.14161004 0.020815739 2.2589736e-38
0.041508354 -0.13999285 0.026824603 2.3509168e-38
0.043379314 -0.13999285 0.026824603 2.3413385e-38
0.044941895 -0.13890465 0.030867944 2.3507374e-38
0.046570726 -0.13809387 0.03388036 2.3321178e-38
0.048429314 -0.13809387 0.03388036 2.3509873e-38
0.050287921 -0.13809387 0.03388036 2.3050679e-38
0.052734125 -0.13999285 0.026824603 2.2775167e-38
0.0546051 -0.13999285 0.026824603 2.3418033e-38
0.05647606 -0.13999285 0.026824603 2.3509879e-38
0.059233714 -0.14268802 0.016810426 2.2495367e-38
0.061122227 -0.14268802 0.016810426 1.8531675e-38
0.0639285 -0.14537133 0.0068403571 1.5305191e-38
0.065834492 -0.14537133 0.0068403571 7.9306192e-39
-0.039022021 -0.1499963 -0.0031967075 1.547478e-38
-0.037098423 -0.1499963 -0.0031967075 1.2245769e-38
-0.03132762 -0.1499963 -0.0031967075 2.0823163e-38
-0.029404018 -0.1499963 -0.0031967075 2.3504771e-38
-0.027480416 -0.1499963 -0.0031967075 2.3504425e-38
-0.025556818 -0.1499963 -0.0031967075 2.3508752e-38
-0.023668429 -0.1491593 -0.00010692189 2.3509837e-38
-0.021750245 -0.1491593 -0.00010692189 2.3509476e-38
-0.01989189 -0.14807184 0.0039074509 2.3043811e-38
-0.017980745 -0.14807184 0.0039074509 2.3508388e-38
-0.0160696 -0.14807184 0.0039074509 2.3509106e-38
-0.014158458 -0.14807184 0.0039074509 6.6311868e-39
-0.012311591 -0.14727734 0.0068403571 3.5884003e-39
-0.010405589 -0.14727734 0.0068403571 5.340462e-39
-0.008499587 -0.14727734 0.0068403571 2.9437581e-39
-0.006593585 -0.14727734 0.0068403571 1.5021372e-38
-0.0047753453 -0.14645557 0.0098739956 1.833933e-38
-0.0028746612 -0.14645557 0.0098739956 1.7140787e-38
-0.00087557733 -0.14727734 0.0068403571 1.4743346e-38
0.0010304227 -0.14727734 0.0068403571 1.1239914e-38
0.0029364266 -0.14727734 0.0068403571 1.289908e-38
0.0047280714 -0.14645557 0.0098739956 2.35077e-38
0.0066287555 -0.14645557 0.0098739956 2.3508416e-38
0.0085294358 -0.14645557 0.0098739956 2.3508772e-38
0.010260805 -0.14538784 0.013815532 2.3505885e-38
0.012154579 -0.14538784 0.013815532 2.3506601e-38
0.014048349 -0.14538784 0.013815532 2.3509841e-38
0.015942123 -0.14538784 0.013815532 2.3509841e-38
0.017835896 -0.14538784 0.013815532 2.3509485e-38
0.019729666 -0.14538784 0.013815532 1.5855451e-38
0.021463282 -0.14457656 0.016810426 1.1707013e-38
0.023351803 -0.14457656 0.016810426 1.9082668e-38
0.025240324 -0.14457656 0.016810426 2.3416234e-38
0.027128845 -0.14457656 0.016810426 2.1846746e-38
0.029017366 -0.14457656 0.016810426 2.1567619e-38
0.030905887 -0.14457656 0.016810426 2.3508765e-38
0.032794409 -0.14457656 0.016810426 2.3504821e-38
0.03468293 -0.14457656 0.016810426 2.350878e-38
0.036301084 -0.14349155 0.020815739 2.3509834e-38
0.038182579 -0.14349155 0.020815739 2.3509851e-38
0.040064082 -0.14349155 0.020815739 2.3509168e-38
0.041508354 -0.14186381 0.026824603 2.3044968e-38
0.043379314 -0.14186381 0.026824603 2.2027916e-38
0.044941895 -0.14076851 0.030867944 2.3507721e-38
0.046570726 -0.13995247 0.03388036 2.3507726e-38
0.048429314 -0.13995247 0.03388036 2.3508793e-38
0.050287921 -0.13995247 0.03388036 2.304922e-38
0.052734125 -0.14186381 0.026824603 2.3509844e-38
0.0546051 -0.14186381 0.026824603 2.1573392e-38
0.05647606 -0.14186381 0.026824603 2.2586836e-38
-0.01989189 -0.14998297 0.0039074509 2.2120399e-38
-0.017980745 -0.14998297 0.0039074509 2.2857239e-38
-0.0160696 -0.14998297 0.0039074509 2.2210788e-38
-0.014158458 -0.14998297 0.0039074509 4.4159959e-39
-0.012311591 -0.14918335 0.0068403571 5.7985506e-39
-0.010405589 -0.14918335 0.0068403571 8.7484492e-39
-0.008499587 -0.14918335 0.0068403571 6.5361255e-39
-0.006593585 -0.14918335 0.0068403571 1.3819949e-38
-0.0047753453 -0.14835624 0.0098739956 1.5940813e-38
-0.0028746612 -0.14835624 0.0098739956 1.0962972e-38
-0.00097398087 -0.14835624 0.0098739956 9.2101757e-39
0.00092670321 -0.14835624 0.0098739956 5.7063816e-39
0.0028273873 -0.14835624 0.0098739956 8.3793332e-39
0.0045794882 -0.1472816 0.013815532 2.1102685e-38
0.0064732619 -0.1472816 0.013815532 2.1471818e-38
0.0083670318 -0.1472816 0.013815532 2.2486321e-38
0.010260805 -0.1472816 0.013815532 2.3040567e-38
0.012154579 -0.1472816 0.013815532 2.3506581e-38
0.014048349 -0.1472816 0.013815532 2.2028569e-38
0.015942123 -0.1472816 0.013815532 2.2030011e-38
0.017835896 -0.1472816 0.013815532 1.9450698e-38
0.019729666 -0.1472816 0.013815532 2.5800035e-39
0.021463282 -0.14646508 0.016810426 2.3037795e-39
0.023351803 -0.14646508 0.016810426 1.4288844e-38
0.025012091 -0.14537306 0.020815739 1.613097e-38
0.026893586 -0.14537306 0.020815739 1.0411959e-38
0.029017366 -0.14646508 0.016810426 9.9484344e-39
0.030905887 -0.14646508 0.016810426 1.547873e-38
0.032794409 -0.14646508 0.016810426 1.4740109e-38
0.03468293 -0.14646508 0.016810426 1.2345538e-38
0.036301084 -0.14537306 0.020815739 1.0229689e-38
0.038182579 -0.14537306 0.020815739 1.0231504e-38
0.040064082 -0.14537306 0.020815739 6.5419367e-39
0.041722231 -0.14453618 0.023885259 2.9438002e-39
0.043379314 -0.14373477 0.026824603 4.3249031e-39
0.045250282 -0.14373477 0.026824603 9.2101813e-39
0.046570726 -0.14181106 0.03388036 1.3911452e-38
0.048429314 -0.14181106 0.03388036 1.3914677e-38
0.050863165 -0.14373477 0.026824603 1.4011876e-38
0.052978937 -0.14453618 0.023885259 1.5950498e-38
0.0546051 -0.14373477 0.026824603 1.7515338e-38
0.05647606 -0.14373477 0.026824603 1.9728409e-38
0.0045794882 -0.14917539 0.013815532 1.9257683e-38
0.0064732619 -0.14917539 0.013815532 1.9810127e-38
0.0083670318 -0.14917539 0.013815532 2.0364008e-38
0.010260805 -0.14917539 0.013815532 2.2209349e-38
0.012154579 -0.14917539 0.013815532 2.230334e-38
0.014048349 -0.14917539 0.013815532 2.3410766e-38
0.015942123 -0.14917539 0.013815532 2.0647062e-38
0.017835896 -0.14917539 0.013815532 1.9450684e-38
0.019729666 -0.14917539 0.013815532 3.8710814e-39
0.021463282 -0.14835359 0.016810426 3.6913565e-40
0.023351803 -0.14835359 0.016810426 1.5580658e-38
0.025012091 -0.14725454 0.020815739 1.7420987e-38
0.026893586 -0.14725454 0.020815739 8.2910963e-39
0.029017366 -0.14835359 0.016810426 7.642822e-39
0.030905887 -0.14835359 0.016810426 1.1606149e-38
0.032794409 -0.14835359 0.016810426 1.2066071e-38
0.03468293 -0.14835359 0.016810426 7.9190627e-39
0.036301084 -0.14725454 0.020815739 6.2641923e-39
0.038182579 -0.14725454 0.020815739 4.1455117e-39
0.040064082 -0.14725454 0.020815739 3.1288907e-39
0.041722231 -0.1464123 0.023885259 1.2857026e-39
0.043379314 -0.14560573 0.026824603 2.7557823e-39
0.045250282 -0.14560573 0.026824603 5.2439615e-39
0.047121245 -0.14560573 0.026824603 8.1016757e-39
0.048992205 -0.14560573 0.026824603 9.5789498e-39
0.050863165 -0.14560573 0.026824603 8.938939e-39
0.052978937 -0.1464123 0.023885259 1.0139642e-38
0.054855052 -0.1464123 0.023885259 1.7330221e-38
0.056731168 -0.1464123 0.023885259 1.9450024e-38
0.058607284 -0.1464123 0.023885259 1.9727333e-38
0.036301084 -0.14913605 0.020815739 8.1084706e-39
0.038182579 -0.14913605 0.020815739 2.9473455e-39
0.040064082 -0.14913605 0.020815739 3.4058321e-39
0.041722231 -0.14828841 0.023885259 2.7583159e-39
0.043598346 -0.14828841 0.023885259 4.0457925e-39
0.045250282 -0.14747669 0.026824603 8.8377932e-39
0.047121245 -0.14747669 0.026824603 7.8236413e-39
0.048992205 -0.14747669 0.026824603 1.0315422e-38
0.050863165 -0.14747669 0.026824603 8.4768706e-39
0.052734125 -0.14747669 0.026824603 1.2535282e-38
0.0546051 -0.14747669 0.026824603 1.6407183e-38
0.05647606 -0.14747669 0.026824603 1.7790141e-38
0.05834702 -0.14747669 0.026824603 1.7790503e-38
0.045250282 -0.14934768 0.026824603 8.4697408e-39
0.047121245 -0.14934768 0.026824603 7.5474089e-39
0.04866964 -0.14822401 0.030867944 9.3938145e-39
0.050533522 -0.14822401 0.030867944 6.8173507e-39
0.052734125 -0.14934768 0.026824603 1.207466e-38
0.054261271 -0.14822401 0.030867944 1.2165822e-38
0.056125138 -0.14822401 0.030867944 1.3088164e-38
