# .PCD v0.7 - Point Cloud Data file format
VERSION 0.7
FIELDS x y z rgb
SIZE 4 4 4 4
TYPE F F F F
COUNT 1 1 1 1
WIDTH 735
HEIGHT 1
VIEWPOINT 0 0 0 1 0 0 0
POINTS 735
DATA ascii
0.03339009 -0.12136655 -0.029507767 8.6501398e-39
0.03339009 -0.12508373 -0.029507767 8.5521862e-39
0.035151526 -0.12431435 -0.026512396 7.7242416e-39
0.044665769 -0.12585752 -0.032520186 1.2856969e-39
0.046529643 -0.12585752 -0.032520186 2.1132926e-39
0.0072716288 -0.12280498 -0.013509762 1.8243145e-38
0.0091021713 -0.12280498 -0.013509762 1.7690332e-38
0.027890902 -0.12772138 -0.032520186 8.4607445e-39
0.02967291 -0.12694232 -0.029507767 9.1039503e-39
0.031531502 -0.12694232 -0.029507767 1.0855648e-38
0.03339009 -0.12694232 -0.029507767 1.4176132e-38
0.035151526 -0.12616767 -0.026512396 1.4087915e-38
0.037004866 -0.12616767 -0.026512396 1.492164e-38
0.038858205 -0.12616767 -0.026512396 9.947389e-39
0.040711544 -0.12616767 -0.026512396 1.2856969e-39
0.042564884 -0.12616767 -0.026512396 1.1942202e-39
0.044418223 -0.12616767 -0.026512396 7.0021595e-39
0.04627157 -0.12616767 -0.026512396 6.631233e-39
0.048124909 -0.12616767 -0.026512396 6.8138278e-39
0.049978249 -0.12616767 -0.026512396 9.6708077e-39
0.053985134 -0.12772138 -0.032520186 1.0041731e-38
0.0054543708 -0.12542458 -0.0165403 1.9899782e-38
0.0072716288 -0.12463553 -0.013509762 1.9808663e-38
0.0091021713 -0.12463553 -0.013509762 1.8702675e-38
0.010903657 -0.12385099 -0.010496628 1.9626429e-38
0.012728916 -0.12385099 -0.010496628 1.7876517e-38
0.014554176 -0.12385099 -0.010496628 1.2807201e-38
0.026027029 -0.12958528 -0.032520186 9.943073e-39
0.027890902 -0.12958528 -0.032520186 9.6632519e-39
0.02967291 -0.12880091 -0.029507767 9.4777775e-39
0.031444848 -0.12802102 -0.026512396 9.568157e-39
0.033298187 -0.12802102 -0.026512396 1.3074112e-38
0.035151526 -0.12802102 -0.026512396 1.436811e-38
0.036903031 -0.12724553 -0.023533951 1.1514369e-38
0.038751148 -0.12724553 -0.023533951 6.0798543e-39
0.040711544 -0.12802102 -0.026512396 7.3468397e-40
0.042564884 -0.12802102 -0.026512396 2.0254032e-39
0.044418223 -0.12802102 -0.026512396 1.1150243e-38
0.04627157 -0.12802102 -0.026512396 9.9481149e-39
0.048124909 -0.12802102 -0.026512396 1.1881345e-38
0.0054543708 -0.12726043 -0.0165403 1.2801087e-38
0.0072716288 -0.12646608 -0.013509762 1.9716111e-38
0.0091021713 -0.12646608 -0.013509762 2.0730618e-38
0.010903657 -0.12567626 -0.010496628 2.0177441e-38
0.012728916 -0.12567626 -0.010496628 2.0363278e-38
0.014554176 -0.12567626 -0.010496628 1.9350933e-38
0.024163155 -0.13144915 -0.032520186 3.0341643e-39
0.026027029 -0.13144915 -0.032520186 3.0323664e-39
0.027890902 -0.13144915 -0.032520186 2.9398121e-39
0.02967291 -0.13065951 -0.029507767 2.8469004e-39
0.031444848 -0.12987436 -0.026512396 4.4116925e-39
0.033298187 -0.12987436 -0.026512396 4.8741098e-39
0.035151526 -0.12987436 -0.026512396 5.4305332e-39
0.036903031 -0.12909363 -0.023533951 4.5121797e-39
0.038751148 -0.12909363 -0.023533951 5.9894621e-39
0.040711544 -0.12987436 -0.026512396 6.082734e-39
0.042564884 -0.12987436 -0.026512396 5.8036205e-39
0.044418223 -0.12987436 -0.026512396 1.133176e-38
0.046400242 -0.13065951 -0.029507767 1.4553212e-38
0.048258834 -0.13065951 -0.029507767 2.0173905e-38
0.050257392 -0.13144915 -0.032520186 2.0818545e-38
0.052121267 -0.13144915 -0.032520186 1.9805106e-38
-0.031994879 -0.12011738 0.01748668 2.332478e-38
-0.030125434 -0.11931543 0.020525802 2.3509168e-38
-0.028354568 -0.11931543 0.020525802 2.3234379e-38
-0.026749386 -0.12092416 0.0144292 2.2316024e-38
-0.024890097 -0.12011738 0.01748668 1.5404939e-38
-0.023113905 -0.12011738 0.01748668 1.0977391e-38
0.0054543708 -0.12909628 -0.0165403 5.5223267e-39
0.0072716288 -0.1282966 -0.013509762 1.5569836e-38
0.0091021713 -0.1282966 -0.013509762 2.1560024e-38
0.010903657 -0.1275015 -0.010496628 2.23887e-38
0.012728916 -0.1275015 -0.010496628 2.2848967e-38
0.014554176 -0.1275015 -0.010496628 2.3496507e-38
0.024163155 -0.13331302 -0.032520186 1.0101905e-39
0.026027029 -0.13331302 -0.032520186 7.3468397e-40
0.027890902 -0.13331302 -0.032520186 9.1871369e-40
0.02967291 -0.1325181 -0.029507767 1.0105492e-39
0.031444848 -0.13172771 -0.026512396 3.3136337e-39
0.033298187 -0.13172771 -0.026512396 3.7753307e-39
0.035151526 -0.13172771 -0.026512396 3.7774859e-39
0.036903031 -0.13094176 -0.023533951 4.239543e-39
0.038751148 -0.13094176 -0.023533951 6.3604083e-39
0.040711544 -0.13172771 -0.026512396 7.0950992e-39
0.04268305 -0.1325181 -0.029507767 7.6435941e-39
0.04454165 -0.1325181 -0.029507767 1.1602241e-38
0.046400242 -0.1325181 -0.029507767 1.4915149e-38
0.048258834 -0.1325181 -0.029507767 2.1827652e-38
0.050257392 -0.13331302 -0.032520186 2.3394253e-38
0.052121267 -0.13331302 -0.032520186 2.2659925e-38
-0.042652048 -0.12189357 0.01748668 1.0141522e-38
-0.040875852 -0.12189357 0.01748668 1.456691e-38
-0.039099663 -0.12189357 0.01748668 2.3417687e-38
-0.037323467 -0.12189357 0.01748668 2.3325131e-38
-0.035547271 -0.12189357 0.01748668 2.3509527e-38
-0.033771075 -0.12189357 0.01748668 2.2955996e-38
-0.031994879 -0.12189357 0.01748668 2.277125e-38
-0.030125434 -0.12108628 0.020525802 2.3509168e-38
-0.028354568 -0.12108628 0.020525802 2.2588296e-38
-0.026666293 -0.12189357 0.01748668 2.2775196e-38
-0.024812834 -0.12108628 0.020525802 2.158024e-38
-0.023041965 -0.12108628 0.020525802 2.2775195e-38
-0.021337708 -0.12189357 0.01748668 2.2867037e-38
-0.019561516 -0.12189357 0.01748668 1.8809718e-38
-0.017729366 -0.12108628 0.020525802 6.3629404e-39
-0.015909856 -0.1203105 0.02344631 4.7030309e-39
0.0054410864 -0.13012715 -0.013509762 1.3778912e-39
0.0072531383 -0.12932678 -0.010496628 4.5096251e-39
0.0090783974 -0.12932678 -0.010496628 1.2618857e-38
0.010903657 -0.12932678 -0.010496628 1.79644e-38
0.012694775 -0.12853102 -0.0075008981 1.6948095e-38
0.014514782 -0.12853102 -0.0075008981 1.3721618e-38
0.024163155 -0.13517688 -0.032520186 5.4366583e-39
0.026027029 -0.13517688 -0.032520186 5.2547838e-39
0.027890902 -0.13517688 -0.032520186 6.1781722e-39
0.02967291 -0.13437669 -0.029507767 6.3625662e-39
0.031531502 -0.13437669 -0.029507767 7.0987006e-39
0.03339009 -0.13437669 -0.029507767 7.8366257e-39
0.035248682 -0.13437669 -0.029507767 6.3629194e-39
0.037004866 -0.13358103 -0.026512396 7.0082888e-39
0.038858205 -0.13358103 -0.026512396 7.6518701e-39
0.040711544 -0.13358103 -0.026512396 6.6337665e-39
0.04268305 -0.13437669 -0.029507767 8.7474291e-39
0.04454165 -0.13437669 -0.029507767 1.196779e-38
0.046400242 -0.13437669 -0.029507767 1.6111526e-38
0.048574291 -0.13625093 -0.036563527 2.2469773e-38
0.050445259 -0.13625093 -0.036563527 2.311514e-38
0.052605949 -0.13784705 -0.04257239 2.2012392e-38
0.054687589 -0.13891099 -0.046577703 1.98069e-38
0.05657611 -0.13891099 -0.046577703 1.0595249e-38
-0.042652048 -0.12366976 0.01748668 1.2262022e-38
-0.040875852 -0.12366976 0.01748668 1.7517172e-38
-0.039099663 -0.12366976 0.01748668 2.3141103e-38
-0.037323467 -0.12366976 0.01748668 2.3509527e-38
-0.035547271 -0.12366976 0.01748668 2.3509527e-38
-0.033771075 -0.12366976 0.01748668 2.3324778e-38
-0.031994879 -0.12366976 0.01748668 2.3509168e-38
-0.030125434 -0.12285714 0.020525802 2.3232227e-38
-0.028354568 -0.12285714 0.020525802 2.3509527e-38
-0.026666293 -0.12366976 0.01748668 2.3234369e-38
-0.024812834 -0.12285714 0.020525802 2.2682991e-38
-0.023041965 -0.12285714 0.020525802 2.3142544e-38
-0.021271104 -0.12285714 0.020525802 2.2958873e-38
-0.019500235 -0.12285714 0.020525802 2.295887e-38
-0.017729366 -0.12285714 0.020525802 1.5953434e-38
-0.015909856 -0.12207626 0.02344631 9.4997386e-39
-0.014099346 -0.12127317 0.026449788 5.9959277e-39
0.0054278802 -0.13115202 -0.010496628 3.6770072e-40
0.0072531383 -0.13115202 -0.010496628 1.0101905e-39
0.0090783974 -0.13115202 -0.010496628 3.6795183e-39
0.010903657 -0.13115202 -0.010496628 9.3931026e-39
0.012694775 -0.13035102 -0.0075008981 1.1050829e-38
0.014514782 -0.13035102 -0.0075008981 7.3626519e-39
0.016379435 -0.13115202 -0.010496628 5.6116721e-39
0.024163155 -0.13704078 -0.032520186 6.5437289e-39
0.026027029 -0.13704078 -0.032520186 7.2838065e-39
0.027890902 -0.13704078 -0.032520186 6.732425e-39
0.029754777 -0.13704078 -0.032520186 5.9948627e-39
0.031618651 -0.13704078 -0.032520186 6.7317229e-39
0.033482522 -0.13704078 -0.032520186 6.8246374e-39
0.035248682 -0.13623528 -0.029507767 6.0884975e-39
0.037004866 -0.13543437 -0.026512396 6.2721657e-39
0.038858205 -0.13543437 -0.026512396 7.1908934e-39
0.040824458 -0.13623528 -0.029507767 7.1869403e-39
0.042801894 -0.13704078 -0.032520186 8.5630378e-39
0.044665769 -0.13704078 -0.032520186 1.1783754e-38
0.046529643 -0.13704078 -0.032520186 1.7217871e-38
0.048574291 -0.13812189 -0.036563527 2.1271945e-38
0.050445259 -0.13812189 -0.036563527 2.3484637e-38
0.052605949 -0.13972856 -0.04257239 2.3119094e-38
0.054487444 -0.13972856 -0.04257239 2.072813e-38
0.05657611 -0.14079951 -0.046577703 1.0962586e-38
-0.044697866 -0.12706901 0.011456121 1.2999231e-38
-0.042783387 -0.12626885 0.0144292 2.1204642e-38
-0.040875852 -0.12544595 0.01748668 2.3232944e-38
-0.039099663 -0.12544595 0.01748668 2.3509886e-38
-0.037323467 -0.12544595 0.01748668 2.3324775e-38
-0.035547271 -0.12544595 0.01748668 2.3509527e-38
-0.033771075 -0.12544595 0.01748668 2.3324778e-38
-0.031994879 -0.12544595 0.01748668 2.3509527e-38
-0.030125434 -0.12462802 0.020525802 2.3140033e-38
-0.028354568 -0.12462802 0.020525802 2.3509527e-38
-0.026666293 -0.12544595 0.01748668 2.3509879e-38
-0.024812834 -0.12462802 0.020525802 2.3417323e-38
-0.023041965 -0.12462802 0.020525802 2.3509527e-38
-0.021271104 -0.12462802 0.020525802 2.2957796e-38
-0.019500235 -0.12462802 0.020525802 2.2958873e-38
-0.017675603 -0.12384202 0.02344631 2.2775202e-38
-0.015909856 -0.12384202 0.02344631 1.9550869e-38
-0.014099346 -0.12303366 0.026449788 1.3743249e-38
-0.012338867 -0.12303366 0.026449788 8.1189229e-39
-0.010578388 -0.12303366 0.026449788 1.0330884e-38
0.0017633755 -0.12868352 0.0054572709 5.3469934e-39
0.0035606604 -0.12868352 0.0054572709 2.8605939e-39
0.0054147486 -0.13217102 -0.0075008981 2.2130482e-39
0.007234754 -0.13217102 -0.0075008981 2.4871044e-39
0.0090547614 -0.13217102 -0.0075008981 3.9600597e-39
0.010874768 -0.13217102 -0.0075008981 7.0925475e-39
0.012694775 -0.13217102 -0.0075008981 8.5662384e-39
0.014514782 -0.13217102 -0.0075008981 6.9985596e-39
0.016379435 -0.13297729 -0.010496628 8.6591739e-39
0.018204695 -0.13297729 -0.010496628 7.8312223e-39
0.02229928 -0.13890465 -0.032520186 7.1880221e-39
0.024163155 -0.13890465 -0.032520186 7.4664041e-39
0.025955725 -0.13809387 -0.029507767 7.6518701e-39
0.027814317 -0.13809387 -0.029507767 7.467832e-39
0.02967291 -0.13809387 -0.029507767 7.0075727e-39
0.031531502 -0.13809387 -0.029507767 7.0997796e-39
0.03339009 -0.13809387 -0.029507767 7.008307e-39
0.035248682 -0.13809387 -0.029507767 6.2710951e-39
0.037004866 -0.13728772 -0.026512396 5.625004e-39
0.038858205 -0.13728772 -0.026512396 5.6235677e-39
0.040824458 -0.13809387 -0.029507767 6.1731429e-39
0.042801894 -0.13890465 -0.032520186 7.4577609e-39
0.044665769 -0.13890465 -0.032520186 8.9285595e-39
0.046529643 -0.13890465 -0.032520186 1.2335102e-38
0.048574291 -0.13999285 -0.036563527 1.3161968e-38
0.050445259 -0.13999285 -0.036563527 1.7862864e-38
0.052457944 -0.14078392 -0.03950287 2.1830151e-38
0.054487444 -0.14161004 -0.04257239 2.1281656e-38
-0.046484634 -0.12885578 0.011456121 1.2446776e-38
-0.044697866 -0.12885578 0.011456121 1.4382167e-38
-0.042911097 -0.12885578 0.011456121 2.2864164e-38
-0.041001834 -0.1280504 0.0144292 2.3509527e-38
-0.039220281 -0.1280504 0.0144292 2.3417691e-38
-0.03743872 -0.1280504 0.0144292 2.323258e-38
-0.035657167 -0.1280504 0.0144292 2.3509527e-38
-0.033771075 -0.12722217 0.01748668 2.3324778e-38
-0.031994879 -0.12722217 0.01748668 2.3509168e-38
-0.030125434 -0.12639888 0.020525802 2.3416615e-38
-0.028354568 -0.12639888 0.020525802 2.3509168e-38
-0.026666293 -0.12722217 0.01748668 2.3508451e-38
-0.024890097 -0.12722217 0.01748668 2.3230065e-38
-0.023041965 -0.12639888 0.020525802 2.3509168e-38
-0.021271104 -0.12639888 0.020525802 2.3141109e-38
-0.019500235 -0.12639888 0.020525802 2.2405707e-38
-0.017675603 -0.12560774 0.02344631 2.2591531e-38
-0.015909856 -0.12560774 0.02344631 2.2316024e-38
-0.014099346 -0.12479414 0.026449788 1.8077529e-38
-0.012338867 -0.12479414 0.026449788 1.125433e-38
-0.010544362 -0.12398534 0.029435504 1.2820565e-38
-0.0087891165 -0.12398534 0.029435504 1.0790442e-38
0.001760738 -0.1296659 0.0084655173 5.5299469e-39
0.0035527498 -0.1296659 0.0084655173 4.7949098e-39
0.0053975116 -0.13292582 -0.0035686605 5.1626021e-39
0.0072106235 -0.13292582 -0.0035686605 5.3469808e-39
0.0090237362 -0.13292582 -0.0035686605 5.7146731e-39
0.010836848 -0.13292582 -0.0035686605 6.0838102e-39
0.012649961 -0.13292582 -0.0035686605 6.6369839e-39
0.014514782 -0.13399105 -0.0075008981 6.8217381e-39
0.016334789 -0.13399105 -0.0075008981 7.5603906e-39
0.018154794 -0.13399105 -0.0075008981 7.1923297e-39
0.022178143 -0.13914107 -0.026512396 6.3614957e-39
0.024031484 -0.13914107 -0.026512396 6.3600537e-39
0.025884824 -0.13914107 -0.026512396 6.6352001e-39
0.027738165 -0.13914107 -0.026512396 7.0950936e-39
0.029591504 -0.13914107 -0.026512396 7.2798408e-39
0.031531502 -0.13995247 -0.029507767 7.4645978e-39
0.03339009 -0.13995247 -0.029507767 7.2816499e-39
0.035248682 -0.13995247 -0.029507767 7.0972684e-39
0.037004866 -0.13914107 -0.026512396 6.2675078e-39
0.038858205 -0.13914107 -0.026512396 5.8987154e-39
0.040824458 -0.13995247 -0.029507767 6.726667e-39
0.042801894 -0.14076851 -0.032520186 7.0929188e-39
0.044665769 -0.14076851 -0.032520186 6.2602687e-39
0.046529643 -0.14076851 -0.032520186 6.1644745e-39
0.048393518 -0.14076851 -0.032520186 5.14781e-39
0.050445259 -0.14186381 -0.036563527 8.9260078e-39
0.052457944 -0.14266007 -0.03950287 1.7777496e-38
-0.046484634 -0.13064255 0.011456121 1.6964363e-38
-0.044697866 -0.13064255 0.011456121 1.8438777e-38
-0.042911097 -0.13064255 0.011456121 2.1942211e-38
-0.041124336 -0.13064255 0.011456121 1.7424622e-38
-0.039220281 -0.12983195 0.0144292 1.6687412e-38
-0.03743872 -0.12983195 0.0144292 1.4934973e-38
-0.035657167 -0.12983195 0.0144292 1.1800322e-38
-0.033771075 -0.12899835 0.01748668 1.3459843e-38
-0.031994879 -0.12899835 0.01748668 2.1573061e-38
-0.030125434 -0.12816976 0.020525802 2.3509527e-38
-0.028354568 -0.12816976 0.020525802 2.2309552e-38
-0.026666293 -0.12899835 0.01748668 2.3508092e-38
-0.024890097 -0.12899835 0.01748668 2.3136796e-38
-0.023041965 -0.12816976 0.020525802 2.3415898e-38
-0.021271104 -0.12816976 0.020525802 2.3417691e-38
-0.019441346 -0.1273735 0.02344631 2.3049991e-38
-0.017675603 -0.1273735 0.02344631 2.2591531e-38
-0.015909856 -0.1273735 0.02344631 2.2499695e-38
-0.014099346 -0.12655462 0.026449788 2.1948679e-38
-0.012338867 -0.12655462 0.026449788 2.1395148e-38
-0.010544362 -0.12574057 0.029435504 1.4847815e-38
-0.0087891165 -0.12574057 0.029435504 1.3555975e-38
0.0017581154 -0.13064255 0.011456121 7.0047099e-39
0.0035448838 -0.13064255 0.011456121 7.0065189e-39
0.0053316522 -0.13064255 0.011456121 7.0061546e-39
0.0071738036 -0.13310309 0.0024313815 6.730281e-39
0.0089763962 -0.13310309 0.0024313815 7.0990607e-39
0.010807326 -0.13390426 -0.0005072467 6.9153855e-39
0.012615071 -0.13390426 -0.0005072467 6.4562038e-39
0.014422815 -0.13390426 -0.0005072467 6.6423929e-39
0.016230561 -0.13390426 -0.0005072467 6.0895807e-39
0.018038305 -0.13390426 -0.0005072467 5.9973851e-39
0.019846048 -0.13390426 -0.0005072467 5.8122749e-39
0.024031484 -0.14099441 -0.026512396 6.0838242e-39
0.025884824 -0.14099441 -0.026512396 6.6341183e-39
0.027738165 -0.14099441 -0.026512396 7.5535536e-39
0.029591504 -0.14099441 -0.026512396 8.1063645e-39
0.031531502 -0.14181106 -0.029507767 7.370956e-39
0.03339009 -0.14181106 -0.029507767 6.3575314e-39
0.035248682 -0.14181106 -0.029507767 6.449025e-39
0.037004866 -0.14099441 -0.026512396 6.449025e-39
0.038858205 -0.14099441 -0.026512396 6.0809473e-39
0.040824458 -0.14181106 -0.029507767 6.910331e-39
0.042801894 -0.14263238 -0.032520186 6.7252027e-39
0.044665769 -0.14263238 -0.032520186 4.60362e-39
0.046529643 -0.14263238 -0.032520186 6.3528216e-39
0.048393518 -0.14263238 -0.032520186 6.5357723e-39
0.050445259 -0.14373477 -0.036563527 5.9818643e-39
0.052605949 -0.14537306 -0.04257239 1.4278381e-38
-0.048848242 -0.13571201 -0.0005072467 1.2170189e-38
-0.047040492 -0.13571201 -0.0005072467 1.8346942e-38
-0.044831581 -0.13324992 0.0084655173 1.9176342e-38
-0.043039568 -0.13324992 0.0084655173 1.8438777e-38
-0.041247554 -0.13324992 0.0084655173 1.7148035e-38
-0.039220281 -0.13161351 0.0144292 1.2169826e-38
-0.03743872 -0.13161351 0.0144292 1.2445691e-38
-0.035657167 -0.13161351 0.0144292 1.2261656e-38
-0.033771075 -0.13077454 0.01748668 9.9567651e-39
-0.031994879 -0.13077454 0.01748668 1.1247148e-38
-0.030125434 -0.12994061 0.020525802 1.7516454e-38
-0.028354568 -0.12994061 0.020525802 2.3509168e-38
-0.026666293 -0.13077454 0.01748668 2.3323339e-38
-0.024890097 -0.13077454 0.01748668 2.3508809e-38
-0.023041965 -0.12994061 0.020525802 2.3508451e-38
-0.021271104 -0.12994061 0.020525802 2.3509527e-38
-0.019441346 -0.12913923 0.02344631 2.3234379e-38
-0.017675603 -0.12913923 0.02344631 2.2958873e-38
-0.015859829 -0.12831511 0.026449788 2.2867037e-38
-0.014099346 -0.12831511 0.026449788 2.2775202e-38
-0.012338867 -0.12831511 0.026449788 2.2867037e-38
-0.010544362 -0.12749584 0.029435504 2.0839098e-38
-0.0087891165 -0.12749584 0.029435504 1.5859453e-38
-0.0070574284 -0.12831511 0.026449788 6.730997e-39
-0.0053153802 -0.12913923 0.02344631 5.0707428e-39
-2.865307e-05 -0.13242932 0.011456121 6.082364e-39
0.0017555095 -0.13161351 0.0144292 6.8210235e-39
0.0035370644 -0.13161351 0.0144292 7.742628e-39
0.0053186212 -0.13161351 0.0144292 7.4664041e-39
0.0071552349 -0.13407536 0.0054572709 6.7295621e-39
0.0089525217 -0.13407536 0.0054572709 7.0990663e-39
0.010778988 -0.13490568 0.0024313815 7.1927039e-39
0.01258158 -0.13490568 0.0024313815 6.457294e-39
0.014422815 -0.13571201 -0.0005072467 5.9981109e-39
0.016230561 -0.13571201 -0.0005072467 5.9066314e-39
0.018038305 -0.13571201 -0.0005072467 5.7225946e-39
0.019846048 -0.13571201 -0.0005072467 5.8133483e-39
0.021794809 -0.13763104 -0.0075008981 5.8111875e-39
0.023614815 -0.13763104 -0.0075008981 6.0848976e-39
0.029156249 -0.13845308 -0.010496628 7.2766066e-39
0.030981509 -0.13845308 -0.010496628 7.0947251e-39
0.033298187 -0.14284773 -0.026512396 5.895826e-39
0.035151526 -0.14284773 -0.026512396 6.5401318e-39
0.037004866 -0.14284773 -0.026512396 8.1056624e-39
0.038858205 -0.14284773 -0.026512396 8.4744309e-39
0.04093802 -0.14449625 -0.032520186 8.7517213e-39
0.042801894 -0.14449625 -0.032520186 8.1992524e-39
0.044665769 -0.14449625 -0.032520186 6.3553341e-39
0.046529643 -0.14449625 -0.032520186 4.2348403e-39
0.048574291 -0.14560573 -0.036563527 5.341185e-39
0.050724447 -0.14725454 -0.04257239 4.0500889e-39
0.052605949 -0.14725454 -0.04257239 7.6446142e-39
-0.048706546 -0.13670824 0.0024313815 1.4198494e-38
-0.04690396 -0.13670824 0.0024313815 1.8254746e-38
-0.044966079 -0.13587265 0.0054572709 1.8346225e-38
-0.043168791 -0.13587265 0.0054572709 1.6502669e-38
-0.041371509 -0.13587265 0.0054572709 1.7701209e-38
-0.039455548 -0.13504194 0.0084655173 1.2262022e-38
-0.03743872 -0.13339506 0.0144292 1.2353496e-38
-0.035657167 -0.13339506 0.0144292 1.1616286e-38
-0.033771075 -0.13255073 0.01748668 1.1155308e-38
-0.031994879 -0.13255073 0.01748668 1.1247504e-38
-0.030125434 -0.1317115 0.020525802 1.1154952e-38
-0.028354568 -0.1317115 0.020525802 1.1339344e-38
-0.026666293 -0.13255073 0.01748668 1.4289957e-38
-0.024890097 -0.13255073 0.01748668 2.0743651e-38
-0.023041965 -0.1317115 0.020525802 2.350988e-38
-0.021271104 -0.1317115 0.020525802 2.3233652e-38
-0.019441346 -0.13090499 0.02344631 2.2588278e-38
-0.017675603 -0.13090499 0.02344631 2.3418045e-38
-0.015859829 -0.13007559 0.026449788 2.2587941e-38
-0.014099346 -0.13007559 0.026449788 2.2404272e-38
-0.012338867 -0.13007559 0.026449788 2.3234379e-38
-0.010544362 -0.12925108 0.029435504 2.2681214e-38
-0.0087891165 -0.12925108 0.029435504 2.2865243e-38
-0.0070574284 -0.13007559 0.026449788 7.5614864e-39
-0.0053153802 -0.13090499 0.02344631 3.5055751e-39
-0.0035496335 -0.13090499 0.02344631 7.1022641e-39
-0.0017838869 -0.13090499 0.02344631 6.6416348e-39
-2.865307e-05 -0.13421609 0.011456121 7.3777607e-39
0.0017555095 -0.13339506 0.0144292 6.4536605e-39
0.0035370644 -0.13339506 0.0144292 7.2823533e-39
0.0053186212 -0.13339506 0.0144292 7.5582326e-39
0.0071552349 -0.13587265 0.0054572709 7.0969027e-39
0.0089525217 -0.13587265 0.0054572709 6.7284901e-39
0.010778988 -0.13670824 0.0024313815 6.8221277e-39
0.01258158 -0.13670824 0.0024313815 6.4555032e-39
0.014422815 -0.13751976 -0.0005072467 5.6275362e-39
0.016230561 -0.13751976 -0.0005072467 5.0754316e-39
0.018038305 -0.13751976 -0.0005072467 4.7999167e-39
0.01990241 -0.13836516 -0.0035686605 4.7991908e-39
0.021794809 -0.13945107 -0.0075008981 4.890306e-39
0.023614815 -0.13945107 -0.0075008981 5.3480486e-39
0.025505731 -0.14027832 -0.010496628 5.4377331e-39
0.029156249 -0.14027832 -0.010496628 5.4344961e-39
0.035346396 -0.14636014 -0.032520186 1.0042836e-38
0.037210271 -0.14636014 -0.032520186 1.3543393e-38
0.039074145 -0.14636014 -0.032520186 1.5108912e-38
0.04093802 -0.14636014 -0.032520186 1.5016348e-38
0.042801894 -0.14636014 -0.032520186 1.363484e-38
0.044665769 -0.14636014 -0.032520186 1.2068948e-38
0.046703331 -0.14747669 -0.036563527 1.2071463e-38
0.048574291 -0.14747669 -0.036563527 1.0966551e-38
-0.048706546 -0.13851084 0.0024313815 1.5028255e-38
-0.04690396 -0.13851084 0.0024313815 1.7240597e-38
-0.044966079 -0.13766994 0.0054572709 1.7700859e-38
-0.043168791 -0.13766994 0.0054572709 1.6686704e-38
-0.041247554 -0.13683395 0.0084655173 1.705584e-38
-0.039455548 -0.13683395 0.0084655173 1.1340065e-38
-0.03743872 -0.13517661 0.0144292 1.2169104e-38
-0.035657167 -0.13517661 0.0144292 1.1892873e-38
-0.033875607 -0.13517661 0.0144292 1.2353849e-38
-0.031994879 -0.13432692 0.01748668 1.13397e-38
-0.030125434 -0.13348235 0.020525802 1.0233352e-38
-0.028354568 -0.13348235 0.020525802 1.1063829e-38
-0.026666293 -0.13432692 0.01748668 7.9309654e-39
-0.024890097 -0.13432692 0.01748668 1.3555253e-38
-0.023041965 -0.13348235 0.020525802 1.9547243e-38
-0.021271104 -0.13348235 0.020525802 2.350986e-38
-0.019441346 -0.13267075 0.02344631 2.3418025e-38
-0.017675603 -0.13267075 0.02344631 2.3509869e-38
-0.015909856 -0.13267075 0.02344631 2.350952e-38
-0.014099346 -0.13183604 0.026449788 2.3509168e-38
-0.012338867 -0.13183604 0.026449788 2.3323345e-38
-0.010578388 -0.13183604 0.026449788 2.3508809e-38
-0.0088179093 -0.13183604 0.026449788 2.2680136e-38
-0.0070574284 -0.13183604 0.026449788 9.1291624e-39
-0.0053153802 -0.13267075 0.02344631 4.0609013e-39
-0.0035496335 -0.13267075 0.02344631 6.3679276e-39
-0.0017995611 -0.13432692 0.01748668 7.2001854e-39
-2.865307e-05 -0.13600285 0.011456121 6.9221566e-39
0.0017581154 -0.13600285 0.011456121 8.3004303e-39
0.0035448838 -0.13600285 0.011456121 7.1912199e-39
0.0053316522 -0.13600285 0.011456121 7.0057664e-39
0.0071552349 -0.13766994 0.0054572709 7.3727651e-39
0.0089525217 -0.13766994 0.0054572709 6.6341351e-39
0.010778988 -0.13851084 0.0024313815 6.6341435e-39
0.01258158 -0.13851084 0.0024313815 6.5430269e-39
0.014384172 -0.13851084 0.0024313815 5.5299455e-39
0.016230561 -0.13932751 -0.0005072467 4.8870844e-39
0.018038305 -0.13932751 -0.0005072467 4.7963167e-39
0.019846048 -0.13932751 -0.0005072467 4.7973873e-39
0.021794809 -0.14127107 -0.0075008981 4.7973873e-39
0.023614815 -0.14127107 -0.0075008981 4.7044756e-39
0.025505731 -0.1421036 -0.010496628 4.7030449e-39
0.027330991 -0.1421036 -0.010496628 4.7016142e-39
0.029156249 -0.1421036 -0.010496628 4.6094158e-39
0.030894842 -0.14127107 -0.0075008981 4.2431402e-39
0.035346396 -0.14822401 -0.032520186 1.1981445e-38
0.037210271 -0.14822401 -0.032520186 1.4465332e-38
0.039074145 -0.14822401 -0.032520186 1.5842874e-38
0.04093802 -0.14822401 -0.032520186 1.5471574e-38
0.042801894 -0.14822401 -0.032520186 1.3997521e-38
0.044665769 -0.14822401 -0.032520186 1.3169906e-38
0.046703331 -0.14934768 -0.036563527 1.179235e-38
-0.048560649 -0.13946722 0.0054572709 1.5028253e-38
-0.046763361 -0.13946722 0.0054572709 1.7424985e-38
-0.044966079 -0.13946722 0.0054572709 1.8715727e-38
-0.043168791 -0.13946722 0.0054572709 1.8346942e-38
-0.041247554 -0.13862596 0.0084655173 1.6226798e-38
-0.039455548 -0.13862596 0.0084655173 1.2077993e-38
-0.03743872 -0.13695817 0.0144292 1.3000303e-38
-0.035657167 -0.13695817 0.0144292 1.1247864e-38
-0.033875607 -0.13695817 0.0144292 1.2077625e-38
-0.031994879 -0.13610314 0.01748668 1.2262016e-38
-0.030218685 -0.13610314 0.01748668 1.1524451e-38
-0.028442489 -0.13610314 0.01748668 1.1986502e-38
-0.026666293 -0.13610314 0.01748668 1.1803901e-38
-0.024890097 -0.13610314 0.01748668 9.1316581e-39
-0.023113905 -0.13610314 0.01748668 1.337157e-38
-0.021271104 -0.13525321 0.020525802 2.305031e-38
-0.019441346 -0.13443647 0.02344631 2.3509853e-38
-0.017675603 -0.13443647 0.02344631 2.3509856e-38
-0.015909856 -0.13443647 0.02344631 2.3323314e-38
-0.014099346 -0.13359652 0.026449788 2.3509517e-38
-0.012338867 -0.13359652 0.026449788 2.3508809e-38
-0.010578388 -0.13359652 0.026449788 2.3508809e-38
-0.0088179093 -0.13359652 0.026449788 2.3232944e-38
-0.0070574284 -0.13359652 0.026449788 9.6823362e-39
-0.0052969474 -0.13359652 0.026449788 6.1817637e-39
-0.0035364684 -0.13359652 0.026449788 1.1808194e-38
-0.0017995611 -0.13610314 0.01748668 1.1165321e-38
-2.865307e-05 -0.13778962 0.011456121 1.1625573e-38
0.0017581154 -0.13778962 0.011456121 1.0884783e-38
0.0035448838 -0.13778962 0.011456121 7.0093426e-39
0.0053316522 -0.13778962 0.011456121 5.6242711e-39
0.0071552349 -0.13946722 0.0054572709 6.6362791e-39
0.0089525217 -0.13946722 0.0054572709 6.2653498e-39
0.010749809 -0.13946722 0.0054572709 6.3561063e-39
0.01258158 -0.14031343 0.0024313815 6.3564566e-39
0.014384172 -0.14031343 0.0024313815 5.0660667e-39
0.016186764 -0.14031343 0.0024313815 4.9760165e-39
0.018038305 -0.14113526 -0.0005072467 4.9781646e-39
0.019846048 -0.14113526 -0.0005072467 5.0710763e-39
0.021715522 -0.14199139 -0.0035686605 4.6115401e-39
0.023528634 -0.14199139 -0.0035686605 4.1498543e-39
0.025434822 -0.14309107 -0.0075008981 3.6892447e-39
0.027254829 -0.14309107 -0.0075008981 3.6888958e-39
0.029074835 -0.14309107 -0.0075008981 3.8725682e-39
0.030894842 -0.14309107 -0.0075008981 5.531721e-39
0.040824458 -0.14924543 -0.029507767 7.2668886e-39
0.042564884 -0.14840777 -0.026512396 7.0817771e-39
0.044418223 -0.14840777 -0.026512396 7.4523477e-39
0.04627157 -0.14840777 -0.026512396 6.8112718e-39
-0.050357938 -0.14126451 0.0054572709 1.4383586e-38
-0.048560649 -0.14126451 0.0054572709 1.5951639e-38
-0.046763361 -0.14126451 0.0054572709 1.8994461e-38
-0.044966079 -0.14126451 0.0054572709 1.9362887e-38
-0.043168791 -0.14126451 0.0054572709 1.7704446e-38
-0.041371509 -0.14126451 0.0054572709 1.4938577e-38
-0.039455548 -0.14041798 0.0084655173 1.2818076e-38
-0.037663534 -0.14041798 0.0084655173 1.1711729e-38
-0.035764031 -0.13957639 0.011456121 1.2540766e-38
-0.033875607 -0.13873972 0.0144292 1.2908827e-38
-0.032094054 -0.13873972 0.0144292 1.2079423e-38
-0.030312499 -0.13873972 0.0144292 1.1893952e-38
-0.028442489 -0.13787933 0.01748668 1.2171615e-38
-0.026666293 -0.13787933 0.01748668 1.0881594e-38
-0.024967829 -0.13873972 0.0144292 1.1528396e-38
-0.023113905 -0.13787933 0.01748668 1.0052175e-38
-0.021337708 -0.13787933 0.01748668 1.9455402e-38
-0.019500235 -0.13702409 0.020525802 2.3509851e-38
-0.017675603 -0.13620223 0.02344631 2.3509851e-38
-0.015859829 -0.13535701 0.026449788 2.3509856e-38
-0.014099346 -0.13535701 0.026449788 2.3416952e-38
-0.012299607 -0.13451682 0.029435504 2.3509527e-38
-0.010544362 -0.13451682 0.029435504 2.3048556e-38
-0.0087891165 -0.13451682 0.029435504 2.3141109e-38
-0.0070338715 -0.13451682 0.029435504 1.8255822e-38
-0.0052969474 -0.13535701 0.026449788 8.023175e-39
-0.0035364684 -0.13535701 0.026449788 1.0053982e-38
-1.5508384e-05 -0.13535701 0.026449788 1.2268091e-38
0.0035527498 -0.14041798 0.0084655173 5.3530708e-39
0.0053447615 -0.14041798 0.0084655173 5.442405e-39
0.0071552349 -0.14126451 0.0054572709 5.9930691e-39
0.0089525217 -0.14126451 0.0054572709 5.8054408e-39
0.010749809 -0.14126451 0.0054572709 7.0943706e-39
0.012547095 -0.14126451 0.0054572709 5.7110507e-39
0.014344382 -0.14126451 0.0054572709 5.4340827e-39
0.016141668 -0.14126451 0.0054572709 4.6050479e-39
0.017989356 -0.14211603 0.0024313815 5.5280664e-39
0.01979195 -0.14211603 0.0024313815 4.3295414e-39
0.021653794 -0.14294298 -0.0005072467 7.4652634e-39
0.023461537 -0.14294298 -0.0005072467 7.7425874e-39
0.025341745 -0.14380451 -0.0035686605 3.3182902e-39
0.027254829 -0.14491107 -0.0075008981 2.6740082e-39
0.029074835 -0.14491107 -0.0075008981 4.1459069e-39
-0.050357938 -0.1430618 0.0054572709 1.3738214e-38
-0.048560649 -0.1430618 0.0054572709 1.5675048e-38
-0.046763361 -0.1430618 0.0054572709 2.1391541e-38
-0.044966079 -0.1430618 0.0054572709 2.1577017e-38
-0.043168791 -0.1430618 0.0054572709 1.6691012e-38
-0.041371509 -0.1430618 0.0054572709 1.3187579e-38
-0.039574221 -0.1430618 0.0054572709 1.2173427e-38
-0.037776932 -0.1430618 0.0054572709 1.1712448e-38
-0.035979651 -0.1430618 0.0054572709 1.2173426e-38
-0.034079507 -0.14220999 0.0084655173 1.2173063e-38
-0.032190494 -0.14136316 0.011456121 1.1526612e-38
-0.030312499 -0.14052127 0.0144292 1.1341858e-38
-0.028530942 -0.14052127 0.0144292 1.1711e-38
-0.026749386 -0.14052127 0.0144292 1.2080862e-38
-0.024967829 -0.14052127 0.0144292 9.407543e-39
-0.023186276 -0.14052127 0.0144292 1.1804258e-38
-0.021337708 -0.13965552 0.01748668 1.2080475e-38
-0.019500235 -0.13879494 0.020525802 1.8625992e-38
-0.017675603 -0.13796796 0.02344631 2.203723e-38
-0.015859829 -0.13711749 0.026449788 2.3509853e-38
-0.014099346 -0.13711749 0.026449788 2.3509866e-38
-0.012299607 -0.13627206 0.029435504 2.3233652e-38
-0.010544362 -0.13627206 0.029435504 2.2956359e-38
-0.0087891165 -0.13627206 0.029435504 2.3417691e-38
-0.0070338715 -0.13627206 0.029435504 2.2587941e-38
-0.0052969474 -0.13711749 0.026449788 1.5398112e-38
0.0035527498 -0.14220999 0.0084655173 4.7084259e-39
0.0053447615 -0.14220999 0.0084655173 4.2445877e-39
0.0071552349 -0.1430618 0.0054572709 5.1636713e-39
0.0089525217 -0.1430618 0.0054572709 4.6068962e-39
0.010749809 -0.1430618 0.0054572709 6.8177725e-39
0.012547095 -0.1430618 0.0054572709 8.5687369e-39
0.014344382 -0.1430618 0.0054572709 1.2808272e-38
0.016141668 -0.1430618 0.0054572709 1.5481927e-38
0.017989356 -0.14391862 0.0024313815 1.7326195e-38
0.01979195 -0.14391862 0.0024313815 1.7050343e-38
0.021653794 -0.14475073 -0.0005072467 1.7881198e-38
0.023461537 -0.14475073 -0.0005072467 1.345691e-38
0.025341745 -0.14561762 -0.0035686605 3.8696591e-39
0.027254829 -0.14673109 -0.0075008981 4.6090318e-39
0.029074835 -0.14673109 -0.0075008981 1.0690349e-38
-0.051999629 -0.14400201 0.0084655173 1.4844197e-38
-0.050357938 -0.14485909 0.0054572709 1.4014801e-38
-0.048560649 -0.14485909 0.0054572709 1.6320417e-38
-0.046763361 -0.14485909 0.0054572709 2.2958867e-38
-0.044966079 -0.14485909 0.0054572709 2.2867037e-38
-0.043168791 -0.14485909 0.0054572709 1.5307358e-38
-0.041247554 -0.14400201 0.0084655173 1.2081232e-38
-0.039455548 -0.14400201 0.0084655173 1.2081232e-38
-0.037776932 -0.14485909 0.0054572709 1.2265623e-38
-0.035979651 -0.14485909 0.0054572709 1.2357817e-38
-0.034182362 -0.14485909 0.0054572709 1.1896476e-38
-0.032287493 -0.14400201 0.0084655173 1.1343299e-38
-0.030403724 -0.14314993 0.011456121 1.1526609e-38
-0.028616952 -0.14314993 0.011456121 1.1803196e-38
-0.026830183 -0.14314993 0.011456121 1.1619886e-38
-0.024967829 -0.14230286 0.0144292 1.0145109e-38
-0.023186276 -0.14230286 0.0144292 1.2172683e-38
-0.021404719 -0.14230286 0.0144292 1.0513151e-38
-0.019561516 -0.1414317 0.01748668 1.3647075e-38
-0.017675603 -0.13973372 0.02344631 2.2129429e-38
-0.015909856 -0.13973372 0.02344631 2.2773726e-38
0.0035527498 -0.14400201 0.0084655173 4.7066308e-39
0.0053447615 -0.14400201 0.0084655173 4.5193767e-39
0.0071552349 -0.14485909 0.0054572709 5.4381002e-39
0.0089525217 -0.14485909 0.0054572709 4.7902057e-39
0.010749809 -0.14485909 0.0054572709 8.6602445e-39
0.012547095 -0.14485909 0.0054572709 1.1978177e-38
0.014344382 -0.14485909 0.0054572709 1.7693202e-38
0.016141668 -0.14485909 0.0054572709 1.861514e-38
0.017989356 -0.14572121 0.0024313815 1.963037e-38
0.01979195 -0.14572121 0.0024313815 1.9906971e-38
0.021594541 -0.14572121 0.0024313815 1.9354533e-38
0.023397133 -0.14572121 0.0024313815 1.4838048e-38
0.025341745 -0.14743073 -0.0035686605 3.3146874e-39
0.027254829 -0.14855109 -0.0075008981 4.2380913e-39
0.029074835 -0.14855109 -0.0075008981 1.1335718e-38
-0.051999629 -0.14579402 0.0084655173 1.4014438e-38
-0.050207615 -0.14579402 0.0084655173 1.5858713e-38
-0.048415601 -0.14579402 0.0084655173 1.8440197e-38
-0.046763361 -0.14665638 0.0054572709 2.3142539e-38
-0.044831581 -0.14579402 0.0084655173 2.2682286e-38
-0.043039568 -0.14579402 0.0084655173 1.4661989e-38
-0.041247554 -0.14579402 0.0084655173 1.2725882e-38
-0.039455548 -0.14579402 0.0084655173 1.3003188e-38
-0.037663534 -0.14579402 0.0084655173 1.3095384e-38
-0.035979651 -0.14665638 0.0054572709 1.2634404e-38
-0.034079507 -0.14579402 0.0084655173 1.2172707e-38
-0.032287493 -0.14579402 0.0084655173 1.2080867e-38
-0.030495485 -0.14579402 0.0084655173 1.2448568e-38
-0.028703472 -0.14579402 0.0084655173 1.2540764e-38
-0.026911462 -0.14579402 0.0084655173 1.097452e-38
-0.024967829 -0.14408441 0.0144292 1.2541843e-38
-0.023186276 -0.14408441 0.0144292 1.1988295e-38
-0.021404719 -0.14408441 0.0144292 1.254182e-38
-0.019623162 -0.14408441 0.0144292 1.281804e-38
-0.017841609 -0.14408441 0.0144292 1.9639794e-38
0.0035527498 -0.14579402 0.0084655173 4.8888641e-39
0.0053447615 -0.14579402 0.0084655173 4.7938056e-39
0.0071552349 -0.14665638 0.0054572709 4.6987373e-39
0.0089525217 -0.14665638 0.0054572709 4.8809622e-39
0.010749809 -0.14665638 0.0054572709 1.0871142e-38
0.012547095 -0.14665638 0.0054572709 1.4834803e-38
0.014344382 -0.14665638 0.0054572709 1.9444199e-38
0.016141668 -0.14665638 0.0054572709 1.9628576e-38
0.017938955 -0.14665638 0.0054572709 1.8891008e-38
0.019736242 -0.14665638 0.0054572709 1.7508088e-38
0.021533528 -0.14665638 0.0054572709 1.5296851e-38
0.023330815 -0.14665638 0.0054572709 1.2900504e-38
0.025269283 -0.14836623 -0.0005072467 2.1143688e-39
-0.053791642 -0.14758603 0.0084655173 1.3276511e-38
-0.051999629 -0.14758603 0.0084655173 1.3922242e-38
-0.050207615 -0.14758603 0.0084655173 1.7333846e-38
-0.048415601 -0.14758603 0.0084655173 1.9915327e-38
-0.046623588 -0.14758603 0.0084655173 2.3142539e-38
-0.044831581 -0.14758603 0.0084655173 2.2866674e-38
-0.043039568 -0.14758603 0.0084655173 1.549175e-38
-0.041247554 -0.14758603 0.0084655173 1.4108817e-38
-0.039455548 -0.14758603 0.0084655173 1.4108817e-38
-0.037663534 -0.14758603 0.0084655173 1.3556362e-38
-0.035871521 -0.14758603 0.0084655173 1.27266e-38
-0.034079507 -0.14758603 0.0084655173 1.2449294e-38
-0.032287493 -0.14758603 0.0084655173 1.2726237e-38
-0.030495485 -0.14758603 0.0084655173 1.3002821e-38
-0.028616952 -0.14672346 0.011456121 1.2910628e-38
-0.026830183 -0.14672346 0.011456121 1.2172707e-38
-0.024967829 -0.14586596 0.0144292 1.2634041e-38
-0.023186276 -0.14586596 0.0144292 1.2726587e-38
-0.021469878 -0.14672346 0.011456121 1.2264879e-38
-0.01968311 -0.14672346 0.011456121 1.374e-38
-0.017896341 -0.14672346 0.011456121 1.4200979e-38
0.0035606604 -0.14845367 0.0054572709 4.5186424e-39
0.0053579491 -0.14845367 0.0054572709 4.1469971e-39
0.0071552349 -0.14845367 0.0054572709 3.4069195e-39
0.0089525217 -0.14845367 0.0054572709 3.5884255e-39
0.010749809 -0.14845367 0.0054572709 9.4867682e-39
0.012547095 -0.14845367 0.0054572709 1.5478374e-38
0.014344382 -0.14845367 0.0054572709 2.0917534e-38
0.016141668 -0.14845367 0.0054572709 2.0364346e-38
0.017938955 -0.14845367 0.0054572709 1.7045664e-38
0.019736242 -0.14845367 0.0054572709 1.4833343e-38
0.021533528 -0.14845367 0.0054572709 1.2713938e-38
0.023330815 -0.14845367 0.0054572709 1.1146992e-38
0.025199724 -0.1493264 0.0024313815 1.3775324e-39
-0.053791642 -0.14937802 0.0084655173 1.3921523e-38
-0.051999629 -0.14937802 0.0084655173 1.4014441e-38
-0.050207615 -0.14937802 0.0084655173 1.6872149e-38
-0.048415601 -0.14937802 0.0084655173 1.9730578e-38
-0.046623588 -0.14937802 0.0084655173 2.3142539e-38
-0.044831581 -0.14937802 0.0084655173 2.3234379e-38
-0.043039568 -0.14937802 0.0084655173 1.668957e-38
-0.041247554 -0.14937802 0.0084655173 1.5122969e-38
-0.039455548 -0.14937802 0.0084655173 1.4754186e-38
-0.037663534 -0.14937802 0.0084655173 1.3925144e-38
-0.035871521 -0.14937802 0.0084655173 1.3279775e-38
-0.034079507 -0.14937802 0.0084655173 1.3094663e-38
-0.032287493 -0.14937802 0.0084655173 1.3187215e-38
-0.030495485 -0.14937802 0.0084655173 1.3279411e-38
-0.028616952 -0.14851023 0.011456121 1.3187215e-38
-0.026830183 -0.14851023 0.011456121 1.3186504e-38
-0.025043415 -0.14851023 0.011456121 1.2080513e-38
-0.023256646 -0.14851023 0.011456121 1.364819e-38
-0.021535421 -0.14937802 0.0084655173 1.3371955e-38
-0.01968311 -0.14851023 0.011456121 1.3371226e-38
-0.017896341 -0.14851023 0.011456121 1.3094278e-38
0.016096836 -0.14937802 0.0084655173 1.7044948e-38
0.017888848 -0.14937802 0.0084655173 1.0960039e-38
0.01968086 -0.14937802 0.0084655173 8.7480793e-39
0.021472873 -0.14937802 0.0084655173 9.6711314e-39
0.023264885 -0.14937802 0.0084655173 8.9339419e-39
