# .PCD v0.7 - Point Cloud Data file format
VERSION 0.7
FIELDS x y z rgb
SIZE 4 4 4 4
TYPE F F F F
COUNT 1 1 1 1
WIDTH 940
HEIGHT 1
VIEWPOINT 0 0 0 1 0 0 0
POINTS 940
DATA ascii
0.036427476 -0.12577499 -0.034283165 2.1567933e-38
0.038303591 -0.12577499 -0.034283165 1.7973418e-38
0.040179707 -0.12577499 -0.034283165 1.2075081e-38
0.04205583 -0.12577499 -0.034283165 4.5157796e-39
0.043931946 -0.12577499 -0.034283165 4.6097114e-40
0.050309569 -0.12934943 -0.048294429 7.361189e-40
0.052210256 -0.12934943 -0.048294429 5.5101298e-40
0.054110937 -0.12934943 -0.048294429 1.2874906e-39
0.056597866 -0.13189565 -0.058275346 5.3448032e-39
0.058516048 -0.13189565 -0.058275346 5.4369946e-39
0.011669325 -0.12250783 -0.0142597 3.6773757e-39
0.013592087 -0.1235493 -0.018314246 3.4004245e-39
0.015440205 -0.1235493 -0.018314246 3.1242005e-39
0.017904658 -0.13023765 -0.044352893 3.8610369e-39
0.01979843 -0.13023765 -0.044352893 3.2149598e-39
0.021692203 -0.13023765 -0.044352893 4.2294551e-39
0.023585975 -0.13023765 -0.044352893 4.5060378e-39
0.025387855 -0.1294684 -0.041357998 1.0406164e-38
0.027146457 -0.12843956 -0.037352685 1.5199269e-38
0.029027956 -0.12843956 -0.037352685 1.5568049e-38
0.030693477 -0.1268961 -0.031343821 1.2894725e-38
0.032564439 -0.1268961 -0.031343821 1.6860923e-38
0.034435399 -0.1268961 -0.031343821 1.6955619e-38
0.036306366 -0.1268961 -0.031343821 1.9539627e-38
0.038303591 -0.12765111 -0.034283165 1.981733e-38
0.040179707 -0.12765111 -0.034283165 1.4933135e-38
0.04205583 -0.12765111 -0.034283165 1.0509175e-38
0.043931946 -0.12765111 -0.034283165 1.2914367e-39
0.045661181 -0.1268961 -0.031343821 3.5037394e-39
0.047684178 -0.12765111 -0.034283165 2.7658269e-39
0.050309569 -0.1312501 -0.048294429 1.6577025e-39
0.052210256 -0.1312501 -0.048294429 1.380761e-39
0.054110937 -0.1312501 -0.048294429 5.5101298e-40
0.056597866 -0.13381381 -0.058275346 4.4242888e-39
0.058516048 -0.13381381 -0.058275346 5.8072177e-39
0.060434237 -0.13381381 -0.058275346 6.9142827e-39
-0.032445326 -0.12358873 -0.011320595 1.0512813e-38
-0.030411353 -0.121251 -0.0022811927 8.5777795e-39
-0.028591348 -0.121251 -0.0022811927 1.0052535e-38
-0.026826492 -0.12202574 -0.0052769221 9.1284211e-39
0.015440205 -0.1253974 -0.018314246 8.3761018e-39
0.017288323 -0.1253974 -0.018314246 1.5014184e-38
0.019136442 -0.1253974 -0.018314246 1.4276971e-38
0.02098456 -0.1253974 -0.018314246 1.3171693e-38
0.023499332 -0.13135691 -0.041357998 8.5622601e-39
0.025387855 -0.13135691 -0.041357998 2.4795584e-39
0.027046891 -0.12952723 -0.034283165 5.5190981e-39
0.028684271 -0.12772138 -0.027300481 1.7503808e-38
0.030548146 -0.12772138 -0.027300481 1.8886743e-38
0.032412015 -0.12772138 -0.027300481 1.8519025e-38
0.034435399 -0.12876706 -0.031343821 2.0458703e-38
0.036306366 -0.12876706 -0.031343821 2.0276113e-38
0.038177326 -0.12876706 -0.031343821 2.037014e-38
0.040048294 -0.12876706 -0.031343821 2.1939272e-38
0.041919254 -0.12876706 -0.031343821 1.8807117e-38
0.043790221 -0.12876706 -0.031343821 1.3922541e-38
0.045661181 -0.12876706 -0.031343821 1.567283e-38
0.047684178 -0.12952723 -0.034283165 1.1247092e-38
0.049560294 -0.12952723 -0.034283165 1.1061278e-38
0.051827155 -0.13135691 -0.041357998 4.5150425e-39
0.054110937 -0.13315077 -0.048294429 5.9912586e-39
0.056011625 -0.13315077 -0.048294429 7.5593032e-39
0.058273219 -0.13469382 -0.054260973 8.6660039e-39
0.060434237 -0.13573201 -0.058275346 1.3184666e-38
-0.032445326 -0.12542458 -0.011320595 1.0879437e-38
-0.030411353 -0.123071 -0.0022811927 7.929892e-39
-0.028591348 -0.123071 -0.0022811927 7.4692543e-39
-0.026826492 -0.12385099 -0.0052769221 4.8870578e-39
-0.025001233 -0.12385099 -0.0052769221 3.5931002e-39
0.011669325 -0.12618984 -0.0142597 8.0962611e-39
0.013510333 -0.12618984 -0.0142597 8.1891756e-39
0.015440205 -0.12724553 -0.018314246 7.7285688e-39
0.017288323 -0.12724553 -0.018314246 1.6395677e-38
0.019136442 -0.12724553 -0.018314246 1.4828703e-38
0.02098456 -0.12724553 -0.018314246 1.3355365e-38
0.023209622 -0.13063805 -0.031343821 1.0221784e-38
0.025080586 -0.13063805 -0.031343821 3.9525137e-39
0.02695155 -0.13063805 -0.031343821 2.5713939e-39
0.028684271 -0.12958528 -0.027300481 9.9441296e-39
0.030548146 -0.12958528 -0.027300481 1.9900539e-38
0.032412015 -0.12958528 -0.027300481 2.0455136e-38
0.034435399 -0.13063805 -0.031343821 2.0365791e-38
0.036306366 -0.13063805 -0.031343821 2.0921123e-38
0.038177326 -0.13063805 -0.031343821 2.2029296e-38
0.040048294 -0.13063805 -0.031343821 2.2123655e-38
0.041919254 -0.13063805 -0.031343821 2.3509446e-38
0.043790221 -0.13063805 -0.031343821 1.880854e-38
0.045661181 -0.13063805 -0.031343821 1.7331987e-38
0.047532141 -0.13063805 -0.031343821 1.6409681e-38
0.049560294 -0.13140334 -0.034283165 1.262824e-38
0.051827155 -0.13324542 -0.041357998 6.4515025e-39
0.054110937 -0.13505147 -0.048294429 5.5306364e-39
0.056011625 -0.13505147 -0.048294429 7.099404e-39
0.058273219 -0.13660498 -0.054260973 7.8369663e-39
0.060184367 -0.13660498 -0.054260973 1.2631855e-38
0.062095508 -0.13660498 -0.054260973 1.3646726e-38
-0.032302268 -0.12567626 -0.0052769221 1.3274726e-38
-0.030411353 -0.124891 -0.0022811927 4.8863572e-39
-0.028591348 -0.124891 -0.0022811927 1.5680194e-39
-0.026826492 -0.12567626 -0.0052769221 2.2126615e-39
-0.025001233 -0.12567626 -0.0052769221 3.1328423e-39
0.009828316 -0.12803085 -0.0142597 9.19902e-39
0.011669325 -0.12803085 -0.0142597 7.817868e-39
0.013510333 -0.12803085 -0.0142597 9.2947903e-39
0.015351344 -0.12803085 -0.0142597 7.3586961e-39
0.017192353 -0.12803085 -0.0142597 1.1601137e-38
0.019033361 -0.12803085 -0.0142597 1.2339418e-38
0.02087437 -0.12803085 -0.0142597 1.6674046e-38
0.022715379 -0.12803085 -0.0142597 1.6307419e-38
0.025080586 -0.13250901 -0.031343821 1.639997e-38
0.026820397 -0.13144915 -0.027300481 1.5015604e-38
0.028684271 -0.13144915 -0.027300481 7.3630037e-39
0.030548146 -0.13144915 -0.027300481 1.575244e-38
0.032412015 -0.13144915 -0.027300481 2.3499019e-38
0.034275889 -0.13144915 -0.027300481 2.3316051e-38
0.036139764 -0.13144915 -0.027300481 2.3040903e-38
0.038003638 -0.13144915 -0.027300481 2.248955e-38
0.039867513 -0.13144915 -0.027300481 2.3509106e-38
0.041919254 -0.13250901 -0.031343821 2.1940326e-38
0.043790221 -0.13250901 -0.031343821 2.1111645e-38
0.045661181 -0.13250901 -0.031343821 1.8253227e-38
0.047532141 -0.13250901 -0.031343821 1.6316767e-38
0.049560294 -0.13327946 -0.034283165 1.7052188e-38
0.052210256 -0.13695215 -0.048294429 9.4010409e-39
0.054110937 -0.13695215 -0.048294429 8.7574806e-39
0.056362078 -0.13851611 -0.054260973 9.7730745e-39
0.058273219 -0.13851611 -0.054260973 1.0141857e-38
0.060184367 -0.13851611 -0.054260973 1.1709899e-38
0.062095508 -0.13851611 -0.054260973 1.0235132e-38
-0.032302268 -0.1275015 -0.0052769221 1.253572e-38
-0.030477008 -0.1275015 -0.0052769221 3.5023437e-39
-0.02865175 -0.1275015 -0.0052769221 1.1992424e-39
-0.026826492 -0.1275015 -0.0052769221 4.7948636e-39
-0.025001233 -0.1275015 -0.0052769221 6.2692916e-39
-0.023072725 -0.1256734 0.0016510449 5.3487857e-39
0.0042029154 -0.1275015 -0.0052769221 1.1135083e-38
0.0060281744 -0.1275015 -0.0052769221 1.0581928e-38
0.0078534335 -0.1275015 -0.0052769221 8.7373313e-39
0.0097288825 -0.1282966 -0.0082900561 9.4763383e-39
0.011615217 -0.12909628 -0.011320595 9.9394394e-39
0.013451071 -0.12909628 -0.011320595 9.9415834e-39
0.015351344 -0.12987186 -0.0142597 7.8214497e-39
0.017192353 -0.12987186 -0.0142597 7.5452313e-39
0.019033361 -0.12987186 -0.0142597 1.0127078e-38
0.02087437 -0.12987186 -0.0142597 1.5107082e-38
0.022715379 -0.12987186 -0.0142597 2.1102308e-38
0.024556389 -0.12987186 -0.0142597 1.7783621e-38
0.026820397 -0.13331302 -0.027300481 1.8059489e-38
0.028684271 -0.13331302 -0.027300481 1.1328118e-38
0.030548146 -0.13331302 -0.027300481 1.3909933e-38
0.032412015 -0.13331302 -0.027300481 2.2300806e-38
0.034275889 -0.13331302 -0.027300481 2.3501879e-38
0.036139764 -0.13331302 -0.027300481 2.2856513e-38
0.038003638 -0.13331302 -0.027300481 2.1475387e-38
0.039867513 -0.13331302 -0.027300481 2.3228555e-38
0.041919254 -0.13437997 -0.031343821 2.350876e-38
0.043790221 -0.13437997 -0.031343821 2.3508762e-38
0.045661181 -0.13437997 -0.031343821 2.3045256e-38
0.047532141 -0.13437997 -0.031343821 2.0740365e-38
0.049560294 -0.13515557 -0.034283165 1.7788314e-38
0.052377798 -0.13965334 -0.051328067 1.2810837e-38
0.054283805 -0.13965334 -0.051328067 8.3879736e-39
0.056362078 -0.14042725 -0.054260973 6.3611103e-39
0.058273219 -0.14042725 -0.054260973 7.2830666e-39
0.062095508 -0.14042725 -0.054260973 7.5603766e-39
-0.037691385 -0.12853102 -0.0022811927 1.530087e-38
-0.035871372 -0.12853102 -0.0022811927 1.4009766e-38
-0.034051366 -0.12853102 -0.0022811927 7.8330146e-39
-0.032231361 -0.12853102 -0.0022811927 6.1752981e-39
-0.030411353 -0.12853102 -0.0022811927 3.5034199e-39
-0.028591348 -0.12853102 -0.0022811927 4.9789045e-39
-0.026698949 -0.12748651 0.0016510449 6.8228171e-39
-0.024885835 -0.12748651 0.0016510449 6.0848976e-39
0.0042029154 -0.12932678 -0.0052769221 2.0174207e-38
0.0060281744 -0.12932678 -0.0052769221 1.8882764e-38
0.0078534335 -0.12932678 -0.0052769221 1.556269e-38
0.0096786935 -0.12932678 -0.0052769221 1.4548901e-38
0.011503952 -0.12932678 -0.0052769221 1.7870419e-38
0.013389966 -0.13012715 -0.0082900561 2.2297589e-38
0.015220508 -0.13012715 -0.0082900561 2.1284156e-38
0.017122783 -0.13093217 -0.011320595 1.0866777e-38
0.018958639 -0.13093217 -0.011320595 9.9444785e-39
0.020794496 -0.13093217 -0.011320595 1.5015604e-38
0.022630351 -0.13093217 -0.011320595 1.7046779e-38
0.024556389 -0.13171287 -0.0142597 1.6494321e-38
0.026528912 -0.13278987 -0.018314246 1.7967648e-38
0.028377032 -0.13278987 -0.018314246 1.5017011e-38
0.030548146 -0.13517688 -0.027300481 1.2344028e-38
0.032412015 -0.13517688 -0.027300481 1.7507338e-38
0.034275889 -0.13517688 -0.027300481 2.239301e-38
0.036139764 -0.13517688 -0.027300481 2.1103717e-38
0.038003638 -0.13517688 -0.027300481 2.2673201e-38
0.039867513 -0.13517688 -0.027300481 2.3509818e-38
0.041731387 -0.13517688 -0.027300481 2.3506248e-38
0.043790221 -0.13625093 -0.031343821 2.3506975e-38
0.045661181 -0.13625093 -0.031343821 2.3509482e-38
0.047532141 -0.13625093 -0.031343821 2.0554535e-38
0.049403109 -0.13625093 -0.031343821 1.889394e-38
0.051274069 -0.13625093 -0.031343821 1.5298676e-38
0.054450929 -0.14233841 -0.054260973 1.0968723e-38
0.056362078 -0.14233841 -0.054260973 5.6224579e-39
0.058273219 -0.14233841 -0.054260973 5.5299063e-39
0.060184367 -0.14233841 -0.054260973 6.4529444e-39
-0.037691385 -0.13035102 -0.0022811927 1.2075823e-38
-0.035871372 -0.13035102 -0.0022811927 1.0785444e-38
-0.034051366 -0.13035102 -0.0022811927 5.1629441e-39
-0.032231361 -0.13035102 -0.0022811927 5.4409631e-39
-0.030325172 -0.1292996 0.0016510449 4.7030421e-39
-0.028512059 -0.1292996 0.0016510449 5.4398939e-39
-0.026698949 -0.1292996 0.0016510449 6.9135848e-39
-0.024885835 -0.1292996 0.0016510449 5.712878e-39
-0.023072725 -0.1292996 0.0016510449 5.5295602e-39
-0.021311319 -0.13035102 -0.0022811927 6.6395049e-39
0.0023776563 -0.13115202 -0.0052769221 2.1930981e-38
0.004168774 -0.13035102 -0.0022811927 2.3500814e-38
0.0059887804 -0.13035102 -0.0022811927 2.1469284e-38
0.0078534335 -0.13115202 -0.0052769221 2.0361182e-38
0.0096786935 -0.13115202 -0.0052769221 1.8793856e-38
0.011503952 -0.13115202 -0.0052769221 1.9902677e-38
0.013389966 -0.13195769 -0.0082900561 2.1932038e-38
0.015220508 -0.13195769 -0.0082900561 2.2853994e-38
0.017122783 -0.13276802 -0.011320595 9.9473301e-39
0.018958639 -0.13276802 -0.011320595 8.7480821e-39
0.020794496 -0.13276802 -0.011320595 1.2436274e-38
0.022630351 -0.13276802 -0.011320595 1.4281632e-38
0.024466207 -0.13276802 -0.011320595 1.6495043e-38
0.026397398 -0.13355388 -0.0142597 2.1102659e-38
0.028137917 -0.13276802 -0.011320595 1.3358568e-38
0.029973773 -0.13276802 -0.011320595 1.1052934e-38
0.032298461 -0.13623528 -0.024288062 1.0868179e-38
0.034157053 -0.13623528 -0.024288062 1.9442034e-38
0.036015645 -0.13623528 -0.024288062 2.3501525e-38
0.037874237 -0.13623528 -0.024288062 2.3502235e-38
0.039867513 -0.13704078 -0.027300481 2.3507286e-38
0.041731387 -0.13704078 -0.027300481 2.3507679e-38
0.043595262 -0.13704078 -0.027300481 2.3507686e-38
0.045661181 -0.13812189 -0.031343821 2.3509478e-38
0.047532141 -0.13812189 -0.031343821 2.1014071e-38
0.049403109 -0.13812189 -0.031343821 1.8616268e-38
0.051274069 -0.13812189 -0.031343821 1.6680522e-38
0.053145036 -0.13812189 -0.031343821 1.3917534e-38
0.055015996 -0.13812189 -0.031343821 6.1745456e-39
0.056886964 -0.13812189 -0.031343821 8.1106553e-39
0.059567653 -0.1416003 -0.044352893 7.3727371e-39
-0.042811818 -0.1294979 0.0076510869 1.2352761e-38
-0.041009225 -0.1294979 0.0076510869 1.2629714e-38
-0.039206631 -0.1294979 0.0076510869 1.1891431e-38
-0.037577622 -0.13111271 0.0016510449 5.3466277e-39
-0.035764508 -0.13111271 0.0016510449 4.4275482e-39
-0.033951402 -0.13111271 0.0016510449 4.0612768e-39
-0.032065824 -0.13028879 0.0047124587 2.5875747e-39
-0.030258076 -0.13028879 0.0047124587 5.0750616e-39
-0.028450331 -0.13028879 0.0047124587 7.1005054e-39
-0.026642589 -0.13028879 0.0047124587 5.2529957e-39
-0.024785897 -0.1294979 0.0076510869 6.6326763e-39
-0.022983303 -0.1294979 0.0076510869 4.880588e-39
-0.02118071 -0.1294979 0.0076510869 5.9887264e-39
-0.01941161 -0.13028879 0.0047124587 1.2169073e-38
-0.017575527 -0.1294979 0.0076510869 1.1804255e-38
-0.015749061 -0.12868352 0.010676976 8.2104207e-39
-0.013951773 -0.12868352 0.010676976 5.8122385e-39
0.0023487667 -0.13217102 -0.0022811927 2.3509116e-38
0.004168774 -0.13217102 -0.0022811927 2.3509465e-38
0.0059887804 -0.13217102 -0.0022811927 2.3506595e-38
0.0078087877 -0.13217102 -0.0022811927 2.3506989e-38
0.0096287932 -0.13217102 -0.0022811927 2.3507704e-38
0.011503952 -0.13297729 -0.0052769221 2.3507663e-38
0.013389966 -0.13378824 -0.0082900561 2.3507642e-38
0.015220508 -0.13378824 -0.0082900561 2.3502602e-38
0.017122783 -0.13460387 -0.011320595 8.1052126e-39
0.018958639 -0.13460387 -0.011320595 7.7360798e-39
0.020794496 -0.13460387 -0.011320595 1.022537e-38
0.022630351 -0.13460387 -0.011320595 8.8435287e-39
0.024466207 -0.13460387 -0.011320595 1.8154211e-38
0.026397398 -0.13539489 -0.0142597 1.898324e-38
0.028137917 -0.13460387 -0.011320595 1.1790891e-38
0.029973773 -0.13460387 -0.011320595 1.0406865e-38
0.032073267 -0.13648613 -0.018314246 9.0235676e-39
0.034157053 -0.13809387 -0.024288062 1.4831541e-38
0.036015645 -0.13809387 -0.024288062 2.3501884e-38
0.037874237 -0.13809387 -0.024288062 2.3504388e-38
0.039867513 -0.13890465 -0.027300481 2.3504748e-38
0.041731387 -0.13890465 -0.027300481 2.3504409e-38
0.043595262 -0.13890465 -0.027300481 2.350622e-38
0.045459136 -0.13890465 -0.027300481 2.3509465e-38
0.047532141 -0.13999285 -0.031343821 2.2027854e-38
0.049403109 -0.13999285 -0.031343821 1.9997755e-38
0.051274069 -0.13999285 -0.031343821 1.7048937e-38
0.053145036 -0.13999285 -0.031343821 1.5760359e-38
0.055015996 -0.13999285 -0.031343821 7.0032175e-39
0.061461426 -0.14349405 -0.044352893 6.633377e-39
0.065248974 -0.14349405 -0.044352893 1.1705583e-38
-0.042811818 -0.13130049 0.0076510869 1.2906295e-38
-0.041009225 -0.13130049 0.0076510869 1.2907021e-38
-0.039206631 -0.13130049 0.0076510869 1.3274729e-38
-0.037577622 -0.13292582 0.0016510449 6.9161142e-39
-0.035681315 -0.13209651 0.0047124587 2.2198964e-39
-0.033873565 -0.13209651 0.0047124587 2.2234879e-39
-0.031996265 -0.13130049 0.0076510869 4.2524938e-39
-0.03019367 -0.13130049 0.0076510869 5.632557e-39
-0.02839108 -0.13130049 0.0076510869 4.8896166e-39
-0.02658849 -0.13130049 0.0076510869 5.7132634e-39
-0.024785897 -0.13130049 0.0076510869 6.9982219e-39
-0.022983303 -0.13130049 0.0076510869 6.0740921e-39
-0.02118071 -0.13130049 0.0076510869 7.4573769e-39
-0.01937812 -0.13130049 0.0076510869 2.1473629e-38
-0.017575527 -0.13130049 0.0076510869 2.0280491e-38
-0.015749061 -0.13048081 0.010676976 1.1618052e-38
-0.013951773 -0.13048081 0.010676976 6.3661185e-39
-0.010357199 -0.13048081 0.010676976 1.3369406e-38
-0.0085599143 -0.13048081 0.010676976 2.3509863e-38
-0.0067626256 -0.13048081 0.010676976 2.3507356e-38
-0.0049653407 -0.13048081 0.010676976 1.9998509e-38
-0.00315479 -0.13130049 0.0076510869 1.575964e-38
-0.0013521975 -0.13130049 0.0076510869 1.9817316e-38
0.00045039505 -0.13130049 0.0076510869 2.3509834e-38
0.0022813249 -0.13209651 0.0047124587 2.350876e-38
0.0040890696 -0.13209651 0.0047124587 2.3508406e-38
0.0059370715 -0.13292582 0.0016510449 2.3509492e-38
0.0077501843 -0.13292582 0.0016510449 2.3509139e-38
0.0095632952 -0.13292582 0.0016510449 2.3507327e-38
0.011448801 -0.13399105 -0.0022811927 2.2306954e-38
0.013329212 -0.13480256 -0.0052769221 2.3509444e-38
0.01515447 -0.13480256 -0.0052769221 2.3508012e-38
0.01705105 -0.13561879 -0.0082900561 7.1839822e-39
0.018881593 -0.13561879 -0.0082900561 5.617032e-39
0.020712135 -0.13561879 -0.0082900561 7.183985e-39
0.022630351 -0.13643973 -0.011320595 6.9999791e-39
0.024466207 -0.13643973 -0.011320595 1.6403219e-38
0.026397398 -0.13723589 -0.0142597 1.5756759e-38
0.028137917 -0.13643973 -0.011320595 1.3542266e-38
0.029973773 -0.13643973 -0.011320595 1.26178e-38
0.032073267 -0.13833423 -0.018314246 9.2062002e-39
0.034038886 -0.13914107 -0.02129269 1.0221051e-38
0.035892226 -0.13914107 -0.02129269 2.1746925e-38
0.037874237 -0.13995247 -0.024288062 2.2855775e-38
0.039732829 -0.13995247 -0.024288062 2.2580976e-38
0.041591421 -0.13995247 -0.024288062 2.331961e-38
0.043595262 -0.14076851 -0.027300481 2.3506175e-38
0.045459136 -0.14076851 -0.027300481 2.3505844e-38
0.047323011 -0.14076851 -0.027300481 2.1565789e-38
0.049403109 -0.14186381 -0.031343821 2.0273252e-38
0.051274069 -0.14186381 -0.031343821 1.6863456e-38
0.053145036 -0.14186381 -0.031343821 1.6497555e-38
0.055015996 -0.14186381 -0.031343821 7.8322537e-39
0.056886964 -0.14186381 -0.031343821 6.4489647e-39
0.059567653 -0.14538784 -0.044352893 4.4203105e-39
0.061461426 -0.14538784 -0.044352893 6.356067e-39
0.0633552 -0.14538784 -0.044352893 1.1426475e-38
0.065248974 -0.14538784 -0.044352893 1.1703785e-38
-0.044505648 -0.1322781 0.010676976 2.2957052e-38
-0.04270836 -0.1322781 0.010676976 2.3417676e-38
-0.040911078 -0.1322781 0.010676976 2.3509879e-38
-0.03911379 -0.1322781 0.010676976 2.3509883e-38
-0.037316501 -0.1322781 0.010676976 2.130043e-38
-0.035601452 -0.13310309 0.0076510869 1.420677e-38
-0.033798859 -0.13310309 0.0076510869 3.8065712e-40
-0.031924643 -0.1322781 0.010676976 1.3962356e-39
-0.030127352 -0.1322781 0.010676976 3.6071356e-39
-0.028330067 -0.1322781 0.010676976 7.0137188e-39
-0.026532782 -0.1322781 0.010676976 3.1346654e-39
-0.024735494 -0.1322781 0.010676976 5.7089278e-39
-0.022938209 -0.1322781 0.010676976 5.4276451e-39
-0.02114092 -0.1322781 0.010676976 1.0035973e-38
-0.019343635 -0.1322781 0.010676976 2.3500493e-38
-0.017575527 -0.13310309 0.0076510869 2.3507697e-38
-0.015749061 -0.1322781 0.010676976 2.065034e-38
-0.013951773 -0.1322781 0.010676976 1.9087674e-38
-0.012154488 -0.1322781 0.010676976 2.1670946e-38
-0.010357199 -0.1322781 0.010676976 2.3142506e-38
-0.0085599143 -0.1322781 0.010676976 2.350986e-38
-0.0067652632 -0.13145791 0.013685223 2.3507714e-38
-0.0049732514 -0.13145791 0.013685223 2.1563314e-38
-0.0031680521 -0.1322781 0.010676976 1.6310646e-38
-0.0013521975 -0.13310309 0.0076510869 1.5483032e-38
0.00045039505 -0.13310309 0.0076510869 2.0186102e-38
0.0022529867 -0.13310309 0.0076510869 2.3506602e-38
0.0040555792 -0.13310309 0.0076510869 2.3508418e-38
0.0058968142 -0.13390426 0.0047124587 2.3509863e-38
0.0077045588 -0.13390426 0.0047124587 2.2677931e-38
0.0095123034 -0.13390426 0.0047124587 2.3509841e-38
0.011320047 -0.13390426 0.0047124587 2.3509824e-38
0.013189521 -0.13473894 0.0016510449 2.3509451e-38
0.015088813 -0.13581105 -0.0022811927 2.3508737e-38
0.01705105 -0.13744931 -0.0082900561 1.6681214e-38
0.018881593 -0.13744931 -0.0082900561 1.6865231e-38
0.020712135 -0.13744931 -0.0082900561 1.7233662e-38
0.022630351 -0.13827558 -0.011320595 1.7879065e-38
0.024466207 -0.13827558 -0.011320595 1.7602128e-38
0.026397398 -0.1390769 -0.0142597 1.7232252e-38
0.028238406 -0.1390769 -0.0142597 1.8889618e-38
0.030079415 -0.1390769 -0.0142597 1.5290774e-38
0.032073267 -0.14018236 -0.018314246 1.0034901e-38
0.034038886 -0.14099441 -0.02129269 9.7589998e-39
0.035892226 -0.14099441 -0.02129269 2.1562173e-38
0.037874237 -0.14181106 -0.024288062 2.2025288e-38
0.039732829 -0.14181106 -0.024288062 2.1658285e-38
0.041591421 -0.14181106 -0.024288062 2.2490545e-38
0.043450013 -0.14181106 -0.024288062 2.3227402e-38
0.045459136 -0.14263238 -0.027300481 2.331784e-38
0.047323011 -0.14263238 -0.027300481 2.1103367e-38
0.049403109 -0.14373477 -0.031343821 1.9443127e-38
0.051274069 -0.14373477 -0.031343821 1.4558199e-38
0.053145036 -0.14373477 -0.031343821 1.4099747e-38
0.055015996 -0.14373477 -0.031343821 6.6337077e-39
0.056886964 -0.14373477 -0.031343821 5.2497027e-39
0.059567653 -0.1472816 -0.044352893 3.31397e-39
0.06126976 -0.14646508 -0.041357998 5.7099816e-39
0.063158281 -0.14646508 -0.041357998 9.674758e-39
0.065248974 -0.1472816 -0.044352893 1.0043543e-38
0.072824061 -0.1472816 -0.044352893 1.0784705e-38
-0.044505648 -0.13407536 0.010676976 2.3233636e-38
-0.04270836 -0.13407536 0.010676976 2.3509873e-38
-0.040911078 -0.13407536 0.010676976 2.3418043e-38
-0.03911379 -0.13407536 0.010676976 2.3418047e-38
-0.037316501 -0.13407536 0.010676976 2.2958873e-38
-0.035519212 -0.13407536 0.010676976 2.2316024e-38
-0.033721931 -0.13407536 0.010676976 1.3101139e-38
-0.031924643 -0.13407536 0.010676976 2.3182045e-39
-0.030061422 -0.13324992 0.013685223 4.8085669e-39
-0.028269412 -0.13324992 0.013685223 3.3302096e-39
-0.026477398 -0.13324992 0.013685223 4.0630957e-39
-0.024685388 -0.13324992 0.013685223 5.8983595e-39
-0.022893375 -0.13324992 0.013685223 5.2479384e-39
-0.021101361 -0.13324992 0.013685223 1.2158281e-38
-0.019275269 -0.13242932 0.016675826 2.3499054e-38
-0.017488498 -0.13242932 0.016675826 2.3506252e-38
-0.015725324 -0.13324992 0.013685223 2.3509483e-38
-0.013933314 -0.13324992 0.013685223 2.3509834e-38
-0.012154488 -0.13407536 0.010676976 2.3418005e-38
-0.010357199 -0.13407536 0.010676976 2.3234347e-38
-0.0085599143 -0.13407536 0.010676976 2.2677933e-38
-0.0067652632 -0.13324992 0.013685223 2.3506628e-38
-0.0049732514 -0.13324992 0.013685223 2.2202911e-38
-0.0031680521 -0.13407536 0.010676976 1.8426462e-38
-0.0013521975 -0.13490568 0.0076510869 1.3358213e-38
0.00045039505 -0.13490568 0.0076510869 1.6495389e-38
0.0022529867 -0.13490568 0.0076510869 2.3507679e-38
0.0040555792 -0.13490568 0.0076510869 2.3508428e-38
0.0058968142 -0.13571201 0.0047124587 2.3322241e-38
0.0077045588 -0.13571201 0.0047124587 2.3509853e-38
0.0095123034 -0.13571201 0.0047124587 2.3508396e-38
0.011320047 -0.13571201 0.0047124587 2.2769385e-38
0.013127793 -0.13571201 0.0047124587 2.3509825e-38
0.015002633 -0.13655205 0.0016510449 2.3509099e-38
0.016908821 -0.13763104 -0.0022811927 1.9723667e-38
0.01880499 -0.13845308 -0.0052769221 1.8155251e-38
0.020630248 -0.13845308 -0.0052769221 2.193492e-38
0.022542678 -0.13927986 -0.0082900561 2.3411882e-38
0.024466207 -0.14011143 -0.011320595 1.6773446e-38
0.026302064 -0.14011143 -0.011320595 1.8431151e-38
0.028137917 -0.14011143 -0.011320595 2.0364745e-38
0.029973773 -0.14011143 -0.011320595 1.621273e-38
0.031920426 -0.14091791 -0.0142597 9.9427059e-39
0.034038886 -0.14284773 -0.02129269 8.4682624e-39
0.035892226 -0.14284773 -0.02129269 1.953279e-38
0.037874237 -0.14366965 -0.024288062 2.3502219e-38
0.039732829 -0.14366965 -0.024288062 2.3501832e-38
0.041591421 -0.14366965 -0.024288062 2.3503612e-38
0.043450013 -0.14366965 -0.024288062 2.3226679e-38
0.045459136 -0.14449625 -0.027300481 2.3501873e-38
0.047323011 -0.14449625 -0.027300481 2.2393387e-38
0.049186885 -0.14449625 -0.027300481 2.0548395e-38
0.05105076 -0.14449625 -0.027300481 1.455712e-38
0.053145036 -0.14560573 -0.031343821 1.4193022e-38
0.055015996 -0.14560573 -0.031343821 8.4786993e-39
0.05725044 -0.14725454 -0.037352685 6.81775e-39
0.059381239 -0.14835359 -0.041357998 4.1444453e-39
0.06126976 -0.14835359 -0.041357998 5.5259532e-39
0.063158281 -0.14835359 -0.041357998 7.3705931e-39
0.065046802 -0.14835359 -0.041357998 7.4627915e-39
0.067142747 -0.14917539 -0.044352893 5.895826e-39
0.070930287 -0.14917539 -0.044352893 9.4932506e-39
-0.04270836 -0.13587265 0.010676976 2.3418038e-38
-0.040911078 -0.13587265 0.010676976 2.2128742e-38
-0.03911379 -0.13587265 0.010676976 2.2866311e-38
-0.037316501 -0.13587265 0.010676976 2.3234379e-38
-0.035437465 -0.13504194 0.013685223 2.2865961e-38
-0.033645451 -0.13504194 0.013685223 2.2775202e-38
-0.031853437 -0.13504194 0.013685223 1.808115e-38
-0.030061422 -0.13504194 0.013685223 8.4416462e-40
-0.028209111 -0.13421609 0.016675826 2.5054838e-39
-0.026422342 -0.13421609 0.016675826 3.2394461e-39
-0.024635574 -0.13421609 0.016675826 7.6576323e-39
-0.022848805 -0.13421609 0.016675826 5.3462563e-39
-0.021062037 -0.13421609 0.016675826 8.8442784e-39
-0.019241383 -0.13339506 0.019648906 1.9260934e-38
-0.017459827 -0.13339506 0.019648906 2.1474341e-38
-0.01570173 -0.13421609 0.016675826 2.3506244e-38
-0.01391496 -0.13421609 0.016675826 2.2861956e-38
-0.012128191 -0.13421609 0.016675826 1.9175936e-38
-0.010349289 -0.13504194 0.013685223 2.2034006e-38
-0.0085599143 -0.13587265 0.010676976 2.3508777e-38
-0.0067626256 -0.13587265 0.010676976 2.3499052e-38
-0.0049653407 -0.13587265 0.010676976 2.1275183e-38
-0.0031680521 -0.13587265 0.010676976 1.8789125e-38
-0.0013707662 -0.13587265 0.010676976 1.132487e-38
0.00042652059 -0.13587265 0.010676976 1.2987991e-38
0.0022529867 -0.13670824 0.0076510869 2.3501549e-38
0.0040555792 -0.13670824 0.0076510869 2.3508428e-38
0.0058581708 -0.13670824 0.0076510869 2.3508797e-38
0.0076607633 -0.13670824 0.0076510869 2.3414782e-38
0.0094633549 -0.13670824 0.0076510869 2.3508404e-38
0.011265948 -0.13670824 0.0076510869 2.3509482e-38
0.013127793 -0.13751976 0.0047124587 2.3508032e-38
0.014935536 -0.13751976 0.0047124587 2.3507292e-38
0.016815744 -0.13836516 0.0016510449 2.3509806e-38
0.018728828 -0.13945107 -0.0022811927 2.3505484e-38
0.020630248 -0.14027832 -0.0052769221 2.3507295e-38
0.022455508 -0.14027832 -0.0052769221 2.3505518e-38
0.02437322 -0.14111041 -0.0082900561 1.6774159e-38
0.026203761 -0.14111041 -0.0082900561 1.6035137e-38
0.028034305 -0.14111041 -0.0082900561 1.6401761e-38
0.029864846 -0.14111041 -0.0082900561 1.6398543e-38
0.031809628 -0.14194728 -0.011320595 1.1141954e-38
0.033921383 -0.14387859 -0.018314246 7.1768033e-39
0.035769507 -0.14387859 -0.018314246 1.4646425e-38
0.037874237 -0.14552824 -0.024288062 2.101005e-38
0.039732829 -0.14552824 -0.024288062 2.294758e-38
0.041591421 -0.14552824 -0.024288062 2.2948294e-38
0.043450013 -0.14552824 -0.024288062 1.9906213e-38
0.045308605 -0.14552824 -0.024288062 1.9075052e-38
0.047167197 -0.14552824 -0.024288062 1.8612291e-38
0.049186885 -0.14636014 -0.027300481 1.8519374e-38
0.05105076 -0.14636014 -0.027300481 1.4096142e-38
0.052914634 -0.14636014 -0.027300481 1.317887e-38
0.054778509 -0.14636014 -0.027300481 8.6634535e-39
0.057064764 -0.14828841 -0.034283165 6.1738226e-39
-0.042605512 -0.13683395 0.013685223 2.3418038e-38
-0.040813498 -0.13683395 0.013685223 2.2866307e-38
-0.039021485 -0.13683395 0.013685223 2.3234376e-38
-0.037229471 -0.13683395 0.013685223 2.341769e-38
-0.035437465 -0.13683395 0.013685223 2.3508092e-38
-0.033645451 -0.13683395 0.013685223 2.3322627e-38
-0.031782649 -0.13600285 0.016675826 2.2224189e-38
-0.029995879 -0.13600285 0.016675826 6.007487e-39
-0.028209111 -0.13600285 0.016675826 1.8647835e-39
-0.026422342 -0.13600285 0.016675826 3.3399094e-39
-0.024635574 -0.13600285 0.016675826 3.0575674e-39
-0.022804497 -0.13517661 0.019648906 5.1712243e-39
-0.02102294 -0.13517661 0.019648906 7.0075699e-39
-0.019241383 -0.13517661 0.019648906 1.2904478e-38
-0.017459827 -0.13517661 0.019648906 1.7235856e-38
-0.015678272 -0.13517661 0.019648906 2.3506961e-38
-0.013896717 -0.13517661 0.019648906 2.3508784e-38
-0.012128191 -0.13600285 0.016675826 2.2027903e-38
-0.010341423 -0.13600285 0.016675826 2.1474366e-38
-0.0085572768 -0.13683395 0.013685223 1.7227235e-38
-0.0067652632 -0.13683395 0.013685223 1.9889366e-38
-0.0049732514 -0.13683395 0.013685223 2.1083939e-38
-0.0031680521 -0.13766994 0.010676976 2.0257782e-38
-0.0013707662 -0.13766994 0.010676976 1.2425106e-38
0.00042652059 -0.13766994 0.010676976 1.3445002e-38
0.0022529867 -0.13851084 0.0076510869 2.3498298e-38
0.0040555792 -0.13851084 0.0076510869 2.3506981e-38
0.0058581708 -0.13851084 0.0076510869 2.3504474e-38
0.0076607633 -0.13851084 0.0076510869 2.3508787e-38
0.0094633549 -0.13851084 0.0076510869 2.3413703e-38
0.011265948 -0.13851084 0.0076510869 2.3136395e-38
0.013127793 -0.13932751 0.0047124587 2.1476134e-38
0.014935536 -0.13932751 0.0047124587 2.2121105e-38
0.016815744 -0.14017828 0.0016510449 2.3134168e-38
0.018728828 -0.14127107 -0.0022811927 2.350621e-38
0.020630248 -0.1421036 -0.0052769221 2.2671064e-38
0.022455508 -0.1421036 -0.0052769221 2.0738208e-38
0.024280766 -0.1421036 -0.0052769221 1.5668163e-38
0.026106028 -0.1421036 -0.0052769221 1.1886684e-38
0.027931286 -0.1421036 -0.0052769221 1.3729146e-38
0.029756544 -0.1421036 -0.0052769221 1.603116e-38
0.031809628 -0.14378314 -0.011320595 1.2341903e-38
0.033921383 -0.1457267 -0.018314246 8.3756996e-39
0.035769507 -0.1457267 -0.018314246 1.0682013e-38
0.037745565 -0.14655443 -0.02129269 1.8060143e-38
0.039598905 -0.14655443 -0.02129269 2.2210017e-38
0.041452244 -0.14655443 -0.02129269 2.2025288e-38
0.043305583 -0.14655443 -0.02129269 1.7414449e-38
0.045308605 -0.14738683 -0.024288062 1.6491436e-38
0.047167197 -0.14738683 -0.024288062 1.6859504e-38
0.049025789 -0.14738683 -0.024288062 1.7781096e-38
0.050884381 -0.14738683 -0.024288062 1.4556407e-38
0.052914634 -0.14822401 -0.027300481 1.1888493e-38
0.054778509 -0.14822401 -0.027300481 8.3879484e-39
-0.044073269 -0.13610314 0.022706386 2.2589688e-38
-0.042297073 -0.13610314 0.022706386 2.2589698e-38
-0.040520884 -0.13610314 0.022706386 2.3418031e-38
-0.038929723 -0.13778962 0.016675826 2.341804e-38
-0.037142955 -0.13778962 0.016675826 2.3508441e-38
-0.035437465 -0.13862596 0.013685223 2.350737e-38
-0.033645451 -0.13862596 0.013685223 2.3507374e-38
-0.031782649 -0.13778962 0.016675826 2.2775202e-38
-0.029995879 -0.13778962 0.016675826 1.6515265e-38
-0.028209111 -0.13778962 0.016675826 1.3090958e-39
-0.02636761 -0.13695817 0.019648906 2.9704122e-39
-0.02458605 -0.13695817 0.019648906 4.1649996e-39
-0.022804497 -0.13695817 0.019648906 6.3726514e-39
-0.02102294 -0.13695817 0.019648906 7.1037312e-39
-0.019241383 -0.13695817 0.019648906 8.9433138e-39
-0.017459827 -0.13695817 0.019648906 1.530228e-38
-0.015678272 -0.13695817 0.019648906 2.3506974e-38
-0.013896717 -0.13695817 0.019648906 2.3508431e-38
-0.01211516 -0.13695817 0.019648906 2.3503756e-38
-0.010341423 -0.13778962 0.016675826 2.1565129e-38
-0.0085572768 -0.13862596 0.013685223 5.7946242e-39
-0.0067652632 -0.13862596 0.013685223 8.6436573e-39
-0.0049732514 -0.13862596 0.013685223 1.7675578e-38
-0.0031680521 -0.13946722 0.010676976 2.0167029e-38
-0.0013707662 -0.13946722 0.010676976 1.3808403e-38
0.00042652059 -0.13946722 0.010676976 1.5010889e-38
0.0022238074 -0.13946722 0.010676976 2.2297589e-38
0.0040210942 -0.13946722 0.010676976 2.1377827e-38
0.0058581708 -0.14031343 0.0076510869 1.6862419e-38
0.0076607633 -0.14031343 0.0076510869 1.2162961e-38
0.0094633549 -0.14031343 0.0076510869 1.0412323e-38
0.011265948 -0.14031343 0.0076510869 9.4900052e-39
0.013127793 -0.14113526 0.0047124587 8.9368118e-39
0.014935536 -0.14113526 0.0047124587 1.8616596e-38
0.016743282 -0.14113526 0.0047124587 2.3504034e-38
0.018628858 -0.14199139 0.0016510449 2.3038033e-38
0.020548834 -0.14309107 -0.0022811927 7.2733164e-39
0.022455508 -0.14392884 -0.0052769221 4.3270303e-39
0.024280766 -0.14392884 -0.0052769221 4.0518825e-39
0.026106028 -0.14392884 -0.0052769221 4.6968834e-39
0.027931286 -0.14392884 -0.0052769221 1.3637676e-38
0.029756544 -0.14392884 -0.0052769221 1.5295391e-38
0.037745565 -0.14840777 -0.02129269 1.5109178e-38
0.039598905 -0.14840777 -0.02129269 1.8705881e-38
0.041452244 -0.14840777 -0.02129269 1.7137862e-38
0.043305583 -0.14840777 -0.02129269 1.2528456e-38
0.04515893 -0.14840777 -0.02129269 1.4370941e-38
0.047012269 -0.14840777 -0.02129269 1.5937911e-38
0.048865609 -0.14840777 -0.02129269 1.5385091e-38
0.050718948 -0.14840777 -0.02129269 1.0409047e-38
0.052572288 -0.14840777 -0.02129269 9.2151881e-39
0.054601565 -0.14924543 -0.024288062 6.4518486e-39
-0.061355911 -0.13535701 0.031669494 1.6314634e-38
-0.059595428 -0.13535701 0.031669494 1.6039482e-38
-0.057834946 -0.13535701 0.031669494 1.4472517e-38
-0.049276635 -0.13702409 0.025745507 1.3831103e-38
-0.047505766 -0.13702409 0.025745507 1.0328018e-38
-0.045734905 -0.13702409 0.025745507 1.0052133e-38
-0.043964036 -0.13702409 0.025745507 2.0101814e-38
-0.042193167 -0.13702409 0.025745507 2.3509831e-38
-0.040520884 -0.13787933 0.022706386 2.3509841e-38
-0.038744688 -0.13787933 0.022706386 2.3325105e-38
-0.037056945 -0.13873972 0.019648906 2.3509869e-38
-0.035356186 -0.13957639 0.016675826 2.3509158e-38
-0.033569418 -0.13957639 0.016675826 2.3231492e-38
-0.031853437 -0.14041798 0.013685223 2.3142537e-38
-0.029995879 -0.13957639 0.016675826 2.0750854e-38
-0.028149163 -0.13873972 0.019648906 1.4300056e-38
-0.02636761 -0.13873972 0.019648906 3.7908388e-39
-0.02458605 -0.13873972 0.019648906 4.6198694e-39
-0.022758929 -0.13787933 0.022706386 5.9084405e-39
-0.020982733 -0.13787933 0.022706386 5.9981109e-39
-0.019206537 -0.13787933 0.022706386 9.9592832e-39
-0.017430345 -0.13787933 0.022706386 1.5211916e-38
-0.015678272 -0.13873972 0.019648906 2.3415881e-38
-0.013896717 -0.13873972 0.019648906 2.3509507e-38
-0.01211516 -0.13873972 0.019648906 2.3509504e-38
-0.010333603 -0.13873972 0.019648906 2.3413e-38
-0.0085546542 -0.13957639 0.016675826 1.4693679e-39
-0.0067678858 -0.13957639 0.016675826 3.2153186e-39
-0.0049811173 -0.13957639 0.016675826 1.3077691e-38
-0.0031812396 -0.14041798 0.013685223 1.8147006e-38
-0.0013707662 -0.14126451 0.010676976 1.492051e-38
0.00042652059 -0.14126451 0.010676976 1.2523413e-38
0.0022238074 -0.14126451 0.010676976 2.1835534e-38
0.0040210942 -0.14126451 0.010676976 2.1283455e-38
0.005818381 -0.14126451 0.010676976 1.6490735e-38
0.0076156678 -0.14126451 0.010676976 9.6711454e-39
0.0094129536 -0.14126451 0.010676976 5.2471985e-39
0.01121024 -0.14126451 0.010676976 7.2758653e-39
0.01306854 -0.14211603 0.0076510869 1.0779648e-38
0.014871132 -0.14211603 0.0076510869 1.6310285e-38
0.016673723 -0.14211603 0.0076510869 2.2578494e-38
0.018476317 -0.14211603 0.0076510869 2.3499726e-38
0.020358771 -0.14294298 0.0047124587 5.7978332e-39
0.022255082 -0.14380451 0.0016510449 1.8381449e-39
0.024280766 -0.14575411 -0.0052769221 9.1835496e-40
0.026203761 -0.14660202 -0.0082900561 4.8812901e-39
-0.065048017 -0.13796796 0.028666016 1.4011541e-38
-0.063282274 -0.13796796 0.028666016 1.3085981e-38
-0.061355911 -0.13711749 0.031669494 1.7695397e-38
-0.059595428 -0.13711749 0.031669494 1.6497927e-38
-0.057834946 -0.13711749 0.031669494 1.8619865e-38
-0.056219287 -0.13796796 0.028666016 1.8068135e-38
-0.054175265 -0.13627206 0.03465521 1.8161058e-38
-0.052420013 -0.13627206 0.03465521 9.9567385e-39
-0.050664775 -0.13627206 0.03465521 8.2061005e-39
-0.049276635 -0.13879494 0.025745507 1.0051082e-38
-0.047505766 -0.13879494 0.025745507 1.1803504e-38
-0.045734905 -0.13879494 0.025745507 1.0329075e-38
-0.043859065 -0.13796796 0.028666016 9.6833395e-39
-0.042093314 -0.13796796 0.028666016 1.8071713e-38
-0.040327571 -0.13796796 0.028666016 2.1758473e-38
-0.038744688 -0.13965552 0.022706386 2.3509856e-38
-0.036968492 -0.13965552 0.022706386 2.3509149e-38
-0.035192296 -0.13965552 0.022706386 2.3509517e-38
-0.033493832 -0.14052127 0.019648906 2.3509874e-38
-0.031782649 -0.14136316 0.016675826 2.3234369e-38
-0.029995879 -0.14136316 0.016675826 2.2867037e-38
-0.028149163 -0.14052127 0.019648906 2.0380294e-38
-0.02636761 -0.14052127 0.019648906 9.2257077e-39
-0.02458605 -0.14052127 0.019648906 6.3676347e-39
-0.022758929 -0.13965552 0.022706386 7.1044697e-39
-0.020982733 -0.13965552 0.022706386 9.5004715e-39
-0.019206537 -0.13965552 0.022706386 1.9640909e-38
-0.017430345 -0.13965552 0.022706386 2.2126598e-38
-0.015654149 -0.13965552 0.022706386 2.3509521e-38
-0.013877952 -0.13965552 0.022706386 2.332439e-38
-0.012101758 -0.13965552 0.022706386 2.3509859e-38
-0.010333603 -0.14052127 0.019648906 2.3231121e-38
-0.0085520484 -0.14052127 0.019648906 4.8827502e-39
-0.0067704916 -0.14052127 0.019648906 1.8385036e-39
-0.0049889367 -0.14052127 0.019648906 6.5382891e-39
-0.0031812396 -0.14220999 0.013685223 1.2897978e-38
-0.0013892269 -0.14220999 0.013685223 1.5937546e-38
0.00042652059 -0.1430618 0.010676976 1.4737195e-38
0.0022238074 -0.1430618 0.010676976 1.6303442e-38
0.0040210942 -0.1430618 0.010676976 1.750307e-38
0.005818381 -0.1430618 0.010676976 1.8794896e-38
0.0076156678 -0.1430618 0.010676976 1.206679e-38
0.0094129536 -0.1430618 0.010676976 8.1956608e-39
0.01121024 -0.1430618 0.010676976 1.1977124e-38
0.013007527 -0.1430618 0.010676976 1.9814105e-38
0.014804814 -0.1430618 0.010676976 2.1656926e-38
0.016602101 -0.1430618 0.010676976 2.1748029e-38
0.018399388 -0.1430618 0.010676976 2.0455837e-38
0.020196674 -0.1430618 0.010676976 8.3800185e-39
0.0220815 -0.14391862 0.0076510869 3.1285053e-39
-0.071277715 -0.14400201 0.013685223 1.3645288e-38
-0.068940006 -0.1414317 0.022706386 1.2906999e-38
-0.066985302 -0.14056583 0.025745507 1.3552005e-38
-0.065048017 -0.13973372 0.028666016 1.3273611e-38
-0.063282274 -0.13973372 0.028666016 1.4376708e-38
-0.061355911 -0.13887797 0.031669494 1.6312088e-38
-0.059595428 -0.13887797 0.031669494 1.4008273e-38
-0.057834946 -0.13887797 0.031669494 1.7789376e-38
-0.056074463 -0.13887797 0.031669494 1.7514237e-38
-0.054175265 -0.1380273 0.03465521 1.723874e-38
-0.052420013 -0.1380273 0.03465521 1.1523704e-38
-0.050664775 -0.1380273 0.03465521 9.9567427e-39
-0.049276635 -0.14056583 0.025745507 9.7734262e-39
-0.047505766 -0.14056583 0.025745507 1.1894273e-38
-0.045624807 -0.13973372 0.028666016 9.9588712e-39
-0.043859065 -0.13973372 0.028666016 1.0787906e-38
-0.04199063 -0.13887797 0.031669494 1.6595879e-38
-0.040230148 -0.13887797 0.031669494 2.2126552e-38
-0.038651437 -0.14056583 0.025745507 2.3509511e-38
-0.036968492 -0.1414317 0.022706386 2.3509163e-38
-0.035192296 -0.1414317 0.022706386 2.3508081e-38
-0.033493832 -0.14230286 0.019648906 2.3509883e-38
-0.031712279 -0.14230286 0.019648906 2.3234379e-38
-0.029995879 -0.14314993 0.016675826 2.2958873e-38
-0.028149163 -0.14230286 0.019648906 2.2591531e-38
-0.02636761 -0.14230286 0.019648906 1.2728777e-38
-0.02458605 -0.14230286 0.019648906 6.9197295e-39
-0.022758929 -0.1414317 0.022706386 7.2881449e-39
-0.020982733 -0.1414317 0.022706386 1.042099e-38
-0.019206537 -0.1414317 0.022706386 1.9362875e-38
-0.017430345 -0.1414317 0.022706386 2.3509873e-38
-0.015654149 -0.1414317 0.022706386 2.3509866e-38
-0.013877952 -0.1414317 0.022706386 2.3230751e-38
-0.012101758 -0.1414317 0.022706386 2.3508774e-38
-0.010333603 -0.14230286 0.019648906 2.3509856e-38
-0.0085520484 -0.14230286 0.019648906 4.9756535e-39
-0.0067704916 -0.14230286 0.019648906 1.0101905e-39
-0.0049889367 -0.14230286 0.019648906 3.865706e-39
-0.0031812396 -0.14400201 0.013685223 9.8562528e-39
-0.0013892269 -0.14400201 0.013685223 1.4463506e-38
0.00040278491 -0.14400201 0.013685223 1.4368781e-38
0.0022238074 -0.14485909 0.010676976 1.243231e-38
0.0040210942 -0.14485909 0.010676976 1.5382216e-38
0.005818381 -0.14485909 0.010676976 1.8056978e-38
0.0076156678 -0.14485909 0.010676976 1.4370607e-38
0.0094129536 -0.14485909 0.010676976 1.1606186e-38
0.01121024 -0.14485909 0.010676976 1.409655e-38
0.013007527 -0.14485909 0.010676976 2.0827907e-38
0.014804814 -0.14485909 0.010676976 2.0181447e-38
0.016530896 -0.14400201 0.013685223 1.8152773e-38
0.018246878 -0.14314993 0.016675826 1.68613e-38
0.020033646 -0.14314993 0.016675826 1.0408694e-38
0.021820415 -0.14314993 0.016675826 3.9589835e-39
0.023698946 -0.14400201 0.013685223 2.0236095e-39
-0.072878338 -0.1449367 0.016675826 1.4659443e-38
-0.070906512 -0.14408441 0.019648906 1.4658717e-38
-0.068940006 -0.14320792 0.022706386 1.4197375e-38
-0.066985302 -0.14233668 0.025745507 1.2260543e-38
-0.065048017 -0.14149947 0.028666016 7.5574801e-39
-0.063282274 -0.14149947 0.028666016 7.3701937e-39
-0.061355911 -0.14063846 0.031669494 7.4616621e-39
-0.059595428 -0.14063846 0.031669494 8.2003033e-39
-0.057685755 -0.13978253 0.03465521 1.1889212e-38
-0.055930503 -0.13978253 0.03465521 1.2904455e-38
-0.054453544 -0.14149947 0.028666016 9.9545679e-39
-0.052687794 -0.14149947 0.028666016 8.9411488e-39
-0.050922044 -0.14149947 0.028666016 9.0337144e-39
-0.049276635 -0.14233668 0.025745507 1.1984691e-38
-0.047505766 -0.14233668 0.025745507 1.7240193e-38
-0.045624807 -0.14149947 0.028666016 2.1020916e-38
-0.043751106 -0.14063846 0.031669494 2.0743966e-38
-0.04199063 -0.14063846 0.031669494 1.6871397e-38
-0.040230148 -0.14063846 0.031669494 2.0096816e-38
-0.038561828 -0.14149947 0.028666016 2.3507718e-38
-0.036796078 -0.14149947 0.028666016 2.3508086e-38
-0.035192296 -0.14320792 0.022706386 2.3324052e-38
-0.033493832 -0.14408441 0.019648906 2.3509527e-38
-0.031712279 -0.14408441 0.019648906 2.3141826e-38
-0.02993072 -0.14408441 0.019648906 2.2405707e-38
-0.028149163 -0.14408441 0.019648906 2.2775202e-38
-0.026311321 -0.14320792 0.022706386 1.5032581e-38
-0.024535125 -0.14320792 0.022706386 8.5788879e-39
-0.022758929 -0.14320792 0.022706386 7.5632955e-39
-0.020982733 -0.14320792 0.022706386 9.95857e-39
-0.019206537 -0.14320792 0.022706386 1.4935678e-38
-0.017430345 -0.14320792 0.022706386 2.1940731e-38
-0.015678272 -0.14408441 0.019648906 2.3322937e-38
-0.013896717 -0.14408441 0.019648906 2.3509495e-38
-0.01211516 -0.14408441 0.019648906 2.350769e-38
-0.010333603 -0.14408441 0.019648906 2.3506598e-38
-0.0085520484 -0.14408441 0.019648906 4.7908909e-39
-0.0067704916 -0.14408441 0.019648906 1.6551913e-39
-0.0049889367 -0.14408441 0.019648906 1.5622796e-39
-0.0031943489 -0.1449367 0.016675826 5.6163412e-39
-0.0014075795 -0.1449367 0.016675826 1.4003974e-38
0.00040278491 -0.14579402 0.013685223 1.4277676e-38
0.0022238074 -0.14665638 0.010676976 9.574254e-39
0.0040210942 -0.14665638 0.010676976 1.2616715e-38
0.005818381 -0.14665638 0.010676976 1.8517604e-38
0.0076156678 -0.14665638 0.010676976 1.7597457e-38
0.0094129536 -0.14665638 0.010676976 1.6860982e-38
0.01121024 -0.14665638 0.010676976 1.4925956e-38
0.013007527 -0.14665638 0.010676976 1.206897e-38
0.014804814 -0.14665638 0.010676976 9.0257872e-39
0.016530896 -0.14579402 0.013685223 9.5789498e-39
0.018246878 -0.1449367 0.016675826 1.1699079e-38
0.020033646 -0.1449367 0.016675826 8.4733155e-39
0.021820415 -0.1449367 0.016675826 3.3143385e-39
0.023698946 -0.14579402 0.013685223 1.0105492e-39
-0.074665107 -0.14672346 0.016675826 1.3922242e-38
-0.072878338 -0.14672346 0.016675826 1.5304809e-38
-0.070906512 -0.14586596 0.019648906 1.5949454e-38
-0.068940006 -0.14498411 0.022706386 1.4842741e-38
-0.066985302 -0.14410757 0.025745507 1.1615168e-38
-0.065048017 -0.1432652 0.028666016 6.0816269e-39
-0.063282274 -0.1432652 0.028666016 6.1712946e-39
-0.061355911 -0.14239894 0.031669494 5.617395e-39
-0.059595428 -0.14239894 0.031669494 6.0794493e-39
-0.057685755 -0.14153777 0.03465521 7.7396923e-39
-0.055930503 -0.14153777 0.03465521 9.7690864e-39
-0.054453544 -0.1432652 0.028666016 1.0598861e-38
-0.052687794 -0.1432652 0.028666016 1.2443514e-38
-0.050922044 -0.1432652 0.028666016 1.3181443e-38
-0.049401857 -0.14498411 0.022706386 1.401228e-38
-0.047505766 -0.14410757 0.025745507 1.5026783e-38
-0.045624807 -0.1432652 0.028666016 2.1112397e-38
-0.043751106 -0.14239894 0.031669494 2.0097521e-38
-0.04199063 -0.14239894 0.031669494 1.9544347e-38
-0.040230148 -0.14239894 0.031669494 1.7053997e-38
-0.038469672 -0.14239894 0.031669494 2.2400642e-38
-0.036709189 -0.14239894 0.031669494 2.3509161e-38
-0.035030335 -0.1432652 0.028666016 2.3509524e-38
-0.0334161 -0.14498411 0.022706386 2.3417333e-38
-0.031712279 -0.14586596 0.019648906 2.3233662e-38
-0.02993072 -0.14586596 0.019648906 2.2589737e-38
-0.028149163 -0.14586596 0.019648906 2.2499695e-38
-0.026311321 -0.14498411 0.022706386 1.8258699e-38
-0.024535125 -0.14498411 0.022706386 1.189649e-38
-0.022758929 -0.14498411 0.022706386 6.9161254e-39
-0.020982733 -0.14498411 0.022706386 7.1905403e-39
-0.019206537 -0.14498411 0.022706386 1.391936e-38
-0.017430345 -0.14498411 0.022706386 1.6224222e-38
-0.015654149 -0.14498411 0.022706386 2.3045612e-38
-0.013896717 -0.14586596 0.019648906 2.3509488e-38
-0.012101758 -0.14498411 0.022706386 2.3509485e-38
-0.010325562 -0.14498411 0.022706386 1.7698259e-38
-0.008549368 -0.14498411 0.022706386 6.0819787e-39
-0.0067731719 -0.14498411 0.022706386 9.1943116e-40
-0.0049969777 -0.14498411 0.022706386 9.1871369e-40
-0.00320738 -0.14586596 0.019648906 3.4054551e-39
-0.0014258241 -0.14586596 0.019648906 1.2899436e-38
0.00040278491 -0.14758603 0.013685223 1.2527765e-38
0.0022238074 -0.14845367 0.010676976 8.7455836e-39
0.0040210942 -0.14845367 0.010676976 1.049694e-38
0.005818381 -0.14845367 0.010676976 1.704284e-38
0.0076156678 -0.14845367 0.010676976 1.7965166e-38
0.0094129536 -0.14845367 0.010676976 1.7781862e-38
0.01121024 -0.14845367 0.010676976 1.4371711e-38
0.013007527 -0.14845367 0.010676976 5.5227288e-39
0.014804814 -0.14845367 0.010676976 2.6646643e-39
0.016602101 -0.14845367 0.010676976 3.5873269e-39
0.018322907 -0.14758603 0.013685223 8.5662412e-39
0.020114921 -0.14758603 0.013685223 7.9223137e-39
0.021906933 -0.14758603 0.013685223 1.8392211e-39
-0.072878338 -0.14851023 0.016675826 1.5672869e-38
-0.070906512 -0.14764751 0.019648906 1.6041287e-38
-0.068940006 -0.1467603 0.022706386 1.3643475e-38
-0.066985302 -0.14587842 0.025745507 1.133822e-38
-0.065214433 -0.14587842 0.025745507 9.0318871e-39
-0.063282274 -0.14503096 0.028666016 8.4758336e-39
-0.061516523 -0.14503096 0.028666016 8.5665873e-39
-0.059595428 -0.14415942 0.031669494 4.7876427e-39
-0.057834946 -0.14415942 0.031669494 1.7466681e-39
-0.056074463 -0.14415942 0.031669494 4.051528e-39
-0.054453544 -0.14503096 0.028666016 1.4009027e-38
-0.052687794 -0.14503096 0.028666016 1.6683439e-38
-0.050922044 -0.14503096 0.028666016 1.6868196e-38
-0.049276635 -0.14587842 0.025745507 1.4840964e-38
-0.047505766 -0.14587842 0.025745507 1.5763269e-38
-0.045624807 -0.14503096 0.028666016 1.9175567e-38
-0.043751106 -0.14415942 0.031669494 1.871422e-38
-0.04199063 -0.14415942 0.031669494 1.7054698e-38
-0.040230148 -0.14415942 0.031669494 8.7563764e-39
-0.038469672 -0.14415942 0.031669494 1.216691e-38
-0.036709189 -0.14415942 0.031669494 2.3509507e-38
-0.035030335 -0.14503096 0.028666016 2.3509879e-38
-0.0334161 -0.1467603 0.022706386 2.2772688e-38
-0.031639904 -0.1467603 0.022706386 2.3233662e-38
-0.02986371 -0.1467603 0.022706386 2.3142185e-38
-0.028087517 -0.1467603 0.022706386 2.2775202e-38
-0.026311321 -0.1467603 0.022706386 2.1023841e-38
-0.024535125 -0.1467603 0.022706386 1.3646041e-38
-0.022713637 -0.14587842 0.025745507 4.9778508e-39
-0.020942768 -0.14587842 0.025745507 4.8834831e-39
-0.019171903 -0.14587842 0.025745507 7.7404462e-39
-0.017401036 -0.14587842 0.025745507 7.5549451e-39
-0.015654149 -0.1467603 0.022706386 1.0412644e-38
-0.013877952 -0.1467603 0.022706386 1.3270362e-38
-0.012101758 -0.1467603 0.022706386 1.6497209e-38
-0.01031757 -0.14587842 0.025745507 1.5207534e-38
-0.0085467026 -0.14587842 0.025745507 8.756005e-39
-0.0067758374 -0.14587842 0.025745507 3.6770072e-40
-0.0049969777 -0.1467603 0.022706386 1.5655194e-39
-0.0032207817 -0.1467603 0.022706386 3.3143483e-39
-0.0014445875 -0.1467603 0.022706386 1.0503438e-38
0.00037918985 -0.14851023 0.016675826 1.0131766e-38
0.0021947976 -0.14937802 0.013685223 8.9314196e-39
0.0039868103 -0.14937802 0.013685223 8.284611e-39
-0.070906512 -0.14942907 0.019648906 1.4750545e-38
-0.068940006 -0.14853649 0.022706386 1.1061994e-38
