# .PCD v0.7 - Point Cloud Data file format
VERSION 0.7
FIELDS x y z rgb
SIZE 4 4 4 4
TYPE F F F F
COUNT 1 1 1 1
WIDTH 935
HEIGHT 1
VIEWPOINT 0 0 0 1 0 0 0
POINTS 935
DATA ascii
0.063754223 -0.13087155 -0.035702031 9.2235189e-39
0.065665364 -0.13087155 -0.035702031 3.1411114e-39
0.067576513 -0.13087155 -0.035702031 4.4322047e-39
-0.026911337 -0.12431435 -0.0027337484 1.418079e-38
-0.025057998 -0.12431435 -0.0027337484 1.0859575e-38
-0.023204658 -0.12431435 -0.0027337484 1.2151393e-38
-0.021351319 -0.12431435 -0.0027337484 1.2985847e-38
-0.015726019 -0.1235493 0.00024469569 1.8431122e-38
-0.013937954 -0.12431435 -0.0027337484 1.8155262e-38
-0.012195218 -0.12585752 -0.008741539 1.6680859e-38
-0.010331344 -0.12585752 -0.008741539 1.437598e-38
-0.0084674694 -0.12585752 -0.008741539 1.3086323e-38
-0.0066035986 -0.12585752 -0.008741539 1.5945099e-38
-0.0047397241 -0.12585752 -0.008741539 1.686813e-38
-0.0029148422 -0.1268961 -0.01278488 1.3640927e-38
-0.0010438785 -0.1268961 -0.01278488 1.1942202e-39
0.00082708523 -0.1268961 -0.01278488 1.2856969e-39
0.0026980489 -0.1268961 -0.01278488 1.7463094e-39
0.0045612808 -0.12765111 -0.015724223 2.4838632e-39
0.0064399745 -0.1268961 -0.01278488 1.161192e-38
0.0083109383 -0.1268961 -0.01278488 1.2905529e-38
0.010181902 -0.1268961 -0.01278488 1.1800267e-38
0.012079204 -0.12843956 -0.018793743 9.6794369e-39
0.013960702 -0.12843956 -0.018793743 5.7150276e-39
0.015842201 -0.12843956 -0.018793743 4.4239091e-39
0.017723698 -0.12843956 -0.018793743 8.1113587e-39
0.019605197 -0.12843956 -0.018793743 1.511534e-38
0.021539368 -0.1294684 -0.022799056 1.8800983e-38
0.023427889 -0.1294684 -0.022799056 1.6863758e-38
0.025249695 -0.12843956 -0.018793743 2.1380268e-38
0.027131192 -0.12843956 -0.018793743 2.35019e-38
0.029093452 -0.1294684 -0.022799056 2.3499754e-38
0.030981975 -0.1294684 -0.022799056 2.2765774e-38
0.032941386 -0.13023765 -0.025793951 2.341402e-38
0.034759015 -0.1294684 -0.022799056 2.0467005e-38
0.036647536 -0.1294684 -0.022799056 1.5214375e-38
0.0386227 -0.13023765 -0.025793951 1.2819447e-38
0.040516473 -0.13023765 -0.025793951 1.1990052e-38
0.042183183 -0.12843956 -0.018793743 1.0237629e-38
0.043959737 -0.12765111 -0.015724223 1.2010389e-39
0.045835853 -0.12765111 -0.015724223 2.9506231e-39
0.047978666 -0.1294684 -0.022799056 2.3963703e-39
0.049867187 -0.1294684 -0.022799056 4.2398976e-39
0.051879108 -0.13023765 -0.025793951 1.2720805e-38
0.053772882 -0.13023765 -0.025793951 1.5392329e-38
0.055666655 -0.13023765 -0.025793951 1.4562571e-38
0.057743564 -0.1312501 -0.029735487 8.3865401e-39
0.059931934 -0.13278268 -0.035702031 1.0876907e-38
0.061843079 -0.13278268 -0.035702031 1.5304828e-38
0.063754223 -0.13278268 -0.035702031 1.4754538e-38
0.065665364 -0.13278268 -0.035702031 8.1186076e-39
0.067576513 -0.13278268 -0.035702031 6.5516378e-39
-0.028867088 -0.12694232 -0.0057291202 2.0085261e-38
-0.026911337 -0.12616767 -0.0027337484 1.3073352e-38
-0.025057998 -0.12616767 -0.0027337484 1.2515857e-38
-0.023204658 -0.12616767 -0.0027337484 1.0673752e-38
-0.021270376 -0.1253974 0.00024469569 1.5290383e-38
-0.019422255 -0.1253974 0.00024469569 2.3502991e-38
-0.017574135 -0.1253974 0.00024469569 2.350621e-38
-0.015726019 -0.1253974 0.00024469569 2.3505481e-38
-0.013937954 -0.12616767 -0.0027337484 2.3509807e-38
-0.01213976 -0.12694232 -0.0057291202 2.3509097e-38
-0.010281168 -0.12694232 -0.0057291202 2.3320403e-38
-0.0084674694 -0.12772138 -0.008741539 2.3413684e-38
-0.0066035986 -0.12772138 -0.008741539 2.3506954e-38
-0.0047397241 -0.12772138 -0.008741539 2.3508389e-38
-0.0028758496 -0.12772138 -0.008741539 2.0742513e-38
-0.0010119751 -0.12772138 -0.008741539 6.5447491e-39
0.00082708523 -0.12876706 -0.01278488 7.8344173e-39
0.0026980489 -0.12876706 -0.01278488 1.6223871e-38
0.0045690108 -0.12876706 -0.01278488 1.6407912e-38
0.0064399745 -0.12876706 -0.01278488 1.355056e-38
0.0083109383 -0.12876706 -0.01278488 1.5487722e-38
0.010181902 -0.12876706 -0.01278488 1.6410398e-38
0.01206575 -0.12952723 -0.015724223 1.3552002e-38
0.013941865 -0.12952723 -0.015724223 8.666001e-39
0.015794791 -0.12876706 -0.01278488 3.0424194e-39
0.017665755 -0.12876706 -0.01278488 2.028273e-39
0.019570217 -0.12952723 -0.015724223 1.1430752e-38
0.021486696 -0.13032107 -0.018793743 2.3414721e-38
0.023368197 -0.13032107 -0.018793743 2.2031029e-38
0.025198566 -0.12952723 -0.015724223 2.2582059e-38
0.027074683 -0.12952723 -0.015724223 2.350444e-38
0.029012691 -0.13032107 -0.018793743 2.3506985e-38
0.03089419 -0.13032107 -0.018793743 2.3506239e-38
0.032870494 -0.13135691 -0.022799056 2.3231805e-38
0.034657188 -0.13032107 -0.018793743 2.2127264e-38
0.036538687 -0.13032107 -0.018793743 1.9731975e-38
0.038536057 -0.13135691 -0.022799056 1.7519632e-38
0.040424582 -0.13135691 -0.022799056 1.7243764e-38
0.042183183 -0.13032107 -0.018793743 1.5768276e-38
0.043959737 -0.12952723 -0.015724223 2.3992079e-39
0.045835853 -0.12952723 -0.015724223 3.9647638e-39
0.047978666 -0.13135691 -0.022799056 6.0834696e-39
0.049867187 -0.13135691 -0.022799056 5.4373617e-39
0.051755708 -0.13135691 -0.022799056 7.6493296e-39
0.053644232 -0.13135691 -0.022799056 1.3363661e-38
0.055532753 -0.13135691 -0.022799056 1.5760749e-38
0.057743564 -0.13315077 -0.029735487 1.2165129e-38
0.059790518 -0.13393532 -0.032769125 1.0138268e-38
0.061696522 -0.13393532 -0.032769125 1.6962903e-38
0.063602522 -0.13393532 -0.032769125 2.0836926e-38
0.065665364 -0.13469382 -0.035702031 1.4201731e-38
0.067576513 -0.13469382 -0.035702031 6.0885157e-39
-0.045093302 -0.12618984 0.004299242 1.2074728e-38
-0.043252293 -0.12618984 0.004299242 1.2813001e-38
-0.041274723 -0.12542458 0.0072383471 1.8806785e-38
-0.03943887 -0.12542458 0.0072383471 1.7886616e-38
-0.037603009 -0.12542458 0.0072383471 1.4661201e-38
-0.035888251 -0.12618984 0.004299242 6.7323745e-39
-0.03072568 -0.12880091 -0.0057291202 1.9631474e-38
-0.028867088 -0.12880091 -0.0057291202 2.1561822e-38
-0.026911337 -0.12802102 -0.0027337484 1.5932493e-38
-0.025057998 -0.12802102 -0.0027337484 1.2792094e-38
-0.023118492 -0.12724553 0.00024469569 1.1687555e-38
-0.021270376 -0.12724553 0.00024469569 1.5199283e-38
-0.019422255 -0.12724553 0.00024469569 2.3507691e-38
-0.017574135 -0.12724553 0.00024469569 2.3508759e-38
-0.015726019 -0.12724553 0.00024469569 2.3504426e-38
-0.013877902 -0.12724553 0.00024469569 2.3508746e-38
-0.012084614 -0.12802102 -0.0027337484 2.3509837e-38
-0.010231275 -0.12802102 -0.0027337484 2.350841e-38
-0.0084225759 -0.12880091 -0.0057291202 2.3509502e-38
-0.0065639839 -0.12880091 -0.0057291202 2.3509146e-38
-0.0047053918 -0.12880091 -0.0057291202 2.3509866e-38
-0.0028467998 -0.12880091 -0.0057291202 2.3509852e-38
-0.00098820776 -0.12880091 -0.0057291202 1.7148351e-38
0.00082708523 -0.13063805 -0.01278488 1.512077e-38
0.0026980489 -0.13063805 -0.01278488 2.0928746e-38
0.0045796447 -0.12958528 -0.008741539 2.1942197e-38
0.0064435191 -0.12958528 -0.008741539 1.7331688e-38
0.0083073936 -0.12958528 -0.008741539 1.3736022e-38
0.010171268 -0.12958528 -0.008741539 2.2403116e-38
0.012052864 -0.13063805 -0.01278488 2.1389687e-38
0.013923828 -0.13063805 -0.01278488 1.7426368e-38
0.015794791 -0.13063805 -0.01278488 8.9433138e-39
0.017665755 -0.13063805 -0.01278488 2.9509496e-39
0.019536717 -0.13063805 -0.01278488 8.0223889e-39
0.021446332 -0.13140334 -0.015724223 2.2865145e-38
0.02332245 -0.13140334 -0.015724223 2.3509804e-38
0.025149606 -0.13063805 -0.01278488 2.3507292e-38
0.02702057 -0.13063805 -0.01278488 2.3506618e-38
0.028891534 -0.13063805 -0.01278488 2.3508793e-38
0.030762497 -0.13063805 -0.01278488 2.3509139e-38
0.032703035 -0.13140334 -0.015724223 2.3232909e-38
0.034504421 -0.13063805 -0.01278488 2.3326196e-38
0.036375389 -0.13063805 -0.01278488 2.2958129e-38
0.038420185 -0.13220255 -0.018793743 2.0099684e-38
0.040424582 -0.13324542 -0.022799056 1.8163203e-38
0.042183183 -0.13220255 -0.018793743 1.779585e-38
0.044064682 -0.13220255 -0.018793743 4.7037217e-39
0.045946181 -0.13220255 -0.018793743 3.9636708e-39
0.04782768 -0.13220255 -0.018793743 6.9128632e-39
0.049709179 -0.13220255 -0.018793743 7.8337321e-39
0.051755708 -0.13324542 -0.022799056 7.8322845e-39
0.053644232 -0.13324542 -0.022799056 1.4377087e-38
0.055532753 -0.13324542 -0.022799056 1.6128807e-38
0.057560425 -0.1340252 -0.025793951 1.5758965e-38
0.059644245 -0.13505147 -0.029735487 1.0136829e-38
0.061696522 -0.13584132 -0.032769125 1.5855821e-38
0.063602522 -0.13584132 -0.032769125 2.1666314e-38
0.065665364 -0.13660498 -0.035702031 1.8808646e-38
0.067576513 -0.13660498 -0.035702031 7.1923605e-39
-0.047144022 -0.12909363 0.00024469569 7.8359097e-39
-0.045295905 -0.12909363 0.00024469569 6.3578957e-39
-0.043110576 -0.12726043 0.0072383471 9.2145029e-39
-0.041274723 -0.12726043 0.0072383471 1.9909176e-38
-0.03943887 -0.12726043 0.0072383471 2.2214772e-38
-0.037603009 -0.12726043 0.0072383471 2.046485e-38
-0.035888251 -0.12803085 0.004299242 1.7516032e-38
-0.034047246 -0.12803085 0.004299242 5.7153513e-39
-0.032206237 -0.12803085 0.004299242 7.1897527e-39
-0.03072568 -0.13065951 -0.0057291202 1.5760345e-38
-0.028867088 -0.13065951 -0.0057291202 1.8614085e-38
-0.026911337 -0.12987436 -0.0027337484 1.9806876e-38
-0.025057998 -0.12987436 -0.0027337484 1.814269e-38
-0.023118492 -0.12909363 0.00024469569 1.2796435e-38
-0.021160182 -0.12803085 0.004299242 1.4003621e-38
-0.019319173 -0.12803085 0.004299242 2.3507693e-38
-0.017478164 -0.12803085 0.004299242 2.3509139e-38
-0.015637156 -0.12803085 0.004299242 2.3508774e-38
-0.013877902 -0.12909363 0.00024469569 2.3509848e-38
-0.012029782 -0.12909363 0.00024469569 2.3509846e-38
-0.010231275 -0.12987436 -0.0027337484 2.2678647e-38
-0.0083779357 -0.12987436 -0.0027337484 2.2955605e-38
-0.0065639839 -0.13065951 -0.0057291202 2.3047817e-38
-0.0047053918 -0.13065951 -0.0057291202 2.350988e-38
-0.0028467998 -0.13065951 -0.0057291202 2.3049612e-38
-0.00096457452 -0.12987436 -0.0027337484 2.3509869e-38
0.00088876486 -0.12987436 -0.0027337484 2.3418028e-38
0.0027289763 -0.13065951 -0.0057291202 2.3142524e-38
0.0045796447 -0.13144915 -0.008741539 2.2864882e-38
0.0064435191 -0.13144915 -0.008741539 2.111208e-38
0.0083073936 -0.13144915 -0.008741539 1.5302646e-38
0.010171268 -0.13144915 -0.008741539 2.2678631e-38
0.012035141 -0.13144915 -0.008741539 1.9361009e-38
0.013899015 -0.13144915 -0.008741539 1.8716377e-38
0.015794791 -0.13250901 -0.01278488 1.3183609e-38
0.017626762 -0.13144915 -0.008741539 5.4398939e-39
0.019490637 -0.13144915 -0.008741539 7.9316338e-39
0.021354511 -0.13144915 -0.008741539 2.3509811e-38
0.023218384 -0.13144915 -0.008741539 2.350983e-38
0.025149606 -0.13250901 -0.01278488 2.3508407e-38
0.026946133 -0.13144915 -0.008741539 2.3508428e-38
0.028810006 -0.13144915 -0.008741539 2.3509517e-38
0.03067388 -0.13144915 -0.008741539 2.3509873e-38
0.032537755 -0.13144915 -0.008741539 2.3509879e-38
0.034401625 -0.13144915 -0.008741539 2.341805e-38
0.036375389 -0.13250901 -0.01278488 2.350988e-38
0.038420185 -0.13408406 -0.018793743 2.3509856e-38
0.040301684 -0.13408406 -0.018793743 1.8991525e-38
0.042083617 -0.13327946 -0.015724223 1.9453205e-38
0.043959737 -0.13327946 -0.015724223 1.1432913e-38
0.045835853 -0.13327946 -0.015724223 8.7578323e-39
0.04782768 -0.13408406 -0.018793743 9.4936149e-39
0.049709179 -0.13408406 -0.018793743 1.1152057e-38
0.051755708 -0.13513394 -0.022799056 1.1796336e-38
0.053644232 -0.13513394 -0.022799056 1.3271091e-38
0.055532753 -0.13513394 -0.022799056 1.566746e-38
0.057421274 -0.13513394 -0.022799056 1.6403974e-38
0.059454199 -0.13591899 -0.025793951 7.3695183e-39
0.061198317 -0.13513394 -0.022799056 1.0784683e-38
0.063086838 -0.13513394 -0.022799056 2.1019128e-38
0.064975359 -0.13513394 -0.022799056 2.2402473e-38
0.06686388 -0.13513394 -0.022799056 9.7720459e-39
-0.048992138 -0.13094176 0.00024469569 9.689906e-39
-0.047144022 -0.13094176 0.00024469569 6.6409846e-39
-0.045295905 -0.13094176 0.00024469569 5.7132662e-39
-0.043110576 -0.12909628 0.0072383471 8.8432163e-39
-0.041133914 -0.1282966 0.010268886 2.018074e-38
-0.039303374 -0.1282966 0.010268886 2.3500482e-38
-0.037472825 -0.1282966 0.010268886 2.3501559e-38
-0.035767157 -0.12909628 0.0072383471 2.1106641e-38
-0.0339313 -0.12909628 0.0072383471 7.463488e-39
-0.032206237 -0.12987186 0.004299242 4.1465949e-39
-0.030365229 -0.12987186 0.004299242 8.9396802e-39
-0.028662845 -0.13094176 0.00024469569 1.6773422e-38
-0.026814725 -0.13094176 0.00024469569 2.3038772e-38
-0.024966609 -0.13094176 0.00024469569 1.9991661e-38
-0.023118492 -0.13094176 0.00024469569 1.5291124e-38
-0.021160182 -0.12987186 0.004299242 1.2441319e-38
-0.019319173 -0.12987186 0.004299242 2.2586084e-38
-0.017478164 -0.12987186 0.004299242 2.3509153e-38
-0.015637156 -0.12987186 0.004299242 2.3508797e-38
-0.013877902 -0.13094176 0.00024469569 2.3509863e-38
-0.012029782 -0.13094176 0.00024469569 2.3418007e-38
-0.010181665 -0.13094176 0.00024469569 2.1851028e-38
-0.0083779357 -0.13172771 -0.0027337484 2.1390778e-38
-0.0065245964 -0.13172771 -0.0027337484 2.1574834e-38
-0.0047053918 -0.1325181 -0.0057291202 2.3509879e-38
-0.0028179139 -0.13172771 -0.0027337484 2.3418045e-38
-0.00096457452 -0.13172771 -0.0027337484 2.268119e-38
0.00088876486 -0.13172771 -0.0027337484 2.3418025e-38
0.0027421061 -0.13172771 -0.0027337484 2.3418028e-38
0.0045875683 -0.1325181 -0.0057291202 2.2773391e-38
0.0064461604 -0.1325181 -0.0057291202 1.8530956e-38
0.0083047524 -0.1325181 -0.0057291202 1.5393056e-38
0.010163344 -0.1325181 -0.0057291202 2.0002813e-38
0.012021936 -0.1325181 -0.0057291202 1.7423819e-38
0.013899015 -0.13331302 -0.008741539 2.0743242e-38
0.015762888 -0.13331302 -0.008741539 1.917455e-38
0.017626762 -0.13331302 -0.008741539 9.4950849e-39
0.019490637 -0.13331302 -0.008741539 9.4067695e-39
0.021354511 -0.13331302 -0.008741539 2.2038273e-38
0.023218384 -0.13331302 -0.008741539 2.3509859e-38
0.025082259 -0.13331302 -0.008741539 2.350988e-38
0.026946133 -0.13331302 -0.008741539 2.350988e-38
0.028749265 -0.1325181 -0.0057291202 2.3325129e-38
0.030607859 -0.1325181 -0.0057291202 2.3509167e-38
0.032537755 -0.13331302 -0.008741539 2.3509527e-38
0.034401625 -0.13331302 -0.008741539 2.2956003e-38
0.036375389 -0.13437997 -0.01278488 2.2587216e-38
0.038246349 -0.13437997 -0.01278488 2.3506623e-38
0.040207502 -0.13515557 -0.015724223 2.018791e-38
0.042083617 -0.13515557 -0.015724223 2.0189685e-38
0.043959737 -0.13515557 -0.015724223 1.3828909e-38
0.045835853 -0.13515557 -0.015724223 1.0416265e-38
0.047711968 -0.13515557 -0.015724223 1.0323011e-38
0.049588084 -0.13515557 -0.015724223 1.0414492e-38
0.051590677 -0.13596557 -0.018793743 8.4772938e-39
0.053472176 -0.13596557 -0.018793743 1.0136428e-38
0.055353675 -0.13596557 -0.018793743 1.4745492e-38
0.057235174 -0.13596557 -0.018793743 1.6680197e-38
0.059309795 -0.13702248 -0.022799056 8.8442812e-39
0.061198317 -0.13702248 -0.022799056 1.0230769e-38
0.063086838 -0.13702248 -0.022799056 2.1664116e-38
0.064975359 -0.13702248 -0.022799056 2.2399948e-38
-0.04693431 -0.13171287 0.004299242 6.2747315e-39
-0.045093302 -0.13171287 0.004299242 6.820704e-39
-0.043110576 -0.13093217 0.0072383471 7.8283539e-39
-0.041133914 -0.13012715 0.010268886 1.7597468e-38
-0.039303374 -0.13012715 0.010268886 2.2575294e-38
-0.037472825 -0.13012715 0.010268886 2.3506248e-38
-0.035642292 -0.13012715 0.010268886 2.3508058e-38
-0.0339313 -0.13093217 0.0072383471 9.4914415e-39
-0.032095443 -0.13093217 0.0072383471 5.0685624e-39
-0.030259587 -0.13093217 0.0072383471 5.6220879e-39
-0.02852422 -0.13171287 0.004299242 1.2074692e-38
-0.026683211 -0.13171287 0.004299242 2.322749e-38
-0.024842203 -0.13171287 0.004299242 2.2670024e-38
-0.02300119 -0.13171287 0.004299242 1.686314e-38
-0.021160182 -0.13171287 0.004299242 1.5302985e-38
-0.019319173 -0.13171287 0.004299242 2.3509846e-38
-0.017478164 -0.13171287 0.004299242 2.3509879e-38
-0.015637156 -0.13171287 0.004299242 2.3140387e-38
-0.013877902 -0.13278987 0.00024469569 2.3141089e-38
-0.012029782 -0.13278987 0.00024469569 2.3418022e-38
-0.010181665 -0.13278987 0.00024469569 2.3234327e-38
-0.0083335452 -0.13278987 0.00024469569 2.3509838e-38
-0.0064854287 -0.13278987 0.00024469569 2.350986e-38
-0.0046373121 -0.13278987 0.00024469569 2.21273e-38
-0.0027891919 -0.13278987 0.00024469569 2.3509883e-38
-0.00096457452 -0.13358103 -0.0027337484 2.3509879e-38
0.00088876486 -0.13358103 -0.0027337484 2.249679e-38
0.0027421061 -0.13358103 -0.0027337484 1.7057242e-38
0.0045954455 -0.13358103 -0.0027337484 1.8071044e-38
0.0064487867 -0.13358103 -0.0027337484 1.7884496e-38
0.0083047524 -0.13437669 -0.0057291202 1.9171637e-38
0.010155467 -0.13358103 -0.0027337484 2.3509136e-38
0.012008807 -0.13358103 -0.0027337484 2.350982e-38
0.013862147 -0.13358103 -0.0027337484 2.3509841e-38
0.015739121 -0.13437669 -0.0057291202 2.350594e-38
0.017597713 -0.13437669 -0.0057291202 1.4287105e-38
0.019456305 -0.13437669 -0.0057291202 1.4568653e-38
0.021314897 -0.13437669 -0.0057291202 2.286696e-38
0.023173489 -0.13437669 -0.0057291202 2.3233985e-38
0.025082259 -0.13517688 -0.008741539 2.350988e-38
0.026890673 -0.13437669 -0.0057291202 2.3416974e-38
0.028749265 -0.13437669 -0.0057291202 2.3048194e-38
0.030607859 -0.13437669 -0.0057291202 2.3509524e-38
0.032466449 -0.13437669 -0.0057291202 2.3509524e-38
0.034401625 -0.13517688 -0.008741539 2.3508809e-38
0.036375389 -0.13625093 -0.01278488 2.3508807e-38
0.038246349 -0.13625093 -0.01278488 2.3508063e-38
0.040117312 -0.13625093 -0.01278488 2.04627e-38
0.042083617 -0.13703169 -0.015724223 2.0096405e-38
0.043959737 -0.13703169 -0.015724223 1.7330899e-38
0.045835853 -0.13703169 -0.015724223 1.2259813e-38
0.047711968 -0.13703169 -0.015724223 7.373107e-39
0.049588084 -0.13703169 -0.015724223 6.9110583e-39
0.051590677 -0.13784705 -0.018793743 8.4772938e-39
0.053472176 -0.13784705 -0.018793743 8.2925102e-39
0.055353675 -0.13784705 -0.018793743 1.1518997e-38
0.057235174 -0.13784705 -0.018793743 1.3083838e-38
0.059309795 -0.13891099 -0.022799056 9.9506176e-39
0.060998172 -0.13784705 -0.018793743 1.087576e-38
0.062879667 -0.13784705 -0.018793743 2.1202398e-38
0.064761169 -0.13784705 -0.018793743 2.1201031e-38
-0.048618149 -0.13276802 0.0072383471 5.1788054e-39
-0.04693431 -0.13355388 0.004299242 7.1977696e-39
-0.045093302 -0.13355388 0.004299242 7.0987286e-39
-0.043110576 -0.13276802 0.0072383471 7.8297916e-39
-0.041133914 -0.13195769 0.010268886 1.1883137e-38
-0.039303374 -0.13195769 0.010268886 1.9165853e-38
-0.037472825 -0.13195769 0.010268886 2.3506246e-38
-0.035642292 -0.13195769 0.010268886 2.350878e-38
-0.033811744 -0.13195769 0.010268886 1.0876537e-38
-0.031867616 -0.13115202 0.01328202 3.3190062e-39
-0.030042358 -0.13115202 0.01328202 3.0438501e-39
-0.028320119 -0.13195769 0.010268886 9.9570748e-39
-0.026587877 -0.13276802 0.0072383471 2.350804e-38
-0.024752021 -0.13276802 0.0072383471 2.3508431e-38
-0.02300119 -0.13355388 0.004299242 2.3505914e-38
-0.021080311 -0.13276802 0.0072383471 2.0929097e-38
-0.019244451 -0.13276802 0.0072383471 2.2498583e-38
-0.017408598 -0.13276802 0.0072383471 2.3234374e-38
-0.015572742 -0.13276802 0.0072383471 2.2588292e-38
-0.013796147 -0.13355388 0.004299242 2.3418047e-38
-0.011955138 -0.13355388 0.004299242 2.3418033e-38
-0.01011413 -0.13355388 0.004299242 2.185177e-38
-0.0083335452 -0.134638 0.00024469569 2.3509853e-38
-0.0064854287 -0.134638 0.00024469569 2.3141794e-38
-0.0046373121 -0.134638 0.00024469569 2.350987e-38
-0.0027891919 -0.134638 0.00024469569 2.3509521e-38
-0.00094107538 -0.134638 0.00024469569 2.3509521e-38
0.00088876486 -0.13543437 -0.0027337484 2.3509517e-38
0.0027421061 -0.13543437 -0.0027337484 1.7239125e-38
0.0046032798 -0.134638 0.00024469569 1.7239481e-38
0.0064513981 -0.134638 0.00024469569 1.8436578e-38
0.0083021261 -0.13543437 -0.0027337484 2.0000657e-38
0.010147633 -0.134638 0.00024469569 2.350877e-38
0.011995751 -0.134638 0.00024469569 2.3509123e-38
0.013862147 -0.13543437 -0.0027337484 2.350806e-38
0.015715487 -0.13543437 -0.0027337484 2.3507016e-38
0.017568827 -0.13543437 -0.0027337484 1.4377846e-38
0.019456305 -0.13623528 -0.0057291202 1.1154542e-38
0.021275509 -0.13543437 -0.0027337484 1.9362086e-38
0.023128849 -0.13543437 -0.0027337484 2.3509821e-38
0.024982188 -0.13543437 -0.0027337484 2.3418007e-38
0.026890673 -0.13623528 -0.0057291202 2.2770177e-38
0.028749265 -0.13623528 -0.0057291202 2.3508092e-38
0.030607859 -0.13623528 -0.0057291202 2.3508431e-38
0.032466449 -0.13623528 -0.0057291202 2.3507691e-38
0.034325041 -0.13623528 -0.0057291202 2.3509502e-38
0.0362655 -0.13704078 -0.008741539 2.35059e-38
0.038246349 -0.13812189 -0.01278488 2.3508777e-38
0.039993249 -0.13704078 -0.008741539 2.1106989e-38
0.041857123 -0.13704078 -0.008741539 2.092509e-38
0.04385924 -0.13812189 -0.01278488 1.9081899e-38
0.045730203 -0.13812189 -0.01278488 1.4564704e-38
0.047711968 -0.13890781 -0.015724223 6.1745638e-39
0.049709179 -0.13972856 -0.018793743 6.726667e-39
0.051590677 -0.13972856 -0.018793743 8.1092287e-39
0.053644232 -0.14079951 -0.022799056 8.8467559e-39
0.055532753 -0.14079951 -0.022799056 1.0873979e-38
0.057421274 -0.14079951 -0.022799056 1.2807603e-38
0.059309795 -0.14079951 -0.022799056 1.1702681e-38
0.060998172 -0.13972856 -0.018793743 1.1705507e-38
0.062879667 -0.13972856 -0.018793743 2.0556653e-38
0.064761169 -0.13972856 -0.018793743 2.1569073e-38
0.066310793 -0.13812189 -0.01278488 1.5300521e-38
-0.048618149 -0.13460387 0.0072383471 4.439434e-39
-0.046782289 -0.13460387 0.0072383471 6.3679977e-39
-0.044946436 -0.13460387 0.0072383471 8.7593219e-39
-0.043110576 -0.13460387 0.0072383471 8.1092512e-39
-0.041133914 -0.13378824 0.010268886 9.8587877e-39
-0.039303374 -0.13378824 0.010268886 1.5850408e-38
-0.037472825 -0.13378824 0.010268886 2.3509482e-38
-0.035642292 -0.13378824 0.010268886 2.33233e-38
-0.033692878 -0.13297729 0.01328202 1.3276857e-38
-0.031867616 -0.13297729 0.01328202 5.627134e-39
-0.030042358 -0.13297729 0.01328202 4.1530745e-39
-0.028114676 -0.13217102 0.016277749 1.0881192e-38
-0.026294667 -0.13217102 0.016277749 2.3509842e-38
-0.024659034 -0.13378824 0.010268886 2.3509149e-38
-0.022916164 -0.13460387 0.0072383471 2.35088e-38
-0.020997949 -0.13378824 0.010268886 2.2864865e-38
-0.019167405 -0.13378824 0.010268886 2.3234369e-38
-0.017336864 -0.13378824 0.010268886 2.2221294e-38
-0.015506323 -0.13378824 0.010268886 2.3418043e-38
-0.013736885 -0.13460387 0.0072383471 2.2956709e-38
-0.011901032 -0.13460387 0.0072383471 2.3509883e-38
-0.01011413 -0.13539489 0.004299242 2.350988e-38
-0.008273121 -0.13539489 0.004299242 2.2955622e-38
-0.0064321123 -0.13539489 0.004299242 2.3509869e-38
-0.0045911036 -0.13539489 0.004299242 2.3509869e-38
-0.0027500931 -0.13539489 0.004299242 2.3138574e-38
-0.00090908445 -0.13539489 0.004299242 2.3508807e-38
0.00093192421 -0.13539489 0.004299242 2.3321538e-38
0.0027729347 -0.13539489 0.004299242 1.7697958e-38
0.0046032798 -0.13648613 0.00024469569 1.4379622e-38
0.0064513981 -0.13648613 0.00024469569 1.3733159e-38
0.0083021261 -0.13728772 -0.0027337484 1.4468552e-38
0.010147633 -0.13648613 0.00024469569 1.7325172e-38
0.011995751 -0.13648613 0.00024469569 1.916909e-38
0.013862147 -0.13728772 -0.0027337484 2.045984e-38
0.015715487 -0.13728772 -0.0027337484 2.1750956e-38
0.017568827 -0.13728772 -0.0027337484 1.3177476e-38
0.019422168 -0.13728772 -0.0027337484 8.1092091e-39
0.021275509 -0.13728772 -0.0027337484 8.9418214e-39
0.02308446 -0.13648613 0.00024469569 2.0652083e-38
0.024932578 -0.13648613 0.00024469569 2.3509814e-38
0.026780695 -0.13648613 0.00024469569 2.3508809e-38
0.028688869 -0.13728772 -0.0027337484 2.3508092e-38
0.03054221 -0.13728772 -0.0027337484 2.3509119e-38
0.032395549 -0.13728772 -0.0027337484 2.3509092e-38
0.034248888 -0.13728772 -0.0027337484 2.3509467e-38
0.036183633 -0.13809387 -0.0057291202 2.1290302e-38
0.038246349 -0.13999285 -0.01278488 2.1750565e-38
0.039993249 -0.13890465 -0.008741539 1.9170158e-38
0.041857123 -0.13890465 -0.008741539 1.9541436e-38
0.043720998 -0.13890465 -0.008741539 1.8159945e-38
0.045584872 -0.13890465 -0.008741539 1.5025327e-38
0.047601167 -0.13999285 -0.01278488 7.1883598e-39
0.049588084 -0.14078392 -0.015724223 6.5426359e-39
0.051590677 -0.14161004 -0.018793743 7.6493296e-39
0.053644232 -0.14268802 -0.022799056 7.5567402e-39
0.055532753 -0.14268802 -0.022799056 1.1243123e-38
0.057421274 -0.14268802 -0.022799056 1.5021372e-38
0.059116673 -0.14161004 -0.018793743 1.4007926e-38
0.060998172 -0.14161004 -0.018793743 1.1244165e-38
0.062879667 -0.14161004 -0.018793743 1.6315289e-38
0.064439833 -0.13999285 -0.01278488 1.9632589e-38
0.066310793 -0.13999285 -0.01278488 1.5300505e-38
0.068181761 -0.13999285 -0.01278488 1.1615559e-38
-0.061469134 -0.13643973 0.0072383471 2.2407138e-38
-0.059633281 -0.13643973 0.0072383471 2.2867037e-38
-0.05798037 -0.13723589 0.004299242 2.2499695e-38
-0.052289855 -0.13643973 0.0072383471 2.1119636e-38
-0.050454002 -0.13643973 0.0072383471 2.0199838e-38
-0.048618149 -0.13643973 0.0072383471 7.2917294e-39
-0.046782289 -0.13643973 0.0072383471 7.9331458e-39
-0.044946436 -0.13643973 0.0072383471 7.1930542e-39
-0.042964455 -0.13561879 0.010268886 5.9919747e-39
-0.04099391 -0.13480256 0.01328202 1.1431859e-38
-0.039168652 -0.13480256 0.01328202 1.6318576e-38
-0.037343394 -0.13480256 0.01328202 2.3326164e-38
-0.035518136 -0.13480256 0.01328202 2.3142504e-38
-0.033692878 -0.13480256 0.01328202 1.8353002e-38
-0.031754687 -0.13399105 0.016277749 1.2269527e-38
-0.029934682 -0.13399105 0.016277749 3.6013371e-39
-0.028114676 -0.13399105 0.016277749 1.1803864e-38
-0.026294667 -0.13399105 0.016277749 2.3509482e-38
-0.02456658 -0.13480256 0.01328202 2.3509142e-38
-0.022741321 -0.13480256 0.01328202 2.3508441e-38
-0.020997949 -0.13561879 0.010268886 2.3508809e-38
-0.019167405 -0.13561879 0.010268886 2.3417333e-38
-0.017336864 -0.13561879 0.010268886 2.3325829e-38
-0.015506323 -0.13561879 0.010268886 2.3509859e-38
-0.013736885 -0.13643973 0.0072383471 2.3509517e-38
-0.011901032 -0.13643973 0.0072383471 2.3508451e-38
-0.01011413 -0.13723589 0.004299242 2.2029749e-38
-0.008273121 -0.13723589 0.004299242 2.3507374e-38
-0.0064321123 -0.13723589 0.004299242 2.3508445e-38
-0.0045911036 -0.13723589 0.004299242 2.3506273e-38
-0.0027500931 -0.13723589 0.004299242 1.751248e-38
-0.00090908445 -0.13723589 0.004299242 2.3508089e-38
0.00093192421 -0.13723589 0.004299242 2.3227202e-38
0.0027729347 -0.13723589 0.004299242 1.391544e-38
0.0046032798 -0.13833423 0.00024469569 1.1242825e-38
0.0064513981 -0.13833423 0.00024469569 8.2925466e-39
0.0083021261 -0.13914107 -0.0027337484 8.9368146e-39
0.010147633 -0.13833423 0.00024469569 7.8293768e-39
0.011995751 -0.13833423 0.00024469569 1.0686362e-38
0.01384387 -0.13833423 0.00024469569 1.4374543e-38
0.015691988 -0.13833423 0.00024469569 1.8154561e-38
0.017540105 -0.13833423 0.00024469569 1.170159e-38
0.019422168 -0.13914107 -0.0027337484 8.7516975e-39
0.021275509 -0.13914107 -0.0027337484 5.4347988e-39
0.02308446 -0.13833423 0.00024469569 1.3828153e-38
0.024932578 -0.13833423 0.00024469569 2.2863339e-38
0.026780695 -0.13833423 0.00024469569 2.35095e-38
0.028688869 -0.13914107 -0.0027337484 2.350554e-38
0.03054221 -0.13914107 -0.0027337484 2.2031418e-38
0.032395549 -0.13914107 -0.0027337484 2.2123231e-38
0.034248888 -0.13914107 -0.0027337484 2.2857944e-38
0.036183633 -0.13995247 -0.0057291202 2.0090654e-38
0.038129374 -0.14076851 -0.008741539 1.9075799e-38
0.039993249 -0.14076851 -0.008741539 1.7602467e-38
0.041857123 -0.14076851 -0.008741539 1.7143633e-38
0.043720998 -0.14076851 -0.008741539 1.4195181e-38
0.045584872 -0.14076851 -0.008741539 1.2812282e-38
0.047448743 -0.14076851 -0.008741539 6.6355504e-39
0.049588084 -0.14266007 -0.015724223 5.5292028e-39
0.051590677 -0.14349155 -0.018793743 6.5433436e-39
0.053472176 -0.14349155 -0.018793743 7.4649131e-39
0.055532753 -0.14457656 -0.022799056 9.2162671e-39
0.057421274 -0.14457656 -0.022799056 1.1887439e-38
0.059116673 -0.14349155 -0.018793743 1.1057666e-38
0.060998172 -0.14349155 -0.018793743 7.8325746e-39
0.062879667 -0.14349155 -0.018793743 1.0967945e-38
0.064439833 -0.14186381 -0.01278488 1.8894656e-38
0.066310793 -0.14186381 -0.01278488 1.7789413e-38
0.068181761 -0.14186381 -0.01278488 1.36435e-38
-0.061469134 -0.13827558 0.0072383471 2.3142544e-38
-0.059633281 -0.13827558 0.0072383471 2.2958873e-38
-0.05798037 -0.1390769 0.004299242 2.2958873e-38
-0.056139361 -0.1390769 0.004299242 2.2867037e-38
-0.054298345 -0.1390769 0.004299242 2.2867037e-38
-0.052289855 -0.13827558 0.0072383471 2.2775202e-38
-0.050454002 -0.13827558 0.0072383471 2.2867034e-38
-0.048618149 -0.13827558 0.0072383471 8.1171657e-39
-0.046782289 -0.13827558 0.0072383471 8.7610946e-39
-0.044946436 -0.13827558 0.0072383471 1.189538e-38
-0.042964455 -0.13744931 0.010268886 1.1434028e-38
-0.04099391 -0.13662781 0.01328202 1.2633279e-38
-0.039168652 -0.13662781 0.01328202 1.4663376e-38
-0.037343394 -0.13662781 0.01328202 2.2407808e-38
-0.035518136 -0.13662781 0.01328202 2.2591489e-38
-0.033574697 -0.13581105 0.016277749 2.1581284e-38
-0.031754687 -0.13581105 0.016277749 1.7894176e-38
-0.029934682 -0.13581105 0.016277749 1.0205937e-39
-0.028114676 -0.13581105 0.016277749 1.125034e-38
-0.026294667 -0.13581105 0.016277749 2.3509848e-38
-0.024474662 -0.13581105 0.016277749 2.3509497e-38
-0.022654656 -0.13581105 0.016277749 2.3505194e-38
-0.020834647 -0.13581105 0.016277749 2.3413018e-38
-0.019014642 -0.13581105 0.016277749 1.5577457e-38
-0.017265543 -0.13662781 0.01328202 2.3508395e-38
-0.015440281 -0.13662781 0.01328202 2.2493154e-38
-0.013736885 -0.13827558 0.0072383471 2.3507338e-38
-0.011901032 -0.13827558 0.0072383471 2.3505926e-38
-0.010065172 -0.13827558 0.0072383471 2.1381139e-38
-0.008229319 -0.13827558 0.0072383471 1.3452315e-38
-0.0064321123 -0.1390769 0.004299242 1.0503819e-38
-0.0045911036 -0.1390769 0.004299242 4.6961968e-39
-0.0027217492 -0.13827558 0.0072383471 5.6174314e-39
-0.00088589452 -0.13827558 0.0072383471 1.2993096e-38
0.00093192421 -0.1390769 0.004299242 1.2808727e-38
0.0027729347 -0.1390769 0.004299242 9.4896871e-39
0.0046032798 -0.14018236 0.00024469569 3.0374125e-39
0.0064513981 -0.14018236 0.00024469569 4.9735039e-39
0.0082995147 -0.14018236 0.00024469569 5.0649653e-39
0.010147633 -0.14018236 0.00024469569 3.497641e-39
0.011995751 -0.14018236 0.00024469569 8.5665677e-39
0.01384387 -0.14018236 0.00024469569 1.4282686e-38
0.015691988 -0.14018236 0.00024469569 1.8246728e-38
0.017540105 -0.14018236 0.00024469569 9.5799896e-39
0.019388225 -0.14018236 0.00024469569 5.9836706e-39
0.021275509 -0.14099441 -0.0027337484 1.6530389e-39
0.02308446 -0.14018236 0.00024469569 8.5690634e-39
0.024932578 -0.14018236 0.00024469569 1.6684077e-38
0.026780695 -0.14018236 0.00024469569 1.5760359e-38
0.028688869 -0.14099441 -0.0027337484 1.161226e-38
0.030607859 -0.14181106 -0.0057291202 1.2904017e-38
0.032466449 -0.14181106 -0.0057291202 1.6221966e-38
0.034325041 -0.14181106 -0.0057291202 1.8246707e-38
0.036183633 -0.14181106 -0.0057291202 1.6401739e-38
0.038129374 -0.14263238 -0.008741539 1.7693208e-38
0.039993249 -0.14263238 -0.008741539 1.5665628e-38
0.041857123 -0.14263238 -0.008741539 1.0689583e-38
0.043720998 -0.14263238 -0.008741539 2.3938214e-39
0.045584872 -0.14263238 -0.008741539 1.9332089e-39
0.047448743 -0.14263238 -0.008741539 3.6734198e-40
0.049472127 -0.14373477 -0.01278488 1.4740371e-39
0.051343091 -0.14373477 -0.01278488 3.5945253e-39
0.053472176 -0.14537306 -0.018793743 3.5012367e-39
0.055532753 -0.14646508 -0.022799056 5.2518691e-39
0.057421274 -0.14646508 -0.022799056 8.9375447e-39
0.059116673 -0.14537306 -0.018793743 1.0320468e-38
0.060998172 -0.14537306 -0.018793743 7.6478428e-39
0.062879667 -0.14537306 -0.018793743 8.0162638e-39
0.064597026 -0.14453618 -0.015724223 1.6866709e-38
0.066473141 -0.14453618 -0.015724223 1.7420622e-38
0.068349257 -0.14453618 -0.015724223 1.3459106e-38
-0.064930961 -0.13927986 0.010268886 1.2170175e-38
-0.063100427 -0.13927986 0.010268886 2.3418045e-38
-0.061269876 -0.13927986 0.010268886 2.2680841e-38
-0.059633281 -0.14011143 0.0072383471 2.3142542e-38
-0.057797428 -0.14011143 0.0072383471 2.2589368e-38
-0.055961575 -0.14011143 0.0072383471 2.2681564e-38
-0.054125715 -0.14011143 0.0072383471 2.2681564e-38
-0.052289855 -0.14011143 0.0072383471 2.3234376e-38
-0.050454002 -0.14011143 0.0072383471 2.350988e-38
-0.048618149 -0.14011143 0.0072383471 1.2446043e-38
-0.046625536 -0.13927986 0.010268886 9.7734388e-39
-0.044795003 -0.13927986 0.010268886 1.2816609e-38
-0.042964455 -0.13927986 0.010268886 1.3186827e-38
-0.04099391 -0.13845308 0.01328202 1.1621295e-38
-0.039168652 -0.13845308 0.01328202 1.401946e-38
-0.037343394 -0.13845308 0.01328202 2.194864e-38
-0.035518136 -0.13845308 0.01328202 2.1304699e-38
-0.033574697 -0.13763104 0.016277749 2.2591491e-38
-0.031754687 -0.13763104 0.016277749 1.9643741e-38
-0.029793344 -0.13655205 0.020209987 2.9548999e-39
-0.027980231 -0.13655205 0.020209987 7.7462013e-39
-0.026294667 -0.13763104 0.016277749 2.3140715e-38
-0.024474662 -0.13763104 0.016277749 2.2585382e-38
-0.022654656 -0.13763104 0.016277749 2.3509142e-38
-0.020834647 -0.13763104 0.016277749 2.3508421e-38
-0.019014642 -0.13763104 0.016277749 1.8247128e-38
-0.017194632 -0.13763104 0.016277749 1.3546557e-38
-0.015374627 -0.13763104 0.016277749 2.3506562e-38
-0.013615023 -0.13845308 0.01328202 2.3507665e-38
-0.011845235 -0.13927986 0.010268886 2.3506251e-38
-0.0099645071 -0.13845308 0.01328202 1.5939756e-38
-0.0081392489 -0.13845308 0.01328202 8.2882446e-39
-0.0063934624 -0.14011143 0.0072383471 9.1190619e-39
-0.0045576058 -0.14011143 0.0072383471 4.9713263e-39
-0.0027217492 -0.14011143 0.0072383471 5.7099675e-39
-0.00088589452 -0.14011143 0.0072383471 7.0010735e-39
0.00096855871 -0.13927986 0.010268886 7.0018134e-39
0.0027991012 -0.13927986 0.010268886 6.2646127e-39
0.0046139434 -0.14091791 0.004299242 2.0246857e-39
0.0064601861 -0.13927986 0.010268886 2.0250444e-39
0.0082907267 -0.13927986 0.010268886 1.5629971e-39
0.010136969 -0.14091791 0.004299242 3.5905527e-39
0.011977978 -0.14091791 0.004299242 9.0296926e-39
0.01384387 -0.14203046 0.00024469569 1.455997e-38
0.015691988 -0.14203046 0.00024469569 1.9536376e-38
0.017540105 -0.14203046 0.00024469569 1.1513574e-38
0.019388225 -0.14203046 0.00024469569 7.8254238e-39
0.021275509 -0.14284773 -0.0027337484 2.7557823e-39
0.02308446 -0.14203046 0.00024469569 4.5085489e-39
0.024932578 -0.14203046 0.00024469569 1.5850747e-38
0.026780695 -0.14203046 0.00024469569 1.640534e-38
0.028810006 -0.14449625 -0.008741539 1.1427467e-38
0.030607859 -0.14366965 -0.0057291202 1.087462e-38
0.032466449 -0.14366965 -0.0057291202 1.3086236e-38
0.034325041 -0.14366965 -0.0057291202 1.7784289e-38
0.036183633 -0.14366965 -0.0057291202 2.0272511e-38
0.038042225 -0.14366965 -0.0057291202 1.9444195e-38
0.039900817 -0.14366965 -0.0057291202 1.8247814e-38
0.041759409 -0.14366965 -0.0057291202 1.2072517e-38
0.043618001 -0.14366965 -0.0057291202 9.1871369e-40
0.045476593 -0.14366965 -0.0057291202 5.5101298e-40
0.047448743 -0.14449625 -0.008741539 1.2900228e-39
0.049472127 -0.14560573 -0.01278488 2.2130468e-39
0.051343091 -0.14560573 -0.01278488 3.2268302e-39
0.053472176 -0.14725454 -0.018793743 2.0268465e-39
0.055532753 -0.14835359 -0.022799056 4.2380997e-39
0.057421274 -0.14835359 -0.022799056 8.4776567e-39
0.059116673 -0.14725454 -0.018793743 1.0873653e-38
0.060998172 -0.14725454 -0.018793743 7.8311831e-39
0.062879667 -0.14725454 -0.018793743 5.5266469e-39
0.064597026 -0.1464123 -0.015724223 1.3916095e-38
0.066310793 -0.14560573 -0.01278488 1.6775249e-38
0.068181761 -0.14560573 -0.01278488 1.2628624e-38
-0.068154827 -0.13945107 0.016277749 2.1941819e-38
-0.066334814 -0.13945107 0.016277749 1.7516433e-38
-0.064722285 -0.14027832 0.01328202 1.8438033e-38
-0.062897027 -0.14027832 0.01328202 2.3509876e-38
-0.061071765 -0.14027832 0.01328202 2.3048542e-38
-0.059246507 -0.14027832 0.01328202 2.350988e-38
-0.057421248 -0.14027832 0.01328202 2.350988e-38
-0.055778246 -0.14111041 0.010268886 2.350988e-38
-0.053770732 -0.14027832 0.01328202 2.3417324e-38
-0.051945474 -0.14027832 0.01328202 2.3509524e-38
-0.050120208 -0.14027832 0.01328202 2.3507009e-38
-0.04829495 -0.14027832 0.01328202 2.3509163e-38
-0.046469692 -0.14027832 0.01328202 2.3048169e-38
-0.044644434 -0.14027832 0.01328202 2.2681182e-38
-0.042819168 -0.14027832 0.01328202 2.3234362e-38
-0.04099391 -0.14027832 0.01328202 2.295886e-38
-0.039168652 -0.14027832 0.01328202 2.2591514e-38
-0.037214708 -0.13945107 0.016277749 2.259151e-38
-0.035394702 -0.13945107 0.016277749 2.2958843e-38
-0.033574697 -0.13945107 0.016277749 2.2775164e-38
-0.031754687 -0.13945107 0.016277749 2.3234353e-38
-0.029793344 -0.13836516 0.020209987 1.4765468e-39
-0.027980231 -0.13836516 0.020209987 2.0286528e-39
-0.026167121 -0.13836516 0.020209987 2.8584134e-39
-0.024474662 -0.13945107 0.016277749 7.6529379e-39
-0.022654656 -0.13945107 0.016277749 1.1153474e-38
-0.020834647 -0.13945107 0.016277749 1.5296133e-38
-0.019014642 -0.13945107 0.016277749 2.3499006e-38
-0.017194632 -0.13945107 0.016277749 1.879702e-38
-0.015374627 -0.13945107 0.016277749 8.6551452e-39
-0.013615023 -0.14027832 0.01328202 1.0867491e-38
-0.011789765 -0.14027832 0.01328202 1.0498723e-38
-0.0099645071 -0.14027832 0.01328202 9.0239683e-39
-0.0081392489 -0.14027832 0.01328202 9.2083694e-39
-0.006353613 -0.14111041 0.010268886 8.8406673e-39
-0.0045230687 -0.14111041 0.010268886 8.749908e-39
-0.0026925262 -0.14111041 0.010268886 3.7727887e-39
-0.00086198375 -0.14111041 0.010268886 4.143009e-39
0.00096855871 -0.14111041 0.010268886 4.1448166e-39
0.0027991012 -0.14111041 0.010268886 7.3468397e-40
0.0046216734 -0.14194728 0.0072383471 3.0402726e-39
0.0064601861 -0.14111041 0.010268886 5.5101298e-40
0.0082907267 -0.14111041 0.010268886 2.4863981e-39
0.010129239 -0.14194728 0.0072383471 6.727016e-39
0.011977978 -0.14275892 0.004299242 9.0311346e-39
0.013818989 -0.14275892 0.004299242 1.0504081e-38
0.015659997 -0.14275892 0.004299242 1.4557816e-38
0.017501006 -0.14275892 0.004299242 1.0222122e-38
0.019388225 -0.14387859 0.00024469569 8.1002142e-39
0.021236341 -0.14387859 0.00024469569 2.4795584e-39
0.02308446 -0.14387859 0.00024469569 3.9525207e-39
0.024932578 -0.14387859 0.00024469569 1.4925939e-38
0.026780695 -0.14387859 0.00024469569 1.6496093e-38
0.028749265 -0.14552824 -0.0057291202 1.3639432e-38
0.030607859 -0.14552824 -0.0057291202 1.4100036e-38
0.032466449 -0.14552824 -0.0057291202 1.5204952e-38
0.034248888 -0.14470108 -0.0027337484 1.8059804e-38
0.036102228 -0.14470108 -0.0027337484 2.0087756e-38
0.038042225 -0.14552824 -0.0057291202 2.0182465e-38
0.039900817 -0.14552824 -0.0057291202 2.0092075e-38
0.041759409 -0.14552824 -0.0057291202 1.5483758e-38
0.043618001 -0.14552824 -0.0057291202 3.684186e-39
0.045476593 -0.14552824 -0.0057291202 3.4090803e-39
0.047335185 -0.14552824 -0.0057291202 4.7016282e-39
0.049312618 -0.14636014 -0.008741539 4.057321e-39
0.051464204 -0.14828841 -0.015724223 3.135722e-39
0.05334032 -0.14828841 -0.015724223 4.7005352e-39
0.060998172 -0.14913605 -0.018793743 5.3412102e-39
0.062720902 -0.14828841 -0.015724223 4.3270499e-39
0.064597026 -0.14828841 -0.015724223 1.1518657e-38
0.066310793 -0.14747669 -0.01278488 1.6590858e-38
0.068181761 -0.14747669 -0.01278488 1.3181797e-38
-0.075121149 -0.14017828 0.020209987 1.401189e-38
-0.073308036 -0.14017828 0.020209987 1.1891394e-38
-0.071494922 -0.14017828 0.020209987 1.3734952e-38
-0.06997484 -0.14127107 0.016277749 2.1663781e-38
-0.068154827 -0.14127107 0.016277749 2.3415144e-38
-0.066334814 -0.14127107 0.016277749 2.0464531e-38
-0.064722285 -0.1421036 0.01328202 1.9174513e-38
-0.062897027 -0.1421036 0.01328202 2.2769786e-38
-0.061071765 -0.1421036 0.01328202 2.3509517e-38
-0.059246507 -0.1421036 0.01328202 2.3509517e-38
-0.057421248 -0.1421036 0.01328202 2.3507356e-38
-0.05559599 -0.1421036 0.01328202 2.3415881e-38
-0.053770732 -0.1421036 0.01328202 2.3322965e-38
-0.051945474 -0.1421036 0.01328202 2.3508807e-38
-0.050120208 -0.1421036 0.01328202 2.3045322e-38
-0.048134748 -0.14127107 0.016277749 2.3508809e-38
-0.046314742 -0.14127107 0.016277749 2.3509876e-38
-0.044494737 -0.14127107 0.016277749 2.3509873e-38
-0.042674731 -0.14127107 0.016277749 2.3418047e-38
-0.040854719 -0.14127107 0.016277749 2.341805e-38
-0.039034721 -0.14127107 0.016277749 2.3509527e-38
-0.037214708 -0.14127107 0.016277749 2.3509168e-38
-0.035394702 -0.14127107 0.016277749 2.3415158e-38
-0.033574697 -0.14127107 0.016277749 2.350951e-38
-0.031754687 -0.14127107 0.016277749 2.295418e-38
-0.029934682 -0.14127107 0.016277749 1.3458401e-38
-0.027980231 -0.14017828 0.020209987 5.1626063e-39
-0.026167121 -0.14017828 0.020209987 3.505243e-39
-0.024474662 -0.14127107 0.016277749 3.1393205e-39
-0.022654656 -0.14127107 0.016277749 3.965449e-39
-0.020834647 -0.14127107 0.016277749 1.6124063e-38
-0.019014642 -0.14127107 0.016277749 2.3217362e-38
-0.017194632 -0.14127107 0.016277749 2.201777e-38
-0.015374627 -0.14127107 0.016277749 1.132345e-38
-0.013615023 -0.1421036 0.01328202 7.9122076e-39
-0.011789765 -0.1421036 0.01328202 9.0199873e-39
-0.0099645071 -0.1421036 0.01328202 9.9440959e-39
-0.0081392489 -0.1421036 0.01328202 1.0498004e-38
-0.006353613 -0.14294095 0.010268886 9.8530242e-39
-0.0045230687 -0.14294095 0.010268886 7.4573937e-39
-0.0026925262 -0.14294095 0.010268886 5.7996787e-39
-0.00086198375 -0.14294095 0.010268886 2.6675412e-39
0.00096855871 -0.14294095 0.010268886 2.486017e-39
0.0027991012 -0.14294095 0.010268886 1.0119841e-39
0.0046296436 -0.14294095 0.010268886 2.7550649e-40
0.0064601861 -0.14294095 0.010268886 1.1981803e-39
0.0082907267 -0.14294095 0.010268886 1.4744168e-39
0.010129239 -0.14378314 0.0072383471 7.6497023e-39
0.011977978 -0.14459993 0.004299242 1.0138223e-38
0.013818989 -0.14459993 0.004299242 1.1425706e-38
0.015659997 -0.14459993 0.004299242 1.4187624e-38
0.017501006 -0.14459993 0.004299242 1.2618152e-38
0.019342016 -0.14459993 0.004299242 1.169513e-38
0.021236341 -0.1457267 0.00024469569 3.858167e-39
0.02308446 -0.1457267 0.00024469569 3.3060905e-39
0.024932578 -0.1457267 0.00024469569 1.4740132e-38
0.026780695 -0.1457267 0.00024469569 1.7141114e-38
0.028688869 -0.14655443 -0.0027337484 1.4560689e-38
0.030607859 -0.14738683 -0.0057291202 1.4190828e-38
0.032466449 -0.14738683 -0.0057291202 1.4742205e-38
0.034248888 -0.14655443 -0.0027337484 1.8427519e-38
0.036102228 -0.14655443 -0.0027337484 2.1378495e-38
0.038042225 -0.14738683 -0.0057291202 2.1473552e-38
0.039900817 -0.14738683 -0.0057291202 1.9724723e-38
0.041759409 -0.14738683 -0.0057291202 1.5023496e-38
0.043515589 -0.14655443 -0.0027337484 3.0395425e-39
0.045368932 -0.14655443 -0.0027337484 2.4874911e-39
0.047335185 -0.14738683 -0.0057291202 4.2402983e-39
0.049312618 -0.14822401 -0.008741539 4.0584028e-39
0.066310793 -0.14934768 -0.01278488 1.4009383e-38
0.068181761 -0.14934768 -0.01278488 1.3458384e-38
-0.075121149 -0.14199139 0.020209987 1.3549106e-38
-0.073308036 -0.14199139 0.020209987 1.0967995e-38
-0.071494922 -0.14199139 0.020209987 1.3733157e-38
-0.069681823 -0.14199139 0.020209987 2.1386478e-38
-0.06786871 -0.14199139 0.020209987 2.2584664e-38
-0.066055596 -0.14199139 0.020209987 2.0372691e-38
-0.064514816 -0.14309107 0.016277749 1.8344387e-38
-0.062694803 -0.14309107 0.016277749 1.9912076e-38
-0.060874801 -0.14309107 0.016277749 2.3508431e-38
-0.059054788 -0.14309107 0.016277749 2.3509514e-38
-0.05723479 -0.14309107 0.016277749 2.3508797e-38
-0.05559599 -0.14392884 0.01328202 2.3509161e-38
-0.053770732 -0.14392884 0.01328202 2.3509161e-38
-0.051774766 -0.14309107 0.016277749 2.3508809e-38
-0.049954753 -0.14309107 0.016277749 2.3508451e-38
-0.048134748 -0.14309107 0.016277749 2.3323345e-38
-0.046314742 -0.14309107 0.016277749 2.350952e-38
-0.044494737 -0.14309107 0.016277749 2.3509876e-38
-0.042674731 -0.14309107 0.016277749 2.3417324e-38
-0.040672015 -0.14199139 0.020209987 2.323258e-38
-0.038858902 -0.14199139 0.020209987 2.3508451e-38
-0.037045788 -0.14199139 0.020209987 2.3508809e-38
-0.035232682 -0.14199139 0.020209987 2.35088e-38
-0.033419568 -0.14199139 0.020209987 2.3506276e-38
-0.031606454 -0.14199139 0.020209987 2.3508804e-38
-0.029793344 -0.14199139 0.020209987 2.3046396e-38
-0.027980231 -0.14199139 0.020209987 2.2772332e-38
-0.026167121 -0.14199139 0.020209987 1.438505e-38
-0.024354007 -0.14199139 0.020209987 1.1346176e-38
-0.022540893 -0.14199139 0.020209987 1.4349296e-42
-0.020727783 -0.14199139 0.020209987 9.85441e-39
-0.018914673 -0.14199139 0.020209987 2.0819564e-38
-0.01710156 -0.14199139 0.020209987 2.0633414e-38
-0.015288446 -0.14199139 0.020209987 2.0449036e-38
-0.013554621 -0.14309107 0.016277749 1.5379705e-38
-0.011789765 -0.14392884 0.01328202 8.9270784e-39
-0.0099645071 -0.14392884 0.01328202 8.4682442e-39
-0.0081392489 -0.14392884 0.01328202 6.4403229e-39
-0.0063139871 -0.14392884 0.01328202 6.2559513e-39
-0.0045230687 -0.1447715 0.010268886 7.1793649e-39
-0.0026925262 -0.1447715 0.010268886 5.7060397e-39
-0.00086198375 -0.1447715 0.010268886 1.7448744e-39
0.00096855871 -0.1447715 0.010268886 1.9306978e-39
0.0027991012 -0.1447715 0.010268886 2.5785699e-39
0.0046296436 -0.1447715 0.010268886 3.6734198e-40
0.0064601861 -0.1447715 0.010268886 2.7550649e-40
0.0082907267 -0.1447715 0.010268886 1.4736909e-39
0.010129239 -0.14561899 0.0072383471 6.6366322e-39
0.011965096 -0.14561899 0.0072383471 9.3084768e-39
0.013818989 -0.14644094 0.004299242 1.0781079e-38
0.015659997 -0.14644094 0.004299242 1.0593096e-38
0.017501006 -0.14644094 0.004299242 9.0239782e-39
0.019342016 -0.14644094 0.004299242 9.0232663e-39
0.021236341 -0.14757483 0.00024469569 2.2040519e-39
0.02308446 -0.14757483 0.00024469569 3.0305896e-39
0.024932578 -0.14757483 0.00024469569 1.3911099e-38
0.026780695 -0.14757483 0.00024469569 1.7233334e-38
0.028688869 -0.14840777 -0.0027337484 1.7326226e-38
0.030607859 -0.14924543 -0.0057291202 1.8892478e-38
0.032395549 -0.14840777 -0.0027337484 1.8799204e-38
0.034248888 -0.14840777 -0.0027337484 1.8981794e-38
0.036102228 -0.14840777 -0.0027337484 1.8337495e-38
0.037955571 -0.14840777 -0.0027337484 1.7879027e-38
0.03980891 -0.14840777 -0.0027337484 1.5669217e-38
0.041759409 -0.14924543 -0.0057291202 1.262715e-38
0.043515589 -0.14840777 -0.0027337484 2.3023474e-39
0.045368932 -0.14840777 -0.0027337484 1.288948e-39
0.047335185 -0.14924543 -0.0057291202 1.6588193e-39
-0.075121149 -0.14380451 0.020209987 9.6743586e-39
-0.073308036 -0.14380451 0.020209987 1.142646e-38
-0.071494922 -0.14380451 0.020209987 1.4929912e-38
-0.069681823 -0.14380451 0.020209987 2.1292498e-38
-0.06786871 -0.14380451 0.020209987 2.2768702e-38
-0.066055596 -0.14380451 0.020209987 2.0464886e-38
-0.064242482 -0.14380451 0.020209987 1.7239833e-38
-0.062429365 -0.14380451 0.020209987 1.7516063e-38
-0.060616251 -0.14380451 0.020209987 2.3509869e-38
-0.058803137 -0.14380451 0.020209987 2.3508795e-38
-0.056990024 -0.14380451 0.020209987 2.3509524e-38
-0.055414777 -0.14491107 0.016277749 2.3509527e-38
-0.053594764 -0.14491107 0.016277749 2.3509527e-38
-0.051774766 -0.14491107 0.016277749 2.3508451e-38
-0.049954753 -0.14491107 0.016277749 2.3231868e-38
-0.048134748 -0.14491107 0.016277749 2.3232227e-38
-0.046314742 -0.14491107 0.016277749 2.3509524e-38
-0.044494737 -0.14491107 0.016277749 2.3509873e-38
-0.042485129 -0.14380451 0.020209987 2.3324393e-38
-0.040672015 -0.14380451 0.020209987 2.3508423e-38
-0.038858902 -0.14380451 0.020209987 2.3509863e-38
-0.037045788 -0.14380451 0.020209987 2.3509863e-38
-0.035232682 -0.14380451 0.020209987 2.3508784e-38
-0.033419568 -0.14380451 0.020209987 2.3509869e-38
-0.031606454 -0.14380451 0.020209987 2.3509879e-38
-0.029793344 -0.14380451 0.020209987 2.3049624e-38
-0.027980231 -0.14380451 0.020209987 2.3050708e-38
-0.026167121 -0.14380451 0.020209987 1.8534561e-38
-0.024354007 -0.14380451 0.020209987 1.0975949e-38
-0.022540893 -0.14380451 0.020209987 9.2230102e-40
-0.020644587 -0.14294298 0.0232714 3.7702776e-39
-0.018836837 -0.14294298 0.0232714 1.5750292e-38
-0.01710156 -0.14380451 0.020209987 2.0083857e-38
-0.015288446 -0.14380451 0.020209987 1.9530328e-38
-0.013554621 -0.14491107 0.016277749 1.8794194e-38
-0.011734616 -0.14491107 0.016277749 1.2525243e-38
