# .PCD v0.7 - Point Cloud Data file format
VERSION 0.7
FIELDS x y z rgb
SIZE 4 4 4 4
TYPE F F F F
COUNT 1 1 1 1
WIDTH 271
HEIGHT 1
VIEWPOINT 0 0 0 1 0 0 0
POINTS 271
DATA ascii
-0.0020682495 -0.12002577 -0.019679137 7.8369691e-39
-0.0039567705 -0.12380283 -0.019679137 9.3106516e-39
-0.0020682495 -0.12380283 -0.019679137 8.9404187e-39
-0.00017972849 -0.12380283 -0.019679137 1.2811189e-38
-0.0039567705 -0.12569134 -0.019679137 9.1233638e-39
-0.0020682495 -0.12569134 -0.019679137 8.8467559e-39
-0.00017972849 -0.12569134 -0.019679137 1.2624968e-38
0.0017087925 -0.12569134 -0.019679137 1.7876873e-38
0.0036156941 -0.12645011 -0.022674032 2.1008645e-38
-0.0058531687 -0.1283439 -0.022674032 1.3363288e-38
-0.0039567705 -0.12757985 -0.019679137 1.8618069e-38
-0.0020682495 -0.12757985 -0.019679137 2.1660865e-38
-0.00017972849 -0.12757985 -0.019679137 2.129099e-38
0.0017087925 -0.12757985 -0.019679137 2.313166e-38
0.0036156941 -0.1283439 -0.022674032 2.349828e-38
-0.0096407142 -0.13023765 -0.022674032 1.0137175e-38
-0.0077469405 -0.13023765 -0.022674032 1.4193419e-38
-0.0058531687 -0.13023765 -0.022674032 1.6220997e-38
-0.0039593969 -0.13023765 -0.022674032 2.1107717e-38
-0.0020656232 -0.13023765 -0.022674032 2.3506235e-38
-0.00017185137 -0.13023765 -0.022674032 2.2673942e-38
0.0017219204 -0.13023765 -0.022674032 2.3504062e-38
0.0036156941 -0.13023765 -0.022674032 2.2854367e-38
-0.0096407142 -0.13213144 -0.022674032 1.1982167e-38
-0.0077469405 -0.13213144 -0.022674032 2.2676138e-38
-0.0058452915 -0.13135691 -0.019679137 2.3321142e-38
-0.0039567705 -0.13135691 -0.019679137 2.3508413e-38
-0.0020682495 -0.13135691 -0.019679137 2.3507688e-38
-0.00017972849 -0.13135691 -0.019679137 2.3509129e-38
0.0017087925 -0.13135691 -0.019679137 2.350696e-38
0.0035973154 -0.13135691 -0.019679137 1.585076e-38
-0.011479255 -0.13220255 -0.015673824 8.3876219e-39
-0.009597756 -0.13220255 -0.015673824 1.050704e-38
-0.0077338126 -0.13324542 -0.019679137 2.3506622e-38
-0.0058347583 -0.13220255 -0.015673824 2.35095e-38
-0.0039532594 -0.13220255 -0.015673824 2.35095e-38
-0.0020744521 -0.13140334 -0.012604304 2.3509149e-38
-0.00019833446 -0.13140334 -0.012604304 2.3321156e-38
0.0016777832 -0.13140334 -0.012604304 1.9909912e-38
0.0035973154 -0.13324542 -0.019679137 9.6776306e-39
-0.013399377 -0.13513394 -0.019679137 1.0325173e-38
-0.011479255 -0.13408406 -0.015673824 1.0232258e-38
-0.009597756 -0.13408406 -0.015673824 1.2351315e-38
-0.0077338126 -0.13513394 -0.019679137 2.3230037e-38
-0.0058347583 -0.13408406 -0.015673824 2.3508783e-38
-0.0039532594 -0.13408406 -0.015673824 2.3506267e-38
-0.0020744521 -0.13327946 -0.012604304 2.3322246e-38
-0.00019833446 -0.13327946 -0.012604304 1.0784003e-38
0.0016777832 -0.13327946 -0.012604304 3.8696871e-39
-0.0152879 -0.13702248 -0.019679137 8.2975927e-39
-0.013399377 -0.13702248 -0.019679137 8.7578478e-39
-0.011510856 -0.13702248 -0.019679137 1.1154214e-38
-0.0096223354 -0.13702248 -0.019679137 1.4471815e-38
-0.0077338126 -0.13702248 -0.019679137 2.313856e-38
-0.0058347583 -0.13596557 -0.015673824 2.3509504e-38
-0.0039532594 -0.13596557 -0.015673824 2.3506989e-38
-0.0020770282 -0.13437997 -0.0096649602 2.3509521e-38
-0.00020606443 -0.13437997 -0.0096649602 9.495431e-39
0.0016648974 -0.13437997 -0.0096649602 2.5814748e-39
-0.0152879 -0.13891099 -0.019679137 9.6812432e-39
-0.013399377 -0.13891099 -0.019679137 9.5876084e-39
-0.011510856 -0.13891099 -0.019679137 1.1062018e-38
-0.0096223354 -0.13891099 -0.019679137 1.3458382e-38
-0.0077338126 -0.13891099 -0.019679137 2.1294291e-38
-0.0058347583 -0.13784705 -0.015673824 2.3509504e-38
-0.0039505679 -0.13703169 -0.012604304 2.3509509e-38
-0.0020770282 -0.13625093 -0.0096649602 2.3509879e-38
-0.00020606443 -0.13625093 -0.0096649602 2.2773037e-38
0.0016648974 -0.13625093 -0.0096649602 2.3234376e-38
-0.019064942 -0.14079951 -0.019679137 1.2355635e-38
-0.017176421 -0.14079951 -0.019679137 1.1525156e-38
-0.0152879 -0.14079951 -0.019679137 9.3124607e-39
-0.013399377 -0.14079951 -0.019679137 1.1523717e-38
-0.011510856 -0.14079951 -0.019679137 1.0047866e-38
-0.0096223354 -0.14079951 -0.019679137 1.2352034e-38
-0.0077338126 -0.14079951 -0.019679137 2.3230399e-38
-0.0058266856 -0.13890781 -0.012604304 2.3508788e-38
-0.0039479919 -0.13812189 -0.0096649602 2.3509869e-38
-0.002083214 -0.13623528 -0.0026092008 2.3050328e-38
-0.00024033338 -0.134638 0.0033646151 2.3142531e-38
0.001607785 -0.134638 0.0033646151 2.3142537e-38
0.0034559034 -0.134638 0.0033646151 2.2867027e-38
0.0053275209 -0.13543437 0.00038617104 2.3142544e-38
0.0071808612 -0.13543437 0.00038617104 2.2958873e-38
0.0090002576 -0.134638 0.0033646151 2.2683366e-38
0.010848375 -0.134638 0.0033646151 2.2499695e-38
0.012740882 -0.13543437 0.00038617104 2.2316024e-38
0.014594221 -0.13543437 0.00038617104 1.6693905e-38
0.016502706 -0.13623528 -0.0026092008 7.2903057e-39
0.018361298 -0.13623528 -0.0026092008 7.4736082e-39
-0.017176421 -0.14268802 -0.019679137 1.1893938e-38
-0.0152879 -0.14268802 -0.019679137 9.2199035e-39
-0.013399377 -0.14268802 -0.019679137 1.0232976e-38
-0.011510856 -0.14268802 -0.019679137 8.5727362e-39
-0.009597756 -0.14161004 -0.015673824 1.4287423e-38
-0.0077162571 -0.14161004 -0.015673824 2.3509507e-38
-0.0058189556 -0.13999285 -0.0096649602 2.2584311e-38
-0.0039479919 -0.13999285 -0.0096649602 2.3509143e-38
-0.0020884518 -0.13648613 0.0033646151 2.3142517e-38
-0.00024033338 -0.13648613 0.0033646151 2.3142521e-38
0.001607785 -0.13648613 0.0033646151 2.3142527e-38
0.0034559034 -0.13648613 0.0033646151 2.3234367e-38
0.0053040208 -0.13648613 0.0033646151 2.3418043e-38
0.0071808612 -0.13728772 0.00038617104 2.2865235e-38
0.0090002576 -0.13648613 0.0033646151 2.2680492e-38
0.010848375 -0.13648613 0.0033646151 2.3234379e-38
0.012740882 -0.13728772 0.00038617104 2.249826e-38
0.014594221 -0.13728772 0.00038617104 2.2867037e-38
0.016447563 -0.13728772 0.00038617104 2.1209685e-38
0.018300902 -0.13728772 0.00038617104 1.1806803e-38
0.020154243 -0.13728772 0.00038617104 9.4107912e-39
0.022007583 -0.13728772 0.00038617104 1.9432955e-39
-0.017176421 -0.14457656 -0.019679137 1.2170164e-38
-0.0152879 -0.14457656 -0.019679137 1.014186e-38
-0.013399377 -0.14457656 -0.019679137 1.0509563e-38
-0.011510856 -0.14457656 -0.019679137 1.115457e-38
-0.009597756 -0.14349155 -0.015673824 1.6315727e-38
-0.0077162571 -0.14349155 -0.015673824 2.3509149e-38
-0.0058189556 -0.14186381 -0.0096649602 2.3509146e-38
-0.0039479919 -0.14186381 -0.0096649602 2.350986e-38
-0.0020884518 -0.13833423 0.0033646151 2.3418015e-38
-0.00024033338 -0.13833423 0.0033646151 2.2775161e-38
0.001607785 -0.13833423 0.0033646151 2.0746141e-38
0.0034559034 -0.13833423 0.0033646151 2.0007503e-38
0.0053040208 -0.13833423 0.0033646151 2.24028e-38
0.0071521392 -0.13833423 0.0033646151 2.3509517e-38
0.0090002576 -0.13833423 0.0033646151 2.3509165e-38
0.010848375 -0.13833423 0.0033646151 2.3323339e-38
0.012696493 -0.13833423 0.0033646151 2.3047117e-38
0.014544612 -0.13833423 0.0033646151 2.3509527e-38
0.016447563 -0.13914107 0.00038617104 2.1760698e-38
0.018300902 -0.13914107 0.00038617104 2.0933451e-38
0.020154243 -0.13914107 0.00038617104 1.3283371e-38
0.022007583 -0.13914107 0.00038617104 4.8960822e-39
-0.017215801 -0.1472816 -0.022674032 1.2907729e-38
-0.015322031 -0.1472816 -0.022674032 9.5876042e-39
-0.013399377 -0.14646508 -0.019679137 9.9560266e-39
-0.011510856 -0.14646508 -0.019679137 1.7514989e-38
-0.009597756 -0.14537306 -0.015673824 2.2860898e-38
-0.0077162571 -0.14537306 -0.015673824 2.3506625e-38
-0.0057846867 -0.14018236 0.0033646151 2.3509146e-38
-0.0039365683 -0.14018236 0.0033646151 1.0784697e-38
-0.0020884518 -0.14018236 0.0033646151 8.1146069e-39
-0.00025099702 -0.1390769 0.0074191615 9.5911691e-39
0.0015900116 -0.1390769 0.0074191615 1.0143632e-38
0.0034310222 -0.1390769 0.0074191615 1.0971241e-38
0.0052720308 -0.1390769 0.0074191615 1.438069e-38
0.0071130395 -0.1390769 0.0074191615 1.9080877e-38
0.0089540491 -0.1390769 0.0074191615 2.2491764e-38
0.010848375 -0.14018236 0.0033646151 2.3508802e-38
0.012696493 -0.14018236 0.0033646151 2.3508807e-38
0.014544612 -0.14018236 0.0033646151 2.2309184e-38
0.016447563 -0.14099441 0.00038617104 2.341805e-38
0.018300902 -0.14099441 0.00038617104 2.2683366e-38
-0.015322031 -0.14917539 -0.022674032 8.7578436e-39
-0.013428258 -0.14917539 -0.022674032 9.0329913e-39
-0.011510856 -0.14835359 -0.019679137 1.7514626e-38
-0.009597756 -0.14725454 -0.015673824 2.3509504e-38
-0.0077162571 -0.14725454 -0.015673824 2.3507702e-38
-0.0057846867 -0.14203046 0.0033646151 2.3509143e-38
-0.0039365683 -0.14203046 0.0033646151 1.0321918e-38
-0.0020884518 -0.14203046 0.0033646151 4.3324211e-39
-0.000258727 -0.14011143 0.010358267 5.4405595e-39
0.0015771296 -0.14011143 0.010358267 6.914619e-39
0.0034129852 -0.14011143 0.010358267 9.310632e-39
0.0052488409 -0.14011143 0.010358267 1.3458365e-38
0.0071130395 -0.14091791 0.0074191615 1.7606455e-38
0.0089540491 -0.14091791 0.0074191615 2.1200651e-38
0.010848375 -0.14203046 0.0033646151 2.3506628e-38
0.012696493 -0.14203046 0.0033646151 2.3506273e-38
0.014544612 -0.14203046 0.0033646151 2.3509156e-38
0.016447563 -0.14284773 0.00038617104 2.3508441e-38
0.018300902 -0.14284773 0.00038617104 2.3234379e-38
-0.011297051 -0.14275892 0.0074191615 1.5393405e-38
-0.0094380062 -0.14194728 0.010358267 2.3505902e-38
-0.0076021496 -0.14194728 0.010358267 2.3508423e-38
-0.005766293 -0.14194728 0.010358267 2.3507344e-38
-0.0039304383 -0.14194728 0.010358267 1.7697206e-38
-0.0020920057 -0.14275892 0.0074191615 1.9912399e-38
-0.000258727 -0.14194728 0.010358267 1.9544686e-38
0.0015638452 -0.14111041 0.013388805 1.6040899e-38
0.0033943877 -0.14111041 0.013388805 1.2813699e-38
0.0052249301 -0.14111041 0.013388805 1.5118238e-38
0.0070846966 -0.14194728 0.010358267 1.9542913e-38
0.0089540491 -0.14275892 0.0074191615 2.0095734e-38
0.010848375 -0.14387859 0.0033646151 1.815855e-38
0.012696493 -0.14387859 0.0033646151 2.0463086e-38
0.014594221 -0.14470108 0.00038617104 2.3229681e-38
0.016447563 -0.14470108 0.00038617104 2.3508431e-38
0.018300902 -0.14470108 0.00038617104 2.2679758e-38
-0.011297051 -0.14459993 0.0074191615 1.3918275e-38
-0.0094194077 -0.14294095 0.013388805 1.8803564e-38
-0.0075888652 -0.14294095 0.013388805 2.3320789e-38
-0.0057583228 -0.14294095 0.013388805 2.3505902e-38
-0.0039251391 -0.1421036 0.016401939 2.3505172e-38
-0.0020998809 -0.1421036 0.016401939 2.3413312e-38
-0.00027462095 -0.1421036 0.016401939 2.3509824e-38
0.001550639 -0.1421036 0.016401939 2.3322912e-38
0.0033758972 -0.1421036 0.016401939 1.8437269e-38
0.0052011563 -0.1421036 0.016401939 1.7424201e-38
0.0070264162 -0.1421036 0.016401939 1.9452151e-38
0.0089540491 -0.14459993 0.0074191615 1.9083372e-38
0.010887542 -0.14655443 0.00038617104 1.6869959e-38
0.012740882 -0.14655443 0.00038617104 1.5855091e-38
0.014594221 -0.14655443 0.00038617104 1.8159629e-38
0.016447563 -0.14655443 0.00038617104 2.2677582e-38
0.018300902 -0.14655443 0.00038617104 2.3508794e-38
-0.0094009172 -0.14392884 0.016401939 9.4928849e-39
-0.0075756591 -0.14392884 0.016401939 8.3854611e-39
-0.0057425201 -0.14309107 0.019397669 7.9244857e-39
-0.0039225128 -0.14309107 0.019397669 6.5411842e-39
-0.0021025073 -0.14309107 0.019397669 1.1703397e-38
-0.00027462095 -0.14392884 0.016401939 1.3548014e-38
0.001550639 -0.14392884 0.016401939 1.6958891e-38
0.0033575129 -0.14309107 0.019397669 2.0462686e-38
0.0051775202 -0.14309107 0.019397669 2.138609e-38
0.0069975266 -0.14309107 0.019397669 1.8068132e-38
0.0088516753 -0.14392884 0.016401939 1.4105881e-38
0.012740882 -0.14840777 0.00038617104 1.2630398e-38
0.014594221 -0.14840777 0.00038617104 1.1338581e-38
0.016447563 -0.14840777 0.00038617104 1.6407909e-38
-0.0093825329 -0.14491107 0.019397669 8.2043068e-39
-0.0075625274 -0.14491107 0.019397669 1.19709e-39
-0.0057425201 -0.14491107 0.019397669 3.6734198e-40
-0.0039225128 -0.14491107 0.019397669 6.4284847e-40
-0.0021025073 -0.14491107 0.019397669 4.6043501e-39
-0.00027462095 -0.14575411 0.016401939 9.9498763e-39
0.001550639 -0.14575411 0.016401939 1.1514664e-38
0.0033575129 -0.14491107 0.019397669 1.6953845e-38
0.0051775202 -0.14491107 0.019397669 2.2394123e-38
0.0069975266 -0.14491107 0.019397669 1.8709904e-38
0.0088516753 -0.14575411 0.016401939 1.2353085e-38
-0.01120254 -0.14673109 0.019397669 6.453596e-40
-0.0093825329 -0.14673109 0.019397669 3.6841818e-40
-0.0075625274 -0.14673109 0.019397669 2.7550649e-40
-0.0057321787 -0.14561762 0.023329906 7.372021e-40
-0.0039190669 -0.14561762 0.023329906 4.3303093e-39
-0.0021025073 -0.14673109 0.019397669 7.4620615e-39
-0.00028249994 -0.14673109 0.019397669 1.3821014e-38
0.0015375074 -0.14673109 0.019397669 1.3173098e-38
0.0033333823 -0.14561762 0.023329906 9.6685825e-39
0.0051464951 -0.14561762 0.023329906 1.1605072e-38
0.0069596069 -0.14561762 0.023329906 1.6033712e-38
0.0087727197 -0.14561762 0.023329906 1.3827855e-38
-0.011171514 -0.14743073 0.023329906 5.5280664e-40
-0.0093584023 -0.14743073 0.023329906 1.1967313e-39
-0.0075625274 -0.14855109 0.019397669 5.5101298e-40
-0.0057321787 -0.14743073 0.023329906 5.5101298e-40
-0.0039190669 -0.14743073 0.023329906 4.9749487e-39
-0.0021059532 -0.14743073 0.023329906 9.3988759e-39
-0.00029284135 -0.14743073 0.023329906 1.2808294e-38
0.0015202705 -0.14743073 0.023329906 1.3359283e-38
0.0032965625 -0.14572121 0.029329948 8.7491415e-39
0.005099155 -0.14572121 0.029329948 7.9186844e-39
0.0069017466 -0.14572121 0.029329948 1.409868e-38
0.0087378295 -0.14655848 0.02639132 1.5670324e-38
-0.011171514 -0.14924385 0.023329906 6.4356594e-40
-0.0093584023 -0.14924385 0.023329906 7.350427e-40
-0.0057321787 -0.14924385 0.023329906 3.9604254e-39
-0.0039190669 -0.14924385 0.023329906 1.2349506e-38
-0.0021059532 -0.14924385 0.023329906 1.317853e-38
-0.00029284135 -0.14924385 0.023329906 1.2255832e-38
0.001506852 -0.14836623 0.02639132 1.373058e-38
0.0032965625 -0.14752381 0.029329948 1.1978144e-38
0.005099155 -0.14752381 0.029329948 9.6721964e-39
0.0069017466 -0.14752381 0.029329948 1.1148417e-38
0.0087378295 -0.14836623 0.02639132 1.3548383e-38
0.0032965625 -0.1493264 0.029329948 1.0414052e-38
0.005099155 -0.1493264 0.029329948 9.3055719e-39
0.0069017466 -0.1493264 0.029329948 1.0319375e-38
0.0087043392 -0.1493264 0.029329948 1.4099396e-38
