# .PCD v0.7 - Point Cloud Data file format
VERSION 0.7
FIELDS x y z rgb
SIZE 4 4 4 4
TYPE F F F F
COUNT 1 1 1 1
WIDTH 876
HEIGHT 1
VIEWPOINT 0 0 0 1 0 0 0
POINTS 876
DATA ascii
-0.0058956863 -0.12114228 -0.012698447 7.6500597e-39
-0.0039720861 -0.12114228 -0.012698447 8.2032306e-39
-0.0020484859 -0.12114228 -0.012698447 6.4515137e-39
-0.00012488384 -0.12114228 -0.012698447 4.700524e-39
0.023486435 -0.12382124 -0.023651397 1.5387979e-38
0.025429241 -0.12382124 -0.023651397 1.68613e-38
0.027372044 -0.12382124 -0.023651397 1.796584e-38
0.02931485 -0.12382124 -0.023651397 1.7042441e-38
0.031257655 -0.12382124 -0.023651397 1.7874356e-38
0.033200458 -0.12382124 -0.023651397 1.6587939e-38
0.035143264 -0.12382124 -0.023651397 1.7236191e-38
0.03708607 -0.12382124 -0.023651397 1.6498993e-38
0.039279483 -0.12480606 -0.027677691 1.050665e-38
0.041678838 -0.12652399 -0.034701385 8.8471413e-39
0.043641023 -0.12652399 -0.034701385 8.2723693e-40
0.045603201 -0.12652399 -0.034701385 5.5101298e-40
0.047565378 -0.12652399 -0.034701385 2.7550649e-40
-0.011833672 -0.12059332 -0.0026613832 6.3571572e-39
-0.00998352 -0.119846 0.00037225476 7.0932803e-39
-0.0080828359 -0.119846 0.00037225476 9.6743964e-39
-0.0060513867 -0.12131582 -0.0055942894 8.4754875e-39
-0.004045221 -0.12230472 -0.0096086618 8.2900173e-39
-0.0021270374 -0.12230472 -0.0096086618 7.2755024e-39
-0.00020885561 -0.12230472 -0.0096086618 6.6301428e-39
0.001709328 -0.12230472 -0.0096086618 3.7746118e-39
0.0036275098 -0.12230472 -0.0096086618 3.5905877e-39
0.0056459168 -0.12306587 -0.012698447 2.1161779e-39
0.0075695189 -0.12306587 -0.012698447 1.1945789e-39
0.021543629 -0.12576406 -0.023651397 3.1252767e-39
0.023486435 -0.12576406 -0.023651397 1.2067136e-38
0.025429241 -0.12576406 -0.023651397 1.6121937e-38
0.027372044 -0.12576406 -0.023651397 1.9900869e-38
0.02931485 -0.12576406 -0.023651397 1.8700883e-38
0.031257655 -0.12576406 -0.023651397 1.7965467e-38
0.033200458 -0.12576406 -0.023651397 1.603331e-38
0.035143264 -0.12576406 -0.023651397 1.787938e-38
0.03708607 -0.12576406 -0.023651397 1.8617316e-38
0.039279483 -0.12675591 -0.027677691 1.6036929e-38
0.041417919 -0.1274818 -0.030624306 1.2256925e-38
0.043372951 -0.1274818 -0.030624306 2.9462693e-39
0.045327984 -0.1274818 -0.030624306 7.3468397e-40
0.047565378 -0.12848614 -0.034701385 6.4284847e-40
-0.013636137 -0.12422292 -0.0096086618 1.5615622e-39
-0.011833672 -0.1224993 -0.0026613832 3.2192646e-39
-0.00998352 -0.12174667 0.00037225476 7.3659002e-39
-0.0080828359 -0.12174667 0.00037225476 1.0960086e-38
-0.0060513867 -0.12322696 -0.0055942894 1.1972796e-38
-0.004045221 -0.12422292 -0.0096086618 1.0958282e-38
-0.0021270374 -0.12422292 -0.0096086618 1.1050114e-38
-0.00020885561 -0.12422292 -0.0096086618 1.1234152e-38
0.001709328 -0.12422292 -0.0096086618 9.0221873e-39
0.0036275098 -0.12422292 -0.0096086618 8.8385219e-39
0.0055456953 -0.12422292 -0.0096086618 7.7325359e-39
0.0075695189 -0.12498946 -0.012698447 7.5492236e-39
0.0094931172 -0.12498946 -0.012698447 8.1031163e-39
0.011416719 -0.12498946 -0.012698447 7.3659114e-39
0.01946532 -0.12695493 -0.02062062 8.1963769e-39
0.02140281 -0.12695493 -0.02062062 3.6784421e-39
0.023340303 -0.12695493 -0.02062062 3.1238418e-39
0.025277793 -0.12695493 -0.02062062 6.9027416e-39
0.027372044 -0.12770687 -0.023651397 1.5107787e-38
0.02931485 -0.12770687 -0.023651397 1.6305966e-38
0.031257655 -0.12770687 -0.023651397 1.4554954e-38
0.033200458 -0.12770687 -0.023651397 1.4834755e-38
0.035143264 -0.12770687 -0.023651397 1.6863771e-38
0.03708607 -0.12770687 -0.023651397 1.6864501e-38
0.039028876 -0.12770687 -0.023651397 1.8708788e-38
0.041229345 -0.12870578 -0.027677691 1.3269984e-38
0.043179214 -0.12870578 -0.027677691 7.9237333e-39
0.045327984 -0.12943684 -0.030624306 4.8820131e-39
0.047283016 -0.12943684 -0.030624306 5.9901698e-39
0.049238041 -0.12943684 -0.030624306 1.2882081e-39
-0.013636137 -0.12614109 -0.0096086618 1.9285454e-39
-0.011784819 -0.12513812 -0.0055942894 5.336153e-39
-0.0098736743 -0.12513812 -0.0055942894 1.0405108e-38
-0.0079625314 -0.12513812 -0.0055942894 1.2431249e-38
-0.0060513867 -0.12513812 -0.0055942894 1.5195316e-38
-0.004140242 -0.12513812 -0.0055942894 1.3442155e-38
-0.0022290973 -0.12513812 -0.0055942894 1.2796062e-38
-0.0003179526 -0.12513812 -0.0055942894 1.1688277e-38
0.0015931921 -0.12513812 -0.0055942894 1.0949273e-38
0.0035043368 -0.12513812 -0.0055942894 1.1134027e-38
0.0054154815 -0.12513812 -0.0055942894 1.0304992e-38
0.0074638771 -0.12614109 -0.0096086618 1.0307153e-38
0.0093820626 -0.12614109 -0.0096086618 1.0308956e-38
0.011300244 -0.12614109 -0.0096086618 8.7430753e-39
0.013652847 -0.12889244 -0.02062062 9.7593894e-39
0.015590341 -0.12889244 -0.02062062 1.400219e-38
0.01752783 -0.12889244 -0.02062062 1.4279856e-38
0.019287579 -0.12789918 -0.016645228 1.418838e-38
0.021218102 -0.12789918 -0.016645228 7.5506544e-39
0.023340303 -0.12889244 -0.02062062 1.8367099e-39
0.025277793 -0.12889244 -0.02062062 2.941247e-39
0.027372044 -0.12964968 -0.023651397 1.0961884e-38
0.02931485 -0.12964968 -0.023651397 1.5940445e-38
0.031257655 -0.12964968 -0.023651397 1.8061283e-38
0.033200458 -0.12964968 -0.023651397 1.6032572e-38
0.035143264 -0.12964968 -0.023651397 1.6125472e-38
0.03708607 -0.12964968 -0.023651397 1.6494625e-38
0.039028876 -0.12964968 -0.023651397 1.7970848e-38
0.040971681 -0.12964968 -0.023651397 1.47451e-38
0.04291448 -0.12964968 -0.023651397 1.1150209e-38
0.045129076 -0.13065563 -0.027677691 9.5836189e-39
0.047078937 -0.13065563 -0.027677691 8.0181065e-39
0.049028806 -0.13065563 -0.027677691 8.9404327e-39
-0.015607109 -0.12704925 -0.0055942894 1.1884189e-38
-0.013695964 -0.12704925 -0.0055942894 1.547587e-38
-0.011784819 -0.12704925 -0.0055942894 1.492018e-38
-0.0098736743 -0.12704925 -0.0055942894 1.3351768e-38
-0.0079625314 -0.12704925 -0.0055942894 8.6487006e-39
-0.0060513867 -0.12704925 -0.0055942894 1.0861382e-38
-0.004140242 -0.12704925 -0.0055942894 1.0398957e-38
-0.0022290973 -0.12704925 -0.0055942894 1.1871932e-38
-0.0003179526 -0.12704925 -0.0055942894 1.1132934e-38
0.0015931921 -0.12704925 -0.0055942894 1.1132223e-38
0.0035043368 -0.12704925 -0.0055942894 1.1500288e-38
0.0054154815 -0.12704925 -0.0055942894 1.0762722e-38
0.0074638771 -0.12805928 -0.0096086618 1.0211706e-38
0.0093820626 -0.12805928 -0.0096086618 9.1078809e-39
0.0115655 -0.12982969 -0.016645228 6.0690349e-39
0.013652847 -0.13082992 -0.02062062 7.0860763e-39
0.015590341 -0.13082992 -0.02062062 1.2343751e-38
0.017357059 -0.12982969 -0.016645228 1.3174222e-38
0.019287579 -0.12982969 -0.016645228 1.4834462e-38
0.021218102 -0.12982969 -0.016645228 1.1148805e-38
0.023148622 -0.12982969 -0.016645228 5.8943728e-39
0.025079142 -0.12982969 -0.016645228 5.618502e-39
0.027009662 -0.12982969 -0.016645228 8.6605948e-39
0.02931485 -0.13159247 -0.023651397 1.5296522e-38
0.031257655 -0.13159247 -0.023651397 2.2763624e-38
0.033200458 -0.13159247 -0.023651397 2.2302601e-38
0.035143264 -0.13159247 -0.023651397 2.0643782e-38
0.03708607 -0.13159247 -0.023651397 2.3502216e-38
0.039028876 -0.13159247 -0.023651397 2.2949773e-38
0.040971681 -0.13159247 -0.023651397 2.3507641e-38
0.04291448 -0.13159247 -0.023651397 2.0001697e-38
0.045129076 -0.13260551 -0.027677691 2.0370857e-38
0.046800092 -0.13159247 -0.023651397 1.5301187e-38
0.048742898 -0.13159247 -0.023651397 1.6039482e-38
-0.019429399 -0.12896039 -0.0055942894 1.4718791e-39
-0.017518254 -0.12896039 -0.0055942894 8.9338971e-39
-0.015607109 -0.12896039 -0.0055942894 1.7778913e-38
-0.013695964 -0.12896039 -0.0055942894 1.9801858e-38
-0.011784819 -0.12896039 -0.0055942894 1.6112968e-38
-0.0098736743 -0.12896039 -0.0055942894 1.4362683e-38
-0.0079625314 -0.12896039 -0.0055942894 9.0178349e-39
-0.0060513867 -0.12896039 -0.0055942894 9.9422757e-39
-0.004140242 -0.12896039 -0.0055942894 1.2706696e-38
-0.0022290973 -0.12896039 -0.0055942894 1.2611994e-38
-0.0003179526 -0.12896039 -0.0055942894 1.2057766e-38
0.0015931921 -0.12896039 -0.0055942894 1.012241e-38
0.0035043368 -0.12896039 -0.0055942894 1.0951819e-38
0.0054154815 -0.12896039 -0.0055942894 8.1830533e-39
0.0074638771 -0.12997745 -0.0096086618 1.1134024e-38
0.0093820626 -0.12997745 -0.0096086618 9.3887754e-39
0.0115655 -0.13176022 -0.016645228 5.6134475e-39
0.013652847 -0.13276742 -0.02062062 5.0635444e-39
0.015590341 -0.13276742 -0.02062062 7.8304923e-39
0.017357059 -0.13176022 -0.016645228 1.1333175e-38
0.019287579 -0.13176022 -0.016645228 1.6681952e-38
0.021034721 -0.13076027 -0.012698447 1.5945486e-38
0.02295832 -0.13076027 -0.012698447 1.1982519e-38
0.024881922 -0.13076027 -0.012698447 7.8362292e-39
0.026805524 -0.13076027 -0.012698447 5.344785e-39
0.029152773 -0.13276742 -0.02062062 1.2990901e-38
0.031257655 -0.13353528 -0.023651397 2.3502991e-38
0.033200458 -0.13353528 -0.023651397 2.3503686e-38
0.035143264 -0.13353528 -0.023651397 2.1290618e-38
0.037329622 -0.13455538 -0.027677691 2.2305849e-38
0.039028876 -0.13353528 -0.023651397 2.3509077e-38
0.040971681 -0.13353528 -0.023651397 2.3508358e-38
0.04291448 -0.13353528 -0.023651397 2.332181e-38
0.044857286 -0.13353528 -0.023651397 2.1662297e-38
0.046800092 -0.13353528 -0.023651397 1.6961049e-38
0.048742898 -0.13353528 -0.023651397 1.7238003e-38
-0.021442346 -0.12757985 0.0073086857 4.702696e-39
-0.019429399 -0.13087155 -0.0055942894 1.2995597e-38
-0.017518254 -0.13087155 -0.0055942894 2.1010081e-38
-0.015607109 -0.13087155 -0.0055942894 2.3493956e-38
-0.013695964 -0.13087155 -0.0055942894 2.3487871e-38
-0.011784819 -0.13087155 -0.0055942894 1.3898103e-38
-0.0098736743 -0.13087155 -0.0055942894 1.178156e-38
-0.0079625314 -0.13087155 -0.0055942894 1.5011987e-38
-0.0060513867 -0.13087155 -0.0055942894 2.0546931e-38
-0.004140242 -0.13087155 -0.0055942894 2.2944366e-38
-0.0022290973 -0.13087155 -0.0055942894 2.1004315e-38
-0.0003179526 -0.13087155 -0.0055942894 1.9252623e-38
0.0015931921 -0.13087155 -0.0055942894 1.399967e-38
0.0035043368 -0.13087155 -0.0055942894 1.0402608e-38
0.0054154815 -0.13087155 -0.0055942894 1.3902059e-38
0.0074638771 -0.13189565 -0.0096086618 2.2569874e-38
0.0094931172 -0.13268389 -0.012698447 2.1008659e-38
0.0115655 -0.13369073 -0.016645228 9.3967053e-39
0.013652847 -0.1347049 -0.02062062 6.4497242e-39
0.01542654 -0.13369073 -0.016645228 7.5567906e-39
0.017357059 -0.13369073 -0.016645228 1.0044594e-38
0.019111119 -0.13268389 -0.012698447 1.7051451e-38
0.021034721 -0.13268389 -0.012698447 1.8344722e-38
0.022809342 -0.13189565 -0.0096086618 1.7516766e-38
0.024727523 -0.13189565 -0.0096086618 1.5767916e-38
0.026645709 -0.13189565 -0.0096086618 9.0354702e-39
0.028729122 -0.13268389 -0.012698447 1.2347312e-38
0.031090263 -0.1347049 -0.02062062 2.3224591e-38
0.033027753 -0.1347049 -0.02062062 2.2857242e-38
0.035143264 -0.13547809 -0.023651397 1.9632187e-38
0.03708607 -0.13547809 -0.023651397 2.0463027e-38
0.039028876 -0.13547809 -0.023651397 2.35062e-38
0.040971681 -0.13547809 -0.023651397 2.3507279e-38
0.04291448 -0.13547809 -0.023651397 2.3230331e-38
0.044857286 -0.13547809 -0.023651397 2.1939236e-38
0.046800092 -0.13547809 -0.023651397 1.7422376e-38
0.048742898 -0.13547809 -0.023651397 1.5302246e-38
0.050685704 -0.13547809 -0.023651397 1.1429322e-38
-0.038439039 -0.1294684 0.0073086857 2.1248211e-39
-0.036550518 -0.1294684 0.0073086857 2.4925218e-39
-0.023330867 -0.1294684 0.0073086857 4.8881634e-39
-0.021442346 -0.1294684 0.0073086857 4.7955937e-39
-0.019553825 -0.1294684 0.0073086857 1.1983237e-38
-0.017551679 -0.13202934 -0.0026613832 2.0089238e-38
-0.015685569 -0.1312501 0.00037225476 2.3501904e-38
-0.013784886 -0.1312501 0.00037225476 2.3496136e-38
-0.011884202 -0.1312501 0.00037225476 1.2150314e-38
-0.00998352 -0.1312501 0.00037225476 1.1230174e-38
-0.0080216685 -0.13202934 -0.0026613832 1.9623934e-38
-0.0060513867 -0.13278268 -0.0055942894 2.3223148e-38
-0.004140242 -0.13278268 -0.0055942894 2.3316059e-38
-0.0022290973 -0.13278268 -0.0055942894 2.0456201e-38
-0.0003179526 -0.13278268 -0.0055942894 1.9165837e-38
0.0015931921 -0.13278268 -0.0055942894 1.9259491e-38
0.0035043368 -0.13278268 -0.0055942894 1.4740463e-38
0.0054154815 -0.13278268 -0.0055942894 1.7318676e-38
0.0074638771 -0.13381381 -0.0096086618 2.2666374e-38
0.0093820626 -0.13381381 -0.0096086618 2.3131316e-38
0.011416719 -0.13460748 -0.012698447 1.0043515e-38
0.013340318 -0.13460748 -0.012698447 7.0958153e-39
0.01542654 -0.13562126 -0.016645228 7.4649607e-39
0.017187521 -0.13460748 -0.012698447 8.0166646e-39
0.019111119 -0.13460748 -0.012698447 1.5668526e-38
0.02089116 -0.13381381 -0.0096086618 1.742348e-38
0.022809342 -0.13381381 -0.0096086618 1.6965013e-38
0.024727523 -0.13381381 -0.0096086618 1.7244463e-38
0.026645709 -0.13381381 -0.0096086618 9.3138297e-39
0.028729122 -0.13460748 -0.012698447 1.1336009e-38
0.031090263 -0.13664238 -0.02062062 2.2304407e-38
0.033027753 -0.13664238 -0.02062062 2.3411845e-38
0.035143264 -0.13742088 -0.023651397 2.0646339e-38
0.03708607 -0.13742088 -0.023651397 2.0924005e-38
0.039028876 -0.13742088 -0.023651397 2.3509806e-38
0.040971681 -0.13742088 -0.023651397 2.3509443e-38
0.04291448 -0.13742088 -0.023651397 2.3229975e-38
0.0446527 -0.13664238 -0.02062062 2.1847046e-38
0.046590194 -0.13664238 -0.02062062 1.7330185e-38
0.04852768 -0.13664238 -0.02062062 1.3457977e-38
0.050465174 -0.13664238 -0.02062062 1.2259086e-38
-0.04032756 -0.13135691 0.0073086857 1.3879777e-39
-0.038439039 -0.13135691 0.0073086857 4.4304321e-39
-0.036550518 -0.13135691 0.0073086857 5.9959529e-39
-0.03464444 -0.13032107 0.011313999 5.257662e-39
-0.032762941 -0.13032107 0.011313999 6.9150212e-39
-0.030881442 -0.13032107 0.011313999 9.1248198e-39
-0.028999943 -0.13032107 0.011313999 1.5758198e-38
-0.027118444 -0.13032107 0.011313999 2.0828961e-38
-0.025219392 -0.13135691 0.0073086857 2.074112e-38
-0.023330867 -0.13135691 0.0073086857 5.0711114e-39
-0.021473948 -0.13032107 0.011313999 3.5052024e-39
-0.019592451 -0.13032107 0.011313999 1.3367964e-38
-0.017710952 -0.13032107 0.011313999 2.0367279e-38
-0.015737399 -0.13213144 0.0043137907 2.3502278e-38
-0.013843629 -0.13213144 0.0043137907 2.3031908e-38
-0.011949855 -0.13213144 0.0043137907 1.2613073e-38
-0.010056083 -0.13213144 0.0043137907 1.4274777e-38
-0.0080828359 -0.13315077 0.00037225476 2.3501191e-38
-0.0061156647 -0.13393532 -0.0026613832 2.3508037e-38
-0.0042096628 -0.13393532 -0.0026613832 2.3509121e-38
-0.0023036608 -0.13393532 -0.0026613832 2.3509123e-38
-0.00039765891 -0.13393532 -0.0026613832 2.3509485e-38
0.0015083449 -0.13393532 -0.0026613832 2.3509489e-38
0.003414345 -0.13393532 -0.0026613832 2.3509123e-38
0.0053203488 -0.13393532 -0.0026613832 2.350623e-38
0.0073266262 -0.13469382 -0.0055942894 2.3501546e-38
0.0092377709 -0.13469382 -0.0055942894 2.3509116e-38
0.011148916 -0.13469382 -0.0055942894 1.3363287e-38
0.013218426 -0.13573201 -0.0096086618 7.2816275e-39
0.015136612 -0.13573201 -0.0096086618 7.2816261e-39
0.017054792 -0.13573201 -0.0096086618 9.7690864e-39
0.018972974 -0.13573201 -0.0096086618 1.585435e-38
0.020704638 -0.13469382 -0.0055942894 1.7423833e-38
0.022615783 -0.13469382 -0.0055942894 1.5397685e-38
0.024526928 -0.13469382 -0.0055942894 1.429385e-38
0.026438072 -0.13469382 -0.0055942894 7.5621128e-39
0.028563891 -0.13573201 -0.0096086618 9.8623022e-39
0.030652724 -0.13653107 -0.012698447 1.7235792e-38
0.032801226 -0.1375518 -0.016645228 1.8802778e-38
0.034965247 -0.13857989 -0.02062062 1.8249253e-38
0.03708607 -0.13936369 -0.023651397 1.8895701e-38
0.038840227 -0.13857989 -0.02062062 2.3505483e-38
0.040777721 -0.13857989 -0.02062062 2.3229259e-38
0.04291448 -0.13936369 -0.023651397 2.2491697e-38
0.0446527 -0.13857989 -0.02062062 2.1662297e-38
0.046590194 -0.13857989 -0.02062062 1.8159589e-38
0.04852768 -0.13857989 -0.02062062 1.557776e-38
0.050465174 -0.13857989 -0.02062062 1.5209347e-38
-0.04032756 -0.13324542 0.0073086857 1.941869e-39
-0.038439039 -0.13324542 0.0073086857 3.1404094e-39
-0.036550518 -0.13324542 0.0073086857 4.9825171e-39
-0.03464444 -0.13220255 0.011313999 4.2445877e-39
-0.032762941 -0.13220255 0.011313999 5.8093897e-39
-0.030881442 -0.13220255 0.011313999 9.3095642e-39
-0.028999943 -0.13220255 0.011313999 1.6493231e-38
-0.027118444 -0.13220255 0.011313999 2.2669622e-38
-0.025236946 -0.13220255 0.011313999 2.1476522e-38
-0.023355447 -0.13220255 0.011313999 8.1131986e-39
-0.021473948 -0.13220255 0.011313999 4.5211396e-39
-0.01962205 -0.13140334 0.014383519 1.2908777e-38
-0.017745934 -0.13140334 0.014383519 2.0092853e-38
-0.015776783 -0.13324542 0.0073086857 2.3501202e-38
-0.013888261 -0.13324542 0.0073086857 2.3498286e-38
-0.01199974 -0.13324542 0.0073086857 1.4550978e-38
-0.010111219 -0.13324542 0.0073086857 1.565878e-38
-0.0081623113 -0.1340252 0.0043137907 2.3504429e-38
-0.0062685376 -0.1340252 0.0043137907 2.3507691e-38
-0.0042814696 -0.13505147 0.00037225476 2.3508421e-38
-0.0023807855 -0.13505147 0.00037225476 2.3509142e-38
-0.00048010331 -0.13505147 0.00037225476 2.3509859e-38
0.0014205808 -0.13505147 0.00037225476 2.249642e-38
0.003414345 -0.13584132 -0.0026613832 2.3509853e-38
0.0053203488 -0.13584132 -0.0026613832 2.3506616e-38
0.0072263489 -0.13584132 -0.0026613832 2.3504104e-38
0.0091323527 -0.13584132 -0.0026613832 2.3507348e-38
0.011148916 -0.13660498 -0.0055942894 1.4747308e-38
0.013218426 -0.13765021 -0.0096086618 8.3893805e-39
0.015136612 -0.13765021 -0.0096086618 9.3120375e-39
0.016882349 -0.13660498 -0.0055942894 8.6648604e-39
0.018793494 -0.13660498 -0.0055942894 1.1245985e-38
0.020568363 -0.13584132 -0.0026613832 1.4197705e-38
0.022474367 -0.13584132 -0.0026613832 1.5489178e-38
0.024380371 -0.13584132 -0.0026613832 1.3738905e-38
0.026438072 -0.13660498 -0.0055942894 8.8517978e-39
0.028349217 -0.13660498 -0.0055942894 9.6789969e-39
0.030482076 -0.13765021 -0.0096086618 1.1244869e-38
0.032576323 -0.13845469 -0.012698447 1.6037988e-38
0.034965247 -0.14051737 -0.02062062 1.8710954e-38
0.036902741 -0.14051737 -0.02062062 1.9171932e-38
0.038840227 -0.14051737 -0.02062062 2.2951953e-38
0.040523306 -0.1394823 -0.016645228 2.2491697e-38
0.042194329 -0.13845469 -0.012698447 2.2399144e-38
0.044117928 -0.13845469 -0.012698447 2.2399868e-38
0.045827538 -0.13765021 -0.0096086618 2.0464484e-38
0.04774572 -0.13765021 -0.0096086618 1.9542178e-38
0.050465174 -0.14051737 -0.02062062 1.7329491e-38
-0.05165869 -0.13513394 0.0073086857 2.2312413e-38
-0.049770169 -0.13513394 0.0073086857 2.3234372e-38
-0.047881648 -0.13513394 0.0073086857 2.3050701e-38
-0.044143986 -0.13591899 0.0043137907 2.2591531e-38
-0.042250216 -0.13591899 0.0043137907 2.0105487e-38
-0.040356442 -0.13591899 0.0043137907 1.0424589e-38
-0.038462669 -0.13591899 0.0043137907 4.9843248e-39
-0.036550518 -0.13513394 0.0073086857 6.0892276e-39
-0.034661997 -0.13513394 0.0073086857 6.918261e-39
-0.032762941 -0.13408406 0.011313999 6.6402293e-39
-0.030881442 -0.13408406 0.011313999 7.4656488e-39
-0.029002637 -0.13327946 0.014383519 1.2619571e-38
-0.027126517 -0.13327946 0.014383519 2.2760013e-38
-0.025236946 -0.13408406 0.011313999 2.0737869e-38
-0.023355447 -0.13408406 0.011313999 1.7792652e-38
-0.021473948 -0.13408406 0.011313999 1.0053229e-38
-0.01962205 -0.13327946 0.014383519 1.0973739e-38
-0.017745934 -0.13327946 0.014383519 2.166304e-38
-0.015829453 -0.13408406 0.011313999 2.3508752e-38
-0.013947953 -0.13408406 0.011313999 2.3505135e-38
-0.01199974 -0.13513394 0.0073086857 1.6303064e-38
-0.010111219 -0.13513394 0.0073086857 1.6120113e-38
-0.0082226982 -0.13513394 0.0073086857 2.3502265e-38
-0.0063341754 -0.13513394 0.0073086857 2.3508777e-38
-0.0043747658 -0.13591899 0.0043137907 2.3509511e-38
-0.002480994 -0.13591899 0.0043137907 2.341804e-38
-0.0005872203 -0.13591899 0.0043137907 2.2958863e-38
0.0013065515 -0.13591899 0.0043137907 2.3142528e-38
0.0033212649 -0.13695215 0.00037225476 2.3509869e-38
0.0052219452 -0.13695215 0.00037225476 2.3509153e-38
0.0071226293 -0.13695215 0.00037225476 2.3508438e-38
0.0091323527 -0.13774733 -0.0026613832 2.3508441e-38
0.011148916 -0.13851611 -0.0055942894 2.1663063e-38
0.01306006 -0.13851611 -0.0055942894 2.0098928e-38
0.014971205 -0.13851611 -0.0055942894 2.0376571e-38
0.016882349 -0.13851611 -0.0055942894 2.0466256e-38
0.018662363 -0.13774733 -0.0026613832 1.640894e-38
0.020568363 -0.13774733 -0.0026613832 1.6409681e-38
0.022474367 -0.13774733 -0.0026613832 1.936068e-38
0.024380371 -0.13774733 -0.0026613832 1.5765788e-38
0.026286371 -0.13774733 -0.0026613832 1.1431859e-38
0.028192375 -0.13774733 -0.0026613832 9.493905e-39
0.030260362 -0.13851611 -0.0055942894 6.0819492e-39
0.032400258 -0.13956837 -0.0096086618 1.7420568e-38
0.034499921 -0.14037828 -0.012698447 2.350729e-38
0.036423527 -0.14037828 -0.012698447 2.3320738e-38
0.038592786 -0.14141284 -0.016645228 2.3509814e-38
0.040270723 -0.14037828 -0.012698447 2.3508372e-38
0.041991174 -0.13956837 -0.0096086618 2.3509098e-38
0.043909356 -0.13956837 -0.0096086618 2.3509825e-38
0.045827538 -0.13956837 -0.0096086618 2.3508749e-38
0.04774572 -0.13956837 -0.0096086618 2.295306e-38
0.049663909 -0.13956837 -0.0096086618 1.8159254e-38
-0.055340927 -0.13596557 0.011313999 1.383114e-38
-0.053459428 -0.13596557 0.011313999 2.2313135e-38
-0.05165869 -0.13702248 0.0073086857 2.3418045e-38
-0.049770169 -0.13702248 0.0073086857 2.2774113e-38
-0.047881648 -0.13702248 0.0073086857 2.3142541e-38
-0.04603776 -0.13781275 0.0043137907 2.2867037e-38
-0.044143986 -0.13781275 0.0043137907 2.240786e-38
-0.042250216 -0.13781275 0.0043137907 2.1211477e-38
-0.04032756 -0.13702248 0.0073086857 1.7154872e-38
-0.038439039 -0.13702248 0.0073086857 4.4318726e-39
-0.036550518 -0.13702248 0.0073086857 4.3385924e-39
-0.034661997 -0.13702248 0.0073086857 6.9186253e-39
-0.032754868 -0.13515557 0.014383519 6.1796169e-39
-0.030878752 -0.13515557 0.014383519 4.6997855e-39
-0.029002637 -0.13515557 0.014383519 1.16969e-38
-0.027126517 -0.13515557 0.014383519 2.3496859e-38
-0.025250401 -0.13515557 0.014383519 2.2026799e-38
-0.023355447 -0.13596557 0.011313999 1.9358888e-38
-0.021498168 -0.13515557 0.014383519 1.2541429e-38
-0.01962205 -0.13515557 0.014383519 1.0145402e-38
-0.017745934 -0.13515557 0.014383519 2.3509809e-38
-0.015829453 -0.13596557 0.011313999 2.3509083e-38
-0.013947953 -0.13596557 0.011313999 2.3507669e-38
-0.01199974 -0.13702248 0.0073086857 1.916043e-38
-0.010111219 -0.13702248 0.0073086857 1.7316864e-38
-0.0082226982 -0.13702248 0.0073086857 2.2574541e-38
-0.0063341754 -0.13702248 0.0073086857 2.3508411e-38
-0.0043747658 -0.13781275 0.0043137907 2.3506628e-38
-0.002480994 -0.13781275 0.0043137907 2.3049975e-38
-0.0005872203 -0.13781275 0.0043137907 2.2683363e-38
0.0013065515 -0.13781275 0.0043137907 2.2867037e-38
0.0032003233 -0.13781275 0.0043137907 2.2589734e-38
0.005094097 -0.13781275 0.0043137907 2.3509876e-38
0.0069878707 -0.13781275 0.0043137907 2.350807e-38
0.0090233134 -0.13885282 0.00037225476 2.3414075e-38
0.011038356 -0.13965334 -0.0026613832 2.350805e-38
0.012944357 -0.13965334 -0.0026613832 2.3509809e-38
0.01485036 -0.13965334 -0.0026613832 2.2771871e-38
0.016756359 -0.13965334 -0.0026613832 2.3509821e-38
0.018662363 -0.13965334 -0.0026613832 1.8988998e-38
0.020568363 -0.13965334 -0.0026613832 1.5855789e-38
0.022474367 -0.13965334 -0.0026613832 1.9175201e-38
0.024380371 -0.13965334 -0.0026613832 1.5671077e-38
0.026286371 -0.13965334 -0.0026613832 1.4103032e-38
0.028192375 -0.13965334 -0.0026613832 1.0967276e-38
0.030260362 -0.14042725 -0.0055942894 5.7113885e-39
0.032400258 -0.14148657 -0.0096086618 1.4285931e-38
0.034499921 -0.14230187 -0.012698447 2.3509816e-38
0.036423527 -0.14230187 -0.012698447 2.3507652e-38
0.038347125 -0.14230187 -0.012698447 2.3509816e-38
0.040072992 -0.14148657 -0.0096086618 2.3509098e-38
0.041991174 -0.14148657 -0.0096086618 2.3509825e-38
0.043909356 -0.14148657 -0.0096086618 2.3509828e-38
0.045549519 -0.14042725 -0.0055942894 2.3509834e-38
0.04746066 -0.14042725 -0.0055942894 2.3321844e-38
-0.057324257 -0.13891099 0.0073086857 1.1711003e-38
-0.055340927 -0.13784705 0.011313999 1.3093219e-38
-0.053459428 -0.13784705 0.011313999 2.3418047e-38
-0.051577929 -0.13784705 0.011313999 2.3049621e-38
-0.049770169 -0.13891099 0.0073086857 2.3418047e-38
-0.047881648 -0.13891099 0.0073086857 2.2774479e-38
-0.045993127 -0.13891099 0.0073086857 2.2683366e-38
-0.044104606 -0.13891099 0.0073086857 2.2591531e-38
-0.042250216 -0.13970654 0.0043137907 2.1580264e-38
-0.04032756 -0.13891099 0.0073086857 2.2316024e-38
-0.038439039 -0.13891099 0.0073086857 4.4318754e-39
-0.036550518 -0.13891099 0.0073086857 2.2177384e-39
-0.03464444 -0.13784705 0.011313999 5.2594697e-39
-0.032754868 -0.13703169 0.014383519 6.271814e-39
-0.030878752 -0.13703169 0.014383519 5.4369988e-39
-0.029002637 -0.13703169 0.014383519 1.0221065e-38
-0.027126517 -0.13703169 0.014383519 1.9070756e-38
-0.025250401 -0.13703169 0.014383519 2.3502998e-38
-0.023374286 -0.13703169 0.014383519 2.0465219e-38
-0.021498168 -0.13703169 0.014383519 1.5490959e-38
-0.019650396 -0.13625093 0.017322863 5.8118405e-39
-0.017779432 -0.13625093 0.017322863 2.2035725e-38
-0.015869817 -0.13703169 0.014383519 2.3137401e-38
-0.0139937 -0.13703169 0.014383519 2.350407e-38
-0.012066455 -0.13784705 0.011313999 1.9251921e-38
-0.010184958 -0.13784705 0.011313999 1.6208727e-38
-0.0083034588 -0.13784705 0.011313999 1.8884558e-38
-0.0063341754 -0.13891099 0.0073086857 2.3501922e-38
-0.0044456543 -0.13891099 0.0073086857 2.3507337e-38
-0.0025571333 -0.13891099 0.0073086857 2.3509866e-38
-0.00066861231 -0.13891099 0.0073086857 2.2591518e-38
0.0013065515 -0.13970654 0.0043137907 2.2683007e-38
0.0032003233 -0.13970654 0.0043137907 2.1391547e-38
0.005094097 -0.13970654 0.0043137907 2.0836547e-38
0.0069878707 -0.13970654 0.0043137907 2.0834737e-38
0.0088816406 -0.13970654 0.0043137907 2.35095e-38
0.010923997 -0.14075352 0.00037225476 2.3506608e-38
0.012824682 -0.14075352 0.00037225476 2.3413664e-38
0.01485036 -0.14155935 -0.0026613832 2.3509824e-38
0.016756359 -0.14155935 -0.0026613832 2.3508047e-38
0.018662363 -0.14155935 -0.0026613832 2.027796e-38
0.020568363 -0.14155935 -0.0026613832 1.6868148e-38
0.022474367 -0.14155935 -0.0026613832 1.9726933e-38
0.024380371 -0.14155935 -0.0026613832 1.6498674e-38
0.026286371 -0.14155935 -0.0026613832 1.6958939e-38
0.028349217 -0.14233841 -0.0055942894 1.2624657e-38
0.030260362 -0.14233841 -0.0055942894 5.6181348e-39
0.032400258 -0.14340474 -0.0096086618 1.1611909e-38
0.03431844 -0.14340474 -0.0096086618 2.3509818e-38
0.036236621 -0.14340474 -0.0096086618 2.3506217e-38
0.038347125 -0.14422549 -0.012698447 2.332075e-38
0.040072992 -0.14340474 -0.0096086618 2.2951968e-38
0.04172723 -0.14233841 -0.0055942894 2.2951971e-38
0.043638371 -0.14233841 -0.0055942894 2.1107706e-38
0.045549519 -0.14233841 -0.0055942894 2.0462339e-38
0.04746066 -0.14233841 -0.0055942894 1.9909529e-38
0.049371809 -0.14233841 -0.0055942894 1.3825344e-38
0.05128295 -0.14233841 -0.0055942894 1.2073988e-38
0.053194102 -0.14233841 -0.0055942894 1.1153114e-38
0.055418458 -0.14340474 -0.0096086618 8.1110238e-39
0.05733664 -0.14340474 -0.0096086618 2.856233e-39
-0.059103925 -0.13972856 0.011313999 1.4383234e-38
-0.057222426 -0.13972856 0.011313999 1.1986871e-38
-0.055340927 -0.13972856 0.011313999 1.2262738e-38
-0.053459428 -0.13972856 0.011313999 2.3509883e-38
-0.051577929 -0.13972856 0.011313999 2.3509883e-38
-0.049770169 -0.14079951 0.0073086857 2.2495731e-38
-0.047881648 -0.14079951 0.0073086857 2.3234379e-38
-0.045993127 -0.14079951 0.0073086857 2.2958873e-38
-0.044104606 -0.14079951 0.0073086857 2.2775202e-38
-0.042250216 -0.1416003 0.0043137907 2.2040159e-38
-0.04032756 -0.14079951 0.0073086857 2.1948682e-38
-0.038439039 -0.14079951 0.0073086857 7.8427606e-39
-0.036525939 -0.13972856 0.011313999 5.1676454e-39
-0.03464444 -0.13972856 0.011313999 4.8899725e-39
-0.032754868 -0.13890781 0.014383519 7.4700068e-39
-0.030878752 -0.13890781 0.014383519 5.6206824e-39
-0.029002637 -0.13890781 0.014383519 7.2715465e-39
-0.027126517 -0.13890781 0.014383519 1.9347719e-38
-0.025250401 -0.13890781 0.014383519 2.3505507e-38
-0.023374286 -0.13890781 0.014383519 2.3138509e-38
-0.021498168 -0.13890781 0.014383519 1.926989e-38
-0.019650396 -0.13812189 0.017322863 5.2575822e-39
-0.017779432 -0.13812189 0.017322863 9.5896641e-39
-0.015908469 -0.13812189 0.017322863 1.705284e-38
-0.014037506 -0.13812189 0.017322863 2.146964e-38
-0.012066455 -0.13972856 0.011313999 2.164901e-38
-0.010184958 -0.13972856 0.011313999 1.749732e-38
-0.0083034588 -0.13972856 0.011313999 1.7129252e-38
-0.00642196 -0.13972856 0.011313999 2.2665669e-38
-0.0045404611 -0.13972856 0.011313999 2.3504437e-38
-0.0025571333 -0.14079951 0.0073086857 2.3509846e-38
-0.00066861231 -0.14079951 0.0073086857 1.9822747e-38
0.0012199087 -0.14079951 0.0073086857 1.7795173e-38
0.0032003233 -0.1416003 0.0043137907 1.2078678e-38
0.005094097 -0.1416003 0.0043137907 1.3184641e-38
0.0069878707 -0.1416003 0.0043137907 2.0281898e-38
0.0088816406 -0.1416003 0.0043137907 2.1661246e-38
0.010775414 -0.1416003 0.0043137907 2.3507325e-38
0.012824682 -0.1426542 0.00037225476 2.3509119e-38
0.01485036 -0.14346536 -0.0026613832 2.3504088e-38
0.016756359 -0.14346536 -0.0026613832 2.3507723e-38
0.018662363 -0.14346536 -0.0026613832 1.9262038e-38
0.020568363 -0.14346536 -0.0026613832 1.2349135e-38
0.022474367 -0.14346536 -0.0026613832 1.5484135e-38
0.024380371 -0.14346536 -0.0026613832 1.7695045e-38
0.026438072 -0.14424954 -0.0055942894 1.6772738e-38
0.028349217 -0.14424954 -0.0055942894 1.5204692e-38
0.030260362 -0.14424954 -0.0055942894 4.8798523e-39
0.032400258 -0.14532293 -0.0096086618 7.5549479e-39
0.03431844 -0.14532293 -0.0096086618 2.2399514e-38
0.036236621 -0.14532293 -0.0096086618 2.276758e-38
0.038154811 -0.14532293 -0.0096086618 2.1845624e-38
0.039816082 -0.14424954 -0.0055942894 2.1844908e-38
0.04172723 -0.14424954 -0.0055942894 2.1383574e-38
0.043638371 -0.14424954 -0.0055942894 2.0922598e-38
0.045346394 -0.14346536 -0.0026613832 1.8525873e-38
0.047252394 -0.14346536 -0.0026613832 1.6959269e-38
0.049158402 -0.14346536 -0.0026613832 1.3640953e-38
0.051064402 -0.14346536 -0.0026613832 1.1428619e-38
0.052970402 -0.14346536 -0.0026613832 9.3092012e-39
0.055105235 -0.14424954 -0.0055942894 8.1110238e-39
0.057016384 -0.14424954 -0.0055942894 1.6577025e-39
-0.060896624 -0.14078392 0.014383519 1.2260926e-38
-0.059020508 -0.14078392 0.014383519 1.4475067e-38
-0.057144389 -0.14078392 0.014383519 1.7978864e-38
-0.055268273 -0.14078392 0.014383519 1.6041674e-38
-0.053459428 -0.14161004 0.011313999 1.9360717e-38
-0.051577929 -0.14161004 0.011313999 2.3509521e-38
-0.049696431 -0.14161004 0.011313999 2.3509883e-38
-0.047814932 -0.14161004 0.011313999 2.2865235e-38
-0.045933437 -0.14161004 0.011313999 2.2036562e-38
-0.044104606 -0.14268802 0.0073086857 2.2406783e-38
-0.042216085 -0.14268802 0.0073086857 2.2591531e-38
-0.040288936 -0.14161004 0.011313999 2.2224189e-38
-0.038407438 -0.14161004 0.011313999 1.4571964e-38
-0.036525939 -0.14161004 0.011313999 5.5353517e-39
-0.034630988 -0.14078392 0.014383519 6.5484191e-39
-0.032754868 -0.14078392 0.014383519 7.653682e-39
-0.030878752 -0.14078392 0.014383519 7.1880193e-39
-0.029002637 -0.14078392 0.014383519 9.6697343e-39
-0.027126517 -0.14078392 0.014383519 1.8887473e-38
-0.025250401 -0.14078392 0.014383519 2.2211874e-38
-0.023374286 -0.14078392 0.014383519 2.3509797e-38
-0.021498168 -0.14078392 0.014383519 2.2310893e-38
-0.019650396 -0.13999285 0.017322863 5.0710413e-39
-0.017779432 -0.13999285 0.017322863 4.6093527e-39
-0.015908469 -0.13999285 0.017322863 7.9251219e-39
-0.014037506 -0.13999285 0.017322863 1.6491788e-38
-0.012117584 -0.14078392 0.014383519 2.3493998e-38
-0.010241467 -0.14078392 0.014383519 1.878699e-38
-0.0083653489 -0.14078392 0.014383519 1.6481376e-38
-0.0064892331 -0.14078392 0.014383519 2.0450093e-38
-0.0046131155 -0.14078392 0.014383519 2.3501184e-38
-0.0025571333 -0.14268802 0.0073086857 2.3505865e-38
-0.00066861231 -0.14268802 0.0073086857 1.0138584e-38
0.0012199087 -0.14268802 0.0073086857 1.2537116e-38
0.0032003233 -0.14349405 0.0043137907 1.0786115e-38
0.005094097 -0.14349405 0.0043137907 1.4105859e-38
0.0069878707 -0.14349405 0.0043137907 2.2216913e-38
0.0088816406 -0.14349405 0.0043137907 2.3227839e-38
0.010775414 -0.14349405 0.0043137907 2.3508758e-38
0.012824682 -0.14455487 0.00037225476 2.1840952e-38
0.014725362 -0.14455487 0.00037225476 5.4301465e-39
0.016626045 -0.14455487 0.00037225476 4.1408832e-39
0.018526729 -0.14455487 0.00037225476 3.7728196e-39
0.020427413 -0.14455487 0.00037225476 4.6039843e-39
0.022328094 -0.14455487 0.00037225476 1.2624992e-38
0.024380371 -0.14537133 -0.0026613832 1.5850048e-38
0.026286371 -0.14537133 -0.0026613832 1.4926658e-38
0.028192375 -0.14537133 -0.0026613832 1.3082392e-38
0.030260362 -0.14616071 -0.0055942894 2.7582935e-39
0.032171506 -0.14616071 -0.0055942894 4.3277478e-39
0.03431844 -0.1472411 -0.0096086618 1.760499e-38
0.036236621 -0.1472411 -0.0096086618 1.659012e-38
0.038154811 -0.1472411 -0.0096086618 1.446962e-38
0.039816082 -0.14616071 -0.0055942894 1.4468901e-38
0.04172723 -0.14616071 -0.0055942894 1.5206469e-38
0.043638371 -0.14616071 -0.0055942894 1.6220621e-38
0.045346394 -0.14537133 -0.0026613832 1.4745492e-38
0.047252394 -0.14537133 -0.0026613832 1.5114638e-38
0.048937663 -0.14455487 0.00037225476 1.2902308e-38
0.050838344 -0.14455487 0.00037225476 1.14279e-38
0.052739032 -0.14455487 0.00037225476 9.2166497e-39
0.054876398 -0.14537133 -0.0026613832 7.8344369e-39
0.057016384 -0.14616071 -0.0055942894 1.6584199e-39
-0.060896624 -0.14266007 0.014383519 1.2998131e-38
-0.059020508 -0.14266007 0.014383519 1.5118993e-38
-0.057069663 -0.14186381 0.017322863 1.7977781e-38
-0.055198696 -0.14186381 0.017322863 1.6132426e-38
-0.053392153 -0.14266007 0.014383519 1.6317173e-38
-0.051577929 -0.14349155 0.011313999 2.3415881e-38
-0.049696431 -0.14349155 0.011313999 2.3509879e-38
-0.047814932 -0.14349155 0.011313999 2.2403175e-38
-0.045933437 -0.14349155 0.011313999 2.341805e-38
-0.044104606 -0.14457656 0.0073086857 2.2682649e-38
-0.042216085 -0.14457656 0.0073086857 2.2867037e-38
-0.040288936 -0.14349155 0.011313999 2.2683366e-38
-0.038407438 -0.14349155 0.011313999 2.0932023e-38
-0.036525939 -0.14349155 0.011313999 9.4064892e-39
-0.034630988 -0.14266007 0.014383519 7.9302773e-39
-0.032754868 -0.14266007 0.014383519 8.758952e-39
-0.030878752 -0.14266007 0.014383519 9.3085244e-39
-0.029005211 -0.14186381 0.017322863 9.4868018e-39
-0.027134247 -0.14186381 0.017322863 1.6676591e-38
-0.025250401 -0.14266007 0.014383519 1.9998809e-38
-0.023374286 -0.14266007 0.014383519 2.3508696e-38
-0.021498168 -0.14266007 0.014383519 2.3509423e-38
-0.019650396 -0.14186381 0.017322863 7.925852e-39
-0.017779432 -0.14186381 0.017322863 5.1596482e-39
-0.015908469 -0.14186381 0.017322863 6.1716323e-39
-0.014037506 -0.14186381 0.017322863 1.3266725e-38
-0.012166544 -0.14186381 0.017322863 1.9991622e-38
-0.01029558 -0.14186381 0.017322863 2.1091529e-38
-0.0084246164 -0.14186381 0.017322863 1.7401909e-38
-0.0065536527 -0.14186381 0.017322863 1.805013e-38
-0.0046131155 -0.14266007 0.014383519 2.3499736e-38
-0.0026589623 -0.14349155 0.011313999 2.3130226e-38
-0.00077746343 -0.14349155 0.011313999 1.3177777e-38
0.0012199087 -0.14457656 0.0073086857 1.2533495e-38
0.0032003233 -0.14538784 0.0043137907 1.3088107e-38
0.005094097 -0.14538784 0.0043137907 1.5209682e-38
0.0069878707 -0.14538784 0.0043137907 2.3044513e-38
0.0088816406 -0.14538784 0.0043137907 2.3508379e-38
0.010775414 -0.14538784 0.0043137907 2.3505138e-38
0.012824682 -0.14645557 0.00037225476 2.2023881e-38
0.014725362 -0.14645557 0.00037225476 2.8479766e-39
0.016626045 -0.14645557 0.00037225476 2.2058456e-39
0.018526729 -0.14645557 0.00037225476 2.4835045e-39
0.020427413 -0.14645557 0.00037225476 5.6181348e-39
0.022328094 -0.14645557 0.00037225476 1.4560022e-38
0.024228778 -0.14645557 0.00037225476 1.741521e-38
0.025925592 -0.14538784 0.0043137907 1.6123395e-38
0.027819365 -0.14538784 0.0043137907 1.3174222e-38
0.030098375 -0.14727734 -0.0026613832 2.1125751e-39
0.032171506 -0.14807184 -0.0055942894 4.1433607e-39
0.03431844 -0.1491593 -0.0096086618 1.6498291e-38
0.036236621 -0.1491593 -0.0096086618 1.5852203e-38
0.038154811 -0.1491593 -0.0096086618 1.3455114e-38
0.039816082 -0.14807184 -0.0055942894 1.3823536e-38
0.04172723 -0.14807184 -0.0055942894 1.4653295e-38
0.043638371 -0.14807184 -0.0055942894 1.5667447e-38
0.045346394 -0.14727734 -0.0026613832 1.4100123e-38
0.047252394 -0.14727734 -0.0026613832 1.3455117e-38
0.048937663 -0.14645557 0.00037225476 1.2164741e-38
0.050838344 -0.14645557 0.00037225476 1.1335707e-38
0.052739032 -0.14645557 0.00037225476 8.7556743e-39
0.054876398 -0.14727734 -0.0026613832 6.8199305e-39
0.056782406 -0.14727734 -0.0026613832 1.3818372e-39
-0.064648852 -0.14453618 0.014383519 1.5485227e-38
-0.062772736 -0.14453618 0.014383519 1.3918278e-38
-0.060811587 -0.14373477 0.017322863 1.4102678e-38
-0.058940623 -0.14373477 0.017322863 1.6961461e-38
-0.057069663 -0.14373477 0.017322863 1.9175234e-38
-0.055198696 -0.14373477 0.017322863 1.8436227e-38
-0.053392153 -0.14453618 0.014383519 1.3918641e-38
-0.051516037 -0.14453618 0.014383519 1.7237686e-38
-0.049696431 -0.14537306 0.011313999 2.3509511e-38
-0.047814932 -0.14537306 0.011313999 2.3509517e-38
-0.045933437 -0.14537306 0.011313999 2.314074e-38
-0.044104606 -0.14646508 0.0073086857 2.3234379e-38
-0.042216085 -0.14646508 0.0073086857 2.249826e-38
-0.040288936 -0.14537306 0.011313999 2.2867037e-38
-0.038407438 -0.14537306 0.011313999 2.2775202e-38
-0.036525939 -0.14537306 0.011313999 1.7334234e-38
-0.034618102 -0.14373477 0.017322863 9.0351829e-39
-0.032747138 -0.14373477 0.017322863 1.152374e-38
-0.030876175 -0.14373477 0.017322863 1.2995994e-38
-0.029005211 -0.14373477 0.017322863 1.4375332e-38
-0.027134247 -0.14373477 0.017322863 1.9813403e-38
-0.025250401 -0.14453618 0.014383519 2.3410405e-38
-0.023374286 -0.14453618 0.014383519 2.350869e-38
-0.02152136 -0.14373477 0.017322863 2.3135236e-38
-0.019650396 -0.14373477 0.017322863 1.022787e-38
-0.017779432 -0.14373477 0.017322863 6.540796e-39
-0.01596164 -0.14263238 0.021366203 6.9092156e-39
-0.014097766 -0.14263238 0.021366203 1.1148383e-38
-0.012233892 -0.14263238 0.021366203 1.5661297e-38
-0.010370017 -0.14263238 0.021366203 1.7959391e-38
-0.0085061444 -0.14263238 0.021366203 1.1871613e-38
-0.0065536527 -0.14373477 0.017322863 1.1779393e-38
-0.0046826908 -0.14373477 0.017322863 2.2662418e-38
-0.0026589623 -0.14537306 0.011313999 1.9717182e-38
-0.00077746343 -0.14537306 0.011313999 1.0593054e-38
0.0012199087 -0.14646508 0.0073086857 1.6124446e-38
0.0032003233 -0.1472816 0.0043137907 2.0828586e-38
0.005094097 -0.1472816 0.0043137907 1.8893917e-38
0.0069878707 -0.1472816 0.0043137907 1.7234752e-38
0.0088816406 -0.1472816 0.0043137907 1.8522243e-38
0.010923997 -0.14835624 0.00037225476 1.9442398e-38
0.012824682 -0.14835624 0.00037225476 1.9995212e-38
0.014725362 -0.14835624 0.00037225476 6.8126899e-39
0.016626045 -0.14835624 0.00037225476 1.4693679e-39
0.018526729 -0.14835624 0.00037225476 9.1835496e-40
0.020427413 -0.14835624 0.00037225476 2.2087154e-39
0.022328094 -0.14835624 0.00037225476 9.4903415e-39
0.024031822 -0.1472816 0.0043137907 1.1976022e-38
0.025925592 -0.1472816 0.0043137907 1.2527402e-38
0.027819365 -0.1472816 0.0043137907 1.1514706e-38
0.030098375 -0.14918335 -0.0026613832 2.1125751e-39
0.032004379 -0.14918335 -0.0026613832 1.9299803e-39
0.034082651 -0.14998297 -0.0055942894 1.3916462e-38
0.035993792 -0.14998297 -0.0055942894 1.5298676e-38
0.039816082 -0.14998297 -0.0055942894 1.4652941e-38
0.04172723 -0.14998297 -0.0055942894 1.437671e-38
0.043638371 -0.14998297 -0.0055942894 1.4100122e-38
0.045549519 -0.14998297 -0.0055942894 1.1703035e-38
0.047252394 -0.14918335 -0.0026613832 1.1149863e-38
0.048937663 -0.14835624 0.00037225476 1.0228632e-38
0.050838344 -0.14835624 0.00037225476 9.4917946e-39
0.052739032 -0.14835624 0.00037225476 6.542982e-39
0.054876398 -0.14918335 -0.0026613832 4.5146866e-39
0.056782406 -0.14918335 -0.0026613832 6.4392467e-40
-0.0705439 -0.14835359 0.0073086857 8.4797671e-39
-0.068655379 -0.14835359 0.0073086857 1.0415159e-38
-0.066766858 -0.14835359 0.0073086857 1.2904092e-38
-0.064553514 -0.14560573 0.017322863 1.2810835e-38
-0.062682547 -0.14560573 0.017322863 1.3178915e-38
-0.060694616 -0.14449625 0.021366203 1.5852954e-38
-0.058830742 -0.14449625 0.021366203 1.9173426e-38
-0.056966867 -0.14449625 0.021366203 2.0557434e-38
-0.055102993 -0.14449625 0.021366203 2.0094658e-38
-0.053327736 -0.14560573 0.017322863 1.4747308e-38
-0.051456772 -0.14560573 0.017322863 1.4286333e-38
-0.049585808 -0.14560573 0.017322863 2.3509142e-38
-0.047763806 -0.1464123 0.014383519 2.3508787e-38
-0.04588769 -0.1464123 0.014383519 2.2862707e-38
-0.044051934 -0.14725454 0.011313999 2.3509886e-38
-0.042216085 -0.14835359 0.0073086857 2.20362e-38
-0.040288936 -0.14725454 0.011313999 2.3142544e-38
-0.038407438 -0.14725454 0.011313999 2.286632e-38
-0.036525939 -0.14725454 0.011313999 2.3417691e-38
-0.034618102 -0.14560573 0.017322863 9.8645793e-39
-0.032747138 -0.14560573 0.017322863 1.3089984e-38
-0.030876175 -0.14560573 0.017322863 1.6684172e-38
-0.029005211 -0.14560573 0.017322863 1.7788364e-38
-0.027134247 -0.14560573 0.017322863 1.935422e-38
-0.025263287 -0.14560573 0.017322863 2.3504044e-38
-0.023392323 -0.14560573 0.017322863 2.3505459e-38
-0.02152136 -0.14560573 0.017322863 2.2209329e-38
-0.019650396 -0.14560573 0.017322863 1.1976e-38
-0.017779432 -0.14560573 0.017322863 5.6163412e-39
-0.01596164 -0.14449625 0.021366203 4.2352046e-39
-0.014097766 -0.14449625 0.021366203 6.3556635e-39
-0.012233892 -0.14449625 0.021366203 1.2345856e-38
-0.010370017 -0.14449625 0.021366203 1.4275518e-38
-0.0085061444 -0.14449625 0.021366203 1.2704603e-38
-0.0066422699 -0.14449625 0.021366203 1.1504251e-38
-0.0046826908 -0.14560573 0.017322863 1.9066437e-38
0.024031822 -0.14917539 0.0043137907 7.1821983e-39
0.025925592 -0.14917539 0.0043137907 7.4573601e-39
0.027819365 -0.14917539 0.0043137907 7.7343436e-39
-0.064553514 -0.14747669 0.017322863 1.2717917e-38
-0.062682547 -0.14747669 0.017322863 1.3731368e-38
-0.060694616 -0.14636014 0.021366203 1.6865664e-38
-0.058830742 -0.14636014 0.021366203 1.8619525e-38
-0.056966867 -0.14636014 0.021366203 2.0925126e-38
-0.055102993 -0.14636014 0.021366203 1.9633666e-38
-0.053239118 -0.14636014 0.021366203 1.5483783e-38
-0.051456772 -0.14747669 0.017322863 1.5668177e-38
-0.049585808 -0.14747669 0.017322863 2.3508772e-38
-0.047763806 -0.14828841 0.014383519 2.3322587e-38
-0.04588769 -0.14828841 0.014383519 2.3509866e-38
-0.044051934 -0.14913605 0.011313999 2.3509879e-38
-0.042170435 -0.14913605 0.011313999 2.3049626e-38
-0.040288936 -0.14913605 0.011313999 2.3234379e-38
-0.038407438 -0.14913605 0.011313999 2.2958155e-38
-0.036525939 -0.14913605 0.011313999 2.3509886e-38
-0.034630988 -0.14828841 0.014383519 1.0325192e-38
-0.032747138 -0.14747669 0.017322863 1.1521217e-38
-0.030876175 -0.14747669 0.017322863 1.6038437e-38
-0.029005211 -0.14747669 0.017322863 1.4194879e-38
-0.027134247 -0.14747669 0.017322863 1.198e-38
-0.025263287 -0.14747669 0.017322863 1.8153104e-38
-0.023392323 -0.14747669 0.017322863 2.3498633e-38
-0.02152136 -0.14747669 0.017322863 2.3498284e-38
-0.019689389 -0.14636014 0.021366203 1.6306685e-38
-0.017825514 -0.14636014 0.021366203 8.4736953e-39
-0.01596164 -0.14636014 0.021366203 3.3132623e-39
-0.014097766 -0.14636014 0.021366203 3.5919876e-39
-0.012233892 -0.14636014 0.021366203 8.3846946e-39
-0.010370017 -0.14636014 0.021366203 1.4648605e-38
-0.0085061444 -0.14636014 0.021366203 1.5197469e-38
-0.0066422699 -0.14636014 0.021366203 1.1598608e-38
-0.0047783954 -0.14636014 0.021366203 1.3811656e-38
-0.066183239 -0.14738683 0.024378622 1.1334969e-38
-0.064324647 -0.14738683 0.024378622 1.2717198e-38
-0.062558487 -0.14822401 0.021366203 1.2808693e-38
-0.060694616 -0.14822401 0.021366203 1.4099432e-38
-0.058830742 -0.14822401 0.021366203 1.5944764e-38
-0.056966867 -0.14822401 0.021366203 2.2030025e-38
-0.055102993 -0.14822401 0.021366203 2.0831119e-38
-0.053239118 -0.14822401 0.021366203 1.2164729e-38
-0.051456772 -0.14934768 0.017322863 1.3086689e-38
-0.049585808 -0.14934768 0.017322863 2.350696e-38
-0.047714844 -0.14934768 0.017322863 2.350949e-38
-0.045843881 -0.14934768 0.017322863 2.3508418e-38
-0.034618102 -0.14934768 0.017322863 1.2444965e-38
-0.032747138 -0.14934768 0.017322863 1.0506699e-38
-0.030876175 -0.14934768 0.017322863 1.2166569e-38
-0.029005211 -0.14934768 0.017322863 1.1522625e-38
-0.027134247 -0.14934768 0.017322863 8.0170135e-39
-0.025263287 -0.14934768 0.017322863 1.2896885e-38
-0.023392323 -0.14934768 0.017322863 2.1374559e-38
-0.02152136 -0.14934768 0.017322863 2.2663861e-38
-0.019689389 -0.14822401 0.021366203 1.7502362e-38
-0.017825514 -0.14822401 0.021366203 1.2252634e-38
-0.01596164 -0.14822401 0.021366203 2.668616e-39
-0.014097766 -0.14822401 0.021366203 6.4284847e-40
-0.012233892 -0.14822401 0.021366203 3.5001521e-39
-0.010425477 -0.14738683 0.024378622 1.2255824e-38
-0.0085668853 -0.14738683 0.024378622 1.3634076e-38
-0.0066422699 -0.14822401 0.021366203 1.2523801e-38
-0.0047783954 -0.14822401 0.021366203 1.39975e-38
-0.066183239 -0.14924543 0.024378622 9.4910562e-39
-0.064324647 -0.14924543 0.024378622 1.0135361e-38
-0.010425477 -0.14924543 0.024378622 8.6598395e-39
-0.0085668853 -0.14924543 0.024378622 1.6492867e-38
