# .PCD v0.7 - Point Cloud Data file format
VERSION 0.7
FIELDS x y z rgb
SIZE 4 4 4 4
TYPE F F F F
COUNT 1 1 1 1
WIDTH 341
HEIGHT 1
VIEWPOINT 0 0 0 1 0 0 0
POINTS 341
DATA ascii
-0.0066926628 -0.12011738 0.0077023879 2.1389738e-38
-0.0049164668 -0.12011738 0.0077023879 2.350988e-38
-0.0031402726 -0.12011738 0.0077023879 2.2865232e-38
-0.0013640765 -0.12011738 0.0077023879 2.3234379e-38
0.00041211769 -0.12011738 0.0077023879 2.2957075e-38
-0.0066926628 -0.12189357 0.0077023879 2.3233652e-38
-0.0049164668 -0.12189357 0.0077023879 2.3509883e-38
-0.0031402726 -0.12189357 0.0077023879 2.3418047e-38
-0.0013640765 -0.12189357 0.0077023879 2.2958151e-38
0.00041211769 -0.12189357 0.0077023879 2.3234379e-38
-0.010292634 -0.12528224 0.0016718283 2.350988e-38
-0.0085058641 -0.12528224 0.0016718283 2.3417687e-38
-0.0067060646 -0.1244873 0.004644908 2.3509883e-38
-0.0049245078 -0.1244873 0.004644908 2.3509886e-38
-0.0031429529 -0.1244873 0.004644908 2.341805e-38
-0.0013613962 -0.1244873 0.004644908 2.3234379e-38
0.00042015873 -0.1244873 0.004644908 2.3234379e-38
-0.013832288 -0.12626885 0.004644908 2.3418047e-38
-0.012050731 -0.12626885 0.004644908 2.3509883e-38
-0.010292634 -0.12706901 0.0016718283 2.3509886e-38
-0.0085058641 -0.12706901 0.0016718283 2.3325494e-38
-0.0067060646 -0.12626885 0.004644908 2.3417691e-38
-0.0049245078 -0.12626885 0.004644908 2.3325497e-38
-0.0031429529 -0.12626885 0.004644908 2.3141106e-38
-0.0013613962 -0.12626885 0.004644908 2.2958151e-38
0.00042015873 -0.12626885 0.004644908 2.3050703e-38
-0.015613845 -0.1280504 0.004644908 2.2496453e-38
-0.013832288 -0.1280504 0.004644908 2.2865235e-38
-0.012050731 -0.1280504 0.004644908 2.341769e-38
-0.010292634 -0.12885578 0.0016718283 2.304891e-38
-0.0085058641 -0.12885578 0.0016718283 2.3233302e-38
-0.0067060646 -0.1280504 0.004644908 2.3417333e-38
-0.0049245078 -0.1280504 0.004644908 2.3509527e-38
-0.0031429529 -0.1280504 0.004644908 2.3509886e-38
-0.0013587903 -0.12885578 0.0016718283 2.341805e-38
0.00042797811 -0.12885578 0.0016718283 2.332621e-38
-0.015613845 -0.12983195 0.004644908 2.341805e-38
-0.013832288 -0.12983195 0.004644908 2.341805e-38
-0.012050731 -0.12983195 0.004644908 2.3509886e-38
-0.010292634 -0.13064255 0.0016718283 2.3325497e-38
-0.0085058641 -0.13064255 0.0016718283 2.3509527e-38
-0.0067190956 -0.13064255 0.0016718283 2.3509527e-38
-0.0049323272 -0.13064255 0.0016718283 2.2771607e-38
-0.0031455588 -0.13064255 0.0016718283 2.1112083e-38
-0.0013587903 -0.13064255 0.0016718283 1.9453278e-38
0.00042797811 -0.13064255 0.0016718283 1.9085209e-38
-0.024718257 -0.13407536 -0.0043270215 9.9603622e-39
-0.022920972 -0.13407536 -0.0043270215 1.106671e-38
-0.021123687 -0.13407536 -0.0043270215 2.3142541e-38
-0.019326398 -0.13407536 -0.0043270215 2.3234379e-38
-0.017484279 -0.13324992 -0.0013187751 2.2958151e-38
-0.015613845 -0.13161351 0.004644908 2.341805e-38
-0.013832288 -0.13161351 0.004644908 2.2957431e-38
-0.012050731 -0.13161351 0.004644908 2.341769e-38
-0.010292634 -0.13242932 0.0016718283 2.2772321e-38
-0.0085058641 -0.13242932 0.0016718283 2.3509527e-38
-0.0067190956 -0.13242932 0.0016718283 2.2955996e-38
-0.0049323272 -0.13242932 0.0016718283 2.1480866e-38
-0.0031455588 -0.13242932 0.0016718283 1.9083779e-38
-0.0013587903 -0.13242932 0.0016718283 1.6871081e-38
0.00042797811 -0.13242932 0.0016718283 1.5304472e-38
0.0022671875 -0.13571201 -0.010291539 1.3460915e-38
0.019950265 -0.13077454 0.0077023879 2.3325492e-38
0.021726461 -0.13077454 0.0077023879 2.3234379e-38
-0.026587168 -0.13670824 -0.0073529109 1.2081216e-38
-0.024784574 -0.13670824 -0.0073529109 1.2542196e-38
-0.022920972 -0.13587265 -0.0043270215 1.4109521e-38
-0.021123687 -0.13587265 -0.0043270215 2.295887e-38
-0.019326398 -0.13587265 -0.0043270215 2.3142541e-38
-0.017484279 -0.13504194 -0.0013187751 2.3234376e-38
-0.015652942 -0.13421609 0.0016718283 2.3141819e-38
-0.013866173 -0.13421609 0.0016718283 2.3418047e-38
-0.012079403 -0.13421609 0.0016718283 2.3509886e-38
-0.010292634 -0.13421609 0.0016718283 1.9637669e-38
-0.0085058641 -0.13421609 0.0016718283 1.6963277e-38
-0.0067190956 -0.13421609 0.0016718283 1.2630082e-38
-0.0049323272 -0.13421609 0.0016718283 1.22613e-38
-0.0031481814 -0.13504194 -0.0013187751 1.1431539e-38
-0.0013535302 -0.13587265 -0.0043270215 1.2446047e-38
0.00044375472 -0.13587265 -0.0043270215 1.2999221e-38
0.0022410434 -0.13587265 -0.0043270215 1.4105568e-38
0.0040383292 -0.13587265 -0.0043270215 1.4751654e-38
0.005835616 -0.13587265 -0.0043270215 1.438287e-38
0.018235719 -0.13339506 0.004644908 2.3509869e-38
0.019950265 -0.13255073 0.0077023879 2.3047814e-38
0.021726461 -0.13255073 0.0077023879 2.3418043e-38
0.023502655 -0.13255073 0.0077023879 2.341805e-38
0.025278851 -0.13255073 0.0077023879 2.2037995e-38
-0.028389761 -0.13851084 -0.0073529109 1.0975585e-38
-0.026587168 -0.13851084 -0.0073529109 1.0422411e-38
-0.024784574 -0.13851084 -0.0073529109 1.6138543e-38
-0.022920972 -0.13766994 -0.0043270215 1.853491e-38
-0.021123687 -0.13766994 -0.0043270215 2.2958867e-38
-0.019326398 -0.13766994 -0.0043270215 2.3142538e-38
-0.017484279 -0.13683395 -0.0013187751 2.30507e-38
-0.015652942 -0.13600285 0.0016718283 2.3418045e-38
-0.013866173 -0.13600285 0.0016718283 2.3234012e-38
-0.012079403 -0.13600285 0.0016718283 2.3048905e-38
-0.010292634 -0.13600285 0.0016718283 1.7517167e-38
-0.0085058641 -0.13600285 0.0016718283 1.4843133e-38
-0.0067322049 -0.13683395 -0.0013187751 1.1247504e-38
-0.0049401931 -0.13683395 -0.0013187751 1.3091417e-38
-0.0031481814 -0.13683395 -0.0013187751 1.3828982e-38
-0.0013535302 -0.13766994 -0.0043270215 1.4104489e-38
0.00044375472 -0.13766994 -0.0043270215 1.3460199e-38
0.0022410434 -0.13766994 -0.0043270215 1.3459843e-38
0.0040383292 -0.13766994 -0.0043270215 1.3737149e-38
0.005835616 -0.13766994 -0.0043270215 1.3644956e-38
0.0076329028 -0.13766994 -0.0043270215 1.3091779e-38
0.016508898 -0.13600285 0.0016718283 1.7974886e-38
0.018235719 -0.13517661 0.004644908 2.2769777e-38
0.019950265 -0.13432692 0.0077023879 2.3509866e-38
0.021726461 -0.13432692 0.0077023879 2.3418031e-38
0.023502655 -0.13432692 0.0077023879 2.350987e-38
0.025278851 -0.13432692 0.0077023879 2.3142534e-38
0.027055046 -0.13432692 0.0077023879 2.1485898e-38
0.028831242 -0.13432692 0.0077023879 1.9920017e-38
0.030607438 -0.13432692 0.0077023879 1.2726961e-38
-0.028389761 -0.14031343 -0.0073529109 1.1159613e-38
-0.026587168 -0.14031343 -0.0073529109 1.0697559e-38
-0.024784574 -0.14031343 -0.0073529109 1.973273e-38
-0.022920972 -0.13946722 -0.0043270215 2.1484091e-38
-0.021123687 -0.13946722 -0.0043270215 2.2313852e-38
-0.019326398 -0.13946722 -0.0043270215 2.3234372e-38
-0.017484279 -0.13862596 -0.0013187751 2.3234374e-38
-0.015692266 -0.13862596 -0.0013187751 2.3326208e-38
-0.013900256 -0.13862596 -0.0013187751 1.954619e-38
-0.012079403 -0.13778962 0.0016718283 1.6595211e-38
-0.010292634 -0.13778962 0.0016718283 1.2077625e-38
-0.0085242186 -0.13862596 -0.0013187751 1.3368364e-38
-0.0067322049 -0.13862596 -0.0013187751 1.2538603e-38
-0.0049401931 -0.13862596 -0.0013187751 1.428996e-38
-0.0031508189 -0.13946722 -0.0043270215 1.3368003e-38
-0.0013535302 -0.13946722 -0.0043270215 1.4935329e-38
0.00044375472 -0.13946722 -0.0043270215 1.4013373e-38
0.0022410434 -0.13946722 -0.0043270215 1.3828626e-38
0.0040383292 -0.13946722 -0.0043270215 1.4382521e-38
0.005835616 -0.13946722 -0.0043270215 1.4750948e-38
0.0076329028 -0.13946722 -0.0043270215 1.4290325e-38
0.0094301896 -0.13946722 -0.0043270215 1.3920821e-38
0.011227476 -0.13946722 -0.0043270215 1.4288878e-38
0.013069859 -0.14031343 -0.0073529109 1.45651e-38
0.014822049 -0.13946722 -0.0043270215 1.5762918e-38
0.016508898 -0.13778962 0.0016718283 1.6592314e-38
0.018235719 -0.13695817 0.004644908 2.01883e-38
0.019950265 -0.13610314 0.0077023879 2.0281934e-38
0.021726461 -0.13610314 0.0077023879 2.2310957e-38
0.023502655 -0.13610314 0.0077023879 2.3325829e-38
0.025278851 -0.13610314 0.0077023879 2.3418033e-38
0.027055046 -0.13610314 0.0077023879 2.2958867e-38
0.028831242 -0.13610314 0.0077023879 2.2775202e-38
0.030607438 -0.13610314 0.0077023879 1.7705164e-38
-0.028389761 -0.14211603 -0.0073529109 1.1064543e-38
-0.026587168 -0.14211603 -0.0073529109 1.1893585e-38
-0.024718257 -0.14126451 -0.0043270215 2.0375583e-38
-0.022920972 -0.14126451 -0.0043270215 2.3141455e-38
-0.021123687 -0.14126451 -0.0043270215 2.3141455e-38
-0.019326398 -0.14126451 -0.0043270215 2.3418045e-38
-0.017484279 -0.14041798 -0.0013187751 2.2773037e-38
-0.015692266 -0.14041798 -0.0013187751 2.231134e-38
-0.013900256 -0.14041798 -0.0013187751 1.5949844e-38
-0.012079403 -0.13957639 0.0016718283 1.6226794e-38
-0.010292634 -0.13957639 0.0016718283 1.2815555e-38
-0.0085242186 -0.14041798 -0.0013187751 1.3553123e-38
-0.0067322049 -0.14041798 -0.0013187751 1.382971e-38
-0.0049401931 -0.14041798 -0.0013187751 1.4750948e-38
-0.0031508189 -0.14126451 -0.0043270215 1.4290325e-38
-0.0013535302 -0.14126451 -0.0043270215 1.4013733e-38
0.00044375472 -0.14126451 -0.0043270215 1.4198124e-38
0.0022410434 -0.14126451 -0.0043270215 1.4105929e-38
0.0040383292 -0.14126451 -0.0043270215 1.392154e-38
0.0058594905 -0.14211603 -0.0073529109 1.4198127e-38
0.0076329028 -0.14126451 -0.0043270215 1.4567628e-38
0.0094301896 -0.14126451 -0.0043270215 1.4659821e-38
0.011227476 -0.14126451 -0.0043270215 1.4475427e-38
0.013024763 -0.14126451 -0.0043270215 1.5397022e-38
0.014822049 -0.14126451 -0.0043270215 1.3737498e-38
0.016563954 -0.14041798 -0.0013187751 1.4474697e-38
0.018235719 -0.13873972 0.004644908 1.733204e-38
0.019950265 -0.13787933 0.0077023879 1.9268148e-38
0.021726461 -0.13787933 0.0077023879 2.0835471e-38
0.023502655 -0.13787933 0.0077023879 2.2771935e-38
0.025278851 -0.13787933 0.0077023879 2.3509869e-38
0.027055046 -0.13787933 0.0077023879 2.3326203e-38
0.028831242 -0.13787933 0.0077023879 2.3050701e-38
0.030607438 -0.13787933 0.0077023879 2.1483377e-38
0.032488167 -0.13873972 0.004644908 8.8525755e-39
-0.030192355 -0.14391862 -0.0073529109 1.2169457e-38
-0.028389761 -0.14391862 -0.0073529109 1.263079e-38
-0.026587168 -0.14391862 -0.0073529109 1.3921529e-38
-0.024718257 -0.1430618 -0.0043270215 2.1297179e-38
-0.022920972 -0.1430618 -0.0043270215 2.3417323e-38
-0.021123687 -0.1430618 -0.0043270215 2.323365e-38
-0.019326398 -0.1430618 -0.0043270215 2.3325492e-38
-0.017484279 -0.14220999 -0.0013187751 2.1112796e-38
-0.015692266 -0.14220999 -0.0013187751 2.0098647e-38
-0.013900256 -0.14220999 -0.0013187751 1.3461281e-38
-0.012108242 -0.14220999 -0.0013187751 1.4106294e-38
-0.010316228 -0.14220999 -0.0013187751 1.2446776e-38
-0.0085242186 -0.14220999 -0.0013187751 1.3553125e-38
-0.0067322049 -0.14220999 -0.0013187751 1.3184342e-38
-0.0049401931 -0.14220999 -0.0013187751 1.3829712e-38
-0.0031508189 -0.1430618 -0.0043270215 1.4290688e-38
-0.0013535302 -0.1430618 -0.0043270215 1.4843494e-38
0.00044375472 -0.1430618 -0.0043270215 1.5028241e-38
0.0022410434 -0.1430618 -0.0043270215 1.5027885e-38
0.0040383292 -0.1430618 -0.0043270215 1.4752017e-38
0.005835616 -0.1430618 -0.0043270215 1.4844212e-38
0.0076329028 -0.1430618 -0.0043270215 1.5029683e-38
0.0094301896 -0.1430618 -0.0043270215 1.5029683e-38
0.011227476 -0.1430618 -0.0043270215 1.4845291e-38
0.013024763 -0.1430618 -0.0043270215 1.4476506e-38
0.014822049 -0.1430618 -0.0043270215 1.373894e-38
0.016563954 -0.14220999 -0.0013187751 1.429139e-38
0.018235719 -0.14052127 0.004644908 1.5858353e-38
0.020017276 -0.14052127 0.004644908 1.7701544e-38
0.021726461 -0.13965552 0.0077023879 2.0190104e-38
0.023502655 -0.13965552 0.0077023879 2.2218045e-38
0.025278851 -0.13965552 0.0077023879 2.2587191e-38
0.027055046 -0.13965552 0.0077023879 2.3233648e-38
0.028831242 -0.13965552 0.0077023879 2.3418043e-38
0.030607438 -0.13965552 0.0077023879 2.3142174e-38
0.032488167 -0.14052127 0.004644908 1.161772e-38
-0.028312834 -0.14485909 -0.0043270215 1.4014085e-38
-0.026515545 -0.14485909 -0.0043270215 1.5028237e-38
-0.024718257 -0.14485909 -0.0043270215 2.0283387e-38
-0.022920972 -0.14485909 -0.0043270215 2.1297542e-38
-0.021123687 -0.14485909 -0.0043270215 2.2035107e-38
-0.019326398 -0.14485909 -0.0043270215 2.2219144e-38
-0.017529113 -0.14485909 -0.0043270215 1.9822776e-38
-0.015731825 -0.14485909 -0.0043270215 1.9269606e-38
-0.01393454 -0.14485909 -0.0043270215 1.3000303e-38
-0.012108242 -0.14400201 -0.0013187751 1.3645316e-38
-0.010316228 -0.14400201 -0.0013187751 1.35542e-38
-0.0085426774 -0.14485909 -0.0043270215 1.5029332e-38
-0.0067453925 -0.14485909 -0.0043270215 1.3922985e-38
-0.0049481038 -0.14485909 -0.0043270215 1.4383606e-38
-0.0031508189 -0.14485909 -0.0043270215 1.5398115e-38
-0.0013535302 -0.14485909 -0.0043270215 1.4383234e-38
0.00044375472 -0.14485909 -0.0043270215 1.4659818e-38
0.0022410434 -0.14485909 -0.0043270215 1.4659821e-38
0.0040383292 -0.14485909 -0.0043270215 1.447543e-38
0.005835616 -0.14485909 -0.0043270215 1.4567626e-38
0.0076329028 -0.14485909 -0.0043270215 1.4568705e-38
0.0094301896 -0.14485909 -0.0043270215 1.4568705e-38
0.011227476 -0.14485909 -0.0043270215 1.4200282e-38
0.013024763 -0.14485909 -0.0043270215 1.4384313e-38
0.014822049 -0.14485909 -0.0043270215 1.4476506e-38
0.016563954 -0.14400201 -0.0013187751 1.4752371e-38
0.018295666 -0.14314993 0.0016718283 1.4936041e-38
0.020017276 -0.14230286 0.004644908 1.6318612e-38
0.02179883 -0.14230286 0.004644908 1.9361065e-38
0.023580387 -0.14230286 0.004644908 2.1480845e-38
0.025361942 -0.14230286 0.004644908 2.0836196e-38
0.027143499 -0.14230286 0.004644908 2.2311691e-38
0.028925056 -0.14230286 0.004644908 2.295778e-38
0.030706612 -0.14230286 0.004644908 2.3234369e-38
-0.026515545 -0.14665638 -0.0043270215 1.5028237e-38
-0.024718257 -0.14665638 -0.0043270215 1.8992649e-38
-0.022800015 -0.1449367 0.0016718283 1.9177043e-38
-0.021013247 -0.1449367 0.0016718283 2.0099718e-38
-0.019276293 -0.14579402 -0.0013187751 2.0560339e-38
-0.017484279 -0.14579402 -0.0013187751 1.890082e-38
-0.015692266 -0.14579402 -0.0013187751 1.8716432e-38
-0.013900256 -0.14579402 -0.0013187751 1.3462001e-38
-0.012137251 -0.14665638 -0.0043270215 1.3646395e-38
-0.010339966 -0.14665638 -0.0043270215 1.4199569e-38
-0.0085426774 -0.14665638 -0.0043270215 1.5674702e-38
-0.0067453925 -0.14665638 -0.0043270215 1.4568354e-38
-0.0049481038 -0.14665638 -0.0043270215 1.4567997e-38
-0.0031508189 -0.14665638 -0.0043270215 1.5490311e-38
-0.0013535302 -0.14665638 -0.0043270215 1.5490661e-38
0.00044375472 -0.14665638 -0.0043270215 1.6042753e-38
0.0022410434 -0.14665638 -0.0043270215 1.6227147e-38
0.0040383292 -0.14665638 -0.0043270215 1.5951639e-38
0.005835616 -0.14665638 -0.0043270215 1.5859443e-38
0.0076329028 -0.14665638 -0.0043270215 1.5951999e-38
0.0094301896 -0.14665638 -0.0043270215 1.5951999e-38
0.011227476 -0.14665638 -0.0043270215 1.5767608e-38
0.013024763 -0.14665638 -0.0043270215 1.5306633e-38
0.014822049 -0.14665638 -0.0043270215 1.5398465e-38
0.016563954 -0.14579402 -0.0013187751 1.5306267e-38
0.018235719 -0.14408441 0.004644908 1.5121154e-38
0.020017276 -0.14408441 0.004644908 1.5950193e-38
0.02179883 -0.14408441 0.004644908 1.8715699e-38
0.023580387 -0.14408441 0.004644908 2.0559611e-38
0.025361942 -0.14408441 0.004644908 2.0190829e-38
0.027143499 -0.14408441 0.004644908 2.2035104e-38
0.028925056 -0.14408441 0.004644908 2.2035823e-38
0.030706612 -0.14408441 0.004644908 2.2589e-38
-0.026373552 -0.14672346 0.0016718283 1.4844564e-38
-0.024586784 -0.14672346 0.0016718283 1.8808976e-38
-0.022800015 -0.14672346 0.0016718283 1.8532392e-38
-0.021013247 -0.14672346 0.0016718283 1.8994091e-38
-0.019276293 -0.14758603 -0.0013187751 1.8994092e-38
-0.017484279 -0.14758603 -0.0013187751 1.8072139e-38
-0.015692266 -0.14758603 -0.0013187751 1.7979587e-38
-0.013900256 -0.14758603 -0.0013187751 1.4845654e-38
-0.012137251 -0.14845367 -0.0043270215 1.4476875e-38
-0.010339966 -0.14845367 -0.0043270215 1.456907e-38
-0.0085426774 -0.14845367 -0.0043270215 1.5767258e-38
-0.0067453925 -0.14845367 -0.0043270215 1.5306279e-38
-0.0049481038 -0.14845367 -0.0043270215 1.5306281e-38
-0.0031508189 -0.14845367 -0.0043270215 1.5490671e-38
-0.0013535302 -0.14845367 -0.0043270215 1.530627e-38
0.00044375472 -0.14845367 -0.0043270215 1.5767245e-38
0.0022410434 -0.14845367 -0.0043270215 1.6043835e-38
0.0040568979 -0.1493264 -0.0073529109 1.5859804e-38
0.005835616 -0.14845367 -0.0043270215 1.5859806e-38
0.0076329028 -0.14845367 -0.0043270215 1.5860885e-38
0.0094301896 -0.14845367 -0.0043270215 1.5953081e-38
0.011227476 -0.14845367 -0.0043270215 1.5860885e-38
0.013024763 -0.14845367 -0.0043270215 1.6229671e-38
0.014822049 -0.14845367 -0.0043270215 1.5767611e-38
0.016563954 -0.14758603 -0.0013187751 1.5674696e-38
0.018235719 -0.14586596 0.004644908 1.5858364e-38
0.020017276 -0.14586596 0.004644908 1.6134948e-38
0.02179883 -0.14586596 0.004644908 1.7886304e-38
0.023580387 -0.14586596 0.004644908 1.9545825e-38
0.025361942 -0.14586596 0.004644908 1.9914605e-38
0.027143499 -0.14586596 0.004644908 2.0467779e-38
0.028925056 -0.14586596 0.004644908 1.9361787e-38
0.030706612 -0.14586596 0.004644908 1.9914605e-38
-0.02644434 -0.14937802 -0.0013187751 1.4844564e-38
-0.024586784 -0.14851023 0.0016718283 1.7611512e-38
-0.022800015 -0.14851023 0.0016718283 1.7150178e-38
-0.021013247 -0.14851023 0.0016718283 1.8717504e-38
-0.019276293 -0.14937802 -0.0013187751 1.9178483e-38
-0.017484279 -0.14937802 -0.0013187751 1.8902615e-38
0.014771942 -0.14937802 -0.0013187751 1.5768693e-38
0.016563954 -0.14937802 -0.0013187751 1.5859809e-38
0.018235719 -0.14764751 0.004644908 1.6412261e-38
0.020017276 -0.14764751 0.004644908 1.6503734e-38
0.021869203 -0.14851023 0.0016718283 1.71491e-38
0.023655973 -0.14851023 0.0016718283 1.8716066e-38
0.025442742 -0.14851023 0.0016718283 1.9638021e-38
0.02722951 -0.14851023 0.0016718283 1.8623866e-38
0.028925056 -0.14764751 0.004644908 1.613494e-38
0.030706612 -0.14764751 0.004644908 1.6411171e-38
0.028925056 -0.14942907 0.004644908 1.5028593e-38
0.030706612 -0.14942907 0.004644908 1.4935678e-38
