# .PCD v0.7 - Point Cloud Data file format
VERSION 0.7
FIELDS x y z rgb
SIZE 4 4 4 4
TYPE F F F F
COUNT 1 1 1 1
WIDTH 394
HEIGHT 1
VIEWPOINT 0 0 0 1 0 0 0
POINTS 394
DATA ascii
0.0050132545 -0.12544595 -0.021979779 1.9533162e-38
0.0067494847 -0.12462802 -0.018940657 1.9902297e-38
0.0085203517 -0.12462802 -0.018940657 1.9441318e-38
0.010291218 -0.12462802 -0.018940657 1.9995572e-38
0.012118035 -0.12544595 -0.021979779 1.787652e-38
0.013955879 -0.12626885 -0.025037259 1.6588311e-38
0.015737437 -0.12626885 -0.025037259 1.4654011e-38
0.01751899 -0.12626885 -0.025037259 1.0138235e-38
-0.012730048 -0.12639888 -0.018940657 1.1062775e-38
-0.010959181 -0.12639888 -0.018940657 1.0601446e-38
0.0032370593 -0.12722217 -0.021979779 1.5755687e-38
0.0049786186 -0.12639888 -0.018940657 1.6952788e-38
0.0067494847 -0.12639888 -0.018940657 1.7229731e-38
0.0085203517 -0.12639888 -0.018940657 1.9258032e-38
0.010291218 -0.12639888 -0.018940657 2.0365099e-38
0.012118035 -0.12722217 -0.021979779 1.7969451e-38
0.013894231 -0.12722217 -0.021979779 1.5758917e-38
0.015670426 -0.12722217 -0.021979779 1.5392295e-38
0.017446622 -0.12722217 -0.021979779 1.4748365e-38
-0.012730048 -0.12816976 -0.018940657 1.1616298e-38
-0.010959181 -0.12816976 -0.018940657 9.8645919e-39
-0.0021176497 -0.1273735 -0.016020149 7.7407937e-39
-0.00035190303 -0.1273735 -0.016020149 8.1999768e-39
0.0014138427 -0.1273735 -0.016020149 7.6464429e-39
0.0032077515 -0.12816976 -0.018940657 5.8007352e-39
0.0049786186 -0.12816976 -0.018940657 5.154647e-39
0.0067494847 -0.12816976 -0.018940657 4.5081986e-39
0.0085203517 -0.12816976 -0.018940657 6.9989155e-39
0.010291218 -0.12816976 -0.018940657 9.8569772e-39
0.012062085 -0.12816976 -0.018940657 1.0596339e-38
0.013894231 -0.12899835 -0.021979779 1.1058033e-38
0.015670426 -0.12899835 -0.021979779 1.3456556e-38
0.017446622 -0.12899835 -0.021979779 1.594799e-38
-0.012712126 -0.12913923 -0.016020149 1.087907e-38
-0.010946379 -0.12913923 -0.016020149 9.7734556e-39
-0.0091806324 -0.12913923 -0.016020149 8.6678339e-39
-0.0074148877 -0.12913923 -0.016020149 7.4685621e-39
-0.005649141 -0.12913923 -0.016020149 5.9930537e-39
-0.0038757147 -0.12994061 -0.018940657 7.0064783e-39
-0.0021176497 -0.12913923 -0.016020149 5.9916089e-39
-0.00035190303 -0.12913923 -0.016020149 5.2529677e-39
0.0014138427 -0.12913923 -0.016020149 4.5146894e-39
0.0031795884 -0.12913923 -0.016020149 3.9607981e-39
0.004945334 -0.12913923 -0.016020149 4.4207001e-39
0.0067110807 -0.12913923 -0.016020149 3.5909394e-39
0.0084768264 -0.12913923 -0.016020149 2.7604599e-39
0.010192544 -0.12831511 -0.013016671 4.6050885e-39
0.011953025 -0.12831511 -0.013016671 5.8039863e-39
0.013774064 -0.12913923 -0.016020149 5.8050597e-39
0.015473983 -0.12831511 -0.013016671 7.7422413e-39
0.017234463 -0.12831511 -0.013016671 1.0876887e-38
0.018994942 -0.12831511 -0.013016671 1.3090656e-38
-0.01807728 -0.13255073 -0.021979779 1.179739e-38
-0.016301088 -0.13255073 -0.021979779 1.1983578e-38
-0.014524893 -0.13255073 -0.021979779 9.4028276e-39
-0.012712126 -0.13090499 -0.016020149 8.6663556e-39
-0.010946379 -0.13090499 -0.016020149 8.390503e-39
-0.0091806324 -0.13090499 -0.016020149 1.0143314e-38
-0.0074148877 -0.13090499 -0.016020149 7.8387893e-39
-0.005649141 -0.13090499 -0.016020149 8.7603757e-39
-0.0038833963 -0.13090499 -0.016020149 7.929892e-39
-0.0021308148 -0.13007559 -0.013016671 4.4264608e-39
-0.00037033483 -0.13007559 -0.013016671 3.2271988e-39
0.0013901452 -0.13007559 -0.013016671 3.5956268e-39
0.0031506252 -0.13007559 -0.013016671 3.503071e-39
0.0049111051 -0.13007559 -0.013016671 3.779302e-39
0.0066715842 -0.13007559 -0.013016671 3.6863861e-39
0.0084320642 -0.13007559 -0.013016671 1.1049084e-39
0.010142812 -0.12925108 -0.010030955 1.5658838e-39
0.011898057 -0.12925108 -0.010030955 2.9488154e-39
0.013713504 -0.13007559 -0.013016671 3.8711262e-39
0.015473983 -0.13007559 -0.013016671 5.7146731e-39
0.017163791 -0.12925108 -0.010030955 6.7288236e-39
0.018919036 -0.12925108 -0.010030955 6.2685615e-39
-0.019853476 -0.13432692 -0.021979779 1.3914288e-38
-0.01807728 -0.13432692 -0.021979779 1.3546575e-38
-0.016271781 -0.13348235 -0.018940657 1.3732052e-38
-0.014500913 -0.13348235 -0.018940657 8.4790622e-39
-0.012712126 -0.13267075 -0.016020149 9.0343968e-39
-0.010946379 -0.13267075 -0.016020149 9.958165e-39
-0.0091806324 -0.13267075 -0.016020149 1.0789035e-38
-0.0074148877 -0.13267075 -0.016020149 9.2213693e-39
-0.0056517748 -0.13183604 -0.013016671 6.271835e-39
-0.0038912939 -0.13183604 -0.013016671 7.1015984e-39
-0.0021308148 -0.13183604 -0.013016671 4.9810962e-39
-0.00037033483 -0.13183604 -0.013016671 5.073289e-39
0.0013665874 -0.13100632 -0.010030955 7.3781797e-39
0.0031218324 -0.13100632 -0.010030955 7.4707313e-39
0.0048770774 -0.13100632 -0.010030955 7.194143e-39
0.0065919971 -0.13015409 -0.0069643557 7.4700068e-39
0.0083418647 -0.13015409 -0.0069643557 5.9026811e-39
0.009992131 -0.12849234 -0.00098469853 4.7956147e-39
0.011731516 -0.12849234 -0.00098469853 4.5190278e-39
0.013591469 -0.13015409 -0.0069643557 3.5037969e-39
0.015408547 -0.13100632 -0.010030955 3.5030808e-39
0.017163791 -0.13100632 -0.010030955 3.7796677e-39
0.018919036 -0.13100632 -0.010030955 3.6867546e-39
-0.025238354 -0.13695817 -0.025037259 1.2071532e-38
-0.023456793 -0.13695817 -0.025037259 1.271543e-38
-0.02167524 -0.13695817 -0.025037259 2.0366557e-38
-0.019853476 -0.13610314 -0.021979779 2.0734233e-38
-0.01807728 -0.13610314 -0.021979779 2.1842011e-38
-0.016271781 -0.13525321 -0.018940657 1.8156001e-38
-0.014500913 -0.13525321 -0.018940657 7.8336928e-39
-0.012712126 -0.13443647 -0.016020149 8.759605e-39
-0.010946379 -0.13443647 -0.016020149 9.8677616e-39
-0.0091727348 -0.13359652 -0.013016671 7.4707061e-39
-0.0074122539 -0.13359652 -0.013016671 7.5629255e-39
-0.0056543918 -0.13276155 -0.010030955 8.6692885e-39
-0.0038991468 -0.13276155 -0.010030955 1.8994843e-38
-0.0021439018 -0.13276155 -0.010030955 2.2867037e-38
-0.00038865674 -0.13276155 -0.010030955 2.2406783e-38
0.0013423925 -0.13190396 -0.0069643557 2.2867037e-38
0.0030922601 -0.13190396 -0.0069643557 2.2867037e-38
0.0048085107 -0.13107903 -0.0040145814 2.2958873e-38
0.0064470731 -0.12882192 0.0040564835 2.2683365e-38
0.0081331907 -0.12798826 0.0070374906 2.2498973e-38
0.0098585086 -0.12798826 0.0070374906 2.3142544e-38
0.011676074 -0.12938951 0.0020268261 2.2866677e-38
0.013591469 -0.13190396 -0.0069643557 1.7242388e-38
0.015408547 -0.13276155 -0.010030955 9.9582182e-39
0.017163791 -0.13276155 -0.010030955 4.5183229e-39
-0.025182065 -0.13787933 -0.021979779 1.1890019e-38
-0.023405869 -0.13787933 -0.021979779 1.4193073e-38
-0.021629672 -0.13787933 -0.021979779 2.0090319e-38
-0.019853476 -0.13787933 -0.021979779 2.0639862e-38
-0.01807728 -0.13787933 -0.021979779 2.3036947e-38
-0.016301088 -0.13787933 -0.021979779 1.824676e-38
-0.014500913 -0.13702409 -0.018940657 7.3738077e-39
-0.012712126 -0.13620223 -0.016020149 6.4586855e-39
-0.010933214 -0.13535701 -0.013016671 6.5526874e-39
-0.0091727348 -0.13535701 -0.013016671 6.7349375e-39
-0.0074096369 -0.13451682 -0.010030955 1.0237668e-38
-0.0056570796 -0.13365383 -0.0069643557 1.4846029e-38
-0.0039072121 -0.13365383 -0.0069643557 2.2221678e-38
-0.0021573445 -0.13365383 -0.0069643557 2.3142541e-38
-0.00040747598 -0.13365383 -0.0069643557 2.222201e-38
0.0013423925 -0.13365383 -0.0069643557 2.3234361e-38
0.0030922601 -0.13365383 -0.0069643557 2.3418038e-38
0.00477398 -0.13197111 -0.00098469853 2.3325847e-38
0.0064470731 -0.13055246 0.0040564835 2.3509886e-38
0.0080890311 -0.12887974 0.010000557 2.304891e-38
0.0098091541 -0.12887974 0.010000557 2.341805e-38
0.011638707 -0.13055246 0.0040564835 2.2774113e-38
0.013369252 -0.13055246 0.0040564835 2.3050701e-38
0.015099796 -0.13055246 0.0040564835 2.0746901e-38
-0.026958261 -0.13965552 -0.021979779 1.4013395e-38
-0.025182065 -0.13965552 -0.021979779 1.3736447e-38
-0.023405869 -0.13965552 -0.021979779 1.4562568e-38
-0.021629672 -0.13965552 -0.021979779 1.7139693e-38
-0.019853476 -0.13965552 -0.021979779 2.1928435e-38
-0.01807728 -0.13965552 -0.021979779 2.2573807e-38
-0.016301088 -0.13965552 -0.021979779 1.7785066e-38
-0.014500913 -0.13879494 -0.018940657 5.3451521e-39
-0.012675372 -0.13627206 -0.010030955 4.063411e-39
-0.010920127 -0.13627206 -0.010030955 4.7113028e-39
-0.0091490587 -0.13456844 -0.0040145814 1.0608594e-38
-0.0074043619 -0.13456844 -0.0040145814 2.2867032e-38
-0.005662323 -0.13371049 -0.00098469853 2.2406422e-38
-0.0039229384 -0.13371049 -0.00098469853 2.3142544e-38
-0.0021835538 -0.13371049 -0.00098469853 2.2681916e-38
-0.00044417102 -0.13371049 -0.00098469853 2.3418033e-38
0.0012952127 -0.13371049 -0.00098469853 2.3509866e-38
0.0030055558 -0.13285773 0.0020268261 2.3416949e-38
0.0047165276 -0.13228302 0.0040564835 2.3232206e-38
0.0064078728 -0.1314389 0.0070374906 2.3140016e-38
0.0080890311 -0.13059987 0.010000557 2.3509521e-38
0.0098091541 -0.13059987 0.010000557 2.3325127e-38
0.011583827 -0.1314389 0.0070374906 2.3509876e-38
0.013309146 -0.1314389 0.0070374906 2.3142532e-38
0.015034464 -0.1314389 0.0070374906 2.1945794e-38
0.016830344 -0.13228302 0.0040564835 2.2775202e-38
-0.026958261 -0.1414317 -0.021979779 1.3092867e-38
-0.025182065 -0.1414317 -0.021979779 1.4197414e-38
-0.023405869 -0.1414317 -0.021979779 1.5299769e-38
-0.021629672 -0.1414317 -0.021979779 1.7415915e-38
-0.019853476 -0.1414317 -0.021979779 2.1743325e-38
-0.01807728 -0.1414317 -0.021979779 2.0268197e-38
-0.016301088 -0.1414317 -0.021979779 1.9075449e-38
-0.014500913 -0.14056583 -0.018940657 4.5153942e-39
-0.012656552 -0.13715358 -0.0069643557 1.389386e-39
-0.010906684 -0.13715358 -0.0069643557 1.1994409e-38
-0.0091490587 -0.13631313 -0.0040145814 1.9643416e-38
-0.0074043619 -0.13631313 -0.0040145814 2.2591524e-38
-0.005662323 -0.13544987 -0.00098469853 2.2682286e-38
-0.0039308583 -0.13459183 0.0020268261 2.304927e-38
-0.0021967562 -0.13459183 0.0020268261 2.2587929e-38
-0.00047510769 -0.13401355 0.0040564835 2.350988e-38
0.0012554377 -0.13401355 0.0040564835 2.3509873e-38
0.0029859832 -0.13401355 0.0040564835 2.3416234e-38
0.0046825539 -0.13316421 0.0070374906 2.3509504e-38
0.0064078728 -0.13316421 0.0070374906 2.2863412e-38
0.0080890311 -0.13231997 0.010000557 2.3047806e-38
0.0098091541 -0.13231997 0.010000557 2.3232557e-38
0.011529277 -0.13231997 0.010000557 2.3509869e-38
0.0132494 -0.13231997 0.010000557 2.3418038e-38
0.014969523 -0.13231997 0.010000557 2.2958863e-38
0.016759783 -0.13316421 0.0070374906 2.2406772e-38
-0.026958261 -0.14320792 -0.021979779 1.3646748e-38
-0.025182065 -0.14320792 -0.021979779 1.3275805e-38
-0.023405869 -0.14320792 -0.021979779 1.5575627e-38
-0.021629672 -0.14320792 -0.021979779 2.0180343e-38
-0.019853476 -0.14320792 -0.021979779 2.1465296e-38
-0.018042646 -0.14233668 -0.018940657 2.0175283e-38
-0.016271781 -0.14233668 -0.018940657 1.5201793e-38
-0.014454174 -0.14063846 -0.013016671 2.2097916e-39
-0.012656552 -0.13890342 -0.0069643557 6.1821253e-39
-0.010893756 -0.13805781 -0.0040145814 2.1397652e-38
-0.0091410903 -0.13718925 -0.00098469853 2.2591531e-38
-0.0074017057 -0.13718925 -0.00098469853 2.2775202e-38
-0.0056649623 -0.13632594 0.0020268261 2.341805e-38
-0.0039361967 -0.13574408 0.0040564835 2.3509886e-38
-0.0022187186 -0.13488953 0.0070374906 2.3047112e-38
-0.00049340073 -0.13488953 0.0070374906 1.521084e-38
0.0012319172 -0.13488953 0.0070374906 1.1982548e-38
0.0029286621 -0.1340401 0.010000557 1.170631e-38
0.0046487851 -0.1340401 0.010000557 1.2628254e-38
0.0063689081 -0.1340401 0.010000557 1.2905191e-38
0.0080890311 -0.1340401 0.010000557 1.410409e-38
0.0098091541 -0.1340401 0.010000557 1.8345452e-38
0.011529277 -0.1340401 0.010000557 1.862241e-38
0.0132494 -0.1340401 0.010000557 1.641116e-38
0.014969523 -0.1340401 0.010000557 2.1298611e-38
0.016759783 -0.13488953 0.0070374906 2.1852505e-38
-0.025182065 -0.14498411 -0.021979779 1.2998128e-38
-0.023405869 -0.14498411 -0.021979779 1.409977e-38
-0.021540854 -0.1432652 -0.016020149 1.8888159e-38
-0.019775108 -0.1432652 -0.016020149 2.0265314e-38
-0.017975133 -0.14239894 -0.013016671 1.9803982e-38
-0.016214654 -0.14239894 -0.013016671 1.2895104e-38
-0.014406421 -0.1406533 -0.0069643557 4.6050773e-39
-0.012638451 -0.13980253 -0.0040145814 8.7628924e-39
-0.010893756 -0.13980253 -0.0040145814 2.2316024e-38
-0.0091410903 -0.13892864 -0.00098469853 2.1855406e-38
-0.0073990664 -0.13806005 0.0020268261 2.2866677e-38
-0.0056667412 -0.13747464 0.0040564835 2.22195e-38
-0.0039440366 -0.13661484 0.0070374906 2.3509521e-38
-0.0022317069 -0.13576023 0.010000557 2.3508451e-38
-0.00051158387 -0.13576023 0.010000557 1.1981842e-38
0.0012085391 -0.13576023 0.010000557 1.1520135e-38
0.0029286621 -0.13576023 0.010000557 1.2258403e-38
0.0046487851 -0.13576023 0.010000557 1.2073988e-38
0.0063689081 -0.13576023 0.010000557 1.3365433e-38
0.0080890311 -0.13576023 0.010000557 1.5762873e-38
0.0098091541 -0.13576023 0.010000557 1.889825e-38
0.011529277 -0.13576023 0.010000557 2.0741819e-38
0.0132494 -0.13576023 0.010000557 1.4288494e-38
0.015034464 -0.13661484 0.0070374906 1.6133847e-38
-0.023306601 -0.14503096 -0.016020149 1.483589e-38
-0.021540854 -0.14503096 -0.016020149 1.7964761e-38
-0.019775108 -0.14503096 -0.016020149 2.0908522e-38
-0.017975133 -0.14415942 -0.013016671 1.8234499e-38
-0.016185861 -0.14329304 -0.010030955 1.2985498e-38
-0.014383147 -0.14154722 -0.0040145814 1.1610147e-38
-0.012638451 -0.14154722 -0.0040145814 1.2724789e-38
-0.010880475 -0.14066802 -0.00098469853 2.240786e-38
-0.0091331704 -0.13979416 0.0020268261 2.2867037e-38
-0.0073972875 -0.13920517 0.0040564835 2.341805e-38
-0.0056693545 -0.13834016 0.0070374906 2.3509876e-38
-0.0039518299 -0.13748036 0.010000557 2.3509514e-38
-0.0022450322 -0.13659821 0.013040572 2.3045308e-38
-0.00053023919 -0.13659821 0.013040572 1.0045008e-38
0.0011845538 -0.13659821 0.013040572 1.216478e-38
0.0029286621 -0.13748036 0.010000557 1.3732089e-38
0.0046487851 -0.13748036 0.010000557 1.3640227e-38
0.0063689081 -0.13748036 0.010000557 1.6038015e-38
0.0080890311 -0.13748036 0.010000557 1.5577391e-38
0.011529277 -0.13748036 0.010000557 2.2031468e-38
0.0132494 -0.13748036 0.010000557 1.3365806e-38
-0.023306601 -0.14679669 -0.016020149 1.5940797e-38
-0.021540854 -0.14679669 -0.016020149 1.9345538e-38
-0.019735612 -0.1459199 -0.013016671 2.1735769e-38
-0.017941106 -0.14504828 -0.010030955 1.7679167e-38
-0.016185861 -0.14504828 -0.010030955 1.123162e-38
-0.014383147 -0.14329191 -0.0040145814 1.6954614e-38
-0.012638451 -0.14329191 -0.0040145814 2.2679759e-38
-0.010880475 -0.1424074 -0.00098469853 2.2775202e-38
-0.0091331704 -0.14152823 0.0020268261 2.2865235e-38
-0.0073946742 -0.14006548 0.0070374906 2.3509879e-38
-0.0056719529 -0.13920046 0.010000557 2.2400642e-38
-0.0039675226 -0.13745852 0.015967637 2.3507708e-38
-0.002266922 -0.13685517 0.018034309 2.3508794e-38
-0.00056088436 -0.13685517 0.018034309 1.9447866e-38
0.0011451533 -0.13685517 0.018034309 1.9815924e-38
-0.021496091 -0.14768039 -0.013016671 1.7868613e-38
-0.019735612 -0.14768039 -0.013016671 1.8138703e-38
-0.017941106 -0.14680351 -0.010030955 1.5556869e-38
-0.016185861 -0.14680351 -0.010030955 1.4548502e-38
-0.014383147 -0.14503662 -0.0040145814 2.1377841e-38
-0.012638451 -0.14503662 -0.0040145814 2.3509161e-38
-0.010880475 -0.14414679 -0.00098469853 2.2864516e-38
-0.0091331704 -0.14326234 0.0020268261 2.1480129e-38
-0.0073946742 -0.14179079 0.0070374906 9.1244681e-39
-0.0056746183 -0.14002781 0.013040572 1.2626457e-38
-0.0039675226 -0.13916816 0.015967637 1.8250745e-38
-0.0022800295 -0.13768299 0.021024734 2.2306637e-38
-0.00057923514 -0.13768299 0.021024734 2.3135674e-38
0.0011451533 -0.13856123 0.018034309 2.0369437e-38
-0.019735612 -0.14944084 -0.013016671 1.5463958e-38
-0.017941106 -0.14855875 -0.010030955 1.4817868e-38
-0.016185861 -0.14855875 -0.010030955 1.4454864e-38
-0.014383147 -0.14678131 -0.0040145814 2.2851166e-38
-0.012619858 -0.14588617 -0.00098469853 2.3508438e-38
-0.010880475 -0.14588617 -0.00098469853 2.3509517e-38
-0.0091331704 -0.14499645 0.0020268261 1.566927e-38
-0.0073946742 -0.14351611 0.0070374906 6.2649476e-39
-0.0056746183 -0.1417426 0.013040572 6.5415373e-39
-0.0039675226 -0.14087783 0.015967637 1.880355e-38
-0.0022800295 -0.13938378 0.021024734 2.0554899e-38
-0.00057923514 -0.13938378 0.021024734 1.9817686e-38
-0.014383147 -0.148526 -0.0040145814 2.3035196e-38
-0.012619858 -0.14762555 -0.00098469853 2.1659122e-38
-0.010880475 -0.14762555 -0.00098469853 1.2902695e-38
-0.0091410903 -0.14762555 -0.00098469853 8.1992524e-39
0.017850824 -0.13782693 0.031986147 1.3637704e-38
0.019532397 -0.13782693 0.031986147 5.6166929e-39
0.0027936902 -0.14189686 0.023996919 1.262641e-38
0.0044892728 -0.14189686 0.023996919 1.1242054e-38
0.014553747 -0.14040978 0.028971344 1.0871812e-38
0.016240608 -0.14040978 0.028971344 1.5020265e-38
0.017850824 -0.13950853 0.031986147 1.5480183e-38
0.019532397 -0.13950853 0.031986147 6.6290512e-39
0.021213971 -0.13950853 0.031986147 6.9070716e-39
0.0010981085 -0.14359243 0.023996919 7.1875863e-39
0.0027936902 -0.14359243 0.023996919 1.1980687e-38
0.0044545596 -0.14267652 0.027042896 1.2717903e-38
0.0061448012 -0.14267652 0.027042896 1.3915376e-38
0.0078350436 -0.14267652 0.027042896 1.3730264e-38
0.0095252851 -0.14267652 0.027042896 1.1425009e-38
0.011215528 -0.14267652 0.027042896 1.1425711e-38
0.01290577 -0.14267652 0.027042896 1.0410833e-38
0.014553747 -0.14209662 0.028971344 1.0410478e-38
0.016240608 -0.14209662 0.028971344 1.0871104e-38
0.017850824 -0.1411901 0.031986147 1.5018486e-38
0.019532397 -0.1411901 0.031986147 1.2805797e-38
0.021213971 -0.1411901 0.031986147 9.0275683e-39
0.023047224 -0.14267652 0.027042896 9.8576919e-39
0.0010981085 -0.14528801 0.023996919 4.0533175e-39
0.0027643172 -0.14436676 0.027042896 1.2165445e-38
0.0044545596 -0.14436676 0.027042896 1.115058e-38
0.0061448012 -0.14436676 0.027042896 1.2809384e-38
0.007806303 -0.14378349 0.028971344 1.3085971e-38
0.0094931638 -0.14378349 0.028971344 1.3085247e-38
0.011180026 -0.14378349 0.028971344 1.1148773e-38
0.012866885 -0.14378349 0.028971344 4.7865665e-39
0.014553747 -0.14378349 0.028971344 4.3252366e-39
0.016240608 -0.14378349 0.028971344 5.7996282e-39
0.017976496 -0.14436676 0.027042896 1.2344449e-38
0.019614328 -0.14378349 0.028971344 1.4557508e-38
0.021301191 -0.14378349 0.028971344 1.1977828e-38
0.023047224 -0.14436676 0.027042896 7.830467e-39
0.024932675 -0.14618696 0.021024734 6.1709569e-39
0.0010981085 -0.14698361 0.023996919 2.854075e-39
0.0027643172 -0.14605699 0.027042896 1.2995577e-38
0.0044545596 -0.14605699 0.027042896 1.1796311e-38
0.0061448012 -0.14605699 0.027042896 1.7604274e-38
0.007806303 -0.14547037 0.028971344 1.8987206e-38
0.0094931638 -0.14547037 0.028971344 2.0000639e-38
0.011180026 -0.14547037 0.028971344 1.6773072e-38
0.012866885 -0.14547037 0.028971344 4.2337599e-39
0.014553747 -0.14547037 0.028971344 2.3891578e-39
0.016240608 -0.14547037 0.028971344 3.5869653e-39
0.017976496 -0.14605699 0.027042896 1.0132107e-38
0.019614328 -0.14547037 0.028971344 1.5111753e-38
0.021301191 -0.14547037 0.028971344 1.1517566e-38
0.023047224 -0.14605699 0.027042896 3.8664179e-39
0.024836268 -0.14698361 0.023996919 2.2072805e-39
-0.00057923514 -0.14958854 0.021024734 7.3468397e-40
0.0010981085 -0.14867918 0.023996919 1.7473856e-39
0.0027936902 -0.14867918 0.023996919 1.3087427e-38
0.0044545596 -0.14774723 0.027042896 1.2442404e-38
0.0061448012 -0.14774723 0.027042896 1.8065966e-38
0.007806303 -0.14715721 0.028971344 1.9909515e-38
0.0094931638 -0.14715721 0.028971344 1.8433669e-38
0.011180026 -0.14715721 0.028971344 1.6588326e-38
0.012866885 -0.14715721 0.028971344 3.9568184e-39
0.014553747 -0.14715721 0.028971344 1.8367099e-39
0.016240608 -0.14715721 0.028971344 1.8367099e-39
0.017976496 -0.14774723 0.027042896 6.9063303e-39
0.019614328 -0.14715721 0.028971344 1.4374895e-38
0.021301191 -0.14715721 0.028971344 1.1887788e-38
0.023047224 -0.14774723 0.027042896 2.3005509e-39
0.024836268 -0.14867918 0.023996919 9.1835496e-40
0.0044545596 -0.14943747 0.027042896 1.7235853e-38
0.0061448012 -0.14943747 0.027042896 1.8618777e-38
0.007806303 -0.14884408 0.028971344 1.9448535e-38
0.0094931638 -0.14884408 0.028971344 1.4653293e-38
0.011180026 -0.14884408 0.028971344 1.3362208e-38
0.012866885 -0.14884408 0.028971344 2.2973223e-39
0.014553747 -0.14884408 0.028971344 1.5612034e-39
0.016240608 -0.14884408 0.028971344 1.7448744e-39
0.017976496 -0.14943747 0.027042896 6.4471584e-39
0.019666739 -0.14943747 0.027042896 1.3178518e-38
0.021356981 -0.14943747 0.027042896 1.1795958e-38
