# .PCD v0.7 - Point Cloud Data file format
VERSION 0.7
FIELDS x y z rgb
SIZE 4 4 4 4
TYPE F F F F
COUNT 1 1 1 1
WIDTH 935
HEIGHT 1
VIEWPOINT 0 0 0 1 0 0 0
POINTS 935
DATA ascii
0.028410766 -0.11073773 -0.032021888 2.2316024e-38
0.030246623 -0.11073773 -0.032021888 2.2499695e-38
0.032407429 -0.11246057 -0.039015539 2.3142544e-38
0.034255546 -0.11246057 -0.039015539 2.341805e-38
0.036252499 -0.1131943 -0.041993983 2.3509886e-38
-0.017466344 -0.10711606 -0.010024317 2.3418047e-38
-0.015669055 -0.10711606 -0.010024317 2.2866308e-38
-0.013863811 -0.10786678 -0.013050206 2.2497889e-38
-0.01206122 -0.10786678 -0.013050206 2.2499334e-38
-0.010258628 -0.10786678 -0.013050206 2.2591531e-38
-0.0084560346 -0.10786678 -0.013050206 2.2132353e-38
-0.0065955832 -0.10935538 -0.019050248 2.1673176e-38
-0.0047824704 -0.10935538 -0.019050248 1.9740325e-38
-0.0029693586 -0.10935538 -0.019050248 1.5961398e-38
-0.0011562458 -0.10935538 -0.019050248 1.7898235e-38
0.00072236313 -0.11033095 -0.022982486 1.9742119e-38
0.0025423705 -0.11033095 -0.022982486 2.0938492e-38
0.0043623778 -0.11033095 -0.022982486 2.0938492e-38
0.0061823833 -0.11033095 -0.022982486 1.9923638e-38
0.0080733001 -0.11107419 -0.025978215 1.8540007e-38
0.0098985601 -0.11107419 -0.025978215 1.9092455e-38
0.011723818 -0.11107419 -0.025978215 2.1213639e-38
0.013549078 -0.11107419 -0.025978215 2.1673176e-38
0.015374336 -0.11107419 -0.025978215 2.1030327e-38
0.017297331 -0.11182173 -0.028991349 2.1673176e-38
0.019127876 -0.11182173 -0.028991349 2.1856847e-38
0.020850115 -0.11107419 -0.025978215 2.1856847e-38
0.022675373 -0.11107419 -0.025978215 2.2224189e-38
0.024500635 -0.11107419 -0.025978215 2.1764294e-38
0.026325893 -0.11107419 -0.025978215 2.2499695e-38
0.028151151 -0.11107419 -0.025978215 2.1670295e-38
0.03011113 -0.11182173 -0.028991349 2.1484822e-38
0.032219041 -0.11330278 -0.034960993 2.2036914e-38
0.03406005 -0.11330278 -0.034960993 2.341805e-38
0.035901058 -0.11330278 -0.034960993 2.3509527e-38
-0.017468996 -0.10966937 -0.013050206 2.3418047e-38
-0.015666403 -0.10966937 -0.013050206 2.3509521e-38
-0.013863811 -0.10966937 -0.013050206 2.3509524e-38
-0.01206122 -0.10966937 -0.013050206 2.3509886e-38
-0.010240594 -0.11040358 -0.015988834 2.3142544e-38
-0.0084086955 -0.11116849 -0.019050248 2.2222395e-38
-0.0066251052 -0.11040358 -0.015988834 2.2316024e-38
-0.0048508509 -0.10966937 -0.013050206 2.2224189e-38
-0.0030482593 -0.10966937 -0.013050206 2.2132353e-38
-0.0011562458 -0.11116849 -0.019050248 1.9460141e-38
0.00065686507 -0.11116849 -0.019050248 2.1027457e-38
0.0025423705 -0.11215095 -0.022982486 2.2316024e-38
0.0042830906 -0.11116849 -0.019050248 2.2499695e-38
0.0060962024 -0.11116849 -0.019050248 2.2867037e-38
0.0080023911 -0.11215095 -0.022982486 2.1667074e-38
0.0098223984 -0.11215095 -0.022982486 2.1482323e-38
0.011723818 -0.11289944 -0.025978215 2.2773767e-38
0.013549078 -0.11289944 -0.025978215 2.2591531e-38
0.015374336 -0.11289944 -0.025978215 2.2316024e-38
0.017199598 -0.11289944 -0.025978215 2.2316024e-38
0.019024856 -0.11289944 -0.025978215 2.20398e-38
0.020850115 -0.11289944 -0.025978215 2.0932749e-38
0.022675373 -0.11289944 -0.025978215 2.17625e-38
0.024500635 -0.11289944 -0.025978215 2.1946171e-38
0.026325893 -0.11289944 -0.025978215 2.2130201e-38
0.028151151 -0.11289944 -0.025978215 2.0931293e-38
0.029976413 -0.11289944 -0.025978215 2.0008257e-38
0.031941671 -0.11365227 -0.028991349 2.0100089e-38
0.033918336 -0.11440946 -0.032021888 2.185073e-38
0.035754193 -0.11440946 -0.032021888 2.3233303e-38
-0.01929771 -0.11397095 -0.022982486 2.3142544e-38
-0.017471572 -0.11221133 -0.015988834 2.3509886e-38
-0.015663827 -0.11221133 -0.015988834 2.3509165e-38
-0.013856083 -0.11221133 -0.015988834 2.3508085e-38
-0.012048338 -0.11221133 -0.015988834 2.3509167e-38
-0.010240594 -0.11221133 -0.015988834 2.3509886e-38
-0.0084086955 -0.1129816 -0.019050248 2.3049991e-38
-0.0066534434 -0.11147197 -0.013050206 2.2958873e-38
-0.0048508509 -0.11147197 -0.013050206 2.2867037e-38
-0.0030482593 -0.11147197 -0.013050206 2.2499695e-38
-0.0012018713 -0.11221133 -0.015988834 2.2591531e-38
0.0006058733 -0.11221133 -0.015988834 2.2775202e-38
0.002413617 -0.11221133 -0.015988834 2.2683366e-38
0.0042213625 -0.11221133 -0.015988834 2.3050708e-38
0.0060291062 -0.11221133 -0.015988834 2.3049273e-38
0.0078368522 -0.11221133 -0.015988834 2.166562e-38
0.0097224284 -0.1129816 -0.019050248 2.101989e-38
0.01153554 -0.1129816 -0.019050248 2.1665984e-38
0.013462411 -0.11397095 -0.022982486 2.0840551e-38
0.015282419 -0.11397095 -0.022982486 2.0381017e-38
0.017199598 -0.11472471 -0.025978215 2.1024946e-38
0.019024856 -0.11472471 -0.025978215 1.9917521e-38
0.020850115 -0.11472471 -0.025978215 2.0009714e-38
0.022675373 -0.11472471 -0.025978215 2.2407142e-38
0.024500635 -0.11472471 -0.025978215 2.2314948e-38
0.026325893 -0.11472471 -0.025978215 2.1116413e-38
0.028151151 -0.11472471 -0.025978215 2.1116053e-38
0.029976413 -0.11472471 -0.025978215 1.9178869e-38
0.031941671 -0.11548282 -0.028991349 1.8716454e-38
0.033772212 -0.11548282 -0.028991349 2.0559291e-38
0.035602756 -0.11548282 -0.028991349 2.2402837e-38
0.037590045 -0.11624531 -0.032021888 2.2772691e-38
-0.01929771 -0.11579098 -0.022982486 2.3049273e-38
-0.017477702 -0.11579098 -0.022982486 2.3509886e-38
-0.015663827 -0.11401908 -0.015988834 2.3509883e-38
-0.013856083 -0.11401908 -0.015988834 2.3509524e-38
-0.012048338 -0.11401908 -0.015988834 2.3509167e-38
-0.010240594 -0.11401908 -0.015988834 2.304891e-38
-0.0084560346 -0.11327456 -0.013050206 2.3417333e-38
-0.0066826227 -0.11250792 -0.010024317 2.341805e-38
-0.0048853359 -0.11250792 -0.010024317 2.3050349e-38
-0.0030482593 -0.11327456 -0.013050206 2.3142544e-38
-0.0012456668 -0.11327456 -0.013050206 2.2591164e-38
0.00055692485 -0.11327456 -0.013050206 2.295887e-38
0.002413617 -0.11401908 -0.015988834 2.2867034e-38
0.0042213625 -0.11401908 -0.015988834 2.27752e-38
0.0060291062 -0.11401908 -0.015988834 2.2130551e-38
0.0078368522 -0.11401908 -0.015988834 2.139335e-38
0.0096445959 -0.11401908 -0.015988834 2.0470678e-38
0.011452341 -0.11401908 -0.015988834 1.9181748e-38
0.013462411 -0.11579098 -0.022982486 1.8264122e-38
0.015282419 -0.11579098 -0.022982486 2.0200579e-38
0.017102424 -0.11579098 -0.022982486 2.1211128e-38
0.019024856 -0.11654995 -0.025978215 1.9642375e-38
0.020850115 -0.11654995 -0.025978215 1.8995918e-38
0.022675373 -0.11654995 -0.025978215 2.0011146e-38
0.024500635 -0.11654995 -0.025978215 2.0657955e-38
0.026325893 -0.11654995 -0.025978215 2.0105865e-38
0.028151151 -0.11654995 -0.025978215 2.0934546e-38
0.029976413 -0.11654995 -0.025978215 1.9457279e-38
0.031941671 -0.11731337 -0.028991349 1.8532097e-38
0.033772212 -0.11731337 -0.028991349 2.0005429e-38
0.035602756 -0.11731337 -0.028991349 2.1665284e-38
0.037433296 -0.11731337 -0.028991349 2.1114629e-38
0.039263841 -0.11731337 -0.028991349 2.0933111e-38
-0.01929771 -0.11761098 -0.022982486 2.341805e-38
-0.017477702 -0.11761098 -0.022982486 2.3325856e-38
-0.015661143 -0.11660783 -0.019050248 2.3325494e-38
-0.013856083 -0.11582683 -0.015988834 2.3509883e-38
-0.012048338 -0.11582683 -0.015988834 2.3509527e-38
-0.010240594 -0.11582683 -0.015988834 2.3509168e-38
-0.00847991 -0.11430521 -0.010024317 2.3232944e-38
-0.0066826227 -0.11430521 -0.010024317 2.3509886e-38
-0.0048853359 -0.11430521 -0.010024317 2.3326213e-38
-0.0030880491 -0.11430521 -0.010024317 2.2497529e-38
-0.0012456668 -0.11507715 -0.013050206 2.2313852e-38
0.00055692485 -0.11507715 -0.013050206 2.213054e-38
0.0023595183 -0.11507715 -0.013050206 2.2499683e-38
0.0041621099 -0.11507715 -0.013050206 2.2775199e-38
0.0059647015 -0.11507715 -0.013050206 2.2499695e-38
0.0077672931 -0.11507715 -0.013050206 2.1580263e-38
0.0095698871 -0.11507715 -0.013050206 2.0565759e-38
0.011372479 -0.11507715 -0.013050206 1.964561e-38
0.013260085 -0.11582683 -0.015988834 1.9280072e-38
0.015067831 -0.11582683 -0.015988834 1.964849e-38
0.017102424 -0.11761098 -0.022982486 2.0381739e-38
0.018922433 -0.11761098 -0.022982486 1.9826769e-38
0.020742439 -0.11761098 -0.022982486 1.9364344e-38
0.022562444 -0.11761098 -0.022982486 1.9642008e-38
0.024500635 -0.11837523 -0.025978215 2.0290257e-38
0.026325893 -0.11837523 -0.025978215 2.0936698e-38
0.028151151 -0.11837523 -0.025978215 2.0751592e-38
0.029976413 -0.11837523 -0.025978215 1.8444222e-38
0.031801671 -0.11837523 -0.025978215 1.7426126e-38
0.033626929 -0.11837523 -0.025978215 1.9360787e-38
0.035452191 -0.11837523 -0.025978215 2.0099417e-38
0.037277449 -0.11837523 -0.025978215 1.7520468e-38
0.039102707 -0.11837523 -0.025978215 1.7616966e-38
0.041094381 -0.11914389 -0.028991349 2.1856847e-38
-0.020902958 -0.10684617 0.026011698 2.268157e-38
-0.019168856 -0.10684617 0.026011698 2.3050349e-38
-0.017477702 -0.11943097 -0.022982486 2.3233662e-38
-0.015657697 -0.11943097 -0.022982486 2.3325494e-38
-0.01383769 -0.11943097 -0.022982486 2.314074e-38
-0.012048338 -0.11763458 -0.015988834 2.3509527e-38
-0.010258628 -0.11687975 -0.013050206 2.3509527e-38
-0.00847991 -0.1161025 -0.010024317 2.3048554e-38
-0.0066826227 -0.1161025 -0.010024317 2.3509886e-38
-0.0048853359 -0.1161025 -0.010024317 2.341805e-38
-0.0030880491 -0.1161025 -0.010024317 2.2497529e-38
-0.0012907623 -0.1161025 -0.010024317 2.3142538e-38
0.00055692485 -0.11687975 -0.013050206 2.2038346e-38
0.0023595183 -0.11687975 -0.013050206 2.1486251e-38
0.0041010971 -0.1161025 -0.010024317 2.1947955e-38
0.0058983839 -0.1161025 -0.010024317 2.1948682e-38
0.0076956707 -0.1161025 -0.010024317 2.130404e-38
0.0095698871 -0.11687975 -0.013050206 2.0566844e-38
0.011372479 -0.11687975 -0.013050206 2.0199144e-38
0.01317507 -0.11687975 -0.013050206 1.9739967e-38
0.014977664 -0.11687975 -0.013050206 2.0384968e-38
0.016875573 -0.11763458 -0.015988834 2.1026381e-38
0.018787988 -0.11842094 -0.019050248 2.0746929e-38
0.020742439 -0.11943097 -0.022982486 2.0193391e-38
0.022562444 -0.11943097 -0.022982486 2.0010438e-38
0.024382453 -0.11943097 -0.022982486 1.9921122e-38
0.026202459 -0.11943097 -0.022982486 1.9646696e-38
0.028022464 -0.11943097 -0.022982486 1.9738173e-38
0.029976413 -0.12020047 -0.025978215 1.8353107e-38
0.031801671 -0.12020047 -0.025978215 1.7427571e-38
0.033626929 -0.12020047 -0.025978215 1.8348802e-38
0.035452191 -0.12020047 -0.025978215 1.8072579e-38
0.037277449 -0.12020047 -0.025978215 1.4203961e-38
0.039102707 -0.12020047 -0.025978215 1.4393021e-38
0.040927965 -0.12020047 -0.025978215 2.0293491e-38
0.042753227 -0.12020047 -0.025978215 2.2040518e-38
-0.022692237 -0.11090554 0.017020516 2.056107e-38
-0.020902958 -0.10858028 0.026011698 1.9639474e-38
-0.019168856 -0.10858028 0.026011698 2.1483026e-38
-0.017434752 -0.10858028 0.026011698 2.3234379e-38
-0.015684826 -0.11324753 0.0079647228 2.3141103e-38
-0.013919082 -0.11324753 0.0079647228 2.1665254e-38
-0.012153335 -0.11324753 0.0079647228 2.2679409e-38
-0.010258628 -0.11868234 -0.013050206 2.3509527e-38
-0.00847991 -0.11789979 -0.010024317 2.3048554e-38
-0.0067116325 -0.1171218 -0.0070160702 2.3233662e-38
-0.0049196198 -0.1171218 -0.0070160702 2.3234379e-38
-0.0030880491 -0.11789979 -0.010024317 2.3142544e-38
-0.0012907623 -0.11789979 -0.010024317 2.295887e-38
0.00050652353 -0.11789979 -0.010024317 2.2499687e-38
0.0023038103 -0.11789979 -0.010024317 2.1486977e-38
0.0041010971 -0.11789979 -0.010024317 2.130403e-38
0.0058983839 -0.11789979 -0.010024317 2.1765011e-38
0.0076956707 -0.11789979 -0.010024317 2.1489505e-38
0.009492958 -0.11789979 -0.010024317 2.075231e-38
0.011290245 -0.11789979 -0.010024317 1.9831444e-38
0.01317507 -0.11868234 -0.013050206 1.8818022e-38
0.014977664 -0.11868234 -0.013050206 2.0568639e-38
0.016780253 -0.11868234 -0.013050206 2.1117858e-38
0.018683318 -0.11944233 -0.015988834 1.9455838e-38
0.020601101 -0.12023406 -0.019050248 1.8717554e-38
0.022414211 -0.12023406 -0.019050248 1.9364364e-38
0.024227325 -0.12023406 -0.019050248 1.8446011e-38
0.026040439 -0.12023406 -0.019050248 1.660426e-38
0.027853549 -0.12023406 -0.019050248 1.6696468e-38
0.029842474 -0.121251 -0.022982486 1.7616988e-38
0.031662479 -0.121251 -0.022982486 1.6784363e-38
0.033482485 -0.121251 -0.022982486 1.576914e-38
0.035302494 -0.121251 -0.022982486 1.4940822e-38
0.037277449 -0.12202574 -0.025978215 1.2361865e-38
0.039102707 -0.12202574 -0.025978215 1.1813727e-38
0.040927965 -0.12202574 -0.025978215 1.6054349e-38
0.042753227 -0.12202574 -0.025978215 2.0474651e-38
-0.055939734 -0.11265542 0.017020516 2.0653263e-38
-0.054189865 -0.11265542 0.017020516 1.9915698e-38
-0.052439995 -0.11265542 0.017020516 2.065326e-38
-0.050589275 -0.11188738 0.01997029 2.065326e-38
-0.04884458 -0.11188738 0.01997029 2.0376673e-38
-0.022692237 -0.11265542 0.017020516 1.8625322e-38
-0.020902958 -0.11031438 0.026011698 1.696688e-38
-0.019168856 -0.11031438 0.026011698 1.9455083e-38
-0.017447939 -0.11423124 0.010968201 2.3050708e-38
-0.01568746 -0.11423124 0.010968201 2.2773039e-38
-0.013926979 -0.11423124 0.010968201 2.0190843e-38
-0.0121665 -0.11423124 0.010968201 2.1297193e-38
-0.010406021 -0.11423124 0.010968201 2.3509527e-38
-0.00847991 -0.11969708 -0.010024317 2.3509527e-38
-0.0067116325 -0.11891381 -0.0070160702 2.3049273e-38
-0.0049196198 -0.11891381 -0.0070160702 2.3234379e-38
-0.0030880491 -0.11969708 -0.010024317 2.3142544e-38
-0.0012907623 -0.11969708 -0.010024317 2.2222747e-38
0.00050652353 -0.11969708 -0.010024317 2.2683366e-38
0.0023038103 -0.11969708 -0.010024317 2.2224189e-38
0.0040404419 -0.11891381 -0.0070160702 2.1304395e-38
0.0058324537 -0.11891381 -0.0070160702 2.158134e-38
0.0076244655 -0.11891381 -0.0070160702 2.1673176e-38
0.009492958 -0.11969708 -0.010024317 2.0938133e-38
0.011290245 -0.11969708 -0.010024317 1.9002413e-38
0.013087532 -0.11969708 -0.010024317 1.9280072e-38
0.014884818 -0.11969708 -0.010024317 2.056828e-38
0.016682107 -0.11969708 -0.010024317 2.0749081e-38
0.018582847 -0.12048493 -0.013050206 1.9271098e-38
0.020491064 -0.12125005 -0.015988834 1.8532815e-38
0.022298809 -0.12125005 -0.015988834 1.8810488e-38
0.024106551 -0.12125005 -0.015988834 1.7800658e-38
0.025914297 -0.12125005 -0.015988834 1.6327331e-38
0.027722042 -0.12125005 -0.015988834 1.5314264e-38
0.029666662 -0.12204717 -0.019050248 1.6234787e-38
0.031662479 -0.123071 -0.022982486 1.5494711e-38
0.033482485 -0.123071 -0.022982486 1.4295816e-38
0.035302494 -0.123071 -0.022982486 1.3835928e-38
0.037122499 -0.123071 -0.022982486 1.1995619e-38
0.039102707 -0.12385099 -0.025978215 1.1169824e-38
0.040762514 -0.123071 -0.022982486 1.3383221e-38
0.042358447 -0.12204717 -0.019050248 1.8264859e-38
0.044171561 -0.12204717 -0.019050248 2.0842351e-38
-0.055939734 -0.11440529 0.017020516 2.1206437e-38
-0.054189865 -0.11440529 0.017020516 1.9915698e-38
-0.052439995 -0.11440529 0.017020516 2.0284481e-38
-0.050589275 -0.11363207 0.01997029 2.0192282e-38
-0.04884458 -0.11363207 0.01997029 2.0284478e-38
-0.022692237 -0.11440529 0.017020516 1.8073227e-38
-0.020902958 -0.11204849 0.026011698 1.5584664e-38
-0.019168856 -0.11204849 0.026011698 1.7336381e-38
-0.017447939 -0.11599173 0.010968201 2.2590813e-38
-0.01568746 -0.11599173 0.010968201 2.2865958e-38
-0.013926979 -0.11599173 0.010968201 2.0283402e-38
-0.0121665 -0.11599173 0.010968201 2.0744382e-38
-0.010406021 -0.11599173 0.010968201 2.341805e-38
-0.00847991 -0.12149437 -0.010024317 2.3417691e-38
-0.0067116325 -0.12070583 -0.0070160702 2.3234379e-38
-0.0049196198 -0.12070583 -0.0070160702 2.2958514e-38
-0.0030880491 -0.12149437 -0.010024317 2.2867037e-38
-0.0012907623 -0.12149437 -0.010024317 2.2591531e-38
0.00050652353 -0.12149437 -0.010024317 2.2499695e-38
0.0023038103 -0.12149437 -0.010024317 2.1673176e-38
0.0040404419 -0.12070583 -0.0070160702 1.9184982e-38
0.0058324537 -0.12070583 -0.0070160702 1.8725095e-38
0.0076244655 -0.12070583 -0.0070160702 2.0016908e-38
0.0094164778 -0.12070583 -0.0070160702 1.964849e-38
0.011290245 -0.12149437 -0.010024317 1.7989351e-38
0.013087532 -0.12149437 -0.010024317 1.6607496e-38
0.014884818 -0.12149437 -0.010024317 1.6789369e-38
0.016682107 -0.12149437 -0.010024317 1.7891046e-38
0.018582847 -0.12228753 -0.013050206 1.8902685e-38
0.02038544 -0.12228753 -0.013050206 1.8348082e-38
0.02218803 -0.12228753 -0.013050206 1.6137554e-38
0.023990624 -0.12228753 -0.013050206 1.4666026e-38
0.025793217 -0.12228753 -0.013050206 1.4575993e-38
0.027722042 -0.1230578 -0.015988834 1.3839867e-38
0.029529788 -0.1230578 -0.015988834 1.1994875e-38
0.031479776 -0.12386028 -0.019050248 1.1439543e-38
0.033292886 -0.12386028 -0.019050248 1.2545541e-38
0.035302494 -0.124891 -0.022982486 1.2546634e-38
0.037122499 -0.124891 -0.022982486 1.0060604e-38
0.038942505 -0.124891 -0.022982486 8.4976126e-39
0.040762514 -0.124891 -0.022982486 1.0249311e-38
0.042358447 -0.12386028 -0.019050248 1.6515321e-38
0.044171561 -0.12386028 -0.019050248 2.0015473e-38
0.04622253 -0.124891 -0.022982486 2.0011506e-38
-0.055823363 -0.11537679 0.01997029 2.0376679e-38
-0.054078668 -0.11537679 0.01997029 1.9823502e-38
-0.052225068 -0.11457725 0.023000173 2.0468872e-38
-0.050485685 -0.11457725 0.023000173 2.065326e-38
-0.04884458 -0.11537679 0.01997029 2.1022043e-38
-0.022692237 -0.11615516 0.017020516 1.7981752e-38
-0.020942369 -0.11615516 0.017020516 1.40177e-38
-0.019192502 -0.11615516 0.017020516 1.5308439e-38
-0.017447939 -0.11775221 0.010968201 2.2407142e-38
-0.01568746 -0.11775221 0.010968201 2.3142544e-38
-0.013926979 -0.11775221 0.010968201 2.0837657e-38
-0.012179587 -0.11696436 0.013953917 1.9823148e-38
-0.010424342 -0.11696436 0.013953917 2.1298281e-38
-0.0086690988 -0.11696436 0.013953917 2.2865602e-38
-0.0069138533 -0.11696436 0.013953917 2.3050349e-38
-0.0048853359 -0.12329166 -0.010024317 2.2774843e-38
-0.0030880491 -0.12329166 -0.010024317 2.2683366e-38
-0.0012907623 -0.12329166 -0.010024317 2.2591531e-38
0.00050652353 -0.12329166 -0.010024317 2.2316024e-38
0.0023038103 -0.12329166 -0.010024317 2.0660113e-38
0.0040404419 -0.12249784 -0.0070160702 1.7619104e-38
0.0058324537 -0.12249784 -0.0070160702 1.623762e-38
0.0076244655 -0.12249784 -0.0070160702 1.6976275e-38
0.0094164778 -0.12249784 -0.0070160702 1.7437622e-38
0.011208491 -0.12249784 -0.0070160702 1.6792617e-38
0.013000503 -0.12249784 -0.0070160702 1.6148327e-38
0.014792517 -0.12249784 -0.0070160702 1.5869226e-38
0.016584527 -0.12249784 -0.0070160702 1.7431521e-38
0.018479392 -0.12329166 -0.010024317 1.936545e-38
0.02038544 -0.12409012 -0.013050206 1.881085e-38
0.02218803 -0.12409012 -0.013050206 1.6321962e-38
0.023990624 -0.12409012 -0.013050206 1.4942631e-38
0.025793217 -0.12409012 -0.013050206 1.5681986e-38
0.027595807 -0.12409012 -0.013050206 1.6052198e-38
0.029529788 -0.12486555 -0.015988834 1.2179272e-38
0.031337529 -0.12486555 -0.015988834 1.2269304e-38
0.033292886 -0.1256734 -0.019050248 1.5496157e-38
0.035106 -0.1256734 -0.019050248 1.5220297e-38
0.037122499 -0.126711 -0.022982486 1.1627577e-38
0.038942505 -0.126711 -0.022982486 9.0504403e-39
0.040762514 -0.126711 -0.022982486 8.867114e-39
0.042358447 -0.1256734 -0.019050248 1.3014425e-38
0.044171561 -0.1256734 -0.019050248 1.9188954e-38
0.04622253 -0.126711 -0.022982486 2.0289902e-38
-0.05744322 -0.11631663 0.023000173 2.0376679e-38
-0.055703834 -0.11631663 0.023000173 1.973131e-38
-0.054078668 -0.11712147 0.01997029 2.0745459e-38
-0.052225068 -0.11631663 0.023000173 2.240498e-38
-0.050485685 -0.11631663 0.023000173 2.3050349e-38
-0.04884458 -0.11712147 0.01997029 2.3234379e-38
-0.047099885 -0.11712147 0.01997029 2.3234379e-38
-0.04535519 -0.11712147 0.01997029 2.3234379e-38
-0.043690655 -0.11790501 0.017020516 2.3142544e-38
-0.022711057 -0.11871959 0.013953917 1.761333e-38
-0.020955812 -0.11871959 0.013953917 1.2174869e-38
-0.019200567 -0.11871959 0.013953917 1.3465252e-38
-0.017447939 -0.11951269 0.010968201 2.240786e-38
-0.01568746 -0.11951269 0.010968201 2.2591531e-38
-0.013926979 -0.11951269 0.010968201 2.0562511e-38
-0.012179587 -0.11871959 0.013953917 1.798068e-38
-0.010424342 -0.11871959 0.013953917 1.7888484e-38
-0.0086690988 -0.11871959 0.013953917 2.0193378e-38
-0.0048853359 -0.12508895 -0.010024317 2.2406783e-38
-0.0012907623 -0.12508895 -0.010024317 2.1210407e-38
0.00050652353 -0.12508895 -0.010024317 2.1304399e-38
0.0022484283 -0.12428986 -0.0070160702 2.056828e-38
0.0039801407 -0.12349547 -0.0040254667 1.8633984e-38
0.0057669091 -0.12349547 -0.0040254667 1.6884436e-38
0.0075536775 -0.12349547 -0.0040254667 1.6516383e-38
0.0093404483 -0.12349547 -0.0040254667 1.6240168e-38
0.011208491 -0.12428986 -0.0070160702 1.5688442e-38
0.013000503 -0.12428986 -0.0070160702 1.4583174e-38
0.014792517 -0.12428986 -0.0070160702 1.4304074e-38
0.016584527 -0.12428986 -0.0070160702 1.4575989e-38
0.018479392 -0.12508895 -0.010024317 1.4941538e-38
0.02038544 -0.12589271 -0.013050206 1.4478415e-38
0.02218803 -0.12589271 -0.013050206 1.36501e-38
0.023990624 -0.12589271 -0.013050206 1.4020689e-38
0.025793217 -0.12589271 -0.013050206 1.4945149e-38
0.027595807 -0.12589271 -0.013050206 1.5406479e-38
0.0293984 -0.12589271 -0.013050206 1.1349158e-38
0.031337529 -0.1266733 -0.015988834 1.23615e-38
0.033292886 -0.12748651 -0.019050248 1.6140805e-38
0.035106 -0.12748651 -0.019050248 1.5496162e-38
0.03691911 -0.12748651 -0.019050248 1.1534302e-38
0.038942505 -0.12853102 -0.022982486 7.7579064e-39
0.040762514 -0.12853102 -0.022982486 5.1789371e-39
0.042358447 -0.12748651 -0.019050248 8.6830422e-39
0.044171561 -0.12748651 -0.019050248 1.771564e-38
0.045984671 -0.12748651 -0.019050248 2.038425e-38
0.047797784 -0.12748651 -0.019050248 1.8905516e-38
0.049862549 -0.12853102 -0.022982486 1.8811145e-38
-0.05744322 -0.11805601 0.023000173 1.9547278e-38
-0.055703834 -0.11805601 0.023000173 1.9270692e-38
-0.053964451 -0.11805601 0.023000173 2.0745461e-38
-0.052116822 -0.11725079 0.026011698 2.2497176e-38
-0.050382718 -0.11725079 0.026011698 2.3050349e-38
-0.048746299 -0.11805601 0.023000173 2.3142542e-38
-0.047099885 -0.11886616 0.01997029 2.341805e-38
-0.04535519 -0.11886616 0.01997029 2.3234379e-38
-0.043690655 -0.11965488 0.017020516 2.3142544e-38
-0.038441051 -0.11965488 0.017020516 2.0469235e-38
-0.036691185 -0.11965488 0.017020516 2.2221308e-38
-0.034941316 -0.11965488 0.017020516 2.2221308e-38
-0.033191446 -0.11965488 0.017020516 2.0837654e-38
-0.031397618 -0.11886616 0.01997029 2.0468872e-38
-0.02965292 -0.11886616 0.01997029 2.1207156e-38
-0.027941842 -0.11965488 0.017020516 1.899554e-38
-0.026191974 -0.11965488 0.017020516 1.715199e-38
-0.024442106 -0.11965488 0.017020516 1.8074308e-38
-0.022711057 -0.12047486 0.013953917 1.6968686e-38
-0.020955812 -0.12047486 0.013953917 1.1898645e-38
-0.019200567 -0.12047486 0.013953917 1.3005716e-38
-0.017447939 -0.12127317 0.010968201 2.1579188e-38
-0.01568746 -0.12127317 0.010968201 2.1762859e-38
-0.013926979 -0.12127317 0.010968201 2.0287008e-38
-0.0121665 -0.12127317 0.010968201 1.7612981e-38
-0.010406021 -0.12127317 0.010968201 1.6875416e-38
-0.0086455401 -0.12127317 0.010968201 1.8995199e-38
-0.0049537034 -0.12528224 -0.0040254667 2.1024222e-38
-0.003127608 -0.12608187 -0.0070160702 2.0749071e-38
-0.0013355953 -0.12608187 -0.0070160702 2.0012585e-38
0.00045641651 -0.12608187 -0.0070160702 1.9829999e-38
0.0022484283 -0.12608187 -0.0070160702 1.9555574e-38
0.0039801407 -0.12528224 -0.0040254667 1.9004207e-38
0.0057017501 -0.1244873 -0.0010523871 1.9282224e-38
0.0074833049 -0.1244873 -0.0010523871 1.5872103e-38
0.0092648622 -0.1244873 -0.0010523871 1.5688442e-38
0.011127217 -0.12528224 -0.0040254667 1.486013e-38
0.012913985 -0.12528224 -0.0040254667 1.3479009e-38
0.014700755 -0.12528224 -0.0040254667 1.3569408e-38
0.016584527 -0.12608187 -0.0070160702 1.4301576e-38
0.018479392 -0.12688623 -0.010024317 1.4022113e-38
0.02038544 -0.12769531 -0.013050206 1.4204713e-38
0.02218803 -0.12769531 -0.013050206 1.3743383e-38
0.023990624 -0.12769531 -0.013050206 1.273104e-38
0.025793217 -0.12769531 -0.013050206 1.3561519e-38
0.027595807 -0.12769531 -0.013050206 1.2916857e-38
0.0293984 -0.12769531 -0.013050206 1.1717222e-38
0.031337529 -0.12848105 -0.015988834 1.3005429e-38
0.033145275 -0.12848105 -0.015988834 1.6324111e-38
0.035106 -0.1292996 -0.019050248 1.5218499e-38
0.03691911 -0.1292996 -0.019050248 1.14403e-38
0.038732223 -0.1292996 -0.019050248 8.5855063e-39
0.040545337 -0.1292996 -0.019050248 5.7303158e-39
0.042358447 -0.1292996 -0.019050248 7.2086464e-39
0.044171561 -0.1292996 -0.019050248 1.568916e-38
0.045984671 -0.1292996 -0.019050248 2.0662627e-38
0.047797784 -0.1292996 -0.019050248 2.0381733e-38
0.049610898 -0.1292996 -0.019050248 1.899554e-38
0.051424012 -0.1292996 -0.019050248 1.881042e-38
-0.05744322 -0.1197954 0.023000173 1.9362887e-38
-0.055703834 -0.1197954 0.023000173 1.9270692e-38
-0.053964451 -0.1197954 0.023000173 2.0929853e-38
-0.052116822 -0.11898489 0.026011698 2.2958155e-38
-0.050382718 -0.11898489 0.026011698 2.3234379e-38
-0.048648618 -0.11898489 0.026011698 2.3234379e-38
-0.046914514 -0.11898489 0.026011698 2.341805e-38
-0.045180406 -0.11898489 0.026011698 2.2958154e-38
-0.043446306 -0.11898489 0.026011698 2.2958873e-38
-0.041788764 -0.1197954 0.023000173 2.2775202e-38
-0.040049382 -0.1197954 0.023000173 2.0654705e-38
-0.038309995 -0.1197954 0.023000173 2.0009691e-38
-0.036570612 -0.1197954 0.023000173 2.1760329e-38
-0.034887012 -0.12061088 0.01997029 2.1852525e-38
-0.033142313 -0.12061088 0.01997029 2.0284481e-38
-0.031352464 -0.1197954 0.023000173 1.9178852e-38
-0.029613078 -0.1197954 0.023000173 1.8718953e-38
-0.027908225 -0.12061088 0.01997029 1.8258337e-38
-0.02616353 -0.12061088 0.01997029 1.7060156e-38
-0.024442106 -0.12140475 0.017020516 1.7061238e-38
-0.022711057 -0.1222301 0.013953917 1.6231843e-38
-0.020955812 -0.1222301 0.013953917 1.189937e-38
-0.019200567 -0.1222301 0.013953917 1.1715341e-38
-0.017447939 -0.12303366 0.010968201 1.7247079e-38
-0.01568746 -0.12303366 0.010968201 1.7799893e-38
-0.013926979 -0.12303366 0.010968201 1.8259792e-38
-0.0121665 -0.12303366 0.010968201 1.7430034e-38
-0.0049537034 -0.12706901 -0.0040254667 1.8905164e-38
-0.003166934 -0.12706901 -0.0040254667 1.8444906e-38
-0.0013801656 -0.12706901 -0.0040254667 1.7985366e-38
0.00040660379 -0.12706901 -0.0040254667 1.6788265e-38
0.0021933722 -0.12706901 -0.0040254667 1.7158856e-38
0.0039201933 -0.12626885 -0.0010523871 1.8451759e-38
0.0057017501 -0.12626885 -0.0010523871 1.8545388e-38
0.0074833049 -0.12626885 -0.0010523871 1.4121113e-38
0.0092648622 -0.12626885 -0.0010523871 1.3107691e-38
0.011127217 -0.12706901 -0.0040254667 1.1910961e-38
0.012913985 -0.12706901 -0.0040254667 1.228192e-38
0.014700755 -0.12706901 -0.0040254667 1.2095734e-38
0.016584527 -0.12787388 -0.0070160702 1.3289591e-38
0.018479392 -0.12868352 -0.010024317 1.476112e-38
0.020276681 -0.12868352 -0.010024317 1.5311415e-38
0.02218803 -0.1294979 -0.013050206 1.3651551e-38
0.023990624 -0.1294979 -0.013050206 1.217859e-38
0.025793217 -0.1294979 -0.013050206 1.3561519e-38
0.027595807 -0.1294979 -0.013050206 1.3007979e-38
0.0293984 -0.1294979 -0.013050206 1.1254806e-38
0.031337529 -0.13028879 -0.015988834 1.2266422e-38
0.033145275 -0.13028879 -0.015988834 1.5953884e-38
0.034953021 -0.13028879 -0.015988834 1.5400724e-38
0.036760762 -0.13028879 -0.015988834 1.1622884e-38
0.038568508 -0.13028879 -0.015988834 8.8606484e-39
0.040545337 -0.13111271 -0.019050248 6.2831294e-39
0.042358447 -0.13111271 -0.019050248 5.9193538e-39
0.044171561 -0.13111271 -0.019050248 1.4031458e-38
0.045984671 -0.13111271 -0.019050248 2.0110537e-38
0.047797784 -0.13111271 -0.019050248 2.1488429e-38
0.049610898 -0.13111271 -0.019050248 2.0562865e-38
0.051424012 -0.13111271 -0.019050248 1.9547985e-38
0.053908177 -0.13378824 -0.028991349 1.9733818e-38
0.055530041 -0.13297729 -0.025978215 1.9182089e-38
0.0573553 -0.13297729 -0.025978215 1.9089539e-38
-0.053850926 -0.120719 0.026011698 2.120644e-38
-0.05204387 -0.12016918 0.028041355 2.3234379e-38
-0.050313327 -0.12016918 0.028041355 2.341805e-38
-0.048582781 -0.12016918 0.028041355 2.341805e-38
-0.046852235 -0.12016918 0.028041355 2.3141822e-38
-0.045121688 -0.12016918 0.028041355 2.240498e-38
-0.043528151 -0.12153481 0.023000173 2.2867037e-38
-0.041712202 -0.120719 0.026011698 2.2130554e-38
-0.039978098 -0.120719 0.026011698 2.0194446e-38
-0.038309995 -0.12153481 0.023000173 1.9364322e-38
-0.036570612 -0.12153481 0.023000173 2.0746178e-38
-0.03483123 -0.12153481 0.023000173 2.1207153e-38
-0.033091847 -0.12153481 0.023000173 1.9639827e-38
-0.031352464 -0.12153481 0.023000173 1.7980309e-38
-0.029613078 -0.12153481 0.023000173 1.7151627e-38
-0.027873695 -0.12153481 0.023000173 1.8166143e-38
-0.02613431 -0.12153481 0.023000173 1.7336745e-38
-0.024442106 -0.12315463 0.017020516 1.6416234e-38
-0.022692237 -0.12315463 0.017020516 1.5771589e-38
-0.020942369 -0.12315463 0.017020516 1.3006802e-38
-0.019192502 -0.12315463 0.017020516 1.1440199e-38
-0.017445322 -0.12398534 0.013953917 1.3560699e-38
-0.01568746 -0.12479414 0.010968201 1.5587924e-38
-0.013926979 -0.12479414 0.010968201 1.7155249e-38
-0.00320603 -0.1280504 -0.0010523871 1.8261237e-38
-0.0014244742 -0.1280504 -0.0010523871 1.7617308e-38
0.00035708165 -0.1280504 -0.0010523871 1.5867033e-38
0.0021386384 -0.1280504 -0.0010523871 1.6514211e-38
0.0039201933 -0.1280504 -0.0010523871 1.8452117e-38
0.0057017501 -0.1280504 -0.0010523871 1.7992581e-38
0.0074833049 -0.1280504 -0.0010523871 1.4398064e-38
0.0092648622 -0.1280504 -0.0010523871 1.2924027e-38
0.011127217 -0.12885578 -0.0040254667 9.975223e-39
0.012913985 -0.12885578 -0.0040254667 9.9770475e-39
0.014700755 -0.12885578 -0.0040254667 1.034511e-38
0.016584527 -0.1296659 -0.0070160702 1.1538238e-38
0.018479392 -0.13048081 -0.010024317 1.2917927e-38
0.020276681 -0.13048081 -0.010024317 1.374553e-38
0.022073966 -0.13048081 -0.010024317 1.2914337e-38
0.023990624 -0.13130049 -0.013050206 1.2177867e-38
0.025793217 -0.13130049 -0.013050206 1.2916155e-38
0.027595807 -0.13130049 -0.013050206 1.3837024e-38
0.0293984 -0.13130049 -0.013050206 1.1438481e-38
0.031337529 -0.13209651 -0.015988834 1.1897276e-38
0.033145275 -0.13209651 -0.015988834 1.530815e-38
0.034953021 -0.13209651 -0.015988834 1.5031572e-38
0.036760762 -0.13209651 -0.015988834 1.1530677e-38
0.038568508 -0.13209651 -0.015988834 9.2286966e-39
0.040376253 -0.13209651 -0.015988834 6.5589905e-39
0.042183999 -0.13209651 -0.015988834 4.9974073e-39
0.044171561 -0.13292582 -0.019050248 1.2280474e-38
0.045984671 -0.13292582 -0.019050248 1.9188954e-38
0.047797784 -0.13292582 -0.019050248 2.2132353e-38
0.049862549 -0.13399105 -0.022982486 2.2037639e-38
0.051682554 -0.13399105 -0.022982486 1.9916047e-38
0.05350256 -0.13399105 -0.022982486 1.9456868e-38
0.055530041 -0.13480256 -0.025978215 1.9457231e-38
0.0573553 -0.13480256 -0.025978215 1.9181733e-38
-0.053850926 -0.12245311 0.026011698 2.0468875e-38
-0.05204387 -0.12189974 0.028041355 2.2497178e-38
-0.050313327 -0.12189974 0.028041355 2.2957075e-38
-0.048582781 -0.12189974 0.028041355 2.2496097e-38
-0.046669852 -0.12027912 0.033985429 2.1943279e-38
-0.044949729 -0.12027912 0.033985429 2.1206437e-38
-0.043446306 -0.12245311 0.026011698 1.9549073e-38
-0.041712202 -0.12245311 0.026011698 1.9273205e-38
-0.039978098 -0.12245311 0.026011698 1.8073943e-38
-0.038243994 -0.12245311 0.026011698 1.7152343e-38
-0.03650989 -0.12245311 0.026011698 1.7981385e-38
-0.03483123 -0.12327419 0.023000173 1.8994458e-38
-0.033091847 -0.12327419 0.023000173 1.7980306e-38
-0.031352464 -0.12327419 0.023000173 1.6412983e-38
-0.029613078 -0.12327419 0.023000173 1.6874684e-38
-0.027873695 -0.12327419 0.023000173 1.8166143e-38
-0.02613431 -0.12327419 0.023000173 1.7244553e-38
-0.024442106 -0.1249045 0.017020516 1.5862703e-38
-0.022692237 -0.1249045 0.017020516 1.5679756e-38
-0.020942369 -0.1249045 0.017020516 1.4113874e-38
-0.019192502 -0.1249045 0.017020516 1.2178129e-38
-0.017445322 -0.12574057 0.013953917 1.2270327e-38
-0.01568746 -0.12655462 0.010968201 1.4298628e-38
-0.0049875868 -0.12983195 -0.0010523871 1.7524036e-38
-0.00320603 -0.12983195 -0.0010523871 1.8353797e-38
-0.0014244742 -0.12983195 -0.0010523871 1.6972301e-38
0.00035708165 -0.12983195 -0.0010523871 1.5775203e-38
0.0021386384 -0.12983195 -0.0010523871 1.5684814e-38
0.0039201933 -0.12983195 -0.0010523871 1.6424188e-38
0.0057017501 -0.12983195 -0.0010523871 1.5504045e-38
0.0074833049 -0.12983195 -0.0010523871 1.4582821e-38
0.0092648622 -0.12983195 -0.0010523871 1.320098e-38
0.011127217 -0.13064255 -0.0040254667 8.4079057e-39
0.012913985 -0.13064255 -0.0040254667 9.6079132e-39
0.014792517 -0.13145791 -0.0070160702 1.1450378e-38
0.016584527 -0.13145791 -0.0070160702 1.1814465e-38
0.018479392 -0.1322781 -0.010024317 1.1995604e-38
0.020276681 -0.1322781 -0.010024317 1.3006872e-38
0.022073966 -0.1322781 -0.010024317 1.3559695e-38
0.023990624 -0.13310309 -0.013050206 1.3837021e-38
0.025793217 -0.13310309 -0.013050206 1.3744472e-38
0.027595807 -0.13310309 -0.013050206 1.3374966e-38
0.0293984 -0.13310309 -0.013050206 1.1253014e-38
0.031337529 -0.13390426 -0.015988834 1.1158992e-38
0.033145275 -0.13390426 -0.015988834 1.3831938e-38
0.034953021 -0.13390426 -0.015988834 1.3556795e-38
0.036760762 -0.13390426 -0.015988834 1.1162246e-38
0.038568508 -0.13390426 -0.015988834 9.1368527e-39
0.040376253 -0.13390426 -0.015988834 5.7303046e-39
0.042183999 -0.13390426 -0.015988834 3.8003074e-39
0.044171561 -0.13473894 -0.019050248 9.9766733e-39
0.045984671 -0.13473894 -0.019050248 1.7068487e-38
0.047797784 -0.13473894 -0.019050248 2.2132353e-38
0.049862549 -0.13581105 -0.022982486 2.2958514e-38
0.051682554 -0.13581105 -0.022982486 2.0467779e-38
0.05350256 -0.13581105 -0.022982486 1.9639816e-38
0.055322565 -0.13581105 -0.022982486 1.9733455e-38
-0.050110098 -0.12199925 0.033985429 2.1113162e-38
-0.048389975 -0.12199925 0.033985429 2.0652184e-38
-0.046669852 -0.12199925 0.033985429 2.0283402e-38
-0.044949729 -0.12199925 0.033985429 1.9546915e-38
-0.043310132 -0.12281232 0.031022362 1.7981748e-38
-0.041660603 -0.12363027 0.028041355 1.7890268e-38
-0.039978098 -0.12418722 0.026011698 1.7705517e-38
-0.038243994 -0.12418722 0.026011698 1.6967952e-38
-0.03650989 -0.12418722 0.026011698 1.6967233e-38
-0.03477579 -0.12418722 0.026011698 1.76126e-38
-0.033041682 -0.12418722 0.026011698 1.7611523e-38
-0.031352464 -0.12501357 0.023000173 1.6505179e-38
-0.029613078 -0.12501357 0.023000173 1.6690293e-38
-0.027873695 -0.12501357 0.023000173 1.724455e-38
-0.02613431 -0.12501357 0.023000173 1.6415515e-38
-0.0067691426 -0.13161351 -0.0010523871 1.5864885e-38
-0.0049875868 -0.13161351 -0.0010523871 1.6418414e-38
-0.00320603 -0.13161351 -0.0010523871 1.6602803e-38
-0.001470041 -0.13077454 0.0020050928 1.6512405e-38
0.00030615507 -0.13077454 0.0020050928 1.5130196e-38
0.0020823493 -0.13077454 0.0020050928 1.4486273e-38
0.0038585453 -0.13077454 0.0020050928 1.5594071e-38
0.0057017501 -0.13161351 -0.0010523871 1.4766485e-38
0.0074833049 -0.13161351 -0.0010523871 1.4491349e-38
0.0092648622 -0.13161351 -0.0010523871 1.3201703e-38
0.011046417 -0.13161351 -0.0010523871 8.8681678e-39
0.012913985 -0.13242932 -0.0040254667 8.8685559e-39
0.014700755 -0.13242932 -0.0040254667 1.1079446e-38
0.016584527 -0.13324992 -0.0070160702 1.1628628e-38
0.01837654 -0.13324992 -0.0070160702 1.2732076e-38
0.020276681 -0.13407536 -0.010024317 1.3282723e-38
0.022073966 -0.13407536 -0.010024317 1.2359696e-38
0.02387125 -0.13407536 -0.010024317 1.2268602e-38
0.025793217 -0.13490568 -0.013050206 1.1899834e-38
0.027595807 -0.13490568 -0.013050206 1.1991313e-38
0.0293984 -0.13490568 -0.013050206 1.0607644e-38
0.031200994 -0.13490568 -0.013050206 1.0421074e-38
0.033003584 -0.13490568 -0.013050206 1.2080224e-38
0.034806177 -0.13490568 -0.013050206 1.1805435e-38
0.036608767 -0.13490568 -0.013050206 1.0333199e-38
0.03841136 -0.13490568 -0.013050206 8.7691408e-39
0.040376253 -0.13571201 -0.015988834 4.9012572e-39
0.042183999 -0.13571201 -0.015988834 3.4318906e-39
0.044171561 -0.13655205 -0.019050248 8.5937445e-39
0.045984671 -0.13655205 -0.019050248 1.5408982e-38
0.047797784 -0.13655205 -0.019050248 2.1579547e-38
0.049862549 -0.13763104 -0.022982486 2.3234379e-38
0.051682554 -0.13763104 -0.022982486 2.1573763e-38
0.05350256 -0.13763104 -0.022982486 2.0837277e-38
0.055322565 -0.13763104 -0.022982486 2.1023469e-38
-0.048291367 -0.12287988 0.037025444 1.9545836e-38
-0.046576574 -0.12287988 0.037025444 1.9361445e-38
-0.044861782 -0.12287988 0.037025444 1.8810069e-38
-0.043229606 -0.12371938 0.033985429 1.8166855e-38
-0.041660603 -0.12536083 0.028041355 1.7706956e-38
-0.039978098 -0.12592132 0.026011698 1.8074659e-38
-0.038243994 -0.12592132 0.026011698 1.7889905e-38
-0.03650989 -0.12592132 0.026011698 1.7059426e-38
-0.03477579 -0.12592132 0.026011698 1.7336013e-38
-0.033041682 -0.12592132 0.026011698 1.7795915e-38
-0.031307582 -0.12592132 0.026011698 1.6967236e-38
-0.029573478 -0.12592132 0.026011698 1.6413706e-38
-0.027782269 -0.12453763 0.031022362 1.6691376e-38
-0.026056949 -0.12453763 0.031022362 1.6323321e-38
-0.0067691426 -0.13339506 -0.0010523871 1.5773409e-38
-0.0049875868 -0.13339506 -0.0010523871 1.5865604e-38
-0.00320603 -0.13339506 -0.0010523871 1.5865601e-38
-0.001470041 -0.13255073 0.0020050928 1.6512049e-38
0.00030615507 -0.13255073 0.0020050928 1.4484828e-38
0.0020823493 -0.13255073 0.0020050928 1.3380649e-38
0.0038585453 -0.13255073 0.0020050928 1.6517109e-38
0.0056347395 -0.13255073 0.0020050928 1.6149055e-38
0.0074833049 -0.13339506 -0.0010523871 1.4583546e-38
0.0092648622 -0.13339506 -0.0010523871 1.2648531e-38
0.011046417 -0.13339506 -0.0010523871 1.0435496e-38
0.012827974 -0.13339506 -0.0010523871 1.0894702e-38
0.014700755 -0.13421609 -0.0040254667 1.264424e-38
0.016487524 -0.13421609 -0.0040254667 1.4484886e-38
0.01837654 -0.13504194 -0.0070160702 1.8723319e-38
0.020276681 -0.13587265 -0.010024317 1.8444222e-38
0.022073966 -0.13587265 -0.010024317 1.3096524e-38
0.02387125 -0.13587265 -0.010024317 1.1622142e-38
0.025793217 -0.13670824 -0.013050206 1.2083499e-38
0.027595807 -0.13670824 -0.013050206 1.3005102e-38
0.0293984 -0.13670824 -0.013050206 1.1989504e-38
0.031200994 -0.13670824 -0.013050206 1.1619619e-38
0.033003584 -0.13670824 -0.013050206 1.2449728e-38
0.034806177 -0.13670824 -0.013050206 1.1161505e-38
0.036608767 -0.13670824 -0.013050206 9.5041541e-39
0.03841136 -0.13670824 -0.013050206 7.8489768e-39
0.040376253 -0.13751976 -0.015988834 4.16549e-39
0.042183999 -0.13751976 -0.015988834 4.0779817e-39
0.044171561 -0.13836516 -0.019050248 8.9632515e-39
0.045984671 -0.13836516 -0.019050248 1.5500822e-38
0.047797784 -0.13836516 -0.019050248 2.1487352e-38
0.049862549 -0.13945107 -0.022982486 2.341805e-38
0.051424012 -0.13836516 -0.019050248 2.2587192e-38
0.053237118 -0.13836516 -0.019050248 2.1758152e-38
0.055050232 -0.13836516 -0.019050248 2.1483726e-38
-0.048291367 -0.12459467 0.037025444 1.9084861e-38
-0.046576574 -0.12459467 0.037025444 1.8992663e-38
-0.044861782 -0.12459467 0.037025444 1.8533482e-38
-0.043229606 -0.12543948 0.033985429 1.7705877e-38
-0.041660603 -0.12709136 0.028041355 1.6600606e-38
-0.039978098 -0.12765543 0.026011698 1.7153059e-38
-0.038243994 -0.12765543 0.026011698 1.7428924e-38
-0.03650989 -0.12765543 0.026011698 1.6414412e-38
-0.03477579 -0.12765543 0.026011698 1.6137825e-38
-0.033041682 -0.12765543 0.026011698 1.6689564e-38
-0.031307582 -0.12765543 0.026011698 1.6045277e-38
-0.029573478 -0.12765543 0.026011698 1.6229315e-38
-0.027782269 -0.12626295 0.031022362 1.659918e-38
-0.026056949 -0.12626295 0.031022362 1.6323681e-38
-0.024331631 -0.12626295 0.031022362 1.5956346e-38
-0.00320603 -0.13517661 -0.0010523871 1.6418777e-38
-0.001470041 -0.13432692 0.0020050928 1.5405704e-38
0.00030615507 -0.13432692 0.0020050928 1.3931655e-38
0.0020823493 -0.13432692 0.0020050928 1.2458692e-38
0.0038585453 -0.13432692 0.0020050928 1.5963935e-38
0.0056347395 -0.13432692 0.0020050928 1.5688084e-38
0.0074833049 -0.13517661 -0.0010523871 1.3477201e-38
0.0092648622 -0.13517661 -0.0010523871 1.0804262e-38
0.011046417 -0.13517661 -0.0010523871 9.9737993e-39
0.012827974 -0.13517661 -0.0010523871 1.0616676e-38
0.014609531 -0.13517661 -0.0010523871 1.2549534e-38
0.016487524 -0.13600285 -0.0040254667 1.531176e-38
0.018274292 -0.13600285 -0.0040254667 2.1302246e-38
0.020276681 -0.13766994 -0.010024317 2.0102645e-38
0.022073966 -0.13766994 -0.010024317 1.2265669e-38
0.02387125 -0.13766994 -0.010024317 1.0145922e-38
0.025668539 -0.13766994 -0.010024317 1.0976427e-38
0.027595807 -0.13851084 -0.013050206 1.4018175e-38
0.0293984 -0.13851084 -0.013050206 1.2358288e-38
0.031200994 -0.13851084 -0.013050206 1.208096e-38
0.033003584 -0.13851084 -0.013050206 1.3188015e-38
0.034806177 -0.13851084 -0.013050206 1.0977475e-38
0.036608767 -0.13851084 -0.013050206 7.7538763e-39
0.03841136 -0.13851084 -0.013050206 6.0986989e-39
0.040376253 -0.13932751 -0.015988834 3.5219171e-39
0.042183999 -0.13932751 -0.015988834 3.7099209e-39
0.044171561 -0.14017828 -0.019050248 9.5160721e-39
0.045984671 -0.14017828 -0.019050248 1.6146185e-38
0.047797784 -0.14017828 -0.019050248 2.1763218e-38
0.049862549 -0.14127107 -0.022982486 2.3509886e-38
0.051424012 -0.14017828 -0.019050248 2.3231843e-38
0.053237118 -0.14017828 -0.019050248 2.2587192e-38
0.055050232 -0.14017828 -0.019050248 2.1943625e-38
-0.051720954 -0.12630944 0.037025444 1.8993744e-38
-0.049906082 -0.12549089 0.039952509 1.8809353e-38
-0.048196424 -0.12549089 0.039952509 1.8348372e-38
-0.046486761 -0.12549089 0.039952509 1.8348372e-38
-0.044777099 -0.12549089 0.039952509 1.7980306e-38
-0.043146987 -0.12630944 0.037025444 1.8351246e-38
-0.041509483 -0.12715961 0.033985429 1.6600608e-38
-0.039859496 -0.12798826 0.031022362 1.7153059e-38
-0.038243994 -0.12938951 0.026011698 1.7889905e-38
-0.03650989 -0.12938951 0.026011698 1.6783558e-38
-0.03477579 -0.12938951 0.026011698 1.6414056e-38
-0.033041682 -0.12938951 0.026011698 1.6782842e-38
-0.031307582 -0.12938951 0.026011698 1.6321866e-38
-0.029546786 -0.12882192 0.028041355 1.5953448e-38
-0.027748499 -0.12715961 0.033985429 1.6323317e-38
-0.026028376 -0.12715961 0.033985429 1.6139293e-38
-0.024308253 -0.12715961 0.033985429 1.5310977e-38
-0.0032462361 -0.13610314 0.0020050928 1.577413e-38
-0.001470041 -0.13610314 0.0020050928 1.5037286e-38
0.00030615507 -0.13610314 0.0020050928 1.4946532e-38
0.0020823493 -0.13610314 0.0020050928 1.3103707e-38
0.0038585453 -0.13610314 0.0020050928 1.5226014e-38
0.0056347395 -0.13610314 0.0020050928 1.4950519e-38
0.0074833049 -0.13695817 -0.0010523871 1.3568315e-38
0.0092648622 -0.13695817 -0.0010523871 1.0619146e-38
0.011046417 -0.13695817 -0.0010523871 9.4195367e-39
0.012827974 -0.13695817 -0.0010523871 1.033828e-38
0.014609531 -0.13695817 -0.0010523871 1.2916869e-38
0.016487524 -0.13778962 -0.0040254667 1.5403947e-38
0.018274292 -0.13778962 -0.0040254667 2.0749081e-38
0.020168554 -0.13862596 -0.0070160702 1.9456914e-38
0.021960564 -0.13862596 -0.0070160702 1.1988717e-38
0.023752578 -0.13862596 -0.0070160702 1.0329586e-38
0.025668539 -0.13946722 -0.010024317 1.0974978e-38
0.027595807 -0.14031343 -0.013050206 1.2726349e-38
0.0293984 -0.14031343 -0.013050206 1.0513651e-38
0.031200994 -0.14031343 -0.013050206 1.0421794e-38
0.033003584 -0.14031343 -0.013050206 1.2267854e-38
0.034806177 -0.14031343 -0.013050206 9.8729254e-39
0.036608767 -0.14031343 -0.013050206 5.6351746e-39
0.03841136 -0.14031343 -0.013050206 4.4398937e-39
0.040376253 -0.14113526 -0.015988834 3.336444e-39
0.042183999 -0.14113526 -0.015988834 2.0496835e-39
0.044171561 -0.14199139 -0.019050248 8.6859569e-39
0.045984671 -0.14199139 -0.019050248 1.5778485e-38
0.047797784 -0.14199139 -0.019050248 2.1211846e-38
0.049862549 -0.14309107 -0.022982486 2.3142544e-38
0.051682554 -0.14309107 -0.022982486 2.3509516e-38
0.053237118 -0.14199139 -0.019050248 2.3509149e-38
0.055050232 -0.14199139 -0.019050248 2.2956695e-38
-0.051720954 -0.12802424 0.037025444 1.8809353e-38
-0.049906082 -0.12720053 0.039952509 1.8810069e-38
-0.048196424 -0.12720053 0.039952509 1.8072501e-38
-0.046486761 -0.12720053 0.039952509 1.7428211e-38
-0.044777099 -0.12720053 0.039952509 1.7612602e-38
-0.043146987 -0.12802424 0.037025444 1.7336378e-38
-0.041509483 -0.12887974 0.033985429 1.7060513e-38
-0.039859496 -0.12971358 0.031022362 1.715199e-38
-0.03819951 -0.13055246 0.028041355 1.715199e-38
-0.03650989 -0.13112362 0.026011698 1.6967599e-38
-0.03477579 -0.13112362 0.026011698 1.6507339e-38
-0.033007879 -0.13055246 0.028041355 1.6414786e-38
-0.031277332 -0.13055246 0.028041355 1.6691373e-38
-0.029546786 -0.13055246 0.028041355 1.6231121e-38
-0.027713854 -0.12802424 0.037025444 1.5678669e-38
-0.02599906 -0.12802424 0.037025444 1.5679393e-38
-0.0032462361 -0.13787933 0.0020050928 1.4852542e-38
-0.001470041 -0.13787933 0.0020050928 1.4392284e-38
0.00030615507 -0.13787933 0.0020050928 1.4209335e-38
0.0020823493 -0.13787933 0.0020050928 1.2827489e-38
0.0038585453 -0.13787933 0.0020050928 1.4119671e-38
0.0056347395 -0.13787933 0.0020050928 1.5503693e-38
0.0074833049 -0.13873972 -0.0010523871 1.273819e-38
0.0092648622 -0.13873972 -0.0010523871 1.2554163e-38
0.011046417 -0.13873972 -0.0010523871 9.3262494e-39
0.012827974 -0.13873972 -0.0010523871 1.098183e-38
0.014609531 -0.13873972 -0.0010523871 1.2086374e-38
0.016391087 -0.13873972 -0.0010523871 1.6050033e-38
0.018274292 -0.13957639 -0.0040254667 1.9828574e-38
0.020168554 -0.14041798 -0.0070160702 2.028811e-38
0.021960564 -0.14041798 -0.0070160702 1.0514308e-38
0.023752578 -0.14041798 -0.0070160702 9.7756865e-39
0.025668539 -0.14126451 -0.010024317 1.198768e-38
0.027465824 -0.14126451 -0.010024317 1.3370262e-38
0.0293984 -0.14211603 -0.013050206 1.1066448e-38
0.031200994 -0.14211603 -0.013050206 1.1068232e-38
0.033003584 -0.14211603 -0.013050206 1.1346612e-38
0.034806177 -0.14211603 -0.013050206 8.6750997e-39
0.036608767 -0.14211603 -0.013050206 5.6351746e-39
0.03841136 -0.14211603 -0.013050206 4.4388105e-39
0.040376253 -0.14294298 -0.015988834 3.6119491e-39
0.042183999 -0.14294298 -0.015988834 2.1404372e-39
0.044402525 -0.14491107 -0.022982486 8.1335048e-39
0.04622253 -0.14491107 -0.022982486 1.5134919e-38
0.048042543 -0.14491107 -0.022982486 2.1213998e-38
0.049862549 -0.14491107 -0.022982486 2.2040518e-38
0.051682554 -0.14491107 -0.022982486 2.3050708e-38
0.053237118 -0.14380451 -0.019050248 2.3509876e-38
0.055050232 -0.14380451 -0.019050248 2.3139647e-38
-0.050006159 -0.12973903 0.037025444 1.8442366e-38
-0.048291367 -0.12973903 0.037025444 1.7796994e-38
-0.046576574 -0.12973903 0.037025444 1.7336734e-38
-0.044861782 -0.12973903 0.037025444 1.742893e-38
-0.043229606 -0.13059987 0.033985429 1.8166142e-38
-0.041509483 -0.13059987 0.033985429 1.7981752e-38
-0.039930057 -0.13228302 0.028041355 1.7889556e-38
-0.03819951 -0.13228302 0.028041355 1.7797361e-38
-0.03650989 -0.13285773 0.026011698 1.7336743e-38
-0.03477579 -0.13285773 0.026011698 1.6783569e-38
-0.033007879 -0.13228302 0.028041355 1.6508064e-38
-0.031277332 -0.13228302 0.028041355 1.6784651e-38
-0.029546786 -0.13228302 0.028041355 1.6139647e-38
-0.027713854 -0.12973903 0.037025444 1.5586116e-38
-0.02599906 -0.12973903 0.037025444 1.5495002e-38
-0.024284268 -0.12973903 0.037025444 1.5771236e-38
-0.001470041 -0.13965552 0.0020050928 1.3839833e-38
0.00030615507 -0.13965552 0.0020050928 1.3655808e-38
0.0020823493 -0.13965552 0.0020050928 1.2550903e-38
0.0038585453 -0.13965552 0.0020050928 1.3750533e-38
0.0056347395 -0.13965552 0.0020050928 1.4765049e-38
0.0074833049 -0.14052127 -0.0010523871 1.117122e-38
0.0092648622 -0.14052127 -0.0010523871 1.0709886e-38
0.011046417 -0.14052127 -0.0010523871 7.9429493e-39
0.012827974 -0.14052127 -0.0010523871 8.8616826e-39
0.014609531 -0.14052127 -0.0010523871 1.1902333e-38
0.016391087 -0.14052127 -0.0010523871 1.706454e-38
0.018274292 -0.14136316 -0.0040254667 2.0014397e-38
0.020168554 -0.14220999 -0.0070160702 1.9459079e-38
0.021960564 -0.14220999 -0.0070160702 9.9618588e-39
0.023752578 -0.14220999 -0.0070160702 9.3139895e-39
0.025668539 -0.1430618 -0.010024317 1.1157553e-38
0.027465824 -0.1430618 -0.010024317 1.014305e-38
0.0293984 -0.14391862 -0.013050206 9.1303353e-39
0.031200994 -0.14391862 -0.013050206 9.7774928e-39
0.033003584 -0.14391862 -0.013050206 9.9644008e-39
0.034806177 -0.14391862 -0.013050206 8.2155649e-39
