# .PCD v0.7 - Point Cloud Data file format
VERSION 0.7
FIELDS x y z rgb
SIZE 4 4 4 4
TYPE F F F F
COUNT 1 1 1 1
WIDTH 942
HEIGHT 1
VIEWPOINT 0 0 0 1 0 0 0
POINTS 942
DATA ascii
-0.052062169 -0.13171287 -0.021081038 1.5498627e-38
-0.05022116 -0.13171287 -0.021081038 1.7154903e-38
-0.048356961 -0.13093217 -0.018141933 1.7337131e-38
-0.046502508 -0.13012715 -0.015111394 1.7705197e-38
-0.044671968 -0.13012715 -0.015111394 1.8352013e-38
-0.042841423 -0.13012715 -0.015111394 1.789393e-38
-0.041008241 -0.12932678 -0.01209826 1.679011e-38
-0.039182983 -0.12932678 -0.01209826 1.4302634e-38
-0.037357721 -0.12932678 -0.01209826 7.8493089e-39
-0.03553246 -0.12932678 -0.01209826 1.1075085e-38
-0.03372559 -0.12853102 -0.0091025308 1.1627189e-38
-0.03190558 -0.12853102 -0.0091025308 1.2270047e-38
-0.030085575 -0.12853102 -0.0091025308 8.6729781e-39
-0.028265566 -0.12853102 -0.0091025308 9.500578e-39
-0.02644556 -0.12853102 -0.0091025308 1.3371352e-38
-0.024625553 -0.12853102 -0.0091025308 1.3463184e-38
-0.022805547 -0.12853102 -0.0091025308 1.3648291e-38
-0.02098554 -0.12853102 -0.0091025308 1.2819972e-38
-0.019165533 -0.12853102 -0.0091025308 1.2178204e-38
-0.017345527 -0.12853102 -0.0091025308 1.3103412e-38
-0.01552552 -0.12853102 -0.0091025308 7.9433486e-39
-0.013705513 -0.12853102 -0.0091025308 6.6551406e-39
-0.011992371 -0.12748651 -0.0051702932 1.0803938e-38
-0.010267826 -0.1266733 -0.0021088794 1.1631881e-38
-0.0084600803 -0.1266733 -0.0021088794 1.3196669e-38
-0.0067476574 -0.12589271 0.00082974881 1.3471084e-38
-0.004945064 -0.12589271 0.00082974881 1.4206119e-38
0.010678733 -0.12270571 0.012827568 1.7243848e-38
0.01246029 -0.12270571 0.012827568 1.8165082e-38
0.014078343 -0.12189357 0.015885048 1.77963e-38
0.015854539 -0.12189357 0.015885048 1.6873978e-38
0.017630732 -0.12189357 0.015885048 1.6966528e-38
0.019406928 -0.12189357 0.015885048 1.687433e-38
0.02136807 -0.12270571 0.012827568 1.8072153e-38
0.023149626 -0.12270571 0.012827568 1.6781411e-38
0.024931179 -0.12270571 0.012827568 1.5765818e-38
0.026908221 -0.12349547 0.0098544881 1.6411185e-38
0.028896863 -0.12428986 0.0068638846 1.6963999e-38
0.030275853 -0.12270571 0.012827568 1.7609365e-38
0.032057405 -0.12270571 0.012827568 1.7240583e-38
0.033838958 -0.12270571 0.012827568 1.5673257e-38
0.035620518 -0.12270571 0.012827568 1.7517889e-38
0.037402071 -0.12270571 0.012827568 1.6688851e-38
0.039183632 -0.12270571 0.012827568 1.7242025e-38
0.040965185 -0.12270571 0.012827568 2.0100452e-38
0.042746738 -0.12270571 0.012827568 2.0193727e-38
0.044528306 -0.12270571 0.012827568 2.2036562e-38
0.046309859 -0.12270571 0.012827568 2.1851101e-38
0.049872965 -0.12270571 0.012827568 2.323402e-38
0.051654518 -0.12270571 0.012827568 2.1851101e-38
0.053154632 -0.12189357 0.015885048 2.3142544e-38
0.058483228 -0.12189357 0.015885048 2.3509527e-38
0.060259417 -0.12189357 0.015885048 2.3508809e-38
0.061729223 -0.12108628 0.018924169 2.3509527e-38
0.063200533 -0.1203105 0.021844678 2.3234379e-38
0.064966276 -0.1203105 0.021844678 2.2591172e-38
0.066732019 -0.1203105 0.021844678 2.1672099e-38
0.06914039 -0.12189357 0.015885048 2.1856847e-38
0.071251646 -0.12270571 0.012827568 2.1305834e-38
0.073033199 -0.12270571 0.012827568 2.0662985e-38
0.074814752 -0.12270571 0.012827568 1.9926866e-38
0.076596305 -0.12270571 0.012827568 1.1166865e-38
0.078724518 -0.12349547 0.0098544881 6.554198e-39
0.080511287 -0.12349547 0.0098544881 8.2111914e-39
-0.070675723 -0.13543437 -0.028114028 1.613604e-38
-0.068822384 -0.13543437 -0.028114028 1.659918e-38
-0.066893324 -0.134638 -0.025135584 1.5861252e-38
-0.0650452 -0.134638 -0.025135584 1.7057631e-38
-0.063197084 -0.134638 -0.025135584 1.8532038e-38
-0.061348967 -0.134638 -0.025135584 1.8810069e-38
-0.059500851 -0.134638 -0.025135584 1.5863057e-38
-0.057652734 -0.134638 -0.025135584 1.5406055e-38
-0.055744186 -0.13355388 -0.021081038 1.3840901e-38
-0.053903177 -0.13355388 -0.021081038 1.337957e-38
-0.052062169 -0.13355388 -0.021081038 1.5959605e-38
-0.050192818 -0.13276802 -0.018141933 1.8814422e-38
-0.048356961 -0.13276802 -0.018141933 1.7889944e-38
-0.046502508 -0.13195769 -0.015111394 1.8257648e-38
-0.044671968 -0.13195769 -0.015111394 1.6783605e-38
-0.042841423 -0.13195769 -0.015111394 1.5956377e-38
-0.041008241 -0.13115202 -0.01209826 1.3561818e-38
-0.039182983 -0.13115202 -0.01209826 9.4159017e-39
-0.037357721 -0.13115202 -0.01209826 1.052226e-38
-0.035545595 -0.13035102 -0.0091025308 1.1075083e-38
-0.03372559 -0.13035102 -0.0091025308 1.1626467e-38
-0.03190558 -0.13035102 -0.0091025308 1.2823937e-38
-0.030085575 -0.13035102 -0.0091025308 8.4885869e-39
-0.028265566 -0.13035102 -0.0091025308 9.039597e-39
-0.02644556 -0.13035102 -0.0091025308 1.3186597e-38
-0.024625553 -0.13035102 -0.0091025308 1.2171719e-38
-0.022805547 -0.13035102 -0.0091025308 1.2357187e-38
-0.02098554 -0.13035102 -0.0091025308 1.2543739e-38
-0.019165533 -0.13035102 -0.0091025308 1.1717223e-38
-0.017345527 -0.13035102 -0.0091025308 9.6006937e-39
-0.01552552 -0.13035102 -0.0091025308 7.4841683e-39
-0.013705513 -0.13035102 -0.0091025308 6.6573014e-39
-0.011992371 -0.1292996 -0.0051702932 9.606837e-39
-0.010267826 -0.12848105 -0.0021088794 1.1631881e-38
-0.0084600803 -0.12848105 -0.0021088794 1.255094e-38
-0.0067476574 -0.12769531 0.00082974881 1.2733519e-38
-0.004945064 -0.12769531 0.00082974881 1.3652945e-38
0.0088971797 -0.1244873 0.012827568 1.6507007e-38
0.010678733 -0.1244873 0.012827568 1.6967985e-38
0.01246029 -0.1244873 0.012827568 1.7427882e-38
0.014078343 -0.12366976 0.015885048 1.7427517e-38
0.015854539 -0.12366976 0.015885048 1.7335678e-38
0.017630732 -0.12366976 0.015885048 1.6597748e-38
0.019586513 -0.1244873 0.012827568 1.7150916e-38
0.02136807 -0.1244873 0.012827568 1.7150196e-38
0.023149626 -0.1244873 0.012827568 1.6228237e-38
0.024931179 -0.1244873 0.012827568 1.6134601e-38
0.02671274 -0.1244873 0.012827568 1.6595576e-38
0.028494293 -0.1244873 0.012827568 1.6963999e-38
0.0300641 -0.12366976 0.015885048 1.6687412e-38
0.031840295 -0.12366976 0.015885048 1.5949844e-38
0.033838958 -0.1244873 0.012827568 1.5673257e-38
0.035620518 -0.1244873 0.012827568 1.5765816e-38
0.037402071 -0.1244873 0.012827568 1.6688851e-38
0.039183632 -0.1244873 0.012827568 1.733422e-38
0.040965185 -0.1244873 0.012827568 2.0008612e-38
0.042746738 -0.1244873 0.012827568 2.0009336e-38
0.044528306 -0.1244873 0.012827568 2.1575584e-38
0.046309859 -0.1244873 0.012827568 2.1574514e-38
0.049872965 -0.1244873 0.012827568 2.3049632e-38
0.051654518 -0.1244873 0.012827568 2.3142544e-38
0.053154632 -0.12366976 0.015885048 2.3234379e-38
0.054930836 -0.12366976 0.015885048 2.3233303e-38
0.056707025 -0.12366976 0.015885048 2.3509527e-38
0.058483228 -0.12366976 0.015885048 2.3508451e-38
0.060259417 -0.12366976 0.015885048 2.3508091e-38
0.061729223 -0.12285714 0.018924169 2.3508451e-38
0.063200533 -0.12207626 0.021844678 2.3508807e-38
0.064966276 -0.12207626 0.021844678 2.2957075e-38
0.066732019 -0.12207626 0.021844678 2.2867037e-38
0.068812683 -0.12285714 0.018924169 2.1856125e-38
0.070583552 -0.12285714 0.018924169 2.2132353e-38
0.072354421 -0.12285714 0.018924169 2.1305834e-38
0.07412529 -0.12285714 0.018924169 2.0662985e-38
0.076245174 -0.12366976 0.015885048 1.2918945e-38
0.078021377 -0.12366976 0.015885048 8.3988337e-39
0.079797566 -0.12366976 0.015885048 6.4601961e-39
-0.089488268 -0.13890465 -0.034121819 1.7795561e-38
-0.087624393 -0.13890465 -0.034121819 1.761117e-38
-0.085760519 -0.13890465 -0.034121819 1.6873605e-38
-0.070675723 -0.13728772 -0.028114028 1.7242388e-38
-0.068822384 -0.13728772 -0.028114028 1.7982115e-38
-0.066893324 -0.13648613 -0.025135584 1.7612969e-38
-0.0650452 -0.13648613 -0.025135584 1.8163978e-38
-0.063197084 -0.13648613 -0.025135584 1.8808625e-38
-0.061348967 -0.13648613 -0.025135584 1.8718953e-38
-0.059500851 -0.13648613 -0.025135584 1.5678666e-38
-0.057585195 -0.13539489 -0.021081038 1.5037991e-38
-0.055744186 -0.13539489 -0.021081038 1.3934176e-38
-0.053864531 -0.13460387 -0.018141933 1.4947974e-38
-0.052028671 -0.13460387 -0.018141933 1.9924355e-38
-0.050192818 -0.13460387 -0.018141933 2.2132353e-38
-0.048333049 -0.13378824 -0.015111394 2.130117e-38
-0.046502508 -0.13378824 -0.015111394 1.9824608e-38
-0.044658758 -0.13297729 -0.01209826 1.6874358e-38
-0.0428335 -0.13297729 -0.01209826 1.5770901e-38
-0.041008241 -0.13297729 -0.01209826 1.3929518e-38
-0.039182983 -0.13297729 -0.01209826 1.2825695e-38
-0.037357721 -0.13297729 -0.01209826 1.2642391e-38
-0.035545595 -0.13217102 -0.0091025308 1.1258389e-38
-0.03372559 -0.13217102 -0.0091025308 1.0152047e-38
-0.03190558 -0.13217102 -0.0091025308 1.0149898e-38
-0.030085575 -0.13217102 -0.0091025308 7.5669809e-39
-0.028265566 -0.13217102 -0.0091025308 8.8544785e-39
-0.02644556 -0.13217102 -0.0091025308 1.2632694e-38
-0.024625553 -0.13217102 -0.0091025308 1.235574e-38
-0.022805547 -0.13217102 -0.0091025308 1.2817074e-38
-0.02098554 -0.13217102 -0.0091025308 1.2357898e-38
-0.01924482 -0.13111271 -0.0051702932 1.0333918e-38
-0.017431708 -0.13111271 -0.0051702932 7.8489726e-39
-0.015618596 -0.13111271 -0.0051702932 5.4565777e-39
-0.013805483 -0.13111271 -0.0051702932 5.1836076e-39
-0.011992371 -0.13111271 -0.0051702932 8.2256977e-39
-0.010267826 -0.13028879 -0.0021088794 1.0341137e-38
-0.0085502472 -0.1294979 0.00082974881 1.245802e-38
-0.0067476574 -0.1294979 0.00082974881 1.3285971e-38
-0.004945064 -0.1294979 0.00082974881 1.3652945e-38
0.0072537605 -0.12706901 0.0098544881 1.4387597e-38
0.0088971797 -0.12626885 0.012827568 1.4111366e-38
0.010678733 -0.12626885 0.012827568 1.4571262e-38
0.01246029 -0.12626885 0.012827568 1.5124073e-38
0.014078343 -0.12544595 0.015885048 1.5676522e-38
0.015854539 -0.12544595 0.015885048 1.5952743e-38
0.017630732 -0.12544595 0.015885048 1.6597391e-38
0.019586513 -0.12626885 0.012827568 1.6874332e-38
0.02136807 -0.12626885 0.012827568 1.6781058e-38
0.023149626 -0.12626885 0.012827568 1.6320436e-38
0.024931179 -0.12626885 0.012827568 1.6872888e-38
0.02671274 -0.12626885 0.012827568 1.8162905e-38
0.028494293 -0.12626885 0.012827568 1.8807555e-38
0.0300641 -0.12544595 0.015885048 1.862352e-38
0.031840295 -0.12544595 0.015885048 1.6042042e-38
0.033616491 -0.12544595 0.015885048 1.5489585e-38
0.035620518 -0.12626885 0.012827568 1.5489229e-38
0.037402071 -0.12626885 0.012827568 1.6227873e-38
0.039183632 -0.12626885 0.012827568 1.668957e-38
0.041202366 -0.12706901 0.0098544881 1.9547634e-38
0.042746738 -0.12626885 0.012827568 1.9640553e-38
0.044528306 -0.12626885 0.012827568 2.1115685e-38
0.046309859 -0.12626885 0.012827568 2.1944369e-38
0.04834944 -0.12706901 0.0098544881 2.2497184e-38
0.049872965 -0.12626885 0.012827568 2.212876e-38
0.051654518 -0.12626885 0.012827568 2.286632e-38
0.053436086 -0.12626885 0.012827568 2.3142544e-38
0.054930836 -0.12544595 0.015885048 2.3141466e-38
0.056707025 -0.12544595 0.015885048 2.3509527e-38
0.058483228 -0.12544595 0.015885048 2.3508445e-38
0.060259417 -0.12544595 0.015885048 2.3507366e-38
0.061729223 -0.12462802 0.018924169 2.3508086e-38
0.063200533 -0.12384202 0.021844678 2.3508807e-38
0.064966276 -0.12384202 0.021844678 2.3509524e-38
0.066732019 -0.12384202 0.021844678 2.341805e-38
0.068497762 -0.12384202 0.021844678 2.2406775e-38
0.070583552 -0.12462802 0.018924169 2.2224186e-38
0.072354421 -0.12462802 0.018924169 1.8816557e-38
0.073795006 -0.12384202 0.021844678 1.7621276e-38
0.075560749 -0.12384202 0.021844678 1.2275017e-38
0.077667013 -0.12462802 0.018924169 8.8605335e-39
0.079437882 -0.12462802 0.018924169 5.2620145e-39
-0.091352142 -0.14076851 -0.034121819 1.7518975e-38
-0.089348301 -0.13995247 -0.0311094 1.7703366e-38
-0.087489709 -0.13995247 -0.0311094 1.7426779e-38
-0.085760519 -0.14076851 -0.034121819 1.6965801e-38
-0.070675723 -0.13914107 -0.028114028 1.8073229e-38
-0.068822384 -0.13914107 -0.028114028 1.7336027e-38
-0.066893324 -0.13833423 -0.025135584 1.7705165e-38
-0.0650452 -0.13833423 -0.025135584 1.8348725e-38
-0.063197084 -0.13833423 -0.025135584 1.8900817e-38
-0.061348967 -0.13833423 -0.025135584 1.9272124e-38
-0.059500851 -0.13833423 -0.025135584 1.6139644e-38
-0.057585195 -0.13723589 -0.021081038 1.5037991e-38
-0.055700384 -0.13643973 -0.018141933 1.4026368e-38
-0.053864531 -0.13643973 -0.018141933 1.5316754e-38
-0.052028671 -0.13643973 -0.018141933 2.1305834e-38
-0.050163593 -0.13561879 -0.015111394 2.1764294e-38
-0.048333049 -0.13561879 -0.015111394 2.2775202e-38
-0.046484016 -0.13480256 -0.01209826 2.2958873e-38
-0.044658758 -0.13480256 -0.01209826 2.083876e-38
-0.0428335 -0.13480256 -0.01209826 1.89963e-38
-0.041008241 -0.13480256 -0.01209826 1.5956733e-38
-0.039182983 -0.13480256 -0.01209826 1.4022429e-38
-0.037357721 -0.13480256 -0.01209826 1.4945832e-38
-0.035545595 -0.13399105 -0.0091025308 1.5683408e-38
-0.03372559 -0.13399105 -0.0091025308 1.6788675e-38
-0.03190558 -0.13399105 -0.0091025308 1.577346e-38
-0.030085575 -0.13399105 -0.0091025308 1.3374936e-38
-0.028265566 -0.13399105 -0.0091025308 1.1620336e-38
-0.026497269 -0.13292582 -0.0051702932 1.2540483e-38
-0.024684157 -0.13292582 -0.0051702932 1.2630871e-38
-0.022871045 -0.13292582 -0.0051702932 1.336951e-38
-0.021057932 -0.13292582 -0.0051702932 1.2818138e-38
-0.019306548 -0.13209651 -0.0021088794 1.0701967e-38
-0.017498804 -0.13209651 -0.0021088794 7.941157e-39
-0.015691059 -0.13209651 -0.0021088794 4.2583863e-39
-0.013883315 -0.13209651 -0.0021088794 4.2630834e-39
-0.012075569 -0.13209651 -0.0021088794 7.7657929e-39
-0.010352841 -0.13130049 0.00082974881 9.234421e-39
-0.0086430926 -0.13048081 0.0038556382 1.2365456e-38
-0.0068458039 -0.13048081 0.0038556382 1.3746584e-38
-0.004945064 -0.13130049 0.00082974881 1.3468188e-38
0.0072537605 -0.12885578 0.0098544881 1.4296481e-38
0.0088971797 -0.1280504 0.012827568 1.3835503e-38
0.010678733 -0.1280504 0.012827568 1.4111726e-38
0.01246029 -0.1280504 0.012827568 1.4664537e-38
0.014078343 -0.12722217 0.015885048 1.530918e-38
0.015854539 -0.12722217 0.015885048 1.5860911e-38
0.017630732 -0.12722217 0.015885048 1.6321526e-38
0.019406928 -0.12722217 0.015885048 1.613677e-38
0.021183124 -0.12722217 0.015885048 1.5766909e-38
0.023149626 -0.1280504 0.012827568 1.5398123e-38
0.024931179 -0.1280504 0.012827568 1.6227521e-38
0.02671274 -0.1280504 0.012827568 1.7426061e-38
0.028494293 -0.1280504 0.012827568 1.8162905e-38
0.0300641 -0.12722217 0.015885048 1.7886315e-38
0.031840295 -0.12722217 0.015885048 1.5858011e-38
0.033616491 -0.12722217 0.015885048 1.5304837e-38
0.035620518 -0.1280504 0.012827568 1.5120449e-38
0.037628829 -0.12885578 0.0098544881 1.5674702e-38
0.039415598 -0.12885578 0.0098544881 1.6043844e-38
0.041202366 -0.12885578 0.0098544881 1.8901909e-38
0.042989135 -0.12885578 0.0098544881 1.8995185e-38
0.044775903 -0.12885578 0.0098544881 2.0562509e-38
0.046562672 -0.12885578 0.0098544881 2.2037993e-38
0.04834944 -0.12885578 0.0098544881 2.1761403e-38
0.049602255 -0.12722217 0.015885048 2.1208229e-38
0.051378444 -0.12722217 0.015885048 2.2591519e-38
0.053154632 -0.12722217 0.015885048 2.2958867e-38
0.054645747 -0.12639888 0.018924169 2.30507e-38
0.056416616 -0.12639888 0.018924169 2.3509879e-38
0.05790329 -0.12560774 0.021844678 2.3509879e-38
0.059669033 -0.12560774 0.021844678 2.3508084e-38
0.06143479 -0.12560774 0.021844678 2.3507367e-38
0.063200533 -0.12560774 0.021844678 2.3508451e-38
0.06465295 -0.12479414 0.024848156 2.3508451e-38
0.066413417 -0.12479414 0.024848156 2.3509168e-38
0.068497762 -0.12560774 0.021844678 2.3141467e-38
0.07026352 -0.12560774 0.021844678 2.2589737e-38
0.072029263 -0.12560774 0.021844678 1.6693545e-38
0.073795006 -0.12560774 0.021844678 1.59614e-38
0.075215816 -0.12479414 0.024848156 1.3658315e-38
0.076976299 -0.12479414 0.024848156 1.1442373e-38
0.078736782 -0.12479414 0.024848156 5.4474847e-39
-0.091352142 -0.14263238 -0.034121819 1.7887757e-38
-0.089348301 -0.14181106 -0.0311094 1.761117e-38
-0.087489709 -0.14181106 -0.0311094 1.7426779e-38
-0.085760519 -0.14263238 -0.034121819 1.7334583e-38
-0.083896644 -0.14263238 -0.034121819 1.7150192e-38
-0.07084953 -0.14263238 -0.034121819 1.8534207e-38
-0.068822384 -0.14099441 -0.028114028 1.8350179e-38
-0.066893324 -0.14018236 -0.025135584 1.9271772e-38
-0.0650452 -0.14018236 -0.025135584 1.9638385e-38
-0.063197084 -0.14018236 -0.025135584 1.9361796e-38
-0.061348967 -0.14018236 -0.025135584 1.9548711e-38
-0.059500851 -0.14018236 -0.025135584 1.5587547e-38
-0.057585195 -0.1390769 -0.021081038 1.2825293e-38
-0.055700384 -0.13827558 -0.018141933 1.0061955e-38
-0.053864531 -0.13827558 -0.018141933 9.4169499e-39
-0.052028671 -0.13827558 -0.018141933 2.0385326e-38
-0.050163593 -0.13744931 -0.015111394 2.1948682e-38
-0.048333049 -0.13744931 -0.015111394 2.2867037e-38
-0.046484016 -0.13662781 -0.01209826 2.2497184e-38
-0.044658758 -0.13662781 -0.01209826 2.1667074e-38
-0.0428335 -0.13662781 -0.01209826 2.2222036e-38
-0.041008241 -0.13662781 -0.01209826 2.1026381e-38
-0.039182983 -0.13662781 -0.01209826 1.7248189e-38
-0.037357721 -0.13662781 -0.01209826 1.5866342e-38
-0.035545595 -0.13581105 -0.0091025308 1.5405731e-38
-0.03372559 -0.13581105 -0.0091025308 1.7341482e-38
-0.03190558 -0.13581105 -0.0091025308 1.761663e-38
-0.030123495 -0.13473894 -0.0051702932 1.9459079e-38
-0.028310381 -0.13473894 -0.0051702932 2.0378152e-38
-0.026497269 -0.13473894 -0.0051702932 2.2865602e-38
-0.024684157 -0.13473894 -0.0051702932 2.2956362e-38
-0.022922037 -0.13390426 -0.0021088794 2.314075e-38
-0.021114293 -0.13390426 -0.0021088794 2.1668153e-38
-0.019306548 -0.13390426 -0.0021088794 1.8537854e-38
-0.017563209 -0.13310309 0.00082974881 1.3103738e-38
-0.015760617 -0.13310309 0.00082974881 3.8899555e-39
-0.013958024 -0.13310309 0.00082974881 1.9589046e-39
-0.012155432 -0.13310309 0.00082974881 5.8296791e-39
-0.010352841 -0.13310309 0.00082974881 9.5106407e-39
-0.0086430926 -0.1322781 0.0038556382 1.3194129e-38
-0.0068458039 -0.1322781 0.0038556382 1.429903e-38
0.0072537605 -0.13064255 0.0098544881 1.3836229e-38
0.0088971797 -0.12983195 0.012827568 1.3559998e-38
0.010678733 -0.12983195 0.012827568 1.3927699e-38
0.012302147 -0.12899835 0.015885048 1.4388313e-38
0.014078343 -0.12899835 0.015885048 1.4664534e-38
0.015686689 -0.12816976 0.018924169 1.4940398e-38
0.017457554 -0.12816976 0.018924169 1.5399214e-38
0.019406928 -0.12899835 0.015885048 1.5122261e-38
0.021183124 -0.12899835 0.015885048 1.4476892e-38
0.022959316 -0.12899835 0.015885048 1.4199583e-38
0.024735512 -0.12899835 0.015885048 1.4568363e-38
0.026511708 -0.12899835 0.015885048 1.539776e-38
0.028287904 -0.12899835 0.015885048 1.5674344e-38
0.0300641 -0.12899835 0.015885048 1.5398115e-38
0.031840295 -0.12899835 0.015885048 1.5673623e-38
0.033616491 -0.12899835 0.015885048 1.4937137e-38
0.035392679 -0.12899835 0.015885048 1.4752746e-38
0.037402071 -0.12983195 0.012827568 1.5398475e-38
0.039415598 -0.13064255 0.0098544881 1.5767258e-38
0.041202366 -0.13064255 0.0098544881 1.8165423e-38
0.042989135 -0.13064255 0.0098544881 1.825762e-38
0.044775903 -0.13064255 0.0098544881 1.9640553e-38
0.046309859 -0.12983195 0.012827568 2.0931648e-38
0.047826052 -0.12899835 0.015885048 2.0471386e-38
0.049333155 -0.12816976 0.018924169 2.0286992e-38
0.051104024 -0.12816976 0.018924169 2.2499687e-38
0.052874893 -0.12816976 0.018924169 2.2867034e-38
0.054645747 -0.12816976 0.018924169 2.2867027e-38
0.056137547 -0.1273735 0.021844678 2.3418045e-38
0.05790329 -0.1273735 0.021844678 2.3509879e-38
0.059669033 -0.1273735 0.021844678 2.3509163e-38
0.06143479 -0.1273735 0.021844678 2.3507363e-38
0.062892467 -0.12655462 0.024848156 2.3508448e-38
0.06465295 -0.12655462 0.024848156 2.3507369e-38
0.066413417 -0.12655462 0.024848156 2.3415895e-38
0.068497762 -0.1273735 0.021844678 2.341805e-38
0.07026352 -0.1273735 0.021844678 2.3142544e-38
0.072029263 -0.1273735 0.021844678 1.632476e-38
0.073455349 -0.12655462 0.024848156 1.5777009e-38
0.075215816 -0.12655462 0.024848156 1.5317836e-38
0.076976299 -0.12655462 0.024848156 1.3840538e-38
0.078736782 -0.12655462 0.024848156 7.1066501e-39
-0.091352142 -0.14449625 -0.034121819 1.8809713e-38
-0.089488268 -0.14449625 -0.034121819 1.8164344e-38
-0.087624393 -0.14449625 -0.034121819 1.7888836e-38
-0.085760519 -0.14449625 -0.034121819 1.8349814e-38
-0.083896644 -0.14449625 -0.034121819 1.6874684e-38
-0.07084953 -0.14449625 -0.034121819 1.9456163e-38
-0.068822384 -0.14284773 -0.028114028 1.9825309e-38
-0.066893324 -0.14203046 -0.025135584 2.0470314e-38
-0.0650452 -0.14203046 -0.025135584 2.0468143e-38
-0.063197084 -0.14203046 -0.025135584 1.963874e-38
-0.061348967 -0.14203046 -0.025135584 2.0009686e-38
-0.059500851 -0.14203046 -0.025135584 1.6970481e-38
-0.057585195 -0.14091791 -0.021081038 1.328627e-38
-0.055700384 -0.14011143 -0.018141933 8.2183983e-39
-0.053864531 -0.14011143 -0.018141933 5.9131516e-39
-0.052028671 -0.14011143 -0.018141933 1.9187157e-38
-0.050163593 -0.13927986 -0.015111394 2.2224189e-38
-0.048333049 -0.13927986 -0.015111394 2.2867037e-38
-0.046484016 -0.13845308 -0.01209826 2.1206085e-38
-0.044658758 -0.13845308 -0.01209826 2.0837305e-38
-0.0428335 -0.13845308 -0.01209826 2.2129483e-38
-0.041008241 -0.13845308 -0.01209826 2.1209335e-38
-0.039182983 -0.13845308 -0.01209826 1.8906263e-38
-0.037357721 -0.13845308 -0.01209826 1.6234034e-38
-0.03553246 -0.13845308 -0.01209826 1.5681588e-38
-0.03372559 -0.13763104 -0.0091025308 1.7986124e-38
-0.03190558 -0.13763104 -0.0091025308 1.8260913e-38
-0.030123495 -0.13655205 -0.0051702932 1.9089226e-38
-0.028310381 -0.13655205 -0.0051702932 1.8533533e-38
-0.026497269 -0.13655205 -0.0051702932 2.1758195e-38
-0.024684157 -0.13655205 -0.0051702932 2.3047121e-38
-0.022922037 -0.13571201 -0.0021088794 2.3139674e-38
-0.021114293 -0.13571201 -0.0021088794 2.2681214e-38
-0.019365801 -0.13490568 0.00082974881 2.1302964e-38
-0.017563209 -0.13490568 0.00082974881 1.5685199e-38
-0.015760617 -0.13490568 0.00082974881 3.1523764e-39
-0.014034953 -0.13407536 0.0038556382 1.4982781e-39
-0.012237666 -0.13407536 0.0038556382 7.4895521e-39
-0.010440379 -0.13407536 0.0038556382 1.0985758e-38
-0.0086430926 -0.13407536 0.0038556382 1.4207911e-38
-0.0068458039 -0.13407536 0.0038556382 1.457525e-38
0.0073927138 -0.13324992 0.0068638846 1.3376693e-38
0.0088971797 -0.13161351 0.012827568 1.3192658e-38
0.010678733 -0.13161351 0.012827568 1.3468163e-38
0.012302147 -0.13077454 0.015885048 1.3836581e-38
0.01391582 -0.12994061 0.018924169 1.4204277e-38
0.015686689 -0.12994061 0.018924169 1.4295751e-38
0.017457554 -0.12994061 0.018924169 1.4477979e-38
0.019228419 -0.12994061 0.018924169 1.4477257e-38
0.021183124 -0.13077454 0.015885048 1.4293222e-38
0.022770153 -0.12994061 0.018924169 1.4015913e-38
0.024541022 -0.12994061 0.018924169 1.4200662e-38
0.026311884 -0.12994061 0.018924169 1.4660558e-38
0.028082753 -0.12994061 0.018924169 1.4845305e-38
0.029853621 -0.12994061 0.018924169 1.4753107e-38
0.031624481 -0.12994061 0.018924169 1.5121171e-38
0.033616491 -0.13077454 0.015885048 1.4660911e-38
0.035392679 -0.13077454 0.015885048 1.4753107e-38
0.037168875 -0.13077454 0.015885048 1.5399555e-38
0.039183632 -0.13161351 0.012827568 1.5676142e-38
0.040965185 -0.13161351 0.012827568 1.7889556e-38
0.042746738 -0.13161351 0.012827568 1.7612614e-38
0.044775903 -0.13242932 0.0098544881 1.8718964e-38
0.046309859 -0.13161351 0.012827568 1.8903001e-38
0.047562286 -0.12994061 0.018924169 1.8995196e-38
0.049333155 -0.12994061 0.018924169 1.9548727e-38
0.051104024 -0.12994061 0.018924169 2.2223112e-38
0.052874893 -0.12994061 0.018924169 2.2775202e-38
0.054371804 -0.12913923 0.021844678 2.2406422e-38
0.056137547 -0.12913923 0.021844678 2.2958154e-38
0.05790329 -0.12913923 0.021844678 2.3325492e-38
0.059669033 -0.12913923 0.021844678 2.3509521e-38
0.061131984 -0.12831511 0.024848156 2.3415884e-38
0.062892467 -0.12831511 0.024848156 2.3509517e-38
0.06465295 -0.12831511 0.024848156 2.3508795e-38
0.066413417 -0.12831511 0.024848156 2.3325843e-38
0.0681739 -0.12831511 0.024848156 2.3142534e-38
0.07026352 -0.12913923 0.021844678 2.2867027e-38
0.071694866 -0.12831511 0.024848156 1.6695329e-38
0.073455349 -0.12831511 0.024848156 1.5317106e-38
0.075215816 -0.12831511 0.024848156 1.4950134e-38
0.077326491 -0.12913923 0.021844678 1.4024929e-38
0.079092249 -0.12913923 0.021844678 7.6598239e-39
-0.093065485 -0.14552824 -0.0311094 2.0746178e-38
-0.091206893 -0.14552824 -0.0311094 1.9916061e-38
-0.089488268 -0.14636014 -0.034121819 1.8717518e-38
-0.087624393 -0.14636014 -0.034121819 1.8349814e-38
-0.085760519 -0.14636014 -0.034121819 1.8995184e-38
-0.083896644 -0.14636014 -0.034121819 1.7427858e-38
-0.082192279 -0.14747669 -0.03816516 1.7151271e-38
-0.080432124 -0.14828841 -0.041104503 1.7335662e-38
-0.078556009 -0.14828841 -0.041104503 1.8902988e-38
-0.07084953 -0.14636014 -0.034121819 2.0931292e-38
-0.068903789 -0.14552824 -0.0311094 2.1300795e-38
-0.066969045 -0.14470108 -0.028114028 2.1575582e-38
-0.0650452 -0.14387859 -0.025135584 2.1297544e-38
-0.063197084 -0.14387859 -0.025135584 2.0006803e-38
-0.061348967 -0.14387859 -0.025135584 2.0838368e-38
-0.059500851 -0.14387859 -0.025135584 1.9920738e-38
-0.057585195 -0.14275892 -0.021081038 1.7066291e-38
-0.055744186 -0.14275892 -0.021081038 9.7857212e-39
-0.053864531 -0.14194728 -0.018141933 7.296442e-39
-0.052028671 -0.14194728 -0.018141933 1.8633621e-38
-0.050163593 -0.14111041 -0.015111394 2.2499695e-38
-0.048333049 -0.14111041 -0.015111394 2.286632e-38
-0.046484016 -0.14027832 -0.01209826 2.1666339e-38
-0.044658758 -0.14027832 -0.01209826 2.0928775e-38
-0.0428335 -0.14027832 -0.01209826 2.1114257e-38
-0.041008241 -0.14027832 -0.01209826 1.8903369e-38
-0.039182983 -0.14027832 -0.01209826 1.6969427e-38
-0.037357721 -0.14027832 -0.01209826 1.3928056e-38
-0.03553246 -0.14027832 -0.01209826 1.3836229e-38
-0.03372559 -0.13945107 -0.0091025308 1.5956733e-38
-0.03190558 -0.13945107 -0.0091025308 1.7891765e-38
-0.030123495 -0.13836516 -0.0051702932 1.8534972e-38
-0.028310381 -0.13836516 -0.0051702932 1.7610841e-38
-0.026537526 -0.13751976 -0.0021088794 2.1572721e-38
-0.024729781 -0.13751976 -0.0021088794 2.3507733e-38
-0.022922037 -0.13751976 -0.0021088794 2.3508091e-38
-0.021168392 -0.13670824 0.00082974881 2.341805e-38
-0.019365801 -0.13670824 0.00082974881 2.2499695e-38
-0.017563209 -0.13670824 0.00082974881 1.6974848e-38
-0.015760617 -0.13670824 0.00082974881 1.8612663e-39
-0.014034953 -0.13587265 0.0038556382 1.1294858e-39
-0.012237666 -0.13587265 0.0038556382 9.1494238e-39
-0.010440379 -0.13587265 0.0038556382 1.2828943e-38
-0.0086430926 -0.13587265 0.0038556382 1.5221694e-38
-0.0068458039 -0.13587265 0.0038556382 1.4759631e-38
0.0073927138 -0.13504194 0.0068638846 1.3746196e-38
0.0088971797 -0.13339506 0.012827568 1.3377412e-38
0.010678733 -0.13339506 0.012827568 1.356144e-38
0.012302147 -0.13255073 0.015885048 1.3929497e-38
0.01391582 -0.1317115 0.018924169 1.4389031e-38
0.015525388 -0.13090499 0.021844678 1.4664537e-38
0.017291134 -0.13090499 0.021844678 1.4663092e-38
0.019228419 -0.1317115 0.018924169 1.4754566e-38
0.021183124 -0.13255073 0.015885048 1.484604e-38
0.022770153 -0.1317115 0.018924169 1.47542e-38
0.024541022 -0.1317115 0.018924169 1.4753478e-38
0.026311884 -0.1317115 0.018924169 1.4846031e-38
0.028082753 -0.1317115 0.018924169 1.4937145e-38
0.029853621 -0.1317115 0.018924169 1.4845305e-38
0.031624481 -0.1317115 0.018924169 1.4937501e-38
0.03339535 -0.1317115 0.018924169 1.4753107e-38
0.035166219 -0.1317115 0.018924169 1.4754186e-38
0.036937088 -0.1317115 0.018924169 1.5676142e-38
0.039183632 -0.13339506 0.012827568 1.5769057e-38
0.040965185 -0.13339506 0.012827568 1.7797721e-38
0.042746738 -0.13339506 0.012827568 1.724455e-38
0.044528306 -0.13339506 0.012827568 1.8166509e-38
0.046309859 -0.13339506 0.012827568 1.807324e-38
0.047562286 -0.1317115 0.018924169 1.8349827e-38
0.049333155 -0.1317115 0.018924169 1.8995915e-38
0.051104024 -0.1317115 0.018924169 2.194653e-38
0.052874893 -0.1317115 0.018924169 2.2775202e-38
0.054371804 -0.13090499 0.021844678 2.2499695e-38
0.056137547 -0.13090499 0.021844678 2.2958873e-38
0.05790329 -0.13090499 0.021844678 2.3234379e-38
0.059669033 -0.13090499 0.021844678 2.3509883e-38
0.061131984 -0.13007559 0.024848156 2.3232933e-38
0.062892467 -0.13007559 0.024848156 2.350988e-38
0.06465295 -0.13007559 0.024848156 2.3418045e-38
0.066413417 -0.13007559 0.024848156 2.3142538e-38
0.0681739 -0.13007559 0.024848156 2.2407848e-38
0.069934383 -0.13007559 0.024848156 2.1856473e-38
0.071694866 -0.13007559 0.024848156 1.651238e-38
0.073117688 -0.12925108 0.027833872 1.6239782e-38
0.074872926 -0.12925108 0.027833872 1.4950134e-38
0.076628178 -0.12925108 0.027833872 1.3471756e-38
0.078383416 -0.12925108 0.027833872 7.383237e-39
-0.093065485 -0.14738683 -0.0311094 2.2036916e-38
-0.091206893 -0.14738683 -0.0311094 2.0930569e-38
-0.089488268 -0.14822401 -0.034121819 1.8994461e-38
-0.087624393 -0.14822401 -0.034121819 1.8349814e-38
-0.085760519 -0.14822401 -0.034121819 1.8995184e-38
-0.083896644 -0.14822401 -0.034121819 1.8073227e-38
-0.082192279 -0.14934768 -0.03816516 1.7427858e-38
-0.070762381 -0.14738683 -0.0311094 2.1853967e-38
-0.068822384 -0.14655443 -0.028114028 2.2958873e-38
-0.066893324 -0.1457267 -0.025135584 2.3142544e-38
-0.0650452 -0.1457267 -0.025135584 2.2957065e-38
-0.063197084 -0.1457267 -0.025135584 2.0652173e-38
-0.061348967 -0.1457267 -0.025135584 2.0746528e-38
-0.059500851 -0.1457267 -0.025135584 2.1396226e-38
-0.057585195 -0.14459993 -0.021081038 1.9187146e-38
-0.055744186 -0.14459993 -0.021081038 9.9701125e-39
-0.053864531 -0.14378314 -0.018141933 7.9418086e-39
-0.052028671 -0.14378314 -0.018141933 1.7066292e-38
-0.050192818 -0.14378314 -0.018141933 2.2499695e-38
-0.048333049 -0.14294095 -0.015111394 2.3050708e-38
-0.046484016 -0.1421036 -0.01209826 2.1020604e-38
-0.044658758 -0.1421036 -0.01209826 1.9176694e-38
-0.0428335 -0.1421036 -0.01209826 2.0376327e-38
-0.041008241 -0.1421036 -0.01209826 2.0193742e-38
-0.039182983 -0.1421036 -0.01209826 1.7982492e-38
-0.037357721 -0.1421036 -0.01209826 1.5494297e-38
-0.03553246 -0.1421036 -0.01209826 1.5863447e-38
-0.03372559 -0.14127107 -0.0091025308 1.6139678e-38
-0.03190558 -0.14127107 -0.0091025308 1.8813354e-38
-0.030123495 -0.14017828 -0.0051702932 1.835057e-38
-0.028310381 -0.14017828 -0.0051702932 1.6319731e-38
-0.026537526 -0.13932751 -0.0021088794 1.9452207e-38
-0.024729781 -0.13932751 -0.0021088794 2.2768716e-38
-0.022922037 -0.13932751 -0.0021088794 2.3506637e-38
-0.021168392 -0.13851084 0.00082974881 2.350988e-38
-0.019365801 -0.13851084 0.00082974881 2.2775202e-38
-0.017563209 -0.13851084 0.00082974881 1.6698249e-38
-0.015760617 -0.13851084 0.00082974881 6.6235455e-40
-0.014034953 -0.13766994 0.0038556382 8.5325063e-40
-0.012237666 -0.13766994 0.0038556382 1.0071016e-38
-0.010440379 -0.13766994 0.0038556382 1.3842731e-38
-0.0086430926 -0.13766994 0.0038556382 1.5589752e-38
-0.0068458039 -0.13766994 0.0038556382 1.5035494e-38
-0.005048519 -0.13766994 0.0038556382 1.3558919e-38
0.0088971797 -0.13517661 0.012827568 1.3378132e-38
0.010678733 -0.13517661 0.012827568 1.3561803e-38
0.012144955 -0.13348235 0.018924169 1.3745828e-38
0.013759641 -0.13267075 0.021844678 1.3928776e-38
0.015525388 -0.13267075 0.021844678 1.401953e-38
0.017291134 -0.13267075 0.021844678 1.5032596e-38
0.019056881 -0.13267075 0.021844678 1.4755645e-38
0.020999288 -0.13348235 0.018924169 1.466237e-38
0.022770153 -0.13348235 0.018924169 1.484604e-38
0.024541022 -0.13348235 0.018924169 1.5214457e-38
0.026311884 -0.13348235 0.018924169 1.5214814e-38
0.028082753 -0.13348235 0.018924169 1.5121536e-38
0.029853621 -0.13348235 0.018924169 1.4845305e-38
0.031624481 -0.13348235 0.018924169 1.5121892e-38
0.033182845 -0.13267075 0.021844678 1.4937501e-38
0.034948595 -0.13267075 0.021844678 1.5030417e-38
0.036714338 -0.13267075 0.021844678 1.5952373e-38
0.039183632 -0.13517661 0.012827568 1.5953092e-38
0.040965185 -0.13517661 0.012827568 1.7889919e-38
0.042746738 -0.13517661 0.012827568 1.7244553e-38
0.044528306 -0.13517661 0.012827568 1.8166506e-38
0.046309859 -0.13517661 0.012827568 1.8166139e-38
0.048091412 -0.13517661 0.012827568 1.8258691e-38
0.049333155 -0.13348235 0.018924169 1.8351246e-38
0.051104024 -0.13348235 0.018924169 2.0749412e-38
0.052874893 -0.13348235 0.018924169 2.2499694e-38
0.054371804 -0.13267075 0.021844678 2.2499694e-38
0.055850551 -0.13183604 0.024848156 2.2775202e-38
0.057611018 -0.13183604 0.024848156 2.2958873e-38
0.059371501 -0.13183604 0.024848156 2.3142544e-38
0.061131984 -0.13183604 0.024848156 2.2865602e-38
0.062892467 -0.13183604 0.024848156 2.3234379e-38
0.064341471 -0.13100632 0.027833872 2.2958873e-38
0.066096708 -0.13100632 0.027833872 2.2591531e-38
0.067851961 -0.13100632 0.027833872 2.0197339e-38
0.069934383 -0.13183604 0.024848156 1.9553768e-38
0.071694866 -0.13183604 0.024848156 1.6421286e-38
0.073117688 -0.13100632 0.027833872 1.7161749e-38
0.074872926 -0.13100632 0.027833872 1.5318916e-38
0.076628178 -0.13100632 0.027833872 1.3102973e-38
-0.070762381 -0.14924543 -0.0311094 2.2222031e-38
-0.068822384 -0.14840777 -0.028114028 2.3142544e-38
-0.066893324 -0.14757483 -0.025135584 2.3141466e-38
-0.0650452 -0.14757483 -0.025135584 2.3232936e-38
-0.063197084 -0.14757483 -0.025135584 2.0928042e-38
-0.061348967 -0.14757483 -0.025135584 2.0929847e-38
-0.059500851 -0.14757483 -0.025135584 2.2591531e-38
-0.057652734 -0.14757483 -0.025135584 2.1489505e-38
-0.055744186 -0.14644094 -0.021081038 1.1167214e-38
-0.053903177 -0.14644094 -0.021081038 1.0061229e-38
-0.052028671 -0.14561899 -0.018141933 1.4209669e-38
-0.050192818 -0.14561899 -0.018141933 1.9644884e-38
-0.048333049 -0.1447715 -0.015111394 2.0104059e-38
-0.046502508 -0.1447715 -0.015111394 2.0470684e-38
-0.044658758 -0.14392884 -0.01209826 1.8995196e-38
-0.0428335 -0.14392884 -0.01209826 1.9917164e-38
-0.041008241 -0.14392884 -0.01209826 1.9549826e-38
-0.039182983 -0.14392884 -0.01209826 1.8905538e-38
-0.037357721 -0.14392884 -0.01209826 1.6876879e-38
-0.03553246 -0.14392884 -0.01209826 1.6785402e-38
-0.03372559 -0.14309107 -0.0091025308 1.5125162e-38
-0.03190558 -0.14309107 -0.0091025308 1.8904459e-38
-0.030123495 -0.14199139 -0.0051702932 1.8902652e-38
-0.028310381 -0.14199139 -0.0051702932 1.7148047e-38
-0.026537526 -0.14113526 -0.0021088794 2.0189052e-38
-0.024729781 -0.14113526 -0.0021088794 2.1569822e-38
-0.022922037 -0.14113526 -0.0021088794 2.3230059e-38
-0.021168392 -0.14031343 0.00082974881 2.3509527e-38
-0.019365801 -0.14031343 0.00082974881 2.2683366e-38
-0.017629527 -0.13946722 0.0038556382 1.6328744e-38
-0.01583224 -0.13946722 0.0038556382 1.5544604e-41
-0.014034953 -0.13946722 0.0038556382 8.5001083e-40
-0.012237666 -0.13946722 0.0038556382 1.0160328e-38
-0.010440379 -0.13946722 0.0038556382 1.430262e-38
-0.0086430926 -0.13946722 0.0038556382 1.5865252e-38
-0.0068458039 -0.13946722 0.0038556382 1.5127324e-38
-0.005048519 -0.13946722 0.0038556382 1.3835503e-38
0.010678733 -0.13695817 0.012827568 1.503657e-38
0.011993894 -0.13443647 0.021844678 1.4943293e-38
0.013599025 -0.13359652 0.024848156 1.4481952e-38
0.015359504 -0.13359652 0.024848156 1.420464e-38
0.017119987 -0.13359652 0.024848156 1.4847849e-38
0.018880466 -0.13359652 0.024848156 1.4202114e-38
0.020822624 -0.13443647 0.021844678 1.4016643e-38
0.022770153 -0.13525321 0.018924169 1.4477976e-38
0.024541022 -0.13525321 0.018924169 1.5491046e-38
0.026311884 -0.13525321 0.018924169 1.5952379e-38
0.02788561 -0.13443647 0.021844678 1.5859101e-38
0.029651353 -0.13443647 0.021844678 1.5490675e-38
0.031624481 -0.13525321 0.018924169 1.5398479e-38
0.033182845 -0.13443647 0.021844678 1.512189e-38
0.034948595 -0.13443647 0.021844678 1.5306281e-38
0.036714338 -0.13443647 0.021844678 1.5952373e-38
0.042011574 -0.13443647 0.021844678 1.7336748e-38
0.044020548 -0.13525321 0.018924169 1.8167585e-38
0.049333155 -0.13525321 0.018924169 1.678716e-38
0.050840303 -0.13443647 0.021844678 1.8815827e-38
0.052606061 -0.13443647 0.021844678 2.0753016e-38
0.054090068 -0.13359652 0.024848156 2.1397669e-38
0.055850551 -0.13359652 0.024848156 2.1948682e-38
0.057611018 -0.13359652 0.024848156 2.1673176e-38
0.059371501 -0.13359652 0.024848156 2.2132353e-38
0.061131984 -0.13359652 0.024848156 2.1948682e-38
0.062586218 -0.13276155 0.027833872 2.1856488e-38
0.064341471 -0.13276155 0.027833872 2.1765011e-38
0.066096708 -0.13276155 0.027833872 2.1489146e-38
0.067851961 -0.13276155 0.027833872 1.8263766e-38
0.069934383 -0.13359652 0.024848156 1.8080096e-38
0.071362451 -0.13276155 0.027833872 1.6698966e-38
0.073117688 -0.13276155 0.027833872 1.679297e-38
0.074872926 -0.13276155 0.027833872 1.5133449e-38
0.076628178 -0.13276155 0.027833872 1.2457604e-38
-0.063197084 -0.14942293 -0.025135584 2.2309903e-38
-0.061348967 -0.14942293 -0.025135584 2.1112446e-38
-0.059500851 -0.14942293 -0.025135584 2.2958873e-38
-0.057652734 -0.14942293 -0.025135584 2.2316024e-38
-0.055744186 -0.14828195 -0.021081038 1.4206787e-38
-0.053903177 -0.14828195 -0.021081038 1.1351608e-38
-0.052028671 -0.14745484 -0.018141933 1.2366846e-38
-0.050192818 -0.14745484 -0.018141933 1.4302955e-38
-0.048356961 -0.14745484 -0.018141933 1.6053599e-38
-0.046502508 -0.14660202 -0.015111394 1.5868134e-38
-0.044671968 -0.14660202 -0.015111394 1.5960335e-38
-0.0428335 -0.14575411 -0.01209826 1.6880861e-38
-0.041008241 -0.14575411 -0.01209826 1.7802094e-38
-0.039182983 -0.14575411 -0.01209826 1.9921844e-38
-0.037357721 -0.14575411 -0.01209826 1.7339314e-38
-0.03553246 -0.14575411 -0.01209826 1.6693208e-38
-0.03372559 -0.14491107 -0.0091025308 1.8812617e-38
-0.03190558 -0.14491107 -0.0091025308 1.9732411e-38
-0.030123495 -0.14380451 -0.0051702932 1.8439511e-38
-0.028310381 -0.14380451 -0.0051702932 1.8437353e-38
-0.026537526 -0.14294298 -0.0021088794 2.0002884e-38
-0.024729781 -0.14294298 -0.0021088794 2.0740805e-38
-0.022970986 -0.14211603 0.00082974881 2.1111027e-38
-0.021168392 -0.14211603 0.00082974881 2.3049273e-38
-0.019365801 -0.14211603 0.00082974881 2.240786e-38
-0.017629527 -0.14126451 0.0038556382 1.6972324e-38
-0.01583224 -0.14126451 0.0038556382 4.7292562e-40
-0.014034953 -0.14126451 0.0038556382 1.3771961e-41
-0.012237666 -0.14126451 0.0038556382 1.0985408e-38
-0.010440379 -0.14126451 0.0038556382 1.4852909e-38
-0.0086430926 -0.14126451 0.0038556382 1.6233667e-38
-0.0068458039 -0.14126451 0.0038556382 1.5771611e-38
0.011838546 -0.13535701 0.024848156 1.4850737e-38
0.013599025 -0.13535701 0.024848156 1.4296481e-38
0.015359504 -0.13535701 0.024848156 1.4111729e-38
0.017119987 -0.13535701 0.024848156 1.4756735e-38
0.018880466 -0.13535701 0.024848156 1.4847489e-38
0.020822624 -0.13620223 0.021844678 1.4569817e-38
0.022770153 -0.13702409 0.018924169 1.466237e-38
0.024541022 -0.13702409 0.018924169 1.5767633e-38
0.026311884 -0.13702409 0.018924169 1.6597748e-38
0.02788561 -0.13620223 0.021844678 1.6504827e-38
0.029651353 -0.13620223 0.021844678 1.5674344e-38
0.031624481 -0.13702409 0.018924169 1.5305919e-38
0.033182845 -0.13620223 0.021844678 1.5582866e-38
0.034948595 -0.13620223 0.021844678 1.5859453e-38
0.036714338 -0.13620223 0.021844678 1.6044925e-38
0.049333155 -0.13702409 0.018924169 1.6883697e-38
0.050840303 -0.13620223 0.021844678 1.6977333e-38
0.052606061 -0.13620223 0.021844678 1.7255005e-38
0.054090068 -0.13535701 0.024848156 1.8178403e-38
0.055850551 -0.13535701 0.024848156 1.8547899e-38
0.057611018 -0.13535701 0.024848156 1.8732646e-38
0.059371501 -0.13535701 0.024848156 1.9560959e-38
0.061131984 -0.13535701 0.024848156 1.9100706e-38
0.062586218 -0.13451682 0.027833872 1.974463e-38
0.064341471 -0.13451682 0.027833872 2.0754821e-38
0.066096708 -0.13451682 0.027833872 1.9927225e-38
0.067851961 -0.13451682 0.027833872 1.7714557e-38
0.069934383 -0.13535701 0.024848156 1.6607849e-38
0.071362451 -0.13451682 0.027833872 1.6791884e-38
0.073117688 -0.13451682 0.027833872 1.7344709e-38
0.074872926 -0.13451682 0.027833872 1.4301174e-38
0.076628178 -0.13451682 0.027833872 1.2917506e-38
-0.050192818 -0.14929073 -0.018141933 7.5748464e-39
-0.048356961 -0.14929073 -0.018141933 9.9726628e-39
-0.046502508 -0.14843257 -0.015111394 8.4968251e-39
-0.044671968 -0.14843257 -0.015111394 3.8856143e-39
-0.042841423 -0.14843257 -0.015111394 4.9912472e-39
-0.041008241 -0.14757936 -0.01209826 6.6489734e-39
-0.039182983 -0.14757936 -0.01209826 6.9237555e-39
-0.037357721 -0.14757936 -0.01209826 7.9368172e-39
-0.03553246 -0.14757936 -0.01209826 1.0332443e-38
-0.03372559 -0.14673109 -0.0091025308 1.3650033e-38
-0.03190558 -0.14673109 -0.0091025308 1.6413014e-38
-0.030123495 -0.14561762 -0.0051702932 1.714914e-38
-0.028310381 -0.14561762 -0.0051702932 1.6870763e-38
-0.026537526 -0.14475073 -0.0021088794 1.6500907e-38
-0.024729781 -0.14475073 -0.0021088794 1.9082388e-38
-0.022970986 -0.14391862 0.00082974881 2.0190893e-38
-0.021168392 -0.14391862 0.00082974881 2.2129483e-38
-0.019365801 -0.14391862 0.00082974881 2.1394799e-38
-0.017629527 -0.1430618 0.0038556382 1.6788301e-38
-0.01583224 -0.1430618 0.0038556382 1.3016129e-39
-0.014034953 -0.1430618 0.0038556382 1.0452986e-40
-0.012237666 -0.1430618 0.0038556382 1.0890691e-38
-0.010440379 -0.1430618 0.0038556382 1.4759631e-38
-0.0086430926 -0.1430618 0.0038556382 1.7615879e-38
-0.0068458039 -0.1430618 0.0038556382 1.6878316e-38
0.011838546 -0.13711749 0.024848156 1.5495025e-38
0.013439359 -0.13627206 0.027833872 1.5403186e-38
0.015194604 -0.13627206 0.027833872 1.5310272e-38
0.016949849 -0.13627206 0.027833872 1.5217713e-38
0.018705094 -0.13627206 0.027833872 1.5401023e-38
0.020640945 -0.13711749 0.024848156 1.5215189e-38
0.022588374 -0.13796796 0.021844678 1.5123348e-38
0.024354117 -0.13796796 0.021844678 1.6136416e-38
0.02611986 -0.13796796 0.021844678 1.7150922e-38
0.02788561 -0.13796796 0.021844678 1.7058001e-38
0.029651353 -0.13796796 0.021844678 1.6043127e-38
0.031417102 -0.13796796 0.021844678 1.5674702e-38
0.033182845 -0.13796796 0.021844678 1.6043482e-38
0.034948595 -0.13796796 0.021844678 1.6228236e-38
0.036714338 -0.13796796 0.021844678 1.6597018e-38
0.049333155 -0.13879494 0.018924169 1.6791866e-38
0.050840303 -0.13796796 0.021844678 1.5041954e-38
0.052606061 -0.13796796 0.021844678 1.3569346e-38
0.054090068 -0.13711749 0.024848156 1.3385681e-38
0.055850551 -0.13711749 0.024848156 1.4216885e-38
0.057611018 -0.13711749 0.024848156 1.5509066e-38
0.059371501 -0.13711749 0.024848156 1.5970046e-38
0.061131984 -0.13711749 0.024848156 1.5509068e-38
0.062586218 -0.13627206 0.027833872 1.5784936e-38
0.064341471 -0.13627206 0.027833872 1.6889838e-38
0.066096708 -0.13627206 0.027833872 1.7072791e-38
0.067851961 -0.13627206 0.027833872 1.6057199e-38
0.069934383 -0.13711749 0.024848156 1.5319271e-38
0.071694866 -0.13711749 0.024848156 1.5686258e-38
0.073117688 -0.13627206 0.027833872 1.6513872e-38
0.074872926 -0.13627206 0.027833872 1.3378855e-38
0.077667013 -0.13879494 0.018924169 1.1349458e-38
-0.041008241 -0.14940463 -0.01209826 1.6722213e-39
-0.039182983 -0.14940463 -0.01209826 3.7905628e-39
-0.037357721 -0.14940463 -0.01209826 4.3422904e-39
-0.03553246 -0.14940463 -0.01209826 5.1709483e-39
-0.033707201 -0.14940463 -0.01209826 6.4605955e-39
-0.03190558 -0.14855109 -0.0091025308 8.4870917e-39
-0.030085575 -0.14855109 -0.0091025308 1.0605793e-38
-0.028310381 -0.14743073 -0.0051702932 1.2079131e-38
-0.026497269 -0.14743073 -0.0051702932 1.2447918e-38
-0.024684157 -0.14743073 -0.0051702932 1.3738657e-38
-0.022922037 -0.14655848 -0.0021088794 1.5676203e-38
-0.021168392 -0.14572121 0.00082974881 1.7153844e-38
-0.019365801 -0.14572121 0.00082974881 1.64188e-38
-0.017563209 -0.14572121 0.00082974881 1.4024241e-38
-0.015760617 -0.14572121 0.00082974881 1.67148e-39
-0.014034953 -0.14485909 0.0038556382 5.6659401e-40
-0.012237666 -0.14485909 0.0038556382 1.1536784e-38
-0.010440379 -0.14485909 0.0038556382 1.4114262e-38
-0.0086430926 -0.14485909 0.0038556382 1.8629312e-38
-0.0068458039 -0.14485909 0.0038556382 1.8537119e-38
0.013439359 -0.1380273 0.027833872 1.6047837e-38
0.015194604 -0.1380273 0.027833872 1.5125878e-38
0.016949849 -0.1380273 0.027833872 1.4756735e-38
0.018705094 -0.1380273 0.027833872 1.5308827e-38
0.020640945 -0.13887797 0.024848156 1.5307385e-38
0.022588374 -0.13973372 0.021844678 1.4938957e-38
0.024354117 -0.13973372 0.021844678 1.5952024e-38
0.02611986 -0.13973372 0.021844678 1.7243118e-38
0.02788561 -0.13973372 0.021844678 1.7242392e-38
0.029651353 -0.13973372 0.021844678 1.6136041e-38
0.031417102 -0.13973372 0.021844678 1.7057636e-38
0.033182845 -0.13973372 0.021844678 1.7426419e-38
0.034948595 -0.13973372 0.021844678 1.7887757e-38
0.036714338 -0.13973372 0.021844678 1.8348735e-38
0.049333155 -0.14056583 0.018924169 1.872437e-38
0.050840303 -0.13973372 0.021844678 1.6052859e-38
0.052606061 -0.13973372 0.021844678 1.402672e-38
0.054090068 -0.13887797 0.024848156 1.1908027e-38
0.055850551 -0.13887797 0.024848156 1.2002386e-38
0.057611018 -0.13887797 0.024848156 1.3939579e-38
0.059371501 -0.13887797 0.024848156 1.5415431e-38
0.061131984 -0.13887797 0.024848156 1.4678589e-38
0.062586218 -0.1380273 0.027833872 1.467751e-38
0.064341471 -0.1380273 0.027833872 1.5138125e-38
0.066096708 -0.1380273 0.027833872 1.5598024e-38
0.067851961 -0.1380273 0.027833872 1.541327e-38
0.069934383 -0.13887797 0.024848156 1.5135964e-38
0.071694866 -0.13887797 0.024848156 1.5410033e-38
0.073455349 -0.13887797 0.024848156 1.6145087e-38
0.075215816 -0.13887797 0.024848156 1.3008631e-38
0.077667013 -0.14056583 0.018924169 1.0518257e-38
-0.026497269 -0.14924385 -0.0051702932 2.1245506e-39
-0.024684157 -0.14924385 -0.0051702932 1.6646487e-39
-0.022922037 -0.14836623 -0.0021088794 3.6014744e-39
-0.021114293 -0.14836623 -0.0021088794 4.7099687e-39
-0.019365801 -0.14752381 0.00082974881 5.0805491e-39
-0.017563209 -0.14752381 0.00082974881 6.3730914e-39
-0.015760617 -0.14752381 0.00082974881 1.1965688e-41
-0.014034953 -0.14665638 0.0038556382 8.4390257e-40
-0.012237666 -0.14665638 0.0038556382 1.2643134e-38
-0.010440379 -0.14665638 0.0038556382 1.6326957e-38
-0.0086430926 -0.14665638 0.0038556382 2.0289186e-38
-0.0068458039 -0.14665638 0.0038556382 2.0104439e-38
0.013439359 -0.13978253 0.027833872 1.6601008e-38
0.015194604 -0.13978253 0.027833872 1.4480148e-38
0.016949849 -0.13978253 0.027833872 1.4479069e-38
0.018705094 -0.13978253 0.027833872 1.5124076e-38
0.020640945 -0.14063846 0.024848156 1.5122994e-38
0.022588374 -0.14149947 0.021844678 1.4754566e-38
0.024354117 -0.14149947 0.021844678 1.5583961e-38
0.02611986 -0.14149947 0.021844678 1.6966531e-38
0.02788561 -0.14149947 0.021844678 1.7150196e-38
0.029651353 -0.14149947 0.021844678 1.6136041e-38
0.031624481 -0.14233668 0.018924169 1.5489953e-38
0.033182845 -0.14149947 0.021844678 1.613568e-38
0.034948595 -0.14149947 0.021844678 1.7242388e-38
0.036485262 -0.14063846 0.024848156 1.8440932e-38
0.038245745 -0.14063846 0.024848156 1.8626047e-38
0.049333155 -0.14233668 0.018924169 2.0472839e-38
0.050840303 -0.14149947 0.021844678 1.8261947e-38
0.052606061 -0.14149947 0.021844678 1.5867747e-38
0.054090068 -0.14063846 0.024848156 1.1075381e-38
0.055850551 -0.14063846 0.024848156 1.0432175e-38
0.057611018 -0.14063846 0.024848156 1.2831425e-38
0.059371501 -0.14063846 0.024848156 1.3109097e-38
0.061131984 -0.14063846 0.024848156 1.264884e-38
0.062586218 -0.13978253 0.027833872 1.228006e-38
0.064341471 -0.13978253 0.027833872 1.2095669e-38
0.066096708 -0.13978253 0.027833872 1.2555568e-38
0.067851961 -0.13978253 0.027833872 1.3016186e-38
0.069934383 -0.14063846 0.024848156 1.3384969e-38
0.071694866 -0.14063846 0.024848156 1.3935626e-38
0.073455349 -0.14063846 0.024848156 1.5683023e-38
0.075215816 -0.14063846 0.024848156 1.2085228e-38
-0.019365801 -0.1493264 0.00082974881 7.4952512e-40
-0.017563209 -0.1493264 0.00082974881 3.5161171e-39
-0.015760617 -0.1493264 0.00082974881 6.5914137e-40
-0.013958024 -0.1493264 0.00082974881 2.8718519e-39
-0.012155432 -0.1493264 0.00082974881 1.4302655e-38
-0.010352841 -0.1493264 0.00082974881 1.7893204e-38
-0.0085502472 -0.1493264 0.00082974881 2.1026022e-38
-0.0067476574 -0.1493264 0.00082974881 2.0380663e-38
0.013439359 -0.14153777 0.027833872 1.7799188e-38
0.015194604 -0.14153777 0.027833872 1.4756732e-38
0.016949849 -0.14153777 0.027833872 1.4847849e-38
0.018705094 -0.14153777 0.027833872 1.5308464e-38
