# .PCD v0.7 - Point Cloud Data file format
VERSION 0.7
FIELDS x y z rgb
SIZE 4 4 4 4
TYPE F F F F
COUNT 1 1 1 1
WIDTH 945
HEIGHT 1
VIEWPOINT 0 0 0 1 0 0 0
POINTS 945
DATA ascii
0.025274722 -0.1049176 -0.06518513 2.2864868e-38
0.026963098 -0.10398008 -0.061179817 2.2496447e-38
0.028844597 -0.10398008 -0.061179817 2.1482298e-38
0.019437103 -0.10586159 -0.061179817 2.350988e-38
0.021318601 -0.10586159 -0.061179817 2.3141452e-38
0.0232001 -0.10586159 -0.061179817 2.2496083e-38
0.025274722 -0.10680611 -0.06518513 2.1943628e-38
0.026963098 -0.10586159 -0.061179817 2.2497525e-38
0.028844597 -0.10586159 -0.061179817 2.2589722e-38
0.030726096 -0.10586159 -0.061179817 2.1391547e-38
0.032828804 -0.10680611 -0.06518513 2.2036197e-38
0.034887984 -0.1075124 -0.068180025 2.2311342e-38
0.013792606 -0.10774307 -0.061179817 2.3048914e-38
0.015674105 -0.10774307 -0.061179817 2.3509527e-38
0.017555604 -0.10774307 -0.061179817 2.3509527e-38
0.019437103 -0.10774307 -0.061179817 2.2680844e-38
0.021318601 -0.10774307 -0.061179817 2.1297907e-38
0.0232001 -0.10774307 -0.061179817 2.1390102e-38
0.025081599 -0.10774307 -0.061179817 2.0653616e-38
0.026963098 -0.10774307 -0.061179817 2.1944718e-38
0.028844597 -0.10774307 -0.061179817 2.2958873e-38
0.030726096 -0.10774307 -0.061179817 2.2038004e-38
0.032828804 -0.10869466 -0.06518513 2.2958873e-38
0.034887984 -0.10940616 -0.068180025 2.231171e-38
0.036781754 -0.10940616 -0.068180025 1.9268534e-38
0.0099246632 -0.10888995 -0.058110297 2.2958873e-38
0.011800779 -0.10888995 -0.058110297 2.3141826e-38
0.013792606 -0.10962458 -0.061179817 2.3049632e-38
0.015553011 -0.10888995 -0.058110297 2.3141467e-38
0.01742913 -0.10888995 -0.058110297 2.3233662e-38
0.019437103 -0.10962458 -0.061179817 2.2588661e-38
0.021181362 -0.10888995 -0.058110297 2.1298646e-38
0.023057481 -0.10888995 -0.058110297 2.1575233e-38
0.025081599 -0.10962458 -0.061179817 2.1484117e-38
0.026809713 -0.10888995 -0.058110297 2.0009348e-38
0.028685829 -0.10888995 -0.058110297 2.001007e-38
0.030561948 -0.10888995 -0.058110297 2.1116782e-38
0.032438062 -0.10888995 -0.058110297 2.1484841e-38
0.034314178 -0.10888995 -0.058110297 2.1668153e-38
0.036781754 -0.11129995 -0.068180025 2.0468886e-38
0.0098241661 -0.11005743 -0.055170953 1.5307762e-38
0.011549799 -0.10908265 -0.051127613 1.5675111e-38
0.01341367 -0.10908265 -0.051127613 1.484499e-38
0.015437054 -0.11005743 -0.055170953 1.6227923e-38
0.017308017 -0.11005743 -0.055170953 2.2312437e-38
0.019305246 -0.11076607 -0.058110297 2.2957796e-38
0.021181362 -0.11076607 -0.058110297 2.0745494e-38
0.023057481 -0.11076607 -0.058110297 2.0192684e-38
0.024933597 -0.11076607 -0.058110297 2.1391929e-38
0.026809713 -0.11076607 -0.058110297 2.1391929e-38
0.028685829 -0.11076607 -0.058110297 2.0748005e-38
0.030561948 -0.11076607 -0.058110297 2.0471063e-38
0.032275721 -0.11005743 -0.055170953 1.973351e-38
0.034146685 -0.11005743 -0.055170953 2.2591531e-38
0.036017645 -0.11005743 -0.055170953 2.2775202e-38
0.037888613 -0.11005743 -0.055170953 2.074656e-38
0.0096859243 -0.11094652 -0.051127613 1.5216319e-38
0.011333859 -0.10948761 -0.045119822 1.3371334e-38
0.013187198 -0.10948761 -0.045119822 1.429257e-38
0.015158704 -0.11021499 -0.048115194 1.7242109e-38
0.017017299 -0.11021499 -0.048115194 2.046927e-38
0.019305246 -0.11264218 -0.058110297 2.1667077e-38
0.021049945 -0.11192839 -0.055170953 1.8809056e-38
0.022920908 -0.11192839 -0.055170953 1.8072577e-38
0.024791872 -0.11192839 -0.055170953 2.0009016e-38
0.026662836 -0.11192839 -0.055170953 2.0930958e-38
0.028533796 -0.11192839 -0.055170953 2.0102645e-38
0.03040476 -0.11192839 -0.055170953 1.9549121e-38
0.032275721 -0.11192839 -0.055170953 1.9089226e-38
0.034146685 -0.11192839 -0.055170953 1.9274332e-38
0.036017645 -0.11192839 -0.055170953 2.074944e-38
0.037888613 -0.11192839 -0.055170953 2.0472857e-38
0.0089329388 -0.10742365 -0.029104054 1.4665324e-38
0.010650521 -0.10669093 -0.026108325 1.3925965e-38
0.012470527 -0.10669093 -0.026108325 1.4201476e-38
0.014408717 -0.10742365 -0.029104054 1.4846483e-38
0.016233975 -0.10742365 -0.029104054 1.4292587e-38
0.019005293 -0.11281042 -0.051127613 1.5582601e-38
0.020869168 -0.11281042 -0.051127613 1.447661e-38
0.022733042 -0.11281042 -0.051127613 1.4200743e-38
0.024451667 -0.11207359 -0.048115194 1.5031223e-38
0.026310259 -0.11207359 -0.048115194 1.5123065e-38
0.028324662 -0.11281042 -0.051127613 1.4755003e-38
0.030188536 -0.11281042 -0.051127613 1.5032316e-38
0.032052409 -0.11281042 -0.051127613 1.5586203e-38
0.033916283 -0.11281042 -0.051127613 1.660249e-38
0.036017645 -0.11379938 -0.055170953 1.752515e-38
0.037888613 -0.11379938 -0.055170953 1.8538571e-38
0.039759573 -0.11379938 -0.055170953 1.9091009e-38
0.0034571602 -0.10924892 -0.029104054 1.052083e-38
0.0051905005 -0.10851096 -0.026108325 1.1442794e-38
0.007010506 -0.10851096 -0.026108325 1.1534274e-38
0.0088305157 -0.10851096 -0.026108325 1.3929568e-38
0.010650521 -0.10851096 -0.026108325 1.7246777e-38
0.012470527 -0.10851096 -0.026108325 1.5863146e-38
0.014290536 -0.10851096 -0.026108325 1.364903e-38
0.016110541 -0.10851096 -0.026108325 1.4846491e-38
0.018059233 -0.10924892 -0.029104054 1.5399303e-38
0.020019213 -0.10999118 -0.032117188 1.6229411e-38
0.022453899 -0.1131943 -0.045119822 1.6137576e-38
0.024307238 -0.1131943 -0.045119822 1.5032313e-38
0.026160581 -0.1131943 -0.045119822 1.4110004e-38
0.028324662 -0.11467429 -0.051127613 1.3741585e-38
0.030188536 -0.11467429 -0.051127613 1.3834866e-38
0.032052409 -0.11467429 -0.051127613 1.4296557e-38
0.033916283 -0.11467429 -0.051127613 1.4944788e-38
0.035780158 -0.11467429 -0.051127613 1.5129881e-38
0.037644032 -0.11467429 -0.051127613 1.6880861e-38
0.039507907 -0.11467429 -0.051127613 1.946159e-38
0.041371781 -0.11467429 -0.051127613 1.9828927e-38
0.0015504858 -0.11033095 -0.026108325 1.5683411e-38
0.0033704932 -0.11033095 -0.026108325 1.3565444e-38
0.0051905005 -0.11033095 -0.026108325 1.4119705e-38
0.007010506 -0.11033095 -0.026108325 1.374913e-38
0.0088305157 -0.11033095 -0.026108325 1.3101965e-38
0.010650521 -0.11033095 -0.026108325 1.4851879e-38
0.012470527 -0.11033095 -0.026108325 1.7247494e-38
0.014290536 -0.11033095 -0.026108325 1.7246777e-38
0.016110541 -0.11033095 -0.026108325 1.6046817e-38
0.017930547 -0.11033095 -0.026108325 1.4755373e-38
0.019884495 -0.11107419 -0.029104054 1.6230846e-38
0.022127124 -0.11330278 -0.038086832 1.6046458e-38
0.023968132 -0.11330278 -0.038086832 1.4479861e-38
0.026011748 -0.1143087 -0.042141378 1.3835216e-38
0.02801392 -0.11504765 -0.045119822 1.3282405e-38
0.030027444 -0.11579077 -0.048115194 1.2360096e-38
0.031886034 -0.11579077 -0.048115194 1.1532133e-38
0.033744626 -0.11579077 -0.048115194 1.1166578e-38
0.035603218 -0.11579077 -0.048115194 1.2549859e-38
0.037461806 -0.11579077 -0.048115194 1.5684131e-38
0.039320398 -0.11579077 -0.048115194 1.9554861e-38
0.041371781 -0.11653815 -0.051127613 2.0198785e-38
0.0015504858 -0.11215095 -0.026108325 1.7068128e-38
0.0033704932 -0.11215095 -0.026108325 1.5687725e-38
0.0051905005 -0.11215095 -0.026108325 1.5596607e-38
0.007010506 -0.11215095 -0.026108325 1.6424921e-38
0.0088305157 -0.11215095 -0.026108325 1.4118983e-38
0.010650521 -0.11215095 -0.026108325 1.1627907e-38
0.012470527 -0.11215095 -0.026108325 1.4668925e-38
0.014290536 -0.11215095 -0.026108325 1.7708824e-38
0.016110541 -0.11215095 -0.026108325 1.5218862e-38
0.017930547 -0.11215095 -0.026108325 1.4296543e-38
0.019884495 -0.11289944 -0.029104054 1.5586557e-38
0.021849753 -0.11365227 -0.032117188 1.5033384e-38
0.023826418 -0.11440946 -0.035147727 1.3743724e-38
0.025809141 -0.11514379 -0.038086832 1.3744088e-38
0.02765015 -0.11514379 -0.038086832 1.2822498e-38
0.02986726 -0.11690097 -0.045119822 1.1163701e-38
0.031720597 -0.11690097 -0.045119822 1.0519773e-38
0.033573937 -0.11690097 -0.045119822 9.6003406e-39
0.035603218 -0.11764936 -0.048115194 1.1814465e-38
0.037461806 -0.11764936 -0.048115194 1.4763984e-38
0.039320398 -0.11764936 -0.048115194 1.7344352e-38
0.041371781 -0.11840202 -0.051127613 1.8908784e-38
0.043235648 -0.11840202 -0.051127613 1.8076845e-38
0.045099523 -0.11840202 -0.051127613 1.6692099e-38
0.047243427 -0.11941226 -0.055170953 1.6690294e-38
0.049323115 -0.12014665 -0.058110297 1.6965083e-38
0.0033704932 -0.11397095 -0.026108325 1.7530175e-38
0.0051905005 -0.11397095 -0.026108325 1.7069563e-38
0.007010506 -0.11397095 -0.026108325 1.6516397e-38
0.0086960699 -0.1129816 -0.022176087 1.5501178e-38
0.010509184 -0.1129816 -0.022176087 1.2642041e-38
0.012322294 -0.1129816 -0.022176087 9.506675e-39
0.014135407 -0.1129816 -0.022176087 1.0703426e-38
0.015948521 -0.1129816 -0.022176087 1.4758957e-38
0.017930547 -0.11397095 -0.026108325 1.5035544e-38
0.019750556 -0.11397095 -0.026108325 1.5680192e-38
0.021849753 -0.11548282 -0.032117188 1.4758236e-38
0.023826418 -0.11624531 -0.035147727 1.3744084e-38
0.025809141 -0.1169848 -0.038086832 1.3651891e-38
0.02765015 -0.1169848 -0.038086832 1.2268958e-38
0.029707981 -0.11800493 -0.042141378 1.0886389e-38
0.0315561 -0.11800493 -0.042141378 1.1348809e-38
0.033573937 -0.11875431 -0.045119822 1.1166578e-38
0.03542728 -0.11875431 -0.045119822 1.2550587e-38
0.037461806 -0.11950795 -0.048115194 1.2918992e-38
0.039320398 -0.11950795 -0.048115194 1.2918617e-38
0.04117899 -0.11950795 -0.048115194 1.4944383e-38
0.043235648 -0.12026589 -0.051127613 1.6786841e-38
0.045099523 -0.12026589 -0.051127613 1.7245287e-38
0.047243427 -0.12128322 -0.055170953 1.696725e-38
0.049323115 -0.12202276 -0.058110297 1.6688502e-38
0.0033704932 -0.11579098 -0.026108325 1.946087e-38
0.0051905005 -0.11579098 -0.026108325 1.761732e-38
0.007010506 -0.11579098 -0.026108325 1.7894629e-38
0.0086960699 -0.11479472 -0.022176087 1.826378e-38
0.010509184 -0.11479472 -0.022176087 1.4853632e-38
0.012322294 -0.11479472 -0.022176087 1.088959e-38
0.014135407 -0.11479472 -0.022176087 1.0612298e-38
0.015948521 -0.11479472 -0.022176087 1.2639894e-38
0.017761631 -0.11479472 -0.022176087 1.5036985e-38
0.019574745 -0.11479472 -0.022176087 1.577418e-38
0.021709753 -0.11654995 -0.029104054 1.4483095e-38
0.023826418 -0.11808117 -0.035147727 1.3375666e-38
0.025809141 -0.11882581 -0.038086832 1.3743372e-38
0.02765015 -0.11882581 -0.038086832 1.2174967e-38
0.029707981 -0.11985306 -0.042141378 1.0975708e-38
0.0315561 -0.11985306 -0.042141378 1.2911811e-38
0.033404216 -0.11985306 -0.042141378 1.2267868e-38
0.03542728 -0.12060766 -0.045119822 1.3559681e-38
0.037280615 -0.12060766 -0.045119822 1.2638441e-38
0.039133962 -0.12060766 -0.045119822 1.1901589e-38
0.040987302 -0.12060766 -0.045119822 1.3653661e-38
0.043037582 -0.12136655 -0.048115194 1.3560735e-38
0.045099523 -0.12212978 -0.051127613 1.6509182e-38
0.046963397 -0.12212978 -0.051127613 1.6599206e-38
0.049114387 -0.12315418 -0.055170953 1.7518271e-38
0.0033704932 -0.11761098 -0.026108325 1.7614423e-38
0.0051905005 -0.11761098 -0.026108325 1.7614425e-38
0.007010506 -0.11761098 -0.026108325 1.6693911e-38
0.0086960699 -0.11660783 -0.022176087 1.8907694e-38
0.010399146 -0.11582683 -0.019114673 2.0015115e-38
0.012206892 -0.11582683 -0.019114673 1.8540724e-38
0.014014633 -0.11582683 -0.019114673 1.5498655e-38
0.015822379 -0.11582683 -0.019114673 9.9665714e-39
0.017761631 -0.11660783 -0.022176087 1.3286346e-38
0.019574745 -0.11660783 -0.022176087 1.577418e-38
0.021709753 -0.11837523 -0.029104054 1.4113959e-38
0.023680294 -0.11914389 -0.032117188 9.8718814e-39
0.025662275 -0.11991702 -0.035147727 1.0239585e-38
0.02765015 -0.12066682 -0.038086832 1.1806188e-38
0.029491158 -0.12066682 -0.038086832 1.2819618e-38
0.0315561 -0.12170117 -0.042141378 1.7520489e-38
0.033404216 -0.12170117 -0.042141378 1.9548762e-38
0.035252336 -0.12170117 -0.042141378 1.8443508e-38
0.037100453 -0.12170117 -0.042141378 1.4849692e-38
0.038948569 -0.12170117 -0.042141378 1.1809034e-38
0.040987302 -0.12246101 -0.045119822 1.2915741e-38
0.042840641 -0.12246101 -0.045119822 1.2547311e-38
0.044896174 -0.12322514 -0.048115194 1.5034423e-38
0.046963397 -0.12399365 -0.051127613 1.7244583e-38
0.048827272 -0.12399365 -0.051127613 1.7887059e-38
0.0033704932 -0.11943097 -0.026108325 1.5125141e-38
0.0051905005 -0.11943097 -0.026108325 1.7799537e-38
0.007010506 -0.11943097 -0.026108325 1.7431119e-38
0.0086960699 -0.11842094 -0.022176087 1.964418e-38
0.010293523 -0.11687975 -0.016176045 2.0659757e-38
0.012096113 -0.11687975 -0.016176045 1.9922562e-38
0.013898706 -0.11687975 -0.016176045 1.8540007e-38
0.0157013 -0.11687975 -0.016176045 1.1901944e-38
0.017503889 -0.11687975 -0.016176045 9.2286462e-39
0.019574745 -0.11842094 -0.022176087 1.2915767e-38
0.021570561 -0.11943097 -0.026108325 1.4112882e-38
0.023680294 -0.12097444 -0.032117188 9.5952987e-39
0.025662275 -0.12175287 -0.035147727 1.0516536e-38
0.02765015 -0.12250783 -0.038086832 1.3097649e-38
0.029491158 -0.12250783 -0.038086832 1.2082769e-38
0.0315561 -0.1235493 -0.042141378 1.5125213e-38
0.033404216 -0.1235493 -0.042141378 2.0378869e-38
0.035252336 -0.1235493 -0.042141378 1.936545e-38
0.037100453 -0.1235493 -0.042141378 1.6048592e-38
0.038948569 -0.1235493 -0.042141378 1.1624641e-38
0.040987302 -0.12431435 -0.045119822 1.2731707e-38
0.042840641 -0.12431435 -0.045119822 1.2270724e-38
0.044896174 -0.12508373 -0.048115194 1.3467095e-38
0.046754766 -0.12508373 -0.048115194 1.706055e-38
0.048827272 -0.12585752 -0.051127613 1.8071448e-38
0.0052824183 -0.12202574 -0.029104054 1.4941472e-38
0.007010506 -0.121251 -0.026108325 1.5126228e-38
0.0084909294 -0.11868234 -0.016176045 1.816905e-38
0.010293523 -0.11868234 -0.016176045 2.0750516e-38
0.011982048 -0.11789979 -0.013150156 2.1580981e-38
0.013779333 -0.11789979 -0.013150156 2.1305116e-38
0.015576622 -0.11789979 -0.013150156 1.7709889e-38
0.017373906 -0.11789979 -0.013150156 1.3836617e-38
0.019171195 -0.11789979 -0.013150156 1.1070767e-38
0.021109076 -0.11868234 -0.016176045 1.0424341e-38
0.023200968 -0.12023406 -0.022176087 6.3681014e-39
0.025510838 -0.12280498 -0.032117188 7.6581213e-39
0.02765015 -0.12434883 -0.038086832 1.2360449e-38
0.029491158 -0.12434883 -0.038086832 1.1900174e-38
0.031332165 -0.12434883 -0.038086832 1.4112132e-38
0.033173174 -0.12434883 -0.038086832 1.6415214e-38
0.035252336 -0.1253974 -0.042141378 1.8995956e-38
0.037100453 -0.1253974 -0.042141378 1.7983972e-38
0.038948569 -0.1253974 -0.042141378 1.1809032e-38
0.040987302 -0.12616767 -0.045119822 1.2639512e-38
0.042840641 -0.12616767 -0.045119822 1.3193036e-38
0.044896174 -0.12694232 -0.048115194 1.3560009e-38
0.046754766 -0.12694232 -0.048115194 1.7153465e-38
0.048827272 -0.12772138 -0.051127613 1.751935e-38
0.050691146 -0.12772138 -0.051127613 1.7977796e-38
0.0084909294 -0.12048493 -0.016176045 1.7431124e-38
0.010184763 -0.11969708 -0.013150156 2.0289183e-38
0.011868646 -0.11891381 -0.010141909 2.2224189e-38
0.01366066 -0.11891381 -0.010141909 2.2224189e-38
0.01545267 -0.11891381 -0.010141909 2.1856847e-38
0.017244684 -0.11891381 -0.010141909 1.7062724e-38
0.019171195 -0.11969708 -0.013150156 9.0410165e-39
0.02096848 -0.11969708 -0.013150156 9.04069e-39
0.022911666 -0.12048493 -0.016176045 9.0407041e-39
0.025210576 -0.123071 -0.026108325 9.5024011e-39
0.027498128 -0.12542458 -0.035147727 1.2454089e-38
0.029333984 -0.12542458 -0.035147727 1.0795619e-38
0.031169841 -0.12542458 -0.035147727 1.0241708e-38
0.033005696 -0.12542458 -0.035147727 1.3557146e-38
0.035014182 -0.12618984 -0.038086832 1.9272897e-38
0.036855195 -0.12618984 -0.038086832 1.9366885e-38
0.038696203 -0.12618984 -0.038086832 1.1070748e-38
0.040796686 -0.12724553 -0.042141378 1.0334621e-38
0.04264481 -0.12724553 -0.042141378 1.2086688e-38
0.04469398 -0.12802102 -0.045119822 1.3007915e-38
0.046754766 -0.12880091 -0.048115194 1.5955641e-38
0.048827272 -0.12958528 -0.051127613 1.6598113e-38
0.050691146 -0.12958528 -0.051127613 1.7886318e-38
0.010184763 -0.12149437 -0.013150156 1.8536382e-38
0.011868646 -0.12070583 -0.010141909 2.2499695e-38
0.01366066 -0.12070583 -0.010141909 2.2040516e-38
0.01545267 -0.12070583 -0.010141909 2.2499695e-38
0.017244684 -0.12070583 -0.010141909 2.1671023e-38
0.019036697 -0.12070583 -0.010141909 1.0515056e-38
0.02096848 -0.12149437 -0.013150156 8.6708285e-39
0.022765769 -0.12149437 -0.013150156 9.5013305e-39
0.025014082 -0.12386028 -0.022176087 9.2254625e-39
0.027185531 -0.12567626 -0.029104054 1.1071518e-38
0.029171923 -0.12646608 -0.032117188 1.0981805e-38
0.031169841 -0.12726043 -0.035147727 1.1165458e-38
0.033005696 -0.12726043 -0.035147727 1.2358603e-38
0.034841552 -0.12726043 -0.035147727 1.8903044e-38
0.036855195 -0.12803085 -0.038086832 1.8997032e-38
0.038696203 -0.12803085 -0.038086832 1.0794163e-38
0.040796686 -0.12909363 -0.042141378 9.4123074e-39
0.04264481 -0.12909363 -0.042141378 1.0887789e-38
0.044492926 -0.12909363 -0.042141378 1.254658e-38
0.04654732 -0.12987436 -0.045119822 1.4020252e-38
0.048827272 -0.13144915 -0.051127613 1.5584324e-38
0.01354268 -0.12170871 -0.0071513057 2.2867027e-38
0.015329449 -0.12170871 -0.0071513057 2.2775196e-38
0.017116217 -0.12170871 -0.0071513057 2.2591531e-38
0.019036697 -0.12249784 -0.010141909 1.3556782e-38
0.020828707 -0.12249784 -0.010141909 9.2225604e-39
0.022765769 -0.12329166 -0.013150156 8.9474406e-39
0.024714259 -0.12409012 -0.016176045 8.857403e-39
0.026827192 -0.1256734 -0.022176087 9.5052709e-39
0.029010789 -0.1275015 -0.029104054 9.7846968e-39
0.031002464 -0.1282966 -0.032117188 1.0797391e-38
0.033005696 -0.12909628 -0.035147727 1.1897628e-38
0.034841552 -0.12909628 -0.035147727 1.6044636e-38
0.036855195 -0.12987186 -0.038086832 1.5217038e-38
0.038696203 -0.12987186 -0.038086832 1.0517223e-38
0.040796686 -0.13094176 -0.042141378 1.0058403e-38
0.04264481 -0.13094176 -0.042141378 1.0427896e-38
0.044492926 -0.13094176 -0.042141378 1.2915729e-38
0.046341043 -0.13094176 -0.042141378 1.374331e-38
0.013425393 -0.12270571 -0.004178226 2.0656115e-38
0.01520695 -0.12270571 -0.004178226 2.2958857e-38
0.017116217 -0.12349547 -0.0071513057 2.2591531e-38
0.018902985 -0.12349547 -0.0071513057 1.5769104e-38
0.020828707 -0.12428986 -0.010141909 9.4987829e-39
0.022620721 -0.12428986 -0.010141909 8.1165982e-39
0.024563054 -0.12508895 -0.013150156 9.0417943e-39
0.026516849 -0.12589271 -0.016176045 8.768066e-39
0.028640306 -0.12748651 -0.022176087 7.7574706e-39
0.030836048 -0.12932678 -0.029104054 8.4935797e-39
0.032833006 -0.13012715 -0.032117188 1.0791283e-38
0.034841552 -0.13093217 -0.035147727 1.1526696e-38
0.036855195 -0.13171287 -0.038086832 9.0395774e-39
0.038696203 -0.13171287 -0.038086832 7.1985445e-39
0.040796686 -0.13278987 -0.042141378 8.2144943e-39
0.04264481 -0.13278987 -0.042141378 8.1230133e-39
0.044492926 -0.13278987 -0.042141378 1.1901581e-38
0.046341043 -0.13278987 -0.042141378 1.2914277e-38
0.013425393 -0.1244873 -0.004178226 1.8534889e-38
0.01520695 -0.1244873 -0.004178226 2.2958847e-38
0.017116217 -0.12528224 -0.0071513057 2.2314226e-38
0.018902985 -0.12528224 -0.0071513057 1.890231e-38
0.020828707 -0.12608187 -0.010141909 1.4108196e-38
0.022620721 -0.12608187 -0.010141909 7.1946335e-39
0.024563054 -0.12688623 -0.013150156 7.3815471e-39
0.026516849 -0.12769531 -0.016176045 8.6755075e-39
0.02847659 -0.12848105 -0.019114673 7.7563916e-39
0.030670596 -0.13035102 -0.026108325 8.6768947e-39
0.032661308 -0.13115202 -0.029104054 1.0054082e-38
0.034663547 -0.13195769 -0.032117188 1.0882052e-38
0.036855195 -0.13355388 -0.038086832 8.7637178e-39
0.038696203 -0.13355388 -0.038086832 8.0279548e-39
0.040796686 -0.134638 -0.042141378 6.739374e-39
0.04264481 -0.134638 -0.042141378 8.7691072e-39
0.044492926 -0.134638 -0.042141378 1.1348773e-38
0.046341043 -0.134638 -0.042141378 1.3006838e-38
0.017244684 -0.12787388 -0.010141909 2.2958873e-38
0.019036697 -0.12787388 -0.010141909 2.1391571e-38
0.020828707 -0.12787388 -0.010141909 1.7150278e-38
0.022765769 -0.12868352 -0.013150156 7.4715665e-39
0.024563054 -0.12868352 -0.013150156 7.1971446e-39
0.026360342 -0.12868352 -0.013150156 8.6747816e-39
0.028319443 -0.1294979 -0.016176045 8.032261e-39
0.030453419 -0.13111271 -0.022176087 7.3858014e-39
0.0324906 -0.13217102 -0.026108325 9.684944e-39
0.034486566 -0.13297729 -0.029104054 1.0052296e-38
0.036677409 -0.13460387 -0.035147727 8.1187113e-39
0.038513262 -0.13460387 -0.035147727 7.9364809e-39
0.040537212 -0.13539489 -0.038086832 6.4638689e-39
0.04264481 -0.13648613 -0.042141378 7.6631254e-39
0.044492926 -0.13648613 -0.042141378 9.966563e-39
0.046341043 -0.13648613 -0.042141378 1.2823173e-38
-0.036313467 -0.12398534 0.010828078 2.3050708e-38
-0.034534026 -0.12315463 0.013894677 2.3234379e-38
-0.032784157 -0.12315463 0.013894677 2.3234018e-38
-0.031021358 -0.12235557 0.016844451 2.3234018e-38
-0.029276662 -0.12235557 0.016844451 2.3325494e-38
0.017244684 -0.1296659 -0.010141909 2.1484819e-38
0.019036697 -0.1296659 -0.010141909 2.1945095e-38
0.020828707 -0.1296659 -0.010141909 1.899488e-38
0.022765769 -0.13048081 -0.013150156 7.1949614e-39
0.024563054 -0.13048081 -0.013150156 6.9205437e-39
0.026360342 -0.13048081 -0.013150156 9.1343164e-39
0.028319443 -0.13130049 -0.016176045 9.2290091e-39
0.030284336 -0.13209651 -0.019114673 7.1996179e-39
0.032266527 -0.13292582 -0.022176087 7.8406769e-39
0.034310605 -0.13399105 -0.026108325 8.3009418e-39
0.036677409 -0.13643973 -0.035147727 7.474065e-39
0.038513262 -0.13643973 -0.035147727 8.3067039e-39
0.040537212 -0.13723589 -0.038086832 7.3861868e-39
0.042378221 -0.13723589 -0.038086832 7.5716514e-39
0.044219229 -0.13723589 -0.038086832 8.952774e-39
0.046341043 -0.13833423 -0.042141378 1.2546948e-38
0.048189159 -0.13833423 -0.042141378 1.3926983e-38
-0.036313467 -0.12574057 0.010828078 2.3142544e-38
-0.034534026 -0.1249045 0.013894677 2.3142544e-38
-0.032784157 -0.1249045 0.013894677 2.3326213e-38
-0.031021358 -0.12410025 0.016844451 2.3326213e-38
-0.029276662 -0.12410025 0.016844451 2.3048907e-38
-0.027531965 -0.12410025 0.016844451 1.98235e-38
0.017244684 -0.13145791 -0.010141909 1.8811145e-38
0.019036697 -0.13145791 -0.010141909 2.0286301e-38
0.02096848 -0.1322781 -0.013150156 1.8811207e-38
0.022765769 -0.1322781 -0.013150156 6.5495737e-39
0.024563054 -0.1322781 -0.013150156 6.9194521e-39
0.026360342 -0.1322781 -0.013150156 8.8570008e-39
0.028319443 -0.13310309 -0.016176045 9.7803879e-39
0.030284336 -0.13390426 -0.019114673 7.1985473e-39
0.03209208 -0.13390426 -0.019114673 7.0109162e-39
0.034310605 -0.13581105 -0.026108325 7.1963893e-39
0.036494087 -0.13744931 -0.032117188 6.7379349e-39
0.038513262 -0.13827558 -0.035147727 7.4780208e-39
0.040537212 -0.1390769 -0.038086832 7.4791012e-39
0.042378221 -0.1390769 -0.038086832 8.2177411e-39
0.044219229 -0.1390769 -0.038086832 9.2304399e-39
0.046341043 -0.14018236 -0.042141378 1.3469623e-38
0.048189159 -0.14018236 -0.042141378 1.521844e-38
-0.036283892 -0.12665437 0.013894677 2.3050708e-38
-0.034534026 -0.12665437 0.013894677 2.3142544e-38
-0.032766055 -0.12584494 0.016844451 2.341805e-38
-0.031021358 -0.12584494 0.016844451 2.341805e-38
-0.029276662 -0.12584494 0.016844451 2.2864513e-38
-0.027531965 -0.12584494 0.016844451 1.9362521e-38
0.019171195 -0.13407536 -0.013150156 1.8995915e-38
0.02096848 -0.13407536 -0.013150156 1.816654e-38
0.022765769 -0.13407536 -0.013150156 7.0108924e-39
0.024563054 -0.13407536 -0.013150156 7.1949431e-39
0.026516849 -0.13490568 -0.016176045 7.9339571e-39
0.028319443 -0.13490568 -0.016176045 8.6718879e-39
0.030284336 -0.13571201 -0.019114673 6.7357769e-39
0.03209208 -0.13571201 -0.019114673 7.6573646e-39
0.034310605 -0.13763104 -0.026108325 7.7502791e-39
0.036494087 -0.13927986 -0.032117188 6.3702286e-39
0.038324635 -0.13927986 -0.032117188 5.9114112e-39
0.040349122 -0.14011143 -0.035147727 6.3738313e-39
0.042378221 -0.14091791 -0.038086832 8.5875956e-39
0.044219229 -0.14091791 -0.038086832 9.6921341e-39
0.046341043 -0.14203046 -0.042141378 1.4484852e-38
0.048189159 -0.14203046 -0.042141378 1.5863807e-38
-0.034486845 -0.12675296 0.019874334 2.3142544e-38
-0.032747462 -0.12675296 0.019874334 2.341805e-38
-0.030994875 -0.12592132 0.022885859 2.341805e-38
-0.029260773 -0.12592132 0.022885859 2.31411e-38
-0.027529309 -0.12675296 0.019874334 2.0100086e-38
-0.025789926 -0.12675296 0.019874334 1.8811511e-38
-0.024050541 -0.12675296 0.019874334 1.8628561e-38
-0.020571774 -0.12675296 0.019874334 1.9733829e-38
-0.018832391 -0.12675296 0.019874334 2.0010056e-38
-0.017093007 -0.12675296 0.019874334 1.9733468e-38
-0.015353624 -0.12675296 0.019874334 1.9548357e-38
0.019171195 -0.13587265 -0.013150156 1.7890645e-38
0.02096848 -0.13587265 -0.013150156 1.7706266e-38
0.022765769 -0.13587265 -0.013150156 8.6703927e-39
0.024563054 -0.13587265 -0.013150156 7.7481029e-39
0.026516849 -0.13670824 -0.016176045 7.3793386e-39
0.028319443 -0.13670824 -0.016176045 7.5630278e-39
0.030284336 -0.13751976 -0.019114673 7.1024098e-39
0.03209208 -0.13751976 -0.019114673 7.4729734e-39
0.034310605 -0.13945107 -0.026108325 7.7513539e-39
0.036311824 -0.14027832 -0.029104054 7.1085068e-39
0.038324635 -0.14111041 -0.032117188 6.280907e-39
0.040155176 -0.14111041 -0.032117188 6.8355227e-39
0.042184975 -0.14194728 -0.035147727 8.8641797e-39
0.044219229 -0.14275892 -0.038086832 9.0474793e-39
0.046060238 -0.14275892 -0.038086832 1.4300814e-38
0.048189159 -0.14387859 -0.042141378 1.4851089e-38
-0.04271692 -0.12070335 0.047901928 2.2867037e-38
-0.041026678 -0.12070335 0.047901928 2.2775202e-38
-0.03937649 -0.12154986 0.044855952 2.2958873e-38
-0.037680905 -0.12154986 0.044855952 2.2958873e-38
-0.036042824 -0.1232069 0.038893342 2.2866677e-38
-0.034336787 -0.1232069 0.038893342 2.3142544e-38
-0.032630749 -0.1232069 0.038893342 2.341805e-38
-0.030933769 -0.12378122 0.03682667 2.3326213e-38
-0.029247595 -0.12626295 0.027896523 2.3509883e-38
-0.027522277 -0.12626295 0.027896523 2.1943279e-38
-0.025792565 -0.12765543 0.022885859 2.0471394e-38
-0.024058461 -0.12765543 0.022885859 1.9643075e-38
-0.022311157 -0.12849234 0.019874334 1.9458324e-38
-0.020590255 -0.12765543 0.022885859 2.0010416e-38
-0.018856151 -0.12765543 0.022885859 2.0471034e-38
-0.017122047 -0.12765543 0.022885859 2.0102251e-38
-0.015387945 -0.12765543 0.022885859 1.9271772e-38
-0.010185633 -0.12765543 0.022885859 1.7611895e-38
-0.0084515288 -0.12765543 0.022885859 1.7520421e-38
0.02096848 -0.13766994 -0.013150156 1.7430029e-38
0.022765769 -0.13766994 -0.013150156 9.9618364e-39
0.024563054 -0.13766994 -0.013150156 7.93212e-39
0.026516849 -0.13851084 -0.016176045 7.1013084e-39
0.028319443 -0.13851084 -0.016176045 7.008059e-39
0.030284336 -0.13932751 -0.019114673 7.9310943e-39
0.03209208 -0.13932751 -0.019114673 6.7357657e-39
0.034310605 -0.14127107 -0.026108325 7.1070565e-39
0.036311824 -0.1421036 -0.029104054 7.2943344e-39
0.038324635 -0.14294095 -0.032117188 7.1117438e-39
0.040155176 -0.14294095 -0.032117188 7.5741639e-39
0.042184975 -0.14378314 -0.035147727 8.8652545e-39
0.044219229 -0.14459993 -0.038086832 8.8645202e-39
0.046060238 -0.14459993 -0.038086832 1.5684462e-38
0.047901247 -0.14459993 -0.038086832 1.7248169e-38
0.049742255 -0.14459993 -0.038086832 2.1301881e-38
-0.04615882 -0.12324543 0.044855952 2.2867037e-38
-0.04446324 -0.12324543 0.044855952 2.2129835e-38
-0.04271692 -0.12239362 0.047901928 2.3142544e-38
-0.041026678 -0.12239362 0.047901928 2.3142185e-38
-0.03937649 -0.12324543 0.044855952 2.341805e-38
-0.037680905 -0.12324543 0.044855952 2.341805e-38
-0.036013987 -0.12407662 0.041883767 2.3233662e-38
-0.034313191 -0.12407662 0.041883767 2.341805e-38
-0.032612398 -0.12407662 0.041883767 2.3326213e-38
-0.03092471 -0.12491293 0.038893342 2.3049626e-38
-0.029224109 -0.12549089 0.03682667 2.3418047e-38
-0.027519679 -0.12715961 0.03085959 2.295887e-38
-0.025799556 -0.12715961 0.03085959 2.2407501e-38
-0.024079433 -0.12715961 0.03085959 2.102601e-38
-0.02235931 -0.12715961 0.03085959 1.9827106e-38
-0.020602711 -0.12882192 0.024915516 1.9733832e-38
-0.018872166 -0.12882192 0.024915516 2.0378838e-38
-0.017122047 -0.12938951 0.022885859 2.0655425e-38
-0.015387945 -0.12938951 0.022885859 1.9824946e-38
-0.013653841 -0.12938951 0.022885859 1.8441655e-38
-0.011919737 -0.12938951 0.022885859 1.7611895e-38
-0.010185633 -0.12938951 0.022885859 1.7151638e-38
-0.0084515288 -0.12938951 0.022885859 1.7059445e-38
0.02096848 -0.13946722 -0.013150156 1.7430386e-38
0.022765769 -0.13946722 -0.013150156 1.0607203e-38
0.024563054 -0.13946722 -0.013150156 7.4714964e-39
0.026516849 -0.14031343 -0.016176045 6.4562907e-39
0.028319443 -0.14031343 -0.016176045 6.0864544e-39
0.030284336 -0.14113526 -0.019114673 7.7474191e-39
0.03209208 -0.14113526 -0.019114673 7.1049083e-39
0.034310605 -0.14309107 -0.026108325 6.6464413e-39
0.036311824 -0.14392884 -0.029104054 6.6489594e-39
0.038324635 -0.1447715 -0.032117188 6.7425928e-39
0.040349122 -0.14561899 -0.035147727 7.3890384e-39
0.042378221 -0.14644094 -0.038086832 8.8645202e-39
0.044219229 -0.14644094 -0.038086832 1.0337841e-38
0.045856688 -0.14561899 -0.035147727 1.9463384e-38
0.047692541 -0.14561899 -0.035147727 2.065868e-38
0.049742255 -0.14644094 -0.038086832 2.2223112e-38
-0.051042456 -0.12269278 0.05284518 1.9650265e-38
-0.049360879 -0.12269278 0.05284518 2.1673176e-38
-0.047679305 -0.12269278 0.05284518 2.1489146e-38
-0.046058521 -0.12354116 0.049830377 2.2591531e-38
-0.044407159 -0.12408386 0.047901928 2.3142544e-38
-0.042684797 -0.12354116 0.049830377 2.3509168e-38
-0.040997937 -0.12354116 0.049830377 2.3508451e-38
-0.039336435 -0.12408386 0.047901928 2.3508451e-38
-0.037646193 -0.12408386 0.047901928 2.3508451e-38
-0.035985325 -0.12494104 0.044855952 2.3508451e-38
-0.034313191 -0.12577744 0.041883767 2.3509168e-38
-0.032612398 -0.12577744 0.041883767 2.341805e-38
-0.030911602 -0.12577744 0.041883767 2.3050707e-38
-0.029218674 -0.12661897 0.038893342 2.2867033e-38
-0.027517013 -0.12802424 0.033899605 2.2775199e-38
-0.025802221 -0.12802424 0.033899605 2.2039797e-38
-0.024079433 -0.12887974 0.03085959 1.927393e-38
-0.02235931 -0.12887974 0.03085959 1.8719677e-38
-0.020621004 -0.12971358 0.027896523 2.0102612e-38
-0.018895686 -0.12971358 0.027896523 2.0470678e-38
-0.01714162 -0.13055246 0.024915516 1.936433e-38
-0.015387945 -0.13112362 0.022885859 1.8718242e-38
-0.013653841 -0.13112362 0.022885859 1.8441658e-38
-0.011919737 -0.13112362 0.022885859 1.7336029e-38
-0.010185633 -0.13112362 0.022885859 1.7336029e-38
-0.0084515288 -0.13112362 0.022885859 1.8257989e-38
0.02096848 -0.14126451 -0.013150156 1.7338559e-38
0.022765769 -0.14126451 -0.013150156 9.1327988e-39
0.024714259 -0.14211603 -0.016176045 8.2101404e-39
0.026516849 -0.14211603 -0.016176045 6.6421113e-39
0.02847659 -0.14294298 -0.019114673 5.7194501e-39
0.030453419 -0.14380451 -0.022176087 6.5510171e-39
0.032266527 -0.14380451 -0.022176087 6.1858345e-39
0.034486566 -0.14575411 -0.029104054 6.0035956e-39
0.036311824 -0.14575411 -0.029104054 5.4504162e-39
0.038324635 -0.14660202 -0.032117188 8.8612832e-39
0.040155176 -0.14660202 -0.032117188 8.2159026e-39
0.042378221 -0.14828195 -0.038086832 1.1626411e-38
0.044219229 -0.14828195 -0.038086832 1.503584e-38
0.045856688 -0.14745484 -0.035147727 2.0474292e-38
0.047692541 -0.14745484 -0.035147727 2.2224189e-38
0.049528394 -0.14745484 -0.035147727 2.2038724e-38
-0.05280596 -0.12522803 0.049830377 1.5687661e-38
-0.051119104 -0.12522803 0.049830377 2.0754821e-38
-0.049360879 -0.12437434 0.05284518 2.1122163e-38
-0.047679305 -0.12437434 0.05284518 2.0478237e-38
-0.046058521 -0.12522803 0.049830377 2.1672817e-38
-0.044407159 -0.1257741 0.047901928 2.1854334e-38
-0.042684797 -0.12522803 0.049830377 2.295672e-38
-0.040997937 -0.12522803 0.049830377 2.3508451e-38
-0.039336435 -0.1257741 0.047901928 2.3508092e-38
-0.037646193 -0.1257741 0.047901928 2.3508092e-38
-0.035985325 -0.12663661 0.044855952 2.3507733e-38
-0.03428974 -0.12663661 0.044855952 2.3508451e-38
-0.032594159 -0.12663661 0.044855952 2.341769e-38
-0.030898573 -0.12663661 0.044855952 2.3234376e-38
-0.029210808 -0.12747823 0.041883767 2.2958867e-38
-0.027512636 -0.128325 0.038893342 2.2775197e-38
-0.025804786 -0.1289102 0.03682667 2.2224189e-38
-0.024087427 -0.12973903 0.033899605 1.9089539e-38
-0.022372635 -0.12973903 0.033899605 1.7614411e-38
-0.020621004 -0.1314389 0.027896523 1.871968e-38
-0.018895686 -0.1314389 0.027896523 1.8811876e-38
-0.01714162 -0.13228302 0.024915516 1.8257986e-38
-0.015387945 -0.13285773 0.022885859 1.8073594e-38
-0.013653841 -0.13285773 0.022885859 1.816579e-38
-0.011919737 -0.13285773 0.022885859 1.6967247e-38
-0.010185633 -0.13285773 0.022885859 1.6875051e-38
-0.0084515288 -0.13285773 0.022885859 1.7981762e-38
0.021109076 -0.14391862 -0.016176045 1.6969779e-38
0.022911666 -0.14391862 -0.016176045 8.8562147e-39
0.024861103 -0.14475073 -0.019114673 7.564771e-39
0.026668845 -0.14475073 -0.019114673 5.4442856e-39
0.028640306 -0.14561762 -0.022176087 4.4297847e-39
0.030670596 -0.14673109 -0.026108325 5.5372197e-39
0.0324906 -0.14673109 -0.026108325 5.540821e-39
0.034486566 -0.14757936 -0.029104054 6.4645738e-39
0.036311824 -0.14757936 -0.029104054 6.648235e-39
0.038324635 -0.14843257 -0.032117188 1.0058739e-38
0.040155176 -0.14843257 -0.032117188 1.1348745e-38
0.042184975 -0.14929073 -0.035147727 1.6694998e-38
-0.054722719 -0.12917902 0.041883767 1.8172994e-38
-0.05280596 -0.1269149 0.049830377 1.9190743e-38
-0.051119104 -0.1269149 0.049830377 2.0387479e-38
-0.04943224 -0.1269149 0.049830377 1.937549e-38
-0.047745381 -0.1269149 0.049830377 1.9189301e-38
-0.046058521 -0.1269149 0.049830377 1.9740314e-38
-0.044407159 -0.12746434 0.047901928 1.9738514e-38
-0.042684797 -0.1269149 0.049830377 2.1119287e-38
-0.040997937 -0.1269149 0.049830377 2.2315307e-38
-0.039336435 -0.12746434 0.047901928 2.2958873e-38
-0.037646193 -0.12746434 0.047901928 2.3142544e-38
-0.035955951 -0.12746434 0.047901928 2.3326213e-38
-0.03428974 -0.12833218 0.044855952 2.3509883e-38
-0.032575466 -0.12746434 0.047901928 2.350988e-38
-0.030885221 -0.12746434 0.047901928 2.3509879e-38
-0.029202992 -0.12833218 0.044855952 2.3509879e-38
-0.027510013 -0.12917902 0.041883767 2.3234374e-38
-0.025809221 -0.12917902 0.041883767 2.2775202e-38
-0.024095125 -0.13061987 0.03682667 1.9182097e-38
-0.022385465 -0.13061987 0.03682667 1.7430383e-38
-0.020657843 -0.13145383 0.033899605 1.7982838e-38
-0.018919064 -0.13231997 0.03085959 1.7982838e-38
-0.017170368 -0.13316421 0.027896523 1.7889566e-38
-0.01544505 -0.13316421 0.027896523 1.8073957e-38
-0.013680531 -0.13401355 0.024915516 1.8350544e-38
-0.011919737 -0.13459183 0.022885859 1.6875414e-38
-0.010185633 -0.13459183 0.022885859 1.6230045e-38
0.023200968 -0.14743073 -0.022176087 8.6714689e-39
0.025014082 -0.14743073 -0.022176087 7.2878296e-39
0.026827192 -0.14743073 -0.022176087 5.5354078e-39
0.028850587 -0.14855109 -0.026108325 4.9818879e-39
0.030670596 -0.14855109 -0.026108325 6.1815129e-39
0.0324906 -0.14855109 -0.026108325 5.908163e-39
-0.056515269 -0.13173707 0.038893342 1.0057615e-38
-0.054722719 -0.1308798 0.041883767 1.9187506e-38
-0.053021923 -0.1308798 0.041883767 1.9374777e-38
-0.05124557 -0.13002776 0.044855952 1.8731208e-38
-0.04947789 -0.12915458 0.047901928 1.8637934e-38
-0.047787644 -0.12915458 0.047901928 1.8914159e-38
-0.046097405 -0.12915458 0.047901928 1.8729402e-38
-0.044407159 -0.12915458 0.047901928 1.8820516e-38
-0.042684797 -0.12860174 0.049830377 1.9649192e-38
-0.040997937 -0.12860174 0.049830377 1.9924694e-38
-0.039311074 -0.12860174 0.049830377 2.1765011e-38
-0.037624214 -0.12860174 0.049830377 2.2407858e-38
-0.035937354 -0.12860174 0.049830377 2.2775202e-38
-0.034265708 -0.12915458 0.047901928 2.3142541e-38
-0.032575466 -0.12915458 0.047901928 2.3418045e-38
-0.030885221 -0.12915458 0.047901928 2.3509518e-38
-0.029194981 -0.12915458 0.047901928 2.350952e-38
-0.027507409 -0.13002776 0.044855952 2.3509883e-38
-0.025809221 -0.1308798 0.041883767 2.2775202e-38
-0.024100561 -0.13173707 0.038893342 1.9275738e-38
-0.022385465 -0.13232954 0.03682667 1.7707693e-38
-0.020657843 -0.13316862 0.033899605 1.8260147e-38
-0.018919064 -0.1340401 0.03085959 1.8167951e-38
-0.017198941 -0.1340401 0.03085959 1.7890645e-38
-0.01544505 -0.13488953 0.027896523 1.7982842e-38
-0.013680531 -0.13574408 0.024915516 1.8350544e-38
-0.011919737 -0.13632594 0.022885859 1.7336394e-38
0.023200968 -0.14924385 -0.022176087 7.9328277e-39
0.025014082 -0.14924385 -0.022176087 6.7335824e-39
0.026827192 -0.14924385 -0.022176087 5.9041959e-39
-0.056515269 -0.1334431 0.038893342 1.1164682e-38
-0.054809231 -0.1334431 0.038893342 1.9003118e-38
-0.053021923 -0.13258059 0.041883767 1.8913447e-38
-0.051321134 -0.13258059 0.041883767 1.845427e-38
-0.04947789 -0.13084482 0.047901928 1.9284735e-38
-0.047787644 -0.13084482 0.047901928 1.937693e-38
-0.046097405 -0.13084482 0.047901928 1.8364222e-38
-0.044407159 -0.13084482 0.047901928 1.8364573e-38
-0.042684797 -0.13028862 0.049830377 1.8363848e-38
-0.040997937 -0.13028862 0.049830377 1.780923e-38
-0.039311074 -0.13028862 0.049830377 1.9835374e-38
-0.037624214 -0.13028862 0.049830377 2.0846645e-38
-0.035937354 -0.13028862 0.049830377 2.2132353e-38
-0.034250494 -0.13028862 0.049830377 2.2591528e-38
-0.03256363 -0.13028862 0.049830377 2.2958867e-38
-0.030876769 -0.13028862 0.049830377 2.314074e-38
-0.029194981 -0.13084482 0.047901928 2.3507726e-38
-0.027504738 -0.13084482 0.047901928 2.3509527e-38
-0.025811825 -0.13172336 0.044855952 2.2591531e-38
-0.024100561 -0.1334431 0.038893342 1.9368298e-38
-0.022394525 -0.1334431 0.038893342 1.7708057e-38
-0.020657843 -0.13488342 0.033899605 1.7800253e-38
-0.018919064 -0.13576023 0.03085959 1.7523306e-38
-0.017198941 -0.13576023 0.03085959 1.7245637e-38
-0.01544505 -0.13661484 0.027896523 1.7521508e-38
-0.013680531 -0.13747464 0.024915516 1.7521864e-38
-0.011919737 -0.13806005 0.022885859 1.7705179e-38
-0.0099847913 -0.14153777 0.010828078 1.5953459e-38
-0.056515269 -0.13514914 0.038893342 1.2916399e-38
-0.054809231 -0.13514914 0.038893342 1.9096392e-38
-0.053021923 -0.13428138 0.041883767 1.8083694e-38
-0.051321134 -0.13428138 0.041883767 1.7992939e-38
-0.049549986 -0.13341893 0.044855952 1.9468765e-38
-0.047854401 -0.13341893 0.044855952 1.8917393e-38
-0.04615882 -0.13341893 0.044855952 1.8273107e-38
-0.044407159 -0.13253506 0.047901928 1.8550766e-38
-0.042684797 -0.13197549 0.049830377 1.7813556e-38
-0.040997937 -0.13197549 0.049830377 1.7535524e-38
-0.039271429 -0.13110064 0.05284518 1.8363843e-38
-0.037589855 -0.13110064 0.05284518 1.9652781e-38
-0.035908282 -0.13110064 0.05284518 2.1305834e-38
-0.034226704 -0.13110064 0.05284518 2.1948682e-38
-0.032545131 -0.13110064 0.05284518 2.2775202e-38
-0.030863555 -0.13110064 0.05284518 2.3050349e-38
-0.029189909 -0.13197549 0.049830377 2.3508809e-38
-0.027503047 -0.13197549 0.049830377 2.3234379e-38
-0.025816187 -0.13197549 0.049830377 2.2316024e-38
-0.024116242 -0.13341893 0.044855952 1.9369023e-38
-0.022407632 -0.13428138 0.041883767 1.734072e-38
-0.020657843 -0.13659821 0.033899605 1.7155605e-38
-0.018919064 -0.13748036 0.03085959 1.6693908e-38
-0.017198941 -0.13748036 0.03085959 1.6508798e-38
-0.015411075 -0.13920517 0.024915516 1.6969056e-38
-0.013653841 -0.13979416 0.022885859 1.7152726e-38
-0.011919737 -0.13979416 0.022885859 1.7337117e-38
-0.0099847913 -0.14329304 0.010828078 1.6137853e-38
-0.056515269 -0.13685517 0.038893342 1.3653964e-38
-0.054809231 -0.13685517 0.038893342 1.9004197e-38
-0.053021923 -0.1359822 0.041883767 1.7714911e-38
-0.051321134 -0.1359822 0.041883767 1.7439765e-38
-0.049549986 -0.13511451 0.044855952 1.89156e-38
-0.047854401 -0.13511451 0.044855952 1.8548616e-38
-0.04615882 -0.13511451 0.044855952 1.8641528e-38
-0.044407159 -0.13422529 0.047901928 1.8826275e-38
-0.042684797 -0.13366233 0.049830377 1.7629168e-38
-0.040997937 -0.13366233 0.049830377 1.8182339e-38
-0.039271429 -0.13278224 0.05284518 1.7812116e-38
-0.037589855 -0.13278224 0.05284518 1.8732275e-38
-0.035908282 -0.13278224 0.05284518 2.0020137e-38
-0.034226704 -0.13278224 0.05284518 2.1305834e-38
-0.032545131 -0.13278224 0.05284518 2.1948682e-38
-0.030863555 -0.13278224 0.05284518 2.2040518e-38
-0.02918198 -0.13278224 0.05284518 2.2038007e-38
-0.027500404 -0.13278224 0.05284518 2.1486276e-38
-0.02581883 -0.13278224 0.05284518 2.1028534e-38
-0.024116242 -0.13511451 0.044855952 1.8171921e-38
-0.022407632 -0.1359822 0.041883767 1.6880103e-38
-0.020657843 -0.13831301 0.033899605 1.6879741e-38
-0.018919064 -0.13920046 0.03085959 1.6602076e-38
-0.017170368 -0.14006548 0.027896523 1.6417324e-38
-0.01544505 -0.14006548 0.027896523 1.6693192e-38
-0.013653841 -0.14152823 0.022885859 1.6784665e-38
-0.011919737 -0.14152823 0.022885859 1.6783946e-38
-0.056578681 -0.13916816 0.03682667 1.3100788e-38
-0.054809231 -0.13856123 0.038893342 1.7990045e-38
-0.053021923 -0.13768299 0.041883767 1.8452473e-38
-0.051321134 -0.13768299 0.041883767 1.7716709e-38
-0.049549986 -0.13681011 0.044855952 1.8915958e-38
-0.047854401 -0.13681011 0.044855952 1.8917035e-38
-0.04615882 -0.13681011 0.044855952 1.9377288e-38
-0.044407159 -0.13591556 0.047901928 1.9193617e-38
-0.042684797 -0.1353492 0.049830377 1.7351149e-38
-0.040997937 -0.1353492 0.049830377 1.854969e-38
-0.039271429 -0.1344638 0.05284518 1.7535178e-38
-0.037589855 -0.1344638 0.05284518 1.7903241e-38
-0.035908282 -0.1344638 0.05284518 1.8731207e-38
-0.034226704 -0.1344638 0.05284518 1.9835748e-38
-0.032545131 -0.1344638 0.05284518 2.057115e-38
-0.030863555 -0.1344638 0.05284518 2.0477879e-38
-0.02918198 -0.1344638 0.05284518 1.9554861e-38
-0.027500404 -0.1344638 0.05284518 1.8724747e-38
-0.02581883 -0.1344638 0.05284518 1.8541069e-38
-0.024137255 -0.1344638 0.05284518 1.6605317e-38
-0.022407632 -0.13768299 0.041883767 1.6234734e-38
-0.020657843 -0.14002781 0.033899605 1.6695712e-38
-0.018919064 -0.14092059 0.03085959 1.6878664e-38
-0.017170368 -0.14179079 0.027896523 1.6417686e-38
-0.01544505 -0.14179079 0.027896523 1.6416605e-38
-0.056578681 -0.14087783 0.03682667 1.0427115e-38
-0.054809231 -0.14026727 0.038893342 1.9187506e-38
-0.053021923 -0.13938378 0.041883767 1.8360628e-38
-0.051321134 -0.13938378 0.041883767 1.7901451e-38
-0.049620338 -0.13938378 0.041883767 1.8085842e-38
-0.047854401 -0.13850568 0.044855952 1.89156e-38
-0.04615882 -0.13850568 0.044855952 1.9836466e-38
-0.044407159 -0.1376058 0.047901928 1.9928301e-38
-0.04271692 -0.1376058 0.047901928 1.9099988e-38
-0.040997937 -0.13703607 0.049830377 1.8270233e-38
-0.039311074 -0.13703607 0.049830377 1.8177682e-38
-0.037589855 -0.13614537 0.05284518 1.7808902e-38
-0.035908282 -0.13614537 0.05284518 1.8546823e-38
-0.034226704 -0.13614537 0.05284518 2.0203808e-38
-0.032545131 -0.13614537 0.05284518 1.9376212e-38
-0.030863555 -0.13614537 0.05284518 1.8178405e-38
-0.02918198 -0.13614537 0.05284518 1.8362793e-38
-0.027500404 -0.13614537 0.05284518 1.7439414e-38
-0.02581883 -0.13614537 0.05284518 1.6698601e-38
-0.024137255 -0.13614537 0.05284518 1.7066295e-38
-0.02235931 -0.14264072 0.03085959 1.6695715e-38
-0.020639187 -0.14264072 0.03085959 1.6234736e-38
-0.018919064 -0.14264072 0.03085959 1.6694273e-38
-0.056578681 -0.1425875 0.03682667 8.2140599e-39
-0.054869018 -0.1425875 0.03682667 1.6790054e-38
-0.053103194 -0.1419733 0.038893342 1.8637207e-38
-0.05139716 -0.1419733 0.038893342 1.817731e-38
-0.049620338 -0.14108457 0.041883767 1.8084398e-38
-0.047854401 -0.14020126 0.044855952 1.8545377e-38
-0.04615882 -0.14020126 0.044855952 1.9743195e-38
-0.044407159 -0.13929604 0.047901928 2.0387479e-38
-0.042684797 -0.13872291 0.049830377 1.9650642e-38
-0.040997937 -0.13872291 0.049830377 1.8452113e-38
-0.039271429 -0.13782693 0.05284518 1.8821253e-38
-0.037589855 -0.13782693 0.05284518 1.7162102e-38
-0.035908282 -0.13782693 0.05284518 1.6794764e-38
-0.034226704 -0.13782693 0.05284518 1.7441568e-38
-0.032545131 -0.13782693 0.05284518 1.716642e-38
-0.030863555 -0.13782693 0.05284518 1.5784583e-38
-0.02918198 -0.13782693 0.05284518 1.3572607e-38
-0.027500404 -0.13782693 0.05284518 1.228006e-38
-0.02581883 -0.13782693 0.05284518 1.5039799e-38
-0.054809231 -0.14367934 0.038893342 1.5497875e-38
-0.053103194 -0.14367934 0.038893342 1.7345022e-38
-0.051321134 -0.14278536 0.041883767 1.7715605e-38
-0.049620338 -0.14278536 0.041883767 1.8267342e-38
-0.047854401 -0.14189686 0.044855952 1.8728323e-38
-0.04615882 -0.14189686 0.044855952 2.0018343e-38
-0.044407159 -0.14098628 0.047901928 2.1213998e-38
-0.042684797 -0.14040978 0.049830377 2.0385685e-38
-0.040997937 -0.14040978 0.049830377 1.8542515e-38
-0.039271429 -0.13950853 0.05284518 1.9188236e-38
-0.037589855 -0.13950853 0.05284518 1.7714205e-38
-0.035908282 -0.13950853 0.05284518 1.7808551e-38
-0.034226704 -0.13950853 0.05284518 1.679585e-38
-0.032545131 -0.13950853 0.05284518 1.6337031e-38
-0.030863555 -0.13950853 0.05284518 1.5232128e-38
-0.02918198 -0.13950853 0.05284518 1.2283666e-38
-0.027500404 -0.13950853 0.05284518 1.3294931e-38
-0.025816187 -0.14040978 0.049830377 1.4671013e-38
-0.054809231 -0.14538537 0.038893342 1.3929107e-38
-0.053103194 -0.14538537 0.038893342 1.642126e-38
-0.051321134 -0.14448614 0.041883767 1.7897469e-38
-0.049620338 -0.14448614 0.041883767 1.9096015e-38
-0.047854401 -0.14359243 0.044855952 1.9187859e-38
-0.046097405 -0.14267652 0.047901928 1.9648487e-38
-0.044371657 -0.14209662 0.049830377 2.0662268e-38
-0.042684797 -0.14209662 0.049830377 2.0385326e-38
-0.040997937 -0.14209662 0.049830377 1.9095325e-38
-0.039311074 -0.14209662 0.049830377 1.7712764e-38
-0.037589855 -0.1411901 0.05284518 1.7068835e-38
-0.035908282 -0.1411901 0.05284518 1.7439057e-38
-0.034226704 -0.1411901 0.05284518 1.3753033e-38
-0.032545131 -0.1411901 0.05284518 1.126483e-38
-0.030863555 -0.1411901 0.05284518 9.883693e-39
-0.02918198 -0.1411901 0.05284518 8.3174435e-39
-0.027503047 -0.14209662 0.049830377 1.2739948e-38
-0.053021923 -0.14618696 0.041883767 1.3837619e-38
-0.051321134 -0.14618696 0.041883767 1.6420533e-38
-0.049549986 -0.14528801 0.044855952 1.8540681e-38
-0.047854401 -0.14528801 0.044855952 1.8265542e-38
-0.046097405 -0.14436676 0.047901928 1.7804572e-38
-0.044371657 -0.14378349 0.049830377 1.8266277e-38
-0.042684797 -0.14378349 0.049830377 1.8635428e-38
-0.040997937 -0.14378349 0.049830377 1.826737e-38
-0.039271429 -0.14287166 0.05284518 1.8359923e-38
-0.037589855 -0.14287166 0.05284518 1.7069193e-38
-0.035908282 -0.14287166 0.05284518 1.6424539e-38
-0.034226704 -0.14287166 0.05284518 1.2183538e-38
-0.032545131 -0.14287166 0.05284518 1.0247427e-38
-0.030863555 -0.14287166 0.05284518 1.0432172e-38
-0.02918198 -0.14287166 0.05284518 1.0524724e-38
-0.027500404 -0.14287166 0.05284518 1.5777711e-38
-0.02581883 -0.14287166 0.05284518 1.724924e-38
-0.052941151 -0.14698361 0.044855952 1.0423498e-38
-0.05124557 -0.14698361 0.044855952 1.392909e-38
-0.049549986 -0.14698361 0.044855952 1.7709836e-38
-0.047854401 -0.14698361 0.044855952 1.8633602e-38
-0.046097405 -0.14605699 0.047901928 1.8266629e-38
-0.044371657 -0.14547037 0.049830377 1.7991129e-38
-0.04263458 -0.14455326 0.05284518 1.7807826e-38
-0.040953007 -0.14455326 0.05284518 1.7347572e-38
-0.039271429 -0.14455326 0.05284518 1.7716357e-38
-0.037589855 -0.14455326 0.05284518 1.4305116e-38
-0.035879388 -0.14364187 0.055841148 1.2275369e-38
-0.034203067 -0.14364187 0.055841148 1.0430012e-38
-0.032545131 -0.14455326 0.05284518 1.1535272e-38
-0.030863555 -0.14455326 0.05284518 1.3931274e-38
-0.02918198 -0.14455326 0.05284518 1.4852861e-38
-0.027500404 -0.14455326 0.05284518 1.7893519e-38
-0.05124557 -0.14867918 0.044855952 1.1898984e-38
-0.049549986 -0.14867918 0.044855952 1.4758857e-38
-0.047854401 -0.14867918 0.044855952 1.6329068e-38
-0.046097405 -0.14774723 0.047901928 1.6700019e-38
-0.044371657 -0.14715721 0.049830377 1.642632e-38
-0.04263458 -0.14623483 0.05284518 1.6059346e-38
-0.040953007 -0.14623483 0.05284518 1.578312e-38
-0.039271429 -0.14623483 0.05284518 1.5967512e-38
-0.037589855 -0.14623483 0.05284518 1.255519e-38
-0.035879388 -0.1453182 0.055841148 1.0524002e-38
-0.034203067 -0.1453182 0.055841148 1.0890255e-38
-0.032545131 -0.14623483 0.05284518 1.3099344e-38
-0.030863555 -0.14623483 0.05284518 1.5770851e-38
-0.02918198 -0.14623483 0.05284518 1.7612955e-38
-0.027503047 -0.14715721 0.049830377 1.8349441e-38
-0.046097405 -0.14943747 0.047901928 1.0059412e-38
-0.044371657 -0.14884408 0.049830377 1.098389e-38
-0.04263458 -0.14791639 0.05284518 1.1999487e-38
