# .PCD v0.7 - Point Cloud Data file format
VERSION 0.7
FIELDS x y z rgb
SIZE 4 4 4 4
TYPE F F F F
COUNT 1 1 1 1
WIDTH 926
HEIGHT 1
VIEWPOINT 0 0 0 1 0 0 0
POINTS 926
DATA ascii
0.0016037701 -0.11846836 -0.0072537162 1.475824e-38
0.0035219518 -0.11846836 -0.0072537162 1.2638455e-38
0.0054401373 -0.11846836 -0.0072537162 1.4943335e-38
0.0073583191 -0.11846836 -0.0072537162 1.3561111e-38
0.0092765009 -0.11846836 -0.0072537162 1.2731342e-38
0.011194686 -0.11846836 -0.0072537162 1.3284878e-38
0.013112868 -0.11846836 -0.0072537162 1.3100138e-38
0.015169195 -0.11921866 -0.010343501 1.7156735e-38
0.017092798 -0.11921866 -0.010343501 1.5220297e-38
0.019206699 -0.12017711 -0.014290283 1.171726e-38
0.020939998 -0.11921866 -0.010343501 1.0887146e-38
0.0228636 -0.11921866 -0.010343501 1.1072253e-38
0.024787199 -0.11921866 -0.010343501 1.1257715e-38
0.026710801 -0.11921866 -0.010343501 1.5129897e-38
0.028634399 -0.11921866 -0.010343501 1.8814796e-38
0.030557998 -0.11921866 -0.010343501 2.2223471e-38
0.032481603 -0.11921866 -0.010343501 2.2775202e-38
0.034405202 -0.11921866 -0.010343501 2.3142544e-38
0.036581382 -0.12017711 -0.014290283 2.341805e-38
0.038773283 -0.12114246 -0.018265674 2.350988e-38
0.040710777 -0.12114246 -0.018265674 2.3140737e-38
0.042648271 -0.12114246 -0.018265674 2.3509527e-38
0.044585757 -0.12114246 -0.018265674 2.3509527e-38
0.046523251 -0.12114246 -0.018265674 1.8163276e-38
0.048460737 -0.12114246 -0.018265674 1.4936793e-38
0.050629389 -0.12187846 -0.021296451 1.3092881e-38
-0.023371324 -0.11940466 -0.0032393434 2.1944017e-38
-0.021493604 -0.11868732 -0.00030643717 1.9917874e-38
-0.019587602 -0.11868732 -0.00030643717 1.8814411e-38
-0.017681599 -0.11868732 -0.00030643717 2.0661192e-38
-0.015775599 -0.11868732 -0.00030643717 2.0294567e-38
-0.013869596 -0.11868732 -0.00030643717 1.854467e-38
-0.011963594 -0.11868732 -0.00030643717 1.4765401e-38
-0.01005759 -0.11868732 -0.00030643717 1.3843818e-38
-0.008151588 -0.11868732 -0.00030643717 1.2737122e-38
-0.0061710225 -0.11940466 -0.0032393434 1.4210821e-38
-0.0042598778 -0.11940466 -0.0032393434 1.4946943e-38
-0.0022325972 -0.12038656 -0.0072537162 1.5312128e-38
-0.00031441543 -0.12038656 -0.0072537162 1.6417387e-38
0.0016037701 -0.12038656 -0.0072537162 1.614116e-38
0.003384701 -0.11940466 -0.0032393434 1.4758222e-38
0.0052958457 -0.11940466 -0.0032393434 1.660249e-38
0.0072069904 -0.11940466 -0.0032393434 1.5588334e-38
0.0091181351 -0.11940466 -0.0032393434 1.5127712e-38
0.01102928 -0.11940466 -0.0032393434 1.5588334e-38
0.013112868 -0.12038656 -0.0072537162 1.5312114e-38
0.01503105 -0.12038656 -0.0072537162 1.7340406e-38
0.017092798 -0.12114228 -0.010343501 1.5681268e-38
0.019016396 -0.12114228 -0.010343501 1.3192017e-38
0.020939998 -0.12114228 -0.010343501 1.2639215e-38
0.0228636 -0.12114228 -0.010343501 1.2455188e-38
0.024787199 -0.12114228 -0.010343501 1.2087124e-38
0.026540153 -0.12038656 -0.0072537162 1.3930654e-38
0.028458335 -0.12038656 -0.0072537162 1.6510646e-38
0.030376516 -0.12038656 -0.0072537162 2.1671741e-38
0.032294698 -0.12038656 -0.0072537162 2.194653e-38
0.034212887 -0.12038656 -0.0072537162 2.2313872e-38
0.0363288 -0.12114228 -0.010343501 2.2497176e-38
0.038511902 -0.12210761 -0.014290283 2.350988e-38
0.040710777 -0.12307997 -0.018265674 2.3232933e-38
0.042648271 -0.12307997 -0.018265674 2.3324775e-38
0.044585757 -0.12307997 -0.018265674 2.3509527e-38
0.046523251 -0.12307997 -0.018265674 1.8992317e-38
0.048460737 -0.12307997 -0.018265674 1.5673998e-38
-0.025282469 -0.12131582 -0.0032393434 2.341805e-38
-0.023399606 -0.12059332 -0.00030643717 2.3050349e-38
-0.021493604 -0.12059332 -0.00030643717 2.2129112e-38
-0.019627495 -0.119846 0.0027272007 2.1394428e-38
-0.017726813 -0.119846 0.0027272007 2.1673176e-38
-0.015826128 -0.119846 0.0027272007 2.158134e-38
-0.013925445 -0.119846 0.0027272007 2.0019061e-38
-0.012024761 -0.119846 0.0027272007 1.5041976e-38
-0.010124077 -0.119846 0.0027272007 1.3658701e-38
-0.0082233949 -0.119846 0.0027272007 1.2737119e-38
-0.0062455861 -0.12059332 -0.00030643717 1.3935313e-38
-0.0042598778 -0.12131582 -0.0032393434 1.5131332e-38
-0.0023487331 -0.12131582 -0.0032393434 1.6141878e-38
-0.00043758843 -0.12131582 -0.0032393434 1.5771288e-38
0.0014735563 -0.12131582 -0.0032393434 1.6508851e-38
0.003384701 -0.12131582 -0.0032393434 1.5863482e-38
0.0052958457 -0.12131582 -0.0032393434 1.5863483e-38
0.0072069904 -0.12131582 -0.0032393434 1.4848975e-38
0.0091181351 -0.12131582 -0.0032393434 1.5863133e-38
0.01102928 -0.12131582 -0.0032393434 1.5862776e-38
0.013112868 -0.12230472 -0.0072537162 1.6047889e-38
0.01503105 -0.12230472 -0.0072537162 1.5126658e-38
0.016949236 -0.12230472 -0.0072537162 1.512774e-38
0.019016396 -0.12306587 -0.010343501 1.4113957e-38
0.020939998 -0.12306587 -0.010343501 1.2271134e-38
0.0228636 -0.12306587 -0.010343501 1.1165157e-38
0.024621967 -0.12230472 -0.0072537162 1.1441755e-38
0.026540153 -0.12230472 -0.0072537162 1.1533575e-38
0.028458335 -0.12230472 -0.0072537162 1.4390874e-38
0.030376516 -0.12230472 -0.0072537162 2.1948682e-38
0.032294698 -0.12230472 -0.0072537162 2.2316024e-38
0.034212887 -0.12230472 -0.0072537162 2.2775202e-38
0.036131069 -0.12230472 -0.0072537162 2.2958154e-38
0.038252406 -0.12306587 -0.010343501 2.350988e-38
0.040442422 -0.12403814 -0.014290283 2.3509879e-38
0.042648271 -0.12501745 -0.018265674 2.3509883e-38
0.044800974 -0.12576406 -0.021296451 2.1204646e-38
0.04674378 -0.12576406 -0.021296451 1.7977807e-38
-0.025282469 -0.12322696 -0.0032393434 2.2957428e-38
-0.023399606 -0.1224993 -0.00030643717 2.2865229e-38
-0.021528177 -0.12174667 0.0027272007 2.3142535e-38
-0.019627495 -0.12174667 0.0027272007 2.2591524e-38
-0.017726813 -0.12174667 0.0027272007 2.1211477e-38
-0.015826128 -0.12174667 0.0027272007 2.102961e-38
-0.013925445 -0.12174667 0.0027272007 2.0202014e-38
-0.012024761 -0.12174667 0.0027272007 1.5686267e-38
-0.010124077 -0.12174667 0.0027272007 1.4765052e-38
-0.0082233949 -0.12174667 0.0027272007 1.4212615e-38
-0.0063227108 -0.12174667 0.0027272007 1.4396648e-38
-0.0043395841 -0.1224993 -0.00030643717 1.5132049e-38
-0.0024335803 -0.1224993 -0.00030643717 1.5219556e-38
-0.00043758843 -0.12322696 -0.0032393434 1.4571654e-38
0.0014735563 -0.12322696 -0.0032393434 1.5862392e-38
0.003384701 -0.12322696 -0.0032393434 1.6046428e-38
0.0051904274 -0.1224993 -0.00030643717 1.6230471e-38
0.0070964312 -0.1224993 -0.00030643717 1.503122e-38
0.0090024313 -0.1224993 -0.00030643717 1.4477697e-38
0.010908435 -0.1224993 -0.00030643717 1.1896583e-38
0.012940424 -0.12322696 -0.0032393434 1.1252292e-38
0.014851569 -0.12322696 -0.0032393434 1.0607996e-38
0.016949236 -0.12422292 -0.0072537162 1.3191263e-38
0.018867418 -0.12422292 -0.0072537162 1.3469292e-38
0.0207856 -0.12422292 -0.0072537162 1.0980377e-38
0.022703785 -0.12422292 -0.0072537162 8.3070781e-39
0.024621967 -0.12422292 -0.0072537162 8.398936e-39
0.026540153 -0.12422292 -0.0072537162 7.2003802e-39
0.028229583 -0.12322696 -0.0032393434 8.675471e-39
0.030140728 -0.12322696 -0.0032393434 1.8908425e-38
0.032051869 -0.12322696 -0.0032393434 2.1856129e-38
0.033963017 -0.12322696 -0.0032393434 2.1024942e-38
0.035874158 -0.12322696 -0.0032393434 1.9547278e-38
0.038049251 -0.12422292 -0.0072537162 1.7610079e-38
0.040176004 -0.12498946 -0.010343501 1.7240216e-38
0.042648271 -0.12695493 -0.018265674 1.7424611e-38
0.044585757 -0.12695493 -0.018265674 1.7332429e-38
-0.025305608 -0.12440531 -0.00030643717 2.3234379e-38
-0.023428861 -0.12364738 0.0027272007 2.3418045e-38
-0.021528177 -0.12364738 0.0027272007 2.3418043e-38
-0.019627495 -0.12364738 0.0027272007 2.1577012e-38
-0.017785553 -0.12266256 0.0066687367 2.1302953e-38
-0.015891779 -0.12266256 0.0066687367 2.1028534e-38
-0.013998008 -0.12266256 0.0066687367 2.0753745e-38
-0.012104237 -0.12266256 0.0066687367 1.5685199e-38
-0.010210463 -0.12266256 0.0066687367 1.3934942e-38
-0.008316691 -0.12266256 0.0066687367 1.2829334e-38
-0.0063227108 -0.12364738 0.0027272007 1.227582e-38
-0.0043395841 -0.12440531 -0.00030643717 1.3379996e-38
-0.0024335803 -0.12440531 -0.00030643717 1.6233705e-38
-0.00052758027 -0.12440531 -0.00030643717 1.8074721e-38
0.0014735563 -0.12513812 -0.0032393434 1.8627895e-38
0.003384701 -0.12513812 -0.0032393434 1.6507044e-38
0.0051904274 -0.12440531 -0.00030643717 1.6414146e-38
0.0070964312 -0.12440531 -0.00030643717 1.5306739e-38
0.0090024313 -0.12440531 -0.00030643717 1.4199692e-38
0.010908435 -0.12440531 -0.00030643717 1.198736e-38
0.012814435 -0.12440531 -0.00030643717 1.0236715e-38
0.014851569 -0.12513812 -0.0032393434 1.0422531e-38
0.016762715 -0.12513812 -0.0032393434 1.2637725e-38
0.01867386 -0.12513812 -0.0032393434 1.2178179e-38
0.020585004 -0.12513812 -0.0032393434 1.0980363e-38
0.022496149 -0.12513812 -0.0032393434 8.0308373e-39
0.024621967 -0.12614109 -0.0072537162 7.2929401e-39
0.026318438 -0.12513812 -0.0032393434 6.0018342e-39
0.028229583 -0.12513812 -0.0032393434 8.9520593e-39
0.030140728 -0.12513812 -0.0032393434 1.8724395e-38
0.032051869 -0.12513812 -0.0032393434 2.2132353e-38
0.033963017 -0.12513812 -0.0032393434 2.2499695e-38
0.035874158 -0.12513812 -0.0032393434 2.1115683e-38
0.038049251 -0.12614109 -0.0072537162 1.5858362e-38
0.039967433 -0.12614109 -0.0072537162 1.4935325e-38
0.042099603 -0.12691309 -0.010343501 1.5304112e-38
0.044023208 -0.12691309 -0.010343501 1.5396321e-38
0.045721985 -0.12614109 -0.0072537162 1.4566569e-38
-0.02913091 -0.12554805 0.0027272007 1.9550531e-38
-0.027230227 -0.12554805 0.0027272007 2.2130918e-38
-0.025360644 -0.12455635 0.0066687367 2.3142544e-38
-0.02346687 -0.12455635 0.0066687367 2.3234379e-38
-0.021573098 -0.12455635 0.0066687367 2.2497176e-38
-0.019679327 -0.12455635 0.0066687367 1.8534207e-38
-0.017785553 -0.12455635 0.0066687367 1.7982842e-38
-0.015891779 -0.12455635 0.0066687367 1.8537832e-38
-0.013998008 -0.12455635 0.0066687367 1.9093172e-38
-0.012104237 -0.12455635 0.0066687367 1.4024966e-38
-0.010210463 -0.12455635 0.0066687367 1.1721897e-38
-0.008316691 -0.12455635 0.0066687367 1.0800679e-38
-0.0064229192 -0.12455635 0.0066687367 1.1170196e-38
-0.0044220285 -0.12554805 0.0027272007 1.3749494e-38
-0.0024335803 -0.12631132 -0.00030643717 1.7062738e-38
-0.00052758027 -0.12631132 -0.00030643717 2.2499695e-38
0.0013784235 -0.12631132 -0.00030643717 2.2314231e-38
0.0032844236 -0.12631132 -0.00030643717 1.5491448e-38
0.0051904274 -0.12631132 -0.00030643717 1.3001466e-38
0.0070964312 -0.12631132 -0.00030643717 1.1986256e-38
0.0090024313 -0.12631132 -0.00030643717 1.3921663e-38
0.010908435 -0.12631132 -0.00030643717 1.6042512e-38
0.012814435 -0.12631132 -0.00030643717 1.4200045e-38
0.014720439 -0.12631132 -0.00030643717 1.3740495e-38
0.01662644 -0.12631132 -0.00030643717 1.2360061e-38
0.018532444 -0.12631132 -0.00030643717 9.3193957e-39
0.020438448 -0.12631132 -0.00030643717 9.8740142e-39
0.022496149 -0.12704925 -0.0032393434 8.3077815e-39
0.024407294 -0.12704925 -0.0032393434 7.6620744e-39
0.026318438 -0.12704925 -0.0032393434 7.0167022e-39
0.028229583 -0.12704925 -0.0032393434 9.0446179e-39
0.030140728 -0.12704925 -0.0032393434 1.7248928e-38
0.032051869 -0.12704925 -0.0032393434 2.1118934e-38
0.033963017 -0.12704925 -0.0032393434 2.2499695e-38
0.035874158 -0.12704925 -0.0032393434 2.2774843e-38
0.038049251 -0.12805928 -0.0072537162 1.5858014e-38
0.039967433 -0.12805928 -0.0072537162 1.4474717e-38
0.041885614 -0.12805928 -0.0072537162 1.5119367e-38
0.043803796 -0.12805928 -0.0072537162 1.4289971e-38
0.045721985 -0.12805928 -0.0072537162 1.3737163e-38
0.047870405 -0.12883668 -0.010343501 1.2815934e-38
0.049794 -0.12883668 -0.010343501 1.1248974e-38
-0.067941286 -0.11882581 0.036761928 1.8252944e-38
-0.066100277 -0.11882581 0.036761928 1.9819914e-38
-0.029148187 -0.12645011 0.0066687367 1.5862352e-38
-0.027272794 -0.12569134 0.0096636321 2.1853618e-38
-0.025384273 -0.12569134 0.0096636321 2.2867037e-38
-0.023495752 -0.12569134 0.0096636321 2.2958873e-38
-0.021573098 -0.12645011 0.0066687367 2.2958873e-38
-0.019679327 -0.12645011 0.0066687367 1.7335322e-38
-0.017785553 -0.12645011 0.0066687367 1.567761e-38
-0.015891779 -0.12645011 0.0066687367 1.7246747e-38
-0.013998008 -0.12645011 0.0066687367 1.752551e-38
-0.012104237 -0.12645011 0.0066687367 1.4392316e-38
-0.010210463 -0.12645011 0.0066687367 1.273533e-38
-0.008316691 -0.12645011 0.0066687367 1.0616282e-38
-0.0064229192 -0.12645011 0.0066687367 1.1170549e-38
-0.0044220285 -0.12744872 0.0027272007 1.2459107e-38
-0.0025213445 -0.12744872 0.0027272007 1.7616254e-38
-0.00052758027 -0.12821732 -0.00030643717 2.2775202e-38
0.0013784235 -0.12821732 -0.00030643717 2.286632e-38
0.0032844236 -0.12821732 -0.00030643717 1.484499e-38
0.0051904274 -0.12821732 -0.00030643717 1.3829417e-38
0.0070964312 -0.12821732 -0.00030643717 1.1247238e-38
0.0090024313 -0.12821732 -0.00030643717 1.2260682e-38
0.010908435 -0.12821732 -0.00030643717 1.4658133e-38
0.012814435 -0.12821732 -0.00030643717 1.4198952e-38
0.014720439 -0.12821732 -0.00030643717 1.4200749e-38
0.01662644 -0.12821732 -0.00030643717 1.2819247e-38
0.018532444 -0.12821732 -0.00030643717 1.0701265e-38
0.020438448 -0.12821732 -0.00030643717 9.689274e-39
0.022496149 -0.12896039 -0.0032393434 8.4925371e-39
0.024407294 -0.12896039 -0.0032393434 7.2943611e-39
0.026318438 -0.12896039 -0.0032393434 6.9255785e-39
0.028229583 -0.12896039 -0.0032393434 9.0442676e-39
0.030140728 -0.12896039 -0.0032393434 1.5957481e-38
0.032051869 -0.12896039 -0.0032393434 2.0934187e-38
0.033963017 -0.12896039 -0.0032393434 2.213056e-38
0.035874158 -0.12896039 -0.0032393434 2.2681214e-38
0.038049251 -0.12997745 -0.0072537162 1.9176353e-38
0.039967433 -0.12997745 -0.0072537162 1.4289622e-38
0.041885614 -0.12997745 -0.0072537162 1.438145e-38
0.043803796 -0.12997745 -0.0072537162 1.4105934e-38
0.045721985 -0.12997745 -0.0072537162 1.3093221e-38
0.047640167 -0.12997745 -0.0072537162 1.2079437e-38
0.049558353 -0.12997745 -0.0072537162 1.1526631e-38
0.051717605 -0.13076027 -0.010343501 1.1895065e-38
0.053641211 -0.13076027 -0.010343501 1.2356398e-38
-0.071876094 -0.12246101 0.02972894 1.7885955e-38
-0.070022754 -0.12246101 0.02972894 1.7424261e-38
-0.067941286 -0.12066682 0.036761928 1.7791966e-38
-0.066010095 -0.11991702 0.039701033 1.8805043e-38
-0.064174242 -0.11991702 0.039701033 1.9543327e-38
-0.062418256 -0.12066682 0.036761928 1.8717155e-38
-0.029161315 -0.12757985 0.0096636321 1.3464551e-38
-0.027272794 -0.12757985 0.0096636321 1.7613352e-38
-0.025384273 -0.12757985 0.0096636321 1.7797022e-38
-0.023495752 -0.12757985 0.0096636321 1.7704107e-38
-0.021607229 -0.12757985 0.0096636321 1.8533869e-38
-0.019679327 -0.1283439 0.0066687367 1.4939684e-38
-0.017785553 -0.1283439 0.0066687367 1.5400674e-38
-0.015891779 -0.1283439 0.0066687367 1.7062004e-38
-0.013998008 -0.1283439 0.0066687367 1.7064536e-38
-0.012104237 -0.1283439 0.0066687367 1.4023536e-38
-0.010210463 -0.1283439 0.0066687367 1.273533e-38
-0.008316691 -0.1283439 0.0066687367 9.9716315e-39
-0.0064229192 -0.1283439 0.0066687367 9.4199052e-39
-0.0044220285 -0.12934943 0.0027272007 1.0339684e-38
-0.0025213445 -0.12934943 0.0027272007 1.6049646e-38
-0.00062066037 -0.12934943 0.0027272007 2.2223112e-38
0.0013784235 -0.13012333 -0.00030643717 2.286632e-38
0.0032844236 -0.13012333 -0.00030643717 1.4937186e-38
0.0051904274 -0.13012333 -0.00030643717 1.3460632e-38
0.0070964312 -0.13012333 -0.00030643717 1.0878805e-38
0.0090024313 -0.13012333 -0.00030643717 1.1523825e-38
0.010908435 -0.13012333 -0.00030643717 1.3090796e-38
0.012814435 -0.13012333 -0.00030643717 1.2999682e-38
0.014720439 -0.13012333 -0.00030643717 1.2171363e-38
0.01662644 -0.13012333 -0.00030643717 1.0052306e-38
0.018532444 -0.13012333 -0.00030643717 7.9343229e-39
0.020438448 -0.13012333 -0.00030643717 7.1996403e-39
0.022496149 -0.13087155 -0.0032393434 7.1096055e-39
0.024407294 -0.13087155 -0.0032393434 6.7411873e-39
0.026318438 -0.13087155 -0.0032393434 6.5567946e-39
0.028229583 -0.13087155 -0.0032393434 7.016691e-39
0.030140728 -0.13087155 -0.0032393434 1.3560762e-38
0.032051869 -0.13087155 -0.0032393434 2.0289545e-38
0.033963017 -0.13087155 -0.0032393434 2.2499695e-38
0.035874158 -0.13087155 -0.0032393434 2.2865961e-38
0.037785307 -0.13087155 -0.0032393434 2.1205028e-38
0.039696448 -0.13087155 -0.0032393434 1.7423566e-38
0.041607596 -0.13087155 -0.0032393434 1.4013035e-38
0.043518737 -0.13087155 -0.0032393434 1.4014455e-38
0.045429885 -0.13087155 -0.0032393434 1.318577e-38
0.047640167 -0.13189565 -0.0072537162 1.2080511e-38
0.049558353 -0.13189565 -0.0072537162 1.1619903e-38
0.051717605 -0.13268389 -0.010343501 1.1895782e-38
0.053641211 -0.13268389 -0.010343501 1.2448956e-38
-0.071876094 -0.12431435 0.02972894 1.7978151e-38
-0.069681808 -0.12175287 0.039701033 1.7977435e-38
-0.067845955 -0.12175287 0.039701033 1.8345139e-38
-0.066010095 -0.12175287 0.039701033 1.8989434e-38
-0.064174242 -0.12175287 0.039701033 1.8991232e-38
-0.062418256 -0.12250783 0.036761928 1.8717155e-38
-0.029178873 -0.12843956 0.013668945 1.2911378e-38
-0.027297374 -0.12843956 0.013668945 1.5585048e-38
-0.025415875 -0.12843956 0.013668945 1.5860556e-38
-0.023534376 -0.12843956 0.013668945 1.576836e-38
-0.021607229 -0.1294684 0.0096636321 1.6782515e-38
-0.019718708 -0.1294684 0.0096636321 1.5124439e-38
-0.017830186 -0.1294684 0.0096636321 1.4848579e-38
-0.015941665 -0.1294684 0.0096636321 1.6509551e-38
-0.013998008 -0.13023765 0.0066687367 1.6050744e-38
-0.012104237 -0.13023765 0.0066687367 1.2918268e-38
-0.010210463 -0.13023765 0.0066687367 1.2551657e-38
-0.008316691 -0.13023765 0.0066687367 9.7872402e-39
-0.0064229192 -0.13023765 0.0066687367 8.6823402e-39
-0.0044220285 -0.1312501 0.0027272007 9.6024818e-39
-0.0025213445 -0.1312501 0.0027272007 1.5312449e-38
-0.00062066037 -0.1312501 0.0027272007 2.1578829e-38
0.00128002 -0.1312501 0.0027272007 2.2037648e-38
0.0031807041 -0.1312501 0.0027272007 1.4661688e-38
0.0050813882 -0.1312501 0.0027272007 1.3092934e-38
0.0069820723 -0.1312501 0.0027272007 1.0971364e-38
0.0088827563 -0.1312501 0.0027272007 1.1616382e-38
0.010783437 -0.1312501 0.0027272007 1.2261754e-38
0.012684121 -0.1312501 0.0027272007 1.1708943e-38
0.014584805 -0.1312501 0.0027272007 1.088098e-38
0.01648549 -0.1312501 0.0027272007 9.1307052e-39
0.018532444 -0.13202934 -0.00030643717 7.5655403e-39
0.020438448 -0.13202934 -0.00030643717 7.1985613e-39
0.022496149 -0.13278268 -0.0032393434 7.1085307e-39
0.024407294 -0.13278268 -0.0032393434 6.1869387e-39
0.026318438 -0.13278268 -0.0032393434 4.8969188e-39
0.028229583 -0.13278268 -0.0032393434 6.1880135e-39
0.030140728 -0.13278268 -0.0032393434 1.1350234e-38
0.032051869 -0.13278268 -0.0032393434 1.9185008e-38
0.033963017 -0.13278268 -0.0032393434 2.2132353e-38
0.035874158 -0.13278268 -0.0032393434 2.2038007e-38
0.037785307 -0.13278268 -0.0032393434 2.240499e-38
0.039696448 -0.13278268 -0.0032393434 2.0098681e-38
0.041607596 -0.13278268 -0.0032393434 1.373789e-38
0.043518737 -0.13278268 -0.0032393434 1.4015178e-38
0.045429885 -0.13278268 -0.0032393434 1.3554913e-38
0.047341026 -0.13278268 -0.0032393434 1.2818076e-38
0.049252179 -0.13278268 -0.0032393434 1.2357465e-38
0.051163312 -0.13278268 -0.0032393434 1.2448953e-38
0.053394716 -0.13381381 -0.0072537162 1.3002127e-38
0.055564802 -0.13460748 -0.010343501 1.3740034e-38
-0.071876094 -0.12616767 0.02972894 1.7517533e-38
-0.069681808 -0.12358873 0.039701033 1.806999e-38
-0.067845955 -0.12358873 0.039701033 1.8806838e-38
-0.066100277 -0.12434883 0.036761928 1.926674e-38
-0.064259268 -0.12434883 0.036761928 1.9175623e-38
-0.062418256 -0.12434883 0.036761928 1.8532764e-38
-0.06068033 -0.1253974 0.032707382 1.7612602e-38
-0.029178873 -0.13032107 0.013668945 1.1712837e-38
-0.027316209 -0.12952723 0.016738465 1.3556747e-38
-0.025440093 -0.12952723 0.016738465 1.5399581e-38
-0.023563977 -0.12952723 0.016738465 1.5861638e-38
-0.021652877 -0.13032107 0.013668945 1.5861641e-38
-0.019718708 -0.13135691 0.0096636321 1.4664183e-38
-0.017830186 -0.13135691 0.0096636321 1.3651118e-38
-0.015941665 -0.13135691 0.0096636321 1.5311729e-38
-0.014053144 -0.13135691 0.0096636321 1.4484501e-38
-0.012104237 -0.13213144 0.0066687367 1.1720085e-38
-0.010124077 -0.13315077 0.0027272007 1.1722617e-38
-0.008316691 -0.13213144 0.0066687367 9.4195367e-39
-0.0064229192 -0.13213144 0.0066687367 8.6830605e-39
-0.0044220285 -0.13315077 0.0027272007 1.0340769e-38
-0.0025213445 -0.13315077 0.0027272007 1.4114639e-38
-0.00062066037 -0.13315077 0.0027272007 1.8444939e-38
0.00128002 -0.13315077 0.0027272007 1.7429717e-38
0.0031807041 -0.13315077 0.0027272007 1.2265692e-38
0.0050813882 -0.13315077 0.0027272007 1.1711087e-38
0.0069820723 -0.13315077 0.0027272007 1.0235244e-38
0.0087272627 -0.13213144 0.0066687367 1.106393e-38
0.010621033 -0.13213144 0.0066687367 1.1340516e-38
0.012684121 -0.13315077 0.0027272007 1.0695867e-38
0.014584805 -0.13315077 0.0027272007 1.0143415e-38
0.01648549 -0.13315077 0.0027272007 9.3150937e-39
0.01838617 -0.13315077 0.0027272007 8.671169e-39
0.020438448 -0.13393532 -0.00030643717 8.4885812e-39
0.022344448 -0.13393532 -0.00030643717 8.3978304e-39
0.024407294 -0.13469382 -0.0032393434 6.7397524e-39
0.026318438 -0.13469382 -0.0032393434 4.251555e-39
0.028229583 -0.13469382 -0.0032393434 5.6359285e-39
0.030140728 -0.13469382 -0.0032393434 9.969828e-39
0.032051869 -0.13469382 -0.0032393434 1.6329856e-38
0.033963017 -0.13469382 -0.0032393434 1.9738532e-38
0.036131069 -0.13573201 -0.0072537162 1.9827497e-38
0.038049251 -0.13573201 -0.0072537162 2.0747287e-38
0.039696448 -0.13469382 -0.0032393434 1.9823539e-38
0.041607596 -0.13469382 -0.0032393434 1.4475818e-38
0.043518737 -0.13469382 -0.0032393434 1.401662e-38
0.045429885 -0.13469382 -0.0032393434 1.3924774e-38
0.047341026 -0.13469382 -0.0032393434 1.3740749e-38
0.049252179 -0.13469382 -0.0032393434 1.3556006e-38
0.051163312 -0.13469382 -0.0032393434 1.3555657e-38
0.053394716 -0.13573201 -0.0072537162 1.3923718e-38
0.055564802 -0.13653107 -0.010343501 1.456907e-38
-0.071983755 -0.12880091 0.026733568 1.6873242e-38
-0.069782294 -0.12618984 0.036761928 1.7794122e-38
-0.067941286 -0.12618984 0.036761928 1.8623166e-38
-0.066100277 -0.12618984 0.036761928 1.9083428e-38
-0.064259268 -0.12618984 0.036761928 1.8899755e-38
-0.062528454 -0.12724553 0.032707382 1.8901909e-38
-0.06068033 -0.12724553 0.032707382 1.835017e-38
-0.029205211 -0.13063805 0.019677809 1.0791244e-38
-0.027334247 -0.13063805 0.019677809 1.1989784e-38
-0.025463283 -0.13063805 0.019677809 1.4478706e-38
-0.023592321 -0.13063805 0.019677809 1.5769445e-38
-0.02168786 -0.13140334 0.016738465 1.4755656e-38
-0.019771378 -0.13220255 0.013668945 1.3742947e-38
-0.017830186 -0.13324542 0.0096636321 1.2453299e-38
-0.015941665 -0.13324542 0.0096636321 1.3929881e-38
-0.014053144 -0.13324542 0.0096636321 1.393169e-38
-0.012104237 -0.1340252 0.0066687367 1.1444218e-38
-0.010124077 -0.13505147 0.0027272007 1.1170163e-38
-0.008316691 -0.1340252 0.0066687367 8.7748861e-39
-0.0064229192 -0.1340252 0.0066687367 8.4071924e-39
-0.0044220285 -0.13505147 0.0027272007 9.8805134e-39
-0.0025213445 -0.13505147 0.0027272007 1.1258747e-38
-0.00062066037 -0.13505147 0.0027272007 1.291538e-38
0.0011521718 -0.1340252 0.0066687367 1.0700891e-38
0.0030459454 -0.1340252 0.0066687367 8.8562623e-39
0.0050813882 -0.13505147 0.0027272007 1.0144852e-38
0.0069820723 -0.13505147 0.0027272007 9.2214589e-39
0.0087272627 -0.1340252 0.0066687367 9.5895226e-39
0.010621033 -0.1340252 0.0066687367 9.3129329e-39
0.012684121 -0.13505147 0.0027272007 9.9583023e-39
0.014584805 -0.13505147 0.0027272007 9.4058474e-39
0.01648549 -0.13505147 0.0027272007 9.3143748e-39
0.01838617 -0.13505147 0.0027272007 8.9477531e-39
0.020286854 -0.13505147 0.0027272007 8.8570036e-39
0.022344448 -0.13584132 -0.00030643717 9.5030989e-39
0.024407294 -0.13660498 -0.0032393434 8.305283e-39
0.026318438 -0.13660498 -0.0032393434 5.0809611e-39
0.028229583 -0.13660498 -0.0032393434 4.0711322e-39
0.030140728 -0.13660498 -0.0032393434 8.5894229e-39
0.032294698 -0.13765021 -0.0072537162 1.2736396e-38
0.034212887 -0.13765021 -0.0072537162 1.586923e-38
0.036131069 -0.13765021 -0.0072537162 1.7156362e-38
0.038049251 -0.13765021 -0.0072537162 1.706164e-38
0.039967433 -0.13765021 -0.0072537162 1.6875082e-38
0.041607596 -0.13660498 -0.0032393434 1.466237e-38
0.043518737 -0.13660498 -0.0032393434 1.4109534e-38
0.045429885 -0.13660498 -0.0032393434 1.4294276e-38
0.047341026 -0.13660498 -0.0032393434 1.4386837e-38
0.049252179 -0.13660498 -0.0032393434 1.4570514e-38
0.051163312 -0.13660498 -0.0032393434 1.4569806e-38
0.053394716 -0.13765021 -0.0072537162 1.466164e-38
0.055312898 -0.13765021 -0.0072537162 1.5121878e-38
0.057488408 -0.13845469 -0.010343501 1.4939282e-38
-0.071876094 -0.12987436 0.02972894 1.6966157e-38
-0.069782294 -0.12803085 0.036761928 1.7979593e-38
-0.067941286 -0.12803085 0.036761928 1.9084863e-38
-0.066224687 -0.12909363 0.032707382 1.963732e-38
-0.06437657 -0.12909363 0.032707382 1.9453289e-38
-0.062528454 -0.12909363 0.032707382 1.9178496e-38
-0.06068033 -0.12909363 0.032707382 1.8073583e-38
-0.058973614 -0.13065951 0.026733568 1.7243467e-38
-0.057115022 -0.13065951 0.026733568 1.7059075e-38
-0.055256426 -0.13065951 0.026733568 1.7059796e-38
-0.029205211 -0.13250901 0.019677809 1.2450765e-38
-0.027334247 -0.13250901 0.019677809 1.2819548e-38
-0.025463283 -0.13250901 0.019677809 1.4110287e-38
-0.023592321 -0.13250901 0.019677809 1.5401025e-38
-0.02168786 -0.13327946 0.016738465 1.4479792e-38
-0.019771378 -0.13408406 0.013668945 1.4204289e-38
-0.01788988 -0.13408406 0.013668945 1.2545857e-38
-0.016008381 -0.13408406 0.013668945 1.3377427e-38
-0.014053144 -0.13513394 0.0096636321 1.4209357e-38
-0.012104237 -0.13591899 0.0066687367 1.2366895e-38
-0.010210463 -0.13591899 0.0066687367 1.1170524e-38
-0.008316691 -0.13591899 0.0066687367 8.4061022e-39
-0.0064229192 -0.13591899 0.0066687367 7.7625391e-39
-0.0045291455 -0.13591899 0.0066687367 8.0380442e-39
-0.0025213445 -0.13695215 0.0027272007 9.6006783e-39
-0.00062066037 -0.13695215 0.0027272007 9.8743785e-39
0.0011521718 -0.13591899 0.0066687367 7.1989102e-39
0.0030459454 -0.13591899 0.0066687367 8.1197903e-39
0.0049397154 -0.13591899 0.0066687367 1.0699473e-38
0.0068334891 -0.13591899 0.0066687367 9.9604659e-39
0.0087272627 -0.13591899 0.0066687367 9.8675514e-39
0.010621033 -0.13591899 0.0066687367 8.8526736e-39
0.012684121 -0.13695215 0.0027272007 9.6820714e-39
0.014584805 -0.13695215 0.0027272007 9.6824315e-39
0.01648549 -0.13695215 0.0027272007 1.0697665e-38
0.01838617 -0.13695215 0.0027272007 1.0882782e-38
0.020286854 -0.13695215 0.0027272007 1.0146663e-38
0.022344448 -0.13774733 -0.00030643717 1.0055555e-38
0.024250451 -0.13774733 -0.00030643717 8.5807937e-39
0.026318438 -0.13851611 -0.0032393434 4.4352358e-39
0.028229583 -0.13851611 -0.0032393434 3.6116002e-39
0.030376516 -0.13956837 -0.0072537162 8.2231655e-39
0.032294698 -0.13956837 -0.0072537162 1.0434392e-38
0.034212887 -0.13956837 -0.0072537162 1.3473949e-38
0.036131069 -0.13956837 -0.0072537162 1.5038027e-38
0.038049251 -0.13956837 -0.0072537162 1.3652205e-38
0.039967433 -0.13956837 -0.0072537162 1.3926623e-38
0.041885614 -0.13956837 -0.0072537162 1.4109918e-38
0.043518737 -0.13851611 -0.0032393434 1.4018779e-38
0.045429885 -0.13851611 -0.0032393434 1.438719e-38
0.047341026 -0.13851611 -0.0032393434 1.4663421e-38
0.049252179 -0.13851611 -0.0032393434 1.5123686e-38
0.051163312 -0.13851611 -0.0032393434 1.530701e-38
0.053394716 -0.13956837 -0.0072537162 1.5582871e-38
0.055312898 -0.13956837 -0.0072537162 1.5766166e-38
0.057488408 -0.14037828 -0.010343501 1.539918e-38
-0.071876094 -0.13172771 0.02972894 1.7334939e-38
-0.070022754 -0.13172771 0.02972894 1.8163984e-38
-0.068072803 -0.13094176 0.032707382 1.9177058e-38
-0.066224687 -0.13094176 0.032707382 1.9545485e-38
-0.064462736 -0.13172771 0.02972894 1.9453289e-38
-0.062609397 -0.13172771 0.02972894 1.8072148e-38
-0.060756054 -0.13172771 0.02972894 1.7335662e-38
-0.058973614 -0.1325181 0.026733568 1.6966881e-38
-0.057115022 -0.1325181 0.026733568 1.7243468e-38
-0.055256426 -0.1325181 0.026733568 1.7151635e-38
-0.053397834 -0.1325181 0.026733568 1.6598462e-38
-0.051589418 -0.13331302 0.023721149 1.6229682e-38
-0.049725544 -0.13331302 0.023721149 1.6137486e-38
-0.047861673 -0.13331302 0.023721149 1.6045293e-38
-0.040467866 -0.13596557 0.013668945 1.5123346e-38
-0.038586367 -0.13596557 0.013668945 1.5676519e-38
-0.036715399 -0.13702248 0.0096636321 1.6045305e-38
-0.029205211 -0.13437997 0.019677809 1.3742227e-38
-0.027334247 -0.13437997 0.019677809 1.3281249e-38
-0.025463283 -0.13437997 0.019677809 1.3189053e-38
-0.023592321 -0.13437997 0.019677809 1.4479794e-38
-0.021652877 -0.13596557 0.013668945 1.4019178e-38
-0.019771378 -0.13596557 0.013668945 1.3744036e-38
-0.01788988 -0.13596557 0.013668945 1.2915363e-38
-0.016008381 -0.13596557 0.013668945 1.254839e-38
-0.014053144 -0.13702248 0.0096636321 1.3840937e-38
-0.012104237 -0.13781275 0.0066687367 1.2552008e-38
-0.010210463 -0.13781275 0.0066687367 1.0617707e-38
-0.008316691 -0.13781275 0.0066687367 7.7618118e-39
-0.0064229192 -0.13781275 0.0066687367 7.3937538e-39
-0.0045291455 -0.13781275 0.0066687367 6.3785228e-39
-0.0025213445 -0.13885282 0.0027272007 8.6798122e-39
-0.00074160192 -0.13781275 0.0066687367 9.1379065e-39
0.0011521718 -0.13781275 0.0066687367 6.3702426e-39
0.0030459454 -0.13781275 0.0066687367 8.1212407e-39
0.0049397154 -0.13781275 0.0066687367 1.0885307e-38
0.0068334891 -0.13781275 0.0066687367 1.0699116e-38
0.0087272627 -0.13781275 0.0066687367 1.0790227e-38
0.010621033 -0.13781275 0.0066687367 8.9459483e-39
0.012684121 -0.13885282 0.0027272007 9.2218107e-39
0.014584805 -0.13885282 0.0027272007 9.7749844e-39
0.01648549 -0.13885282 0.0027272007 1.1527422e-38
0.01838617 -0.13885282 0.0027272007 1.171218e-38
0.020286854 -0.13885282 0.0027272007 9.8693549e-39
0.022344448 -0.13965334 -0.00030643717 9.4087467e-39
0.024250451 -0.13965334 -0.00030643717 7.3815316e-39
0.026318438 -0.14042725 -0.0032393434 2.7757172e-39
0.028458335 -0.14148657 -0.0072537162 3.1517066e-39
0.030376516 -0.14148657 -0.0072537162 6.9345945e-39
0.032294698 -0.14148657 -0.0072537162 8.776677e-39
0.034212887 -0.14148657 -0.0072537162 1.1724038e-38
0.036131069 -0.14148657 -0.0072537162 1.3011166e-38
0.038049251 -0.14148657 -0.0072537162 1.1809734e-38
0.039967433 -0.14148657 -0.0072537162 1.3651118e-38
0.041885614 -0.14148657 -0.0072537162 1.3834773e-38
0.043803796 -0.14148657 -0.0072537162 1.438828e-38
0.045721985 -0.14148657 -0.0072537162 1.4480106e-38
0.047640167 -0.14148657 -0.0072537162 1.4847812e-38
0.049252179 -0.14042725 -0.0032393434 1.5400273e-38
0.051163312 -0.14042725 -0.0032393434 1.5952373e-38
0.053394716 -0.14148657 -0.0072537162 1.6596658e-38
0.055312898 -0.14148657 -0.0072537162 1.6779954e-38
-0.071623303 -0.13171287 0.036761928 1.7059429e-38
-0.069782294 -0.13171287 0.036761928 1.751933e-38
-0.068072803 -0.13278987 0.032707382 1.7979593e-38
-0.066224687 -0.13278987 0.032707382 1.8070711e-38
-0.064462736 -0.13358103 0.02972894 1.7610453e-38
-0.062609397 -0.13358103 0.02972894 1.8164345e-38
-0.060756054 -0.13358103 0.02972894 1.8349814e-38
-0.058973614 -0.13437669 0.026733568 1.8165424e-38
-0.057115022 -0.13437669 0.026733568 1.7335664e-38
-0.055256426 -0.13437669 0.026733568 1.6967244e-38
-0.053397834 -0.13437669 0.026733568 1.7428222e-38
-0.051589418 -0.13517688 0.023721149 1.7520421e-38
-0.049725544 -0.13517688 0.023721149 1.7243834e-38
-0.047861673 -0.13517688 0.023721149 1.659811e-38
-0.046077378 -0.13703169 0.016738465 1.6874697e-38
-0.042349365 -0.13784705 0.013668945 1.5769071e-38
-0.040467866 -0.13784705 0.013668945 1.6045302e-38
-0.038586367 -0.13784705 0.013668945 1.6875062e-38
-0.036715399 -0.13891099 0.0096636321 1.7059457e-38
-0.034823369 -0.13784705 0.013668945 1.6414809e-38
-0.03294187 -0.13784705 0.013668945 1.6322982e-38
-0.029178873 -0.13784705 0.013668945 1.4571988e-38
-0.027297374 -0.13784705 0.013668945 1.3742227e-38
-0.025415875 -0.13784705 0.013668945 1.3189055e-38
-0.023534376 -0.13784705 0.013668945 1.4480157e-38
-0.021652877 -0.13784705 0.013668945 1.3835509e-38
-0.019771378 -0.13784705 0.013668945 1.328342e-38
-0.01788988 -0.13784705 0.013668945 1.2639498e-38
-0.015941665 -0.13891099 0.0096636321 1.1166174e-38
-0.014053144 -0.13891099 0.0096636321 1.2458722e-38
-0.012104237 -0.13970654 0.0066687367 1.1445657e-38
-0.010210463 -0.13970654 0.0066687367 9.3269683e-39
-0.008316691 -0.13970654 0.0066687367 7.024244e-39
-0.0064229192 -0.13970654 0.0066687367 7.1175228e-39
-0.0045291455 -0.13970654 0.0066687367 5.4565665e-39
-0.0026353737 -0.13970654 0.0066687367 7.2972421e-39
-0.00074160192 -0.13970654 0.0066687367 8.2170404e-39
0.0011521718 -0.13970654 0.0066687367 5.2649824e-39
0.0030459454 -0.13970654 0.0066687367 6.9230618e-39
0.0049397154 -0.13970654 0.0066687367 9.1343164e-39
0.0068334891 -0.13970654 0.0066687367 9.6856853e-39
0.0087272627 -0.13970654 0.0066687367 1.0329609e-38
0.010621033 -0.13970654 0.0066687367 8.1165477e-39
0.012514806 -0.13970654 0.0066687367 8.39205e-39
0.01440858 -0.13970654 0.0066687367 8.6686341e-39
0.01648549 -0.14075352 0.0027272007 9.9604519e-39
0.018532444 -0.14155935 -0.00030643717 9.4998381e-39
0.020438448 -0.14155935 -0.00030643717 7.4715468e-39
0.022344448 -0.14155935 -0.00030643717 7.3804414e-39
0.024250451 -0.14155935 -0.00030643717 6.5514108e-39
0.026318438 -0.14233841 -0.0032393434 2.4069347e-39
0.028458335 -0.14340474 -0.0072537162 1.4007099e-39
0.030376516 -0.14340474 -0.0072537162 4.5389459e-39
0.032294698 -0.14340474 -0.0072537162 6.749092e-39
0.034212887 -0.14340474 -0.0072537162 1.0065235e-38
0.036131069 -0.14340474 -0.0072537162 1.0983943e-38
0.038049251 -0.14340474 -0.0072537162 1.1441673e-38
0.039967433 -0.14340474 -0.0072537162 1.4942579e-38
0.041885614 -0.14340474 -0.0072537162 1.4664534e-38
0.043803796 -0.14340474 -0.0072537162 1.4941454e-38
0.045721985 -0.14340474 -0.0072537162 1.4848889e-38
0.049558353 -0.14340474 -0.0072537162 1.5584661e-38
0.051476534 -0.14340474 -0.0072537162 1.6597022e-38
0.053394716 -0.14340474 -0.0072537162 1.7334223e-38
-0.071623303 -0.13355388 0.036761928 1.6875037e-38
-0.069782294 -0.13355388 0.036761928 1.7242744e-38
-0.068169415 -0.13543437 0.02972894 1.7242388e-38
-0.066316076 -0.13543437 0.02972894 1.7518257e-38
-0.064462736 -0.13543437 0.02972894 1.788704e-38
-0.062690802 -0.13623528 0.026733568 1.7979954e-38
-0.060832206 -0.13623528 0.026733568 1.844201e-38
-0.058973614 -0.13623528 0.026733568 1.825762e-38
-0.057115022 -0.13623528 0.026733568 1.7335664e-38
-0.055317167 -0.13704078 0.023721149 1.7243831e-38
-0.053453293 -0.13704078 0.023721149 1.8073592e-38
-0.051589418 -0.13704078 0.023721149 1.7981399e-38
-0.049725544 -0.13704078 0.023721149 1.7059443e-38
-0.047914844 -0.13812189 0.019677809 1.6229327e-38
-0.046077378 -0.13890781 0.016738465 1.7151284e-38
-0.044201262 -0.13890781 0.016738465 1.7152005e-38
-0.042349365 -0.13972856 0.013668945 1.6322245e-38
-0.040467866 -0.13972856 0.013668945 1.5953106e-38
-0.03860392 -0.14079951 0.0096636321 1.6598476e-38
-0.036715399 -0.14079951 0.0096636321 1.6875065e-38
-0.034823369 -0.13972856 0.013668945 1.6322613e-38
-0.03294187 -0.13972856 0.013668945 1.5309909e-38
-0.031049836 -0.14079951 0.0096636321 1.4757098e-38
-0.029178873 -0.13972856 0.013668945 1.4296121e-38
-0.027297374 -0.13972856 0.013668945 1.4203926e-38
-0.025415875 -0.13972856 0.013668945 1.4480157e-38
-0.023495752 -0.14079951 0.0096636321 1.4480875e-38
-0.021652877 -0.13972856 0.013668945 1.4020623e-38
-0.019771378 -0.13972856 0.013668945 1.3468893e-38
-0.01788988 -0.13972856 0.013668945 1.2916804e-38
-0.015941665 -0.14079951 0.0096636321 1.1350565e-38
-0.013998008 -0.1416003 0.0066687367 1.1997744e-38
-0.012104237 -0.1416003 0.0066687367 1.1353462e-38
-0.010210463 -0.1416003 0.0066687367 1.0248922e-38
-0.008316691 -0.1416003 0.0066687367 8.7752351e-39
-0.0064229192 -0.1416003 0.0066687367 6.1030065e-39
-0.0045291455 -0.1416003 0.0066687367 6.6551069e-39
-0.0026353737 -0.1416003 0.0066687367 6.5596799e-39
-0.00074160192 -0.1416003 0.0066687367 7.756428e-39
0.0011521718 -0.1416003 0.0066687367 6.0032691e-39
0.0030459454 -0.1416003 0.0066687367 6.4631655e-39
0.0049397154 -0.1416003 0.0066687367 8.488947e-39
0.0068334891 -0.1416003 0.0066687367 9.1335905e-39
0.0087272627 -0.1416003 0.0066687367 9.6842392e-39
0.010621033 -0.1416003 0.0066687367 7.8403168e-39
0.012514806 -0.1416003 0.0066687367 7.3778953e-39
0.01440858 -0.1416003 0.0066687367 8.8530225e-39
0.01648549 -0.1426542 0.0027272007 8.6697103e-39
0.018532444 -0.14346536 -0.00030643717 7.6559241e-39
0.020438448 -0.14346536 -0.00030643717 6.2730009e-39
0.022344448 -0.14346536 -0.00030643717 5.9056645e-39
0.024250451 -0.14346536 -0.00030643717 6.0904271e-39
0.026318438 -0.14424954 -0.0032393434 3.2363296e-39
0.028458335 -0.14532293 -0.0072537162 2.9683888e-39
0.030376516 -0.14532293 -0.0072537162 3.4325955e-39
0.032294698 -0.14532293 -0.0072537162 5.550546e-39
0.034212887 -0.14532293 -0.0072537162 7.7603418e-39
0.036131069 -0.14532293 -0.0072537162 9.1393092e-39
0.038049251 -0.14532293 -0.0072537162 1.3561451e-38
0.040176004 -0.14614908 -0.010343501 1.4942577e-38
0.042099603 -0.14614908 -0.010343501 1.5863077e-38
0.044023208 -0.14614908 -0.010343501 1.5494628e-38
-0.071769036 -0.13648613 0.032707382 1.7059429e-38
-0.06992092 -0.13648613 0.032707382 1.7427135e-38
-0.068169415 -0.13728772 0.02972894 1.7518975e-38
-0.066316076 -0.13728772 0.02972894 1.7979235e-38
-0.064462736 -0.13728772 0.02972894 1.8348737e-38
-0.062690802 -0.13809387 0.026733568 1.7979953e-38
-0.060832206 -0.13809387 0.026733568 1.8534205e-38
-0.059044916 -0.13890465 0.023721149 1.8349816e-38
-0.057181042 -0.13890465 0.023721149 1.7335664e-38
-0.055317167 -0.13890465 0.023721149 1.7243831e-38
-0.053453293 -0.13890465 0.023721149 1.8073592e-38
-0.051656768 -0.13999285 0.019677809 1.7981399e-38
-0.049725544 -0.13890465 0.023721149 1.6967247e-38
-0.047861673 -0.13890465 0.023721149 1.7059445e-38
-0.046043877 -0.13999285 0.019677809 1.7981044e-38
-0.044201262 -0.14078392 0.016738465 1.7981766e-38
-0.042325143 -0.14078392 0.016738465 1.7152005e-38
-0.040449027 -0.14078392 0.016738465 1.6875062e-38
-0.038586367 -0.14161004 0.013668945 1.7428236e-38
-0.036723278 -0.14349405 0.0066687367 1.761263e-38
-0.034826878 -0.14268802 0.0096636321 1.6967983e-38
-0.032938357 -0.14268802 0.0096636321 1.6047474e-38
-0.031049836 -0.14268802 0.0096636321 1.5218795e-38
-0.029178873 -0.14161004 0.013668945 1.4757099e-38
-0.027297374 -0.14161004 0.013668945 1.4480873e-38
-0.025415875 -0.14161004 0.013668945 1.4480875e-38
-0.023495752 -0.14268802 0.0096636321 1.4205012e-38
-0.021607229 -0.14268802 0.0096636321 1.4020985e-38
-0.019718708 -0.14268802 0.0096636321 1.3837675e-38
-0.017830186 -0.14268802 0.0096636321 1.3008643e-38
-0.015941665 -0.14268802 0.0096636321 1.1903742e-38
-0.013998008 -0.14349405 0.0066687367 1.2550196e-38
-0.012104237 -0.14349405 0.0066687367 1.1445656e-38
-0.010210463 -0.14349405 0.0066687367 9.6953851e-39
-0.008316691 -0.14349405 0.0066687367 7.7607216e-39
-0.0064229192 -0.14349405 0.0066687367 5.6405837e-39
-0.0045291455 -0.14349405 0.0066687367 6.4699912e-39
-0.0026353737 -0.14349405 0.0066687367 7.3894378e-39
-0.00074160192 -0.14349405 0.0066687367 7.2032514e-39
0.0011521718 -0.14349405 0.0066687367 4.9891144e-39
0.0030459454 -0.14349405 0.0066687367 5.9099889e-39
0.0049397154 -0.14349405 0.0066687367 8.5814985e-39
0.0068334891 -0.14349405 0.0066687367 9.5023702e-39
0.0087272627 -0.14349405 0.0066687367 9.8689864e-39
0.010621033 -0.14349405 0.0066687367 8.1169022e-39
0.012684121 -0.14455487 0.0027272007 8.3920444e-39
0.014584805 -0.14455487 0.0027272007 8.5767916e-39
0.01648549 -0.14455487 0.0027272007 8.1165337e-39
0.018532444 -0.14537133 -0.00030643717 8.5778776e-39
0.020438448 -0.14537133 -0.00030643717 7.6562884e-39
0.022344448 -0.14537133 -0.00030643717 5.813466e-39
0.024250451 -0.14537133 -0.00030643717 5.3521376e-39
0.026318438 -0.14616071 -0.0032393434 2.8679016e-39
0.028229583 -0.14616071 -0.0032393434 6.624106e-40
0.030376516 -0.1472411 -0.0072537162 2.1407707e-39
0.032294698 -0.1472411 -0.0072537162 5.0888406e-39
0.034212887 -0.1472411 -0.0072537162 8.1283971e-39
0.036131069 -0.1472411 -0.0072537162 1.0614431e-38
0.038252406 -0.14807267 -0.010343501 1.6326954e-38
0.040176004 -0.14807267 -0.010343501 1.7062353e-38
0.042099603 -0.14807267 -0.010343501 1.530918e-38
-0.073353522 -0.13643973 0.039701033 1.7151624e-38
-0.071517661 -0.13643973 0.039701033 1.7428211e-38
-0.069782294 -0.13723589 0.036761928 1.7795917e-38
-0.068072803 -0.13833423 0.032707382 1.7795561e-38
-0.066316076 -0.13914107 0.02972894 1.8163626e-38
-0.064462736 -0.13914107 0.02972894 1.8440932e-38
-0.062690802 -0.13995247 0.026733568 1.8440931e-38
-0.060832206 -0.13995247 0.026733568 1.9087735e-38
-0.059044916 -0.14076851 0.023721149 1.8995184e-38
-0.057181042 -0.14076851 0.023721149 1.7888836e-38
-0.055317167 -0.14076851 0.023721149 1.7705165e-38
-0.053453293 -0.14076851 0.023721149 1.8534926e-38
-0.051589418 -0.14076851 0.023721149 1.8350179e-38
-0.049725544 -0.14076851 0.023721149 1.7151638e-38
-0.047861673 -0.14076851 0.023721149 1.7520423e-38
-0.045997798 -0.14076851 0.023721149 1.844238e-38
-0.044172917 -0.14186381 0.019677809 1.8534937e-38
-0.042301953 -0.14186381 0.019677809 1.7705176e-38
-0.040430989 -0.14186381 0.019677809 1.7428592e-38
-0.038586367 -0.14349155 0.013668945 1.788957e-38
-0.036723278 -0.14538784 0.0066687367 1.7889214e-38
-0.034826878 -0.14457656 0.0096636321 1.7152731e-38
-0.032938357 -0.14457656 0.0096636321 1.6416972e-38
-0.031049836 -0.14457656 0.0096636321 1.5312067e-38
-0.029161315 -0.14457656 0.0096636321 1.4757817e-38
-0.027272794 -0.14457656 0.0096636321 1.4205365e-38
-0.025384273 -0.14457656 0.0096636321 1.4020976e-38
-0.023495752 -0.14457656 0.0096636321 1.3744033e-38
-0.021607229 -0.14457656 0.0096636321 1.3744398e-38
-0.019718708 -0.14457656 0.0096636321 1.3838038e-38
-0.017830186 -0.14457656 0.0096636321 1.3008645e-38
-0.015941665 -0.14457656 0.0096636321 1.1627155e-38
-0.013998008 -0.14538784 0.0066687367 1.1812631e-38
-0.012104237 -0.14538784 0.0066687367 1.1260902e-38
-0.010210463 -0.14538784 0.0066687367 9.8790547e-39
-0.008316691 -0.14538784 0.0066687367 8.1280594e-39
-0.0064229192 -0.14538784 0.0066687367 6.2845097e-39
-0.0045291455 -0.14538784 0.0066687367 6.7451333e-39
-0.0026353737 -0.14538784 0.0066687367 8.03444e-39
-0.00074160192 -0.14538784 0.0066687367 6.8344605e-39
0.0011521718 -0.14538784 0.0066687367 5.2653369e-39
0.0030459454 -0.14538784 0.0066687367 6.6468295e-39
0.0050813882 -0.14645557 0.0027272007 8.4893001e-39
0.0069820723 -0.14645557 0.0027272007 8.6718879e-39
0.0088827563 -0.14645557 0.0027272007 8.5782447e-39
0.010783437 -0.14645557 0.0027272007 7.3793344e-39
0.012684121 -0.14645557 0.0027272007 9.1299654e-39
0.014584805 -0.14645557 0.0027272007 8.5767902e-39
0.01662644 -0.14727734 -0.00030643717 7.8403041e-39
0.018532444 -0.14727734 -0.00030643717 8.8548176e-39
0.020438448 -0.14727734 -0.00030643717 7.9332299e-39
0.022344448 -0.14727734 -0.00030643717 4.9840571e-39
0.024250451 -0.14727734 -0.00030643717 4.1539447e-39
0.026318438 -0.14807184 -0.0032393434 2.9597273e-39
0.028229583 -0.14807184 -0.0032393434 2.5045141e-39
0.030376516 -0.1491593 -0.0072537162 2.4148254e-39
0.032294698 -0.1491593 -0.0072537162 5.2710598e-39
0.034212887 -0.1491593 -0.0072537162 1.0892097e-38
0.036131069 -0.1491593 -0.0072537162 1.383911e-38
0.038049251 -0.1491593 -0.0072537162 1.7340019e-38
0.040176004 -0.1499963 -0.010343501 1.7338213e-38
0.042099603 -0.1499963 -0.010343501 1.5769794e-38
-0.073353522 -0.13827558 0.039701033 1.7428211e-38
-0.071517661 -0.13827558 0.039701033 1.8073578e-38
-0.069782294 -0.1390769 0.036761928 1.853348e-38
-0.067941286 -0.1390769 0.036761928 1.8441287e-38
-0.066224687 -0.14018236 0.032707382 1.8532766e-38
-0.06437657 -0.14018236 0.032707382 1.8717158e-38
-0.062690802 -0.14181106 0.026733568 1.9178852e-38
-0.060832206 -0.14181106 0.026733568 2.0009691e-38
-0.059044916 -0.14263238 0.023721149 1.991714e-38
-0.057181042 -0.14263238 0.023721149 1.8718597e-38
-0.055317167 -0.14263238 0.023721149 1.8534926e-38
-0.053453293 -0.14263238 0.023721149 1.9364686e-38
-0.051589418 -0.14263238 0.023721149 1.9087744e-38
-0.049725544 -0.14263238 0.023721149 1.7704809e-38
-0.047861673 -0.14263238 0.023721149 1.7704812e-38
-0.045997798 -0.14263238 0.023721149 1.8626771e-38
-0.044172917 -0.14373477 0.019677809 1.8719327e-38
-0.042301953 -0.14373477 0.019677809 1.7981763e-38
-0.040430989 -0.14373477 0.019677809 1.7705179e-38
-0.038617048 -0.1472816 0.0066687367 1.8073962e-38
-0.036723278 -0.1472816 0.0066687367 1.7981766e-38
-0.034829505 -0.1472816 0.0066687367 1.69687e-38
-0.032938357 -0.14646508 0.0096636321 1.6417688e-38
-0.031049836 -0.14646508 0.0096636321 1.5404262e-38
-0.029161315 -0.14646508 0.0096636321 1.4574502e-38
-0.027272794 -0.14646508 0.0096636321 1.4113168e-38
-0.025384273 -0.14646508 0.0096636321 1.3836585e-38
-0.023495752 -0.14646508 0.0096636321 1.3560364e-38
-0.021607229 -0.14646508 0.0096636321 1.3561086e-38
-0.019718708 -0.14646508 0.0096636321 1.3930234e-38
-0.017830186 -0.14646508 0.0096636321 1.3285231e-38
-0.015891779 -0.1472816 0.0066687367 1.1349849e-38
-0.013998008 -0.1472816 0.0066687367 1.0521532e-38
-0.012104237 -0.1472816 0.0066687367 1.1167267e-38
-0.010210463 -0.1472816 0.0066687367 1.1076513e-38
-0.008316691 -0.1472816 0.0066687367 9.4180765e-39
-0.0064229192 -0.1472816 0.0066687367 7.5741667e-39
-0.0045291455 -0.1472816 0.0066687367 7.1131914e-39
-0.0026353737 -0.1472816 0.0066687367 4.8072244e-39
-0.00074160192 -0.1472816 0.0066687367 3.7912761e-39
0.0011521718 -0.1472816 0.0066687367 3.9742296e-39
0.0030459454 -0.1472816 0.0066687367 6.0010943e-39
0.0050813882 -0.14835624 0.0027272007 6.5521087e-39
0.0069820723 -0.14835624 0.0027272007 5.6287104e-39
0.0088827563 -0.14835624 0.0027272007 5.4432304e-39
0.010783437 -0.14835624 0.0027272007 5.258472e-39
0.012814435 -0.14918335 -0.00030643717 7.5626383e-39
0.014720439 -0.14918335 -0.00030643717 7.8392223e-39
0.01662644 -0.14918335 -0.00030643717 6.6417582e-39
0.018532444 -0.14918335 -0.00030643717 6.7346755e-39
0.020438448 -0.14918335 -0.00030643717 5.7208879e-39
0.022344448 -0.14918335 -0.00030643717 3.2326933e-39
0.024250451 -0.14918335 -0.00030643717 2.772441e-39
0.026318438 -0.14998297 -0.0032393434 2.313988e-39
0.028229583 -0.14998297 -0.0032393434 1.0275722e-39
-0.073464312 -0.14091791 0.036761928 1.7980306e-38
-0.071623303 -0.14091791 0.036761928 1.8441281e-38
-0.069681808 -0.14011143 0.039701033 1.8809348e-38
-0.067845955 -0.14011143 0.039701033 1.880935e-38
-0.066100277 -0.14091791 0.036761928 1.9177057e-38
-0.064259268 -0.14091791 0.036761928 1.9362527e-38
-0.062690802 -0.14366965 0.026733568 1.963983e-38
-0.055317167 -0.14449625 0.023721149 1.9088098e-38
-0.053453293 -0.14449625 0.023721149 2.0010054e-38
-0.051539242 -0.14366965 0.026733568 1.9641273e-38
-0.04968065 -0.14366965 0.026733568 1.8073592e-38
-0.047822058 -0.14366965 0.026733568 1.8165787e-38
-0.045997798 -0.14449625 0.023721149 1.8995551e-38
-0.044133924 -0.14449625 0.023721149 1.9180305e-38
-0.042301953 -0.14560573 0.019677809 1.8534936e-38
-0.040430989 -0.14560573 0.019677809 1.825835e-38
-0.038617048 -0.14917539 0.0066687367 1.8534937e-38
-0.036715399 -0.14835359 0.0096636321 1.8166154e-38
-0.034826878 -0.14835359 0.0096636321 1.6969056e-38
-0.032938357 -0.14835359 0.0096636321 1.632549e-38
-0.031049836 -0.14835359 0.0096636321 1.558937e-38
-0.029161315 -0.14835359 0.0096636321 1.4759253e-38
-0.027272794 -0.14835359 0.0096636321 1.4021691e-38
-0.025384273 -0.14835359 0.0096636321 1.3744749e-38
-0.023495752 -0.14835359 0.0096636321 1.3929144e-38
-0.021607229 -0.14835359 0.0096636321 1.3837675e-38
-0.019718708 -0.14835359 0.0096636321 1.3561454e-38
-0.017830186 -0.14835359 0.0096636321 1.2824253e-38
-0.015891779 -0.14917539 0.0066687367 1.1257654e-38
-0.013998008 -0.14917539 0.0066687367 1.0520451e-38
-0.012104237 -0.14917539 0.0066687367 1.1719719e-38
-0.010210463 -0.14917539 0.0066687367 1.1997028e-38
-0.008316691 -0.14917539 0.0066687367 1.0062361e-38
