# .PCD v0.7 - Point Cloud Data file format
VERSION 0.7
FIELDS x y z rgb
SIZE 4 4 4 4
TYPE F F F F
COUNT 1 1 1 1
WIDTH 390
HEIGHT 1
VIEWPOINT 0 0 0 1 0 0 0
POINTS 390
DATA ascii
-0.015972126 -0.10739426 -0.038050957 9.4046955e-39
-0.013990849 -0.10739426 -0.038050957 1.1801094e-38
-0.012009569 -0.10739426 -0.038050957 1.4197475e-38
-0.010028291 -0.10739426 -0.038050957 1.4382946e-38
-0.016098812 -0.10848872 -0.034145303 2.1759989e-38
-0.014227133 -0.10780637 -0.031140037 2.1389777e-38
-0.012257971 -0.10780637 -0.031140037 2.0283446e-38
-0.010438927 -0.1069022 -0.027157851 1.9085639e-38
-0.0084767453 -0.1069022 -0.027157851 1.9178909e-38
-0.0065145679 -0.1069022 -0.027157851 1.8810491e-38
-0.0045523904 -0.1069022 -0.027157851 1.8257684e-38
-0.0025902092 -0.1069022 -0.027157851 1.954948e-38
-0.00062803179 -0.1069022 -0.027157851 1.9366168e-38
-0.018073242 -0.11046316 -0.034145303 2.0932393e-38
-0.016325463 -0.10886435 -0.027157851 2.0839482e-38
-0.014502678 -0.10793148 -0.023080774 2.1115706e-38
-0.012653559 -0.10725726 -0.020134158 1.9548762e-38
-0.010703694 -0.10725726 -0.020134158 1.8349876e-38
-0.0087538324 -0.10725726 -0.020134158 1.8166208e-38
-0.0068039671 -0.10725726 -0.020134158 1.6321945e-38
-0.0048541017 -0.10725726 -0.020134158 1.7612325e-38
-0.00290424 -0.10725726 -0.020134158 1.8166566e-38
-0.00095437467 -0.10725726 -0.020134158 1.9089226e-38
0.0009954907 -0.10725726 -0.020134158 1.9274685e-38
0.0032963268 -0.10886435 -0.027157851 1.9736009e-38
0.005258508 -0.10886435 -0.027157851 1.8906249e-38
-0.018073242 -0.11243759 -0.034145303 1.549362e-38
-0.016325463 -0.11082654 -0.027157851 1.5862389e-38
-0.014603425 -0.10920714 -0.020134158 1.78914e-38
-0.01279828 -0.10827883 -0.016107865 1.7246025e-38
-0.010855474 -0.10827883 -0.016107865 1.6415913e-38
-0.0089126676 -0.10827883 -0.016107865 1.5032995e-38
-0.0069698654 -0.10827883 -0.016107865 1.0699096e-38
-0.0051572509 -0.10758002 -0.013077088 1.1436312e-38
-0.003219761 -0.10758002 -0.013077088 1.1620701e-38
-0.0011414513 -0.10827883 -0.016107865 1.447947e-38
0.00080135465 -0.10827883 -0.016107865 1.6508477e-38
0.0032963268 -0.11082654 -0.027157851 1.9182136e-38
0.005258508 -0.11082654 -0.027157851 1.9367241e-38
0.0072206855 -0.11082654 -0.027157851 1.9274332e-38
-0.018073242 -0.11441202 -0.034145303 1.3651174e-38
-0.016553286 -0.11115701 -0.020134158 1.3098682e-38
-0.014844704 -0.10951753 -0.013077088 1.4759257e-38
-0.013050102 -0.10859399 -0.0091016963 1.4483019e-38
-0.011119582 -0.10859399 -0.0091016963 1.4943644e-38
-0.0091890618 -0.10859399 -0.0091016963 1.5034423e-38
-0.0072585419 -0.10859399 -0.0091016963 1.0700528e-38
-0.0053280219 -0.10859399 -0.0091016963 9.5934785e-39
-0.003397502 -0.10859399 -0.0091016963 9.4083767e-39
-0.0014669783 -0.10859399 -0.0091016963 1.1437038e-38
0.00065522268 -0.10951753 -0.013077088 1.0792022e-38
0.0027441606 -0.11022164 -0.016107865 1.4663508e-38
0.0046869628 -0.11022164 -0.016107865 1.7430806e-38
0.0066297688 -0.11022164 -0.016107865 1.8813002e-38
-0.032558754 -0.1079378 0.0019492437 5.9955998e-39
-0.03070675 -0.1072513 0.0048821499 1.7797361e-38
-0.028800746 -0.1072513 0.0048821499 2.0471397e-38
-0.026894744 -0.1072513 0.0048821499 2.2316024e-38
-0.024988743 -0.1072513 0.0048821499 2.1855053e-38
-0.021264501 -0.1065412 0.0079157874 1.4388014e-38
-0.019363817 -0.1065412 0.0079157874 1.475824e-38
-0.016553286 -0.11310686 -0.020134158 1.8170512e-38
-0.015358455 -0.1079378 0.0019492437 2.1673176e-38
-0.013447311 -0.1079378 0.0019492437 2.1673176e-38
-0.011384837 -0.10887744 -0.0020651291 2.1397669e-38
-0.0093447641 -0.10960068 -0.0051549147 1.9922203e-38
-0.0075484701 -0.10887744 -0.0020651291 1.4481615e-38
-0.0056302883 -0.10887744 -0.0020651291 1.5679102e-38
-0.0037121065 -0.10887744 -0.0020651291 1.226716e-38
-0.0016503595 -0.10960068 -0.0051549147 1.1528896e-38
0.0004635416 -0.11052449 -0.0091016963 7.1031539e-39
0.0025927126 -0.11145501 -0.013077088 7.4726567e-39
0.0045302026 -0.11145501 -0.013077088 8.856296e-39
0.0064676926 -0.11145501 -0.013077088 1.2545178e-38
0.0087949447 -0.11310686 -0.020134158 1.6600692e-38
0.01074481 -0.11310686 -0.020134158 1.7703795e-38
-0.034403034 -0.11079563 -0.0020651291 6.3643823e-39
-0.032558754 -0.10984896 0.0019492437 7.6551226e-39
-0.03070675 -0.10915731 0.0048821499 2.148483e-38
-0.028800746 -0.10915731 0.0048821499 2.2407501e-38
-0.026894744 -0.10915731 0.0048821499 2.0195536e-38
-0.024988743 -0.10915731 0.0048821499 1.9918949e-38
-0.023165185 -0.1084419 0.0079157874 1.9735296e-38
-0.021264501 -0.1084419 0.0079157874 1.8721525e-38
-0.019363817 -0.1084419 0.0079157874 1.8815155e-38
-0.017463136 -0.1084419 0.0079157874 2.0014397e-38
-0.015562452 -0.1084419 0.0079157874 2.1397669e-38
-0.013447311 -0.10984896 0.0019492437 2.158134e-38
-0.011536166 -0.10984896 0.0019492437 2.1856847e-38
-0.0094666556 -0.11079563 -0.0020651291 2.1673176e-38
-0.0075484701 -0.11079563 -0.0020651291 1.9277561e-38
-0.0056302883 -0.11079563 -0.0020651291 1.9830009e-38
-0.0037121065 -0.11079563 -0.0020651291 1.3928475e-38
-0.001793921 -0.11079563 -0.0020651291 1.282037e-38
0.00027323887 -0.11152427 -0.0051549147 8.3942921e-39
0.0021968409 -0.11152427 -0.0051549147 7.1961202e-39
0.004120443 -0.11152427 -0.0051549147 4.7082647e-39
0.0062551014 -0.11245503 -0.0091016963 6.7390475e-39
0.0085725747 -0.11410724 -0.016107865 1.2269321e-38
0.010515377 -0.11410724 -0.016107865 1.6413794e-38
0.012458183 -0.11410724 -0.016107865 1.7519049e-38
-0.034403034 -0.1127138 -0.0020651291 9.9600133e-39
-0.032558754 -0.11176009 0.0019492437 1.0790137e-38
-0.03070675 -0.11106332 0.0048821499 2.1945808e-38
-0.028800746 -0.11106332 0.0048821499 2.2775202e-38
-0.026894744 -0.11106332 0.0048821499 2.2591531e-38
-0.025065867 -0.11034258 0.0079157874 2.2316024e-38
-0.023165185 -0.11034258 0.0079157874 2.2499695e-38
-0.02137853 -0.10940616 0.011857323 1.9182138e-38
-0.019484758 -0.10940616 0.011857323 1.8998464e-38
-0.017590985 -0.10940616 0.011857323 1.8538534e-38
-0.015562452 -0.11034258 0.0079157874 1.9000574e-38
-0.013661768 -0.11034258 0.0079157874 1.9645938e-38
-0.011536166 -0.11176009 0.0019492437 2.1213987e-38
-0.0096250214 -0.11176009 0.0019492437 2.1305834e-38
-0.0077138767 -0.11176009 0.0019492437 1.7250319e-38
-0.005802732 -0.11176009 0.0019492437 1.8356329e-38
-0.0038915873 -0.11176009 0.0019492437 1.1532812e-38
-0.001793921 -0.1127138 -0.0020651291 9.4109299e-39
0.00027323887 -0.11344786 -0.0051549147 4.8930274e-39
0.0021968409 -0.11344786 -0.0051549147 6.4607342e-39
0.004120443 -0.11344786 -0.0051549147 5.4476571e-39
0.0060440414 -0.11344786 -0.0051549147 5.0809933e-39
0.0084051825 -0.11533 -0.013077088 6.5553723e-39
0.010342672 -0.11533 -0.013077088 1.0423253e-38
0.012280166 -0.11533 -0.013077088 1.4662077e-38
0.01421766 -0.11533 -0.013077088 1.5400707e-38
0.01546973 -0.1127138 -0.0020651291 1.512518e-38
0.017387912 -0.1127138 -0.0020651291 1.4664902e-38
-0.036321219 -0.114632 -0.0020651291 6.6409692e-39
-0.034403034 -0.114632 -0.0020651291 1.383223e-38
-0.032558754 -0.11367123 0.0019492437 1.6321875e-38
-0.030647613 -0.11367123 0.0019492437 2.1945808e-38
-0.028736468 -0.11367123 0.0019492437 2.2775202e-38
-0.026894744 -0.11296929 0.0048821499 2.2775202e-38
-0.025065867 -0.11224325 0.0079157874 2.2222754e-38
-0.023272302 -0.11129995 0.011857323 2.2223471e-38
-0.02137853 -0.11129995 0.011857323 1.9642013e-38
-0.01957665 -0.11058317 0.014852218 1.9181029e-38
-0.017688129 -0.11058317 0.014852218 1.826013e-38
-0.015799608 -0.11058317 0.014852218 1.8352674e-38
-0.013803441 -0.11129995 0.011857323 2.0105113e-38
-0.011761084 -0.11224325 0.0079157874 2.1856837e-38
-0.0097407252 -0.11296929 0.0048821499 2.14895e-38
-0.0077138767 -0.11367123 0.0019492437 1.9738874e-38
-0.005802732 -0.11367123 0.0019492437 1.835703e-38
-0.0038915873 -0.11367123 0.0019492437 1.1995567e-38
-0.0019804426 -0.11367123 0.0019492437 7.845744e-39
0.00012426078 -0.114632 -0.0020651291 5.7245691e-39
0.0018418469 -0.11367123 0.0019492437 6.6476394e-39
0.0037529916 -0.11367123 0.0019492437 5.4501766e-39
0.0056641363 -0.11367123 0.0019492437 4.2541235e-39
0.0077969953 -0.114632 -0.0020651291 4.2530165e-39
0.010342672 -0.11726747 -0.013077088 5.6312566e-39
0.012280166 -0.11726747 -0.013077088 1.0884228e-38
0.013551541 -0.114632 -0.0020651291 1.4756428e-38
0.01546973 -0.114632 -0.0020651291 1.6048226e-38
0.017387912 -0.114632 -0.0020651291 1.4572355e-38
0.019306093 -0.114632 -0.0020651291 1.2175252e-38
-0.036321219 -0.11655019 -0.0020651291 1.0513187e-38
-0.034403034 -0.11655019 -0.0020651291 2.1484467e-38
-0.032484852 -0.11655019 -0.0020651291 2.2867037e-38
-0.030647613 -0.11558239 0.0019492437 2.2867037e-38
-0.028736468 -0.11558239 0.0019492437 2.1853612e-38
-0.026966551 -0.11414395 0.0079157874 2.2775202e-38
-0.025166076 -0.11319371 0.011857323 2.2867037e-38
-0.023272302 -0.11319371 0.011857323 2.2038007e-38
-0.021465173 -0.11247168 0.014852218 2.2313513e-38
-0.01957665 -0.11247168 0.014852218 2.2867037e-38
-0.017818049 -0.11150609 0.018857531 2.2958866e-38
-0.01593655 -0.11150609 0.018857531 2.2775183e-38
-0.014055051 -0.11150609 0.018857531 2.2315647e-38
-0.011909667 -0.11319371 0.011857323 2.2224177e-38
-0.010015894 -0.11319371 0.011857323 2.2316024e-38
-0.0079597197 -0.11414395 0.0079157874 2.2132353e-38
-0.0059287213 -0.1148753 0.0048821499 1.9463011e-38
-0.0040227175 -0.1148753 0.0048821499 1.4577027e-38
-0.0021167174 -0.1148753 0.0048821499 1.0152042e-38
-6.929785e-05 -0.11558239 0.0019492437 6.0958361e-39
0.0016952902 -0.1148753 0.0048821499 5.3590264e-39
0.0036012903 -0.1148753 0.0048821499 3.977901e-39
0.0055072941 -0.1148753 0.0048821499 3.7949376e-39
0.0074132942 -0.1148753 0.0048821499 3.6094506e-39
0.009319298 -0.1148753 0.0048821499 5.080608e-39
0.01181484 -0.11729507 -0.0051549147 6.8301501e-39
0.013551541 -0.11655019 -0.0020651291 1.0425044e-38
0.01546973 -0.11655019 -0.0020651291 1.5034086e-38
0.017387912 -0.11655019 -0.0020651291 1.4941505e-38
0.019306093 -0.11655019 -0.0020651291 1.4848931e-38
-0.034403034 -0.11846836 -0.0020651291 2.2406423e-38
-0.032484852 -0.11846836 -0.0020651291 2.2958873e-38
-0.030647613 -0.11749353 0.0019492437 2.2958873e-38
-0.028736468 -0.11749353 0.0019492437 2.2037641e-38
-0.026966551 -0.11604463 0.0079157874 2.2958873e-38
-0.025166076 -0.11508749 0.011857323 2.3142544e-38
-0.023353694 -0.1143602 0.014852218 2.3234379e-38
-0.021465173 -0.1143602 0.014852218 2.3417333e-38
-0.01957665 -0.1143602 0.014852218 2.3417691e-38
-0.017818049 -0.11338757 0.018857531 2.3418043e-38
-0.01593655 -0.11338757 0.018857531 2.3234364e-38
-0.014055051 -0.11338757 0.018857531 2.3142531e-38
-0.012022566 -0.1143602 0.014852218 2.2775196e-38
-0.010134045 -0.1143602 0.014852218 2.2591531e-38
-0.0081221238 -0.11508749 0.011857323 2.2316024e-38
-0.0060590357 -0.11604463 0.0079157874 2.0660115e-38
-0.0041583516 -0.11604463 0.0079157874 1.6974099e-38
-0.0022576675 -0.11604463 0.0079157874 1.4117135e-38
-0.0002107136 -0.11678131 0.0048821499 1.0614805e-38
0.0016952902 -0.11678131 0.0048821499 8.4039386e-39
0.0034443811 -0.11604463 0.0079157874 5.5466154e-39
0.0053450651 -0.11604463 0.0079157874 4.9945318e-39
0.0072457492 -0.11604463 0.0079157874 4.2558934e-39
0.0091464296 -0.11604463 0.0079157874 4.1615341e-39
0.011225298 -0.11678131 0.0048821499 2.9615406e-39
0.013308711 -0.11749353 0.0019492437 6.0936557e-39
0.01546973 -0.11846836 -0.0020651291 1.3652239e-38
0.017387912 -0.11846836 -0.0020651291 1.4848959e-38
0.019306093 -0.11846836 -0.0020651291 1.6414823e-38
-0.032484852 -0.12038656 -0.0020651291 2.2036562e-38
-0.030647613 -0.11940466 0.0019492437 2.3142544e-38
-0.028800746 -0.11868732 0.0048821499 2.3234379e-38
-0.026966551 -0.11794533 0.0079157874 2.3234379e-38
-0.025166076 -0.11698125 0.011857323 2.3233662e-38
-0.023353694 -0.11624874 0.014852218 2.3048914e-38
-0.021465173 -0.11624874 0.014852218 2.3509168e-38
-0.01957665 -0.11624874 0.014852218 2.3416974e-38
-0.017818049 -0.11526908 0.018857531 2.31411e-38
-0.01593655 -0.11526908 0.018857531 2.3049975e-38
-0.013911087 -0.11624874 0.014852218 2.341804e-38
-0.012022566 -0.11624874 0.014852218 2.3142541e-38
-0.010134045 -0.11624874 0.014852218 2.2958873e-38
-0.0081221238 -0.11698125 0.011857323 2.213056e-38
-0.0060590357 -0.11794533 0.0079157874 2.1303323e-38
-0.0043345764 -0.11698125 0.011857323 1.8723651e-38
-0.0024408065 -0.11698125 0.011857323 1.8080443e-38
-0.0002107136 -0.11868732 0.0048821499 1.725357e-38
0.0016952902 -0.11868732 0.0048821499 1.5318563e-38
0.0034443811 -0.11794533 0.0079157874 1.0433299e-38
0.0053450651 -0.11794533 0.0079157874 7.8525655e-39
0.0072457492 -0.11794533 0.0079157874 4.7175736e-39
0.0091464296 -0.11794533 0.0079157874 2.8729533e-39
0.011225298 -0.11868732 0.0048821499 1.9495565e-39
0.013308711 -0.11940466 0.0019492437 4.0682371e-39
0.01521986 -0.11940466 0.0019492437 1.2362944e-38
0.017131001 -0.11940466 0.0019492437 1.4018843e-38
0.019042149 -0.11940466 0.0019492437 1.5676542e-38
-0.028800746 -0.12059332 0.0048821499 2.3509886e-38
-0.026894744 -0.12059332 0.0048821499 2.3509886e-38
-0.0043345764 -0.11887501 0.011857323 2.0012588e-38
-0.0024408065 -0.11887501 0.011857323 2.0199489e-38
-0.0002107136 -0.12059332 0.0048821499 2.0570432e-38
0.0016952902 -0.12059332 0.0048821499 1.9926508e-38
0.0034443811 -0.119846 0.0079157874 1.6331622e-38
0.0053450651 -0.119846 0.0079157874 1.2644185e-38
0.0072457492 -0.119846 0.0079157874 5.3621989e-39
0.0091464296 -0.119846 0.0079157874 1.9535124e-39
0.011225298 -0.12059332 0.0048821499 2.3219431e-39
0.013308711 -0.12131582 0.0019492437 3.516871e-39
0.01521986 -0.12131582 0.0019492437 1.0704868e-38
0.016943306 -0.12059332 0.0048821499 1.3466393e-38
0.018849306 -0.12059332 0.0048821499 1.5398881e-38
0.0016952902 -0.1224993 0.0048821499 2.0753379e-38
0.0032405108 -0.1207688 0.011857323 2.0662985e-38
0.0051342845 -0.1207688 0.011857323 1.8450682e-38
0.0070280582 -0.1207688 0.011857323 8.4042763e-39
0.0091464296 -0.12174667 0.0079157874 2.2326146e-39
0.011225298 -0.1224993 0.0048821499 3.0623907e-39
0.013131306 -0.1224993 0.0048821499 3.7956173e-39
0.015037306 -0.1224993 0.0048821499 9.2308182e-39
0.016943306 -0.1224993 0.0048821499 1.3097614e-38
0.018849306 -0.1224993 0.0048821499 1.6043894e-38
0.020755313 -0.1224993 0.0048821499 1.6133549e-38
0.0030856058 -0.12191428 0.014852218 2.1304758e-38
0.0049741268 -0.12191428 0.014852218 2.1489505e-38
0.0070280582 -0.12266256 0.011857323 1.236723e-38
0.0089218281 -0.12266256 0.011857323 4.4460258e-39
0.011047117 -0.12364738 0.0079157874 4.2630946e-39
0.013131306 -0.12440531 0.0048821499 5.3651038e-39
0.015037306 -0.12440531 0.0048821499 8.7705631e-39
0.016943306 -0.12440531 0.0048821499 1.134626e-38
0.018849306 -0.12440531 0.0048821499 1.5950982e-38
0.023142457 -0.12614109 -0.0020651291 1.4471497e-38
0.025060639 -0.12614109 -0.0020651291 8.5713279e-39
0.0028784387 -0.12279506 0.018857531 1.9274296e-38
0.0047599375 -0.12279506 0.018857531 2.0657953e-38
0.0068626478 -0.12380283 0.014852218 1.4208244e-38
0.0089218281 -0.12455635 0.011857323 7.2093485e-39
0.011047117 -0.12554805 0.0079157874 6.1051842e-39
0.013131306 -0.12631132 0.0048821499 8.0373211e-39
0.015037306 -0.12631132 0.0048821499 9.4152081e-39
0.016943306 -0.12631132 0.0048821499 9.4101522e-39
0.018849306 -0.12631132 0.0048821499 1.4385101e-38
0.021224275 -0.12805928 -0.0020651291 1.5857333e-38
0.0028784387 -0.12467657 0.018857531 2.1208609e-38
0.0047599375 -0.12467657 0.018857531 1.9364696e-38
0.0068626478 -0.12569134 0.014852218 1.614038e-38
0.0089218281 -0.12645011 0.011857323 1.3379574e-38
0.011225298 -0.12821732 0.0048821499 9.5088134e-39
0.013308711 -0.12896039 0.0019492437 1.0244589e-38
0.01521986 -0.12896039 0.0019492437 8.3059654e-39
0.017131001 -0.12896039 0.0019492437 8.7647828e-39
0.019042149 -0.12896039 0.0019492437 1.3096171e-38
0.021224275 -0.12997745 -0.0020651291 1.4938628e-38
0.023142457 -0.12997745 -0.0020651291 1.3278368e-38
0.026842475 -0.13633488 -0.027157851 1.0236247e-38
0.028804652 -0.13633488 -0.027157851 5.6260886e-39
0.009319298 -0.13012333 0.0048821499 1.7340365e-38
0.011225298 -0.13012333 0.0048821499 1.245509e-38
0.013308711 -0.13087155 0.0019492437 1.2177801e-38
0.01521986 -0.13087155 0.0019492437 9.2261127e-39
0.017387912 -0.13189565 -0.0020651291 8.6718683e-39
0.019306093 -0.13189565 -0.0020651291 1.1437014e-38
0.021224275 -0.13189565 -0.0020651291 1.3188356e-38
0.024880297 -0.13829704 -0.027157851 1.2450411e-38
0.026842475 -0.13829704 -0.027157851 8.4856119e-39
0.028804652 -0.13829704 -0.027157851 4.6137318e-39
0.0094864257 -0.13278268 0.0019492437 2.0013318e-38
0.01139757 -0.13278268 0.0019492437 1.448267e-38
0.013308711 -0.13278268 0.0019492437 1.3467814e-38
0.01521986 -0.13278268 0.0019492437 9.5023338e-39
0.017131001 -0.13278268 0.0019492437 8.8555351e-39
0.019042149 -0.13278268 0.0019492437 1.0514693e-38
0.021224275 -0.13381381 -0.0020651291 1.2266396e-38
0.024880297 -0.14025922 -0.027157851 1.2266377e-38
0.026842475 -0.14025922 -0.027157851 7.7484028e-39
0.028804652 -0.14025922 -0.027157851 4.9828716e-39
0.01139757 -0.13469382 0.0019492437 1.6141827e-38
0.013308711 -0.13469382 0.0019492437 1.49415e-38
0.01521986 -0.13469382 0.0019492437 9.4094137e-39
0.017131001 -0.13469382 0.0019492437 8.947365e-39
0.019042149 -0.13469382 0.0019492437 1.0422132e-38
0.021224275 -0.13573201 -0.0020651291 1.1896888e-38
0.023142457 -0.13573201 -0.0020651291 1.0883077e-38
0.025280051 -0.13653107 -0.0051549147 7.7476811e-39
0.011225298 -0.13584132 0.0048821499 1.8445992e-38
0.013131306 -0.13584132 0.0048821499 1.6969439e-38
0.015037306 -0.13584132 0.0048821499 9.3161335e-39
0.017131001 -0.13660498 0.0019492437 9.2228644e-39
0.019042149 -0.13660498 0.0019492437 1.0789468e-38
0.021224275 -0.13765021 -0.0020651291 1.1250075e-38
0.023356445 -0.13845469 -0.0051549147 8.2076027e-39
0.025280051 -0.13845469 -0.0051549147 6.8253619e-39
0.011047117 -0.13695215 0.0079157874 2.0012235e-38
0.012947798 -0.13695215 0.0079157874 1.8904462e-38
0.015037306 -0.13774733 0.0048821499 9.2235693e-39
0.016943306 -0.13774733 0.0048821499 9.1303003e-39
0.019042149 -0.13851611 0.0019492437 1.0973134e-38
0.021224275 -0.13956837 -0.0020651291 1.0788731e-38
0.023142457 -0.13956837 -0.0020651291 6.3633258e-39
0.025060639 -0.13956837 -0.0020651291 5.7179339e-39
0.011047117 -0.13885282 0.0079157874 2.0656162e-38
0.012947798 -0.13885282 0.0079157874 1.9917167e-38
0.015037306 -0.13965334 0.0048821499 9.1299275e-39
0.016943306 -0.13965334 0.0048821499 8.852626e-39
0.019042149 -0.14042725 0.0019492437 1.0234842e-38
0.020755313 -0.13965334 0.0048821499 1.0142995e-38
0.022661313 -0.13965334 0.0048821499 5.9016217e-39
0.024567313 -0.13965334 0.0048821499 5.4409841e-39
0.010815598 -0.13970654 0.011857323 2.1300087e-38
0.012709372 -0.13970654 0.011857323 2.037778e-38
0.014603145 -0.13970654 0.011857323 9.1288429e-39
0.017131001 -0.14233841 0.0019492437 8.1146938e-39
0.018849306 -0.14155935 0.0048821499 8.9433755e-39
0.020550534 -0.14075352 0.0079157874 9.2203127e-39
0.022451214 -0.14075352 0.0079157874 5.4402792e-39
0.024351895 -0.14075352 0.0079157874 5.716492e-39
0.010815598 -0.1416003 0.011857323 2.2129483e-38
0.012709372 -0.1416003 0.011857323 1.9916436e-38
0.014848478 -0.1426542 0.0079157874 9.5894525e-39
0.016749166 -0.1426542 0.0079157874 8.390552e-39
0.018849306 -0.14346536 0.0048821499 8.2058006e-39
0.020550534 -0.1426542 0.0079157874 6.8232179e-39
0.022451214 -0.1426542 0.0079157874 5.99273e-39
0.024351895 -0.1426542 0.0079157874 5.440261e-39
0.011047117 -0.14455487 0.0079157874 2.2589737e-38
0.012947798 -0.14455487 0.0079157874 2.0375971e-38
0.014848478 -0.14455487 0.0079157874 9.6812796e-39
0.016749166 -0.14455487 0.0079157874 7.4682314e-39
0.018849306 -0.14537133 0.0048821499 6.2700441e-39
0.020755313 -0.14537133 0.0048821499 5.0707765e-39
0.0091464296 -0.14645557 0.0079157874 2.1206801e-38
0.010815598 -0.14538784 0.011857323 2.2128396e-38
0.012709372 -0.14538784 0.011857323 2.0098659e-38
0.014848478 -0.14645557 0.0079157874 9.4039683e-39
0.016943306 -0.14727734 0.0048821499 7.098723e-39
0.018849306 -0.14727734 0.0048821499 5.9005371e-39
0.0091464296 -0.14835624 0.0079157874 2.0376322e-38
0.010815598 -0.1472816 0.011857323 2.1758534e-38
0.012709372 -0.1472816 0.011857323 1.9453645e-38
0.014603145 -0.1472816 0.011857323 8.3898135e-39
