# .PCD v0.7 - Point Cloud Data file format
VERSION 0.7
FIELDS x y z rgb
SIZE 4 4 4 4
TYPE F F F F
COUNT 1 1 1 1
WIDTH 927
HEIGHT 1
VIEWPOINT 0 0 0 1 0 0 0
POINTS 927
DATA ascii
0.02565795 -0.10513772 -0.010878459 6.920482e-39
0.027534069 -0.10513772 -0.010878459 9.3168369e-39
0.02926846 -0.10444455 -0.0079391152 1.3003571e-38
0.031139424 -0.10444455 -0.0079391152 1.5491762e-38
0.032801252 -0.10349102 -0.0038957745 1.6043849e-38
0.034665126 -0.10349102 -0.0038957745 1.5951289e-38
0.055461947 -0.10444455 -0.0079391152 8.2090152e-39
0.057332907 -0.10444455 -0.0079391152 8.2090152e-39
-0.013716284 -0.10774307 -0.013947979 9.0443166e-39
-0.011834785 -0.10774307 -0.013947979 8.3082145e-39
-0.0099532865 -0.10774307 -0.013947979 8.7710031e-39
-0.0080717877 -0.10774307 -0.013947979 7.3895078e-39
-0.0061902883 -0.10774307 -0.013947979 7.7586449e-39
-0.0043087895 -0.10774307 -0.013947979 7.8511922e-39
-0.0024272925 -0.10774307 -0.013947979 7.8501034e-39
-0.00054579368 -0.10774307 -0.013947979 7.5724361e-39
0.0013357052 -0.10774307 -0.013947979 8.1234519e-39
0.003217204 -0.10774307 -0.013947979 8.7681039e-39
0.0050987029 -0.10774307 -0.013947979 9.2272897e-39
0.0069802017 -0.10774307 -0.013947979 8.9507029e-39
0.014506197 -0.10774307 -0.013947979 1.0522322e-38
0.016387695 -0.10774307 -0.013947979 1.1074767e-38
0.018269194 -0.10774307 -0.013947979 1.1259146e-38
0.020029599 -0.10701384 -0.010878459 1.1627554e-38
0.021905718 -0.10701384 -0.010878459 1.2180351e-38
0.023781834 -0.10701384 -0.010878459 1.3377798e-38
0.02565795 -0.10701384 -0.010878459 1.7801734e-38
0.027534069 -0.10701384 -0.010878459 2.1764294e-38
0.02926846 -0.10631551 -0.0079391152 2.2499695e-38
0.031139424 -0.10631551 -0.0079391152 2.2683007e-38
0.032801252 -0.10535492 -0.0038957745 2.3142544e-38
0.034665126 -0.10535492 -0.0038957745 2.341805e-38
0.036529001 -0.10535492 -0.0038957745 2.3049626e-38
0.038623277 -0.10631551 -0.0079391152 2.2775202e-38
0.055461947 -0.10631551 -0.0079391152 2.2683007e-38
0.057332907 -0.10631551 -0.0079391152 2.2775202e-38
0.059203874 -0.10631551 -0.0079391152 2.2683365e-38
-0.028792854 -0.11058317 -0.017953292 2.3142544e-38
-0.026886776 -0.10962458 -0.013947979 2.2591169e-38
-0.025005277 -0.10962458 -0.013947979 2.3142544e-38
-0.023123778 -0.10962458 -0.013947979 2.2591531e-38
-0.02124228 -0.10962458 -0.013947979 2.1305834e-38
-0.019360781 -0.10962458 -0.013947979 1.6974499e-38
-0.017479282 -0.10962458 -0.013947979 1.4024624e-38
-0.015597783 -0.10962458 -0.013947979 1.1352058e-38
-0.013716284 -0.10962458 -0.013947979 1.1260609e-38
-0.011834785 -0.10962458 -0.013947979 1.0524849e-38
-0.0099532865 -0.10962458 -0.013947979 8.4050961e-39
-0.0080717877 -0.10962458 -0.013947979 8.2221454e-39
-0.0062360349 -0.10888995 -0.010878459 7.3005436e-39
-0.0043599191 -0.10888995 -0.010878459 6.4711347e-39
-0.0024272925 -0.10962458 -0.013947979 6.2863748e-39
-0.00054579368 -0.10962458 -0.013947979 6.9310226e-39
0.0013357052 -0.10962458 -0.013947979 7.4820384e-39
0.0031445497 -0.10888995 -0.010878459 7.2965737e-39
0.0050206655 -0.10888995 -0.010878459 7.8479552e-39
0.0069802017 -0.10962458 -0.013947979 8.4018493e-39
0.0088617001 -0.10962458 -0.013947979 6.7444929e-39
0.010649016 -0.10888995 -0.010878459 7.9437522e-39
0.012525132 -0.10888995 -0.010878459 7.6675198e-39
0.014401251 -0.10888995 -0.010878459 9.1430002e-39
0.016277367 -0.10888995 -0.010878459 9.972391e-39
0.018269194 -0.10962458 -0.013947979 1.0801417e-38
0.020029599 -0.10888995 -0.010878459 9.6946943e-39
0.021905718 -0.10888995 -0.010878459 1.3196672e-38
0.023781834 -0.10888995 -0.010878459 1.2918628e-38
0.02565795 -0.10888995 -0.010878459 1.9186801e-38
0.027534069 -0.10888995 -0.010878459 2.1580623e-38
0.029410185 -0.10888995 -0.010878459 2.2316024e-38
0.031139424 -0.10818647 -0.0079391152 2.2958873e-38
0.032801252 -0.10721879 -0.0038957745 2.341805e-38
0.034665126 -0.10721879 -0.0038957745 2.2864153e-38
0.036752313 -0.10818647 -0.0079391152 2.350988e-38
0.038623277 -0.10818647 -0.0079391152 2.277376e-38
0.040494237 -0.10818647 -0.0079391152 2.2958873e-38
0.052136172 -0.10962458 -0.013947979 2.3142544e-38
0.053799707 -0.10888995 -0.010878459 2.3234379e-38
0.055461947 -0.10818647 -0.0079391152 2.3050347e-38
0.057332907 -0.10818647 -0.0079391152 2.3234376e-38
0.058895487 -0.10721879 -0.0038957745 2.3234376e-38
0.060759362 -0.10721879 -0.0038957745 2.3049624e-38
0.062623233 -0.10721879 -0.0038957745 2.3418047e-38
-0.04206764 -0.11319371 -0.020948187 2.212767e-38
-0.040173866 -0.11319371 -0.020948187 2.1758885e-38
-0.038280092 -0.11319371 -0.020948187 2.0283752e-38
-0.036386319 -0.11319371 -0.020948187 1.9178483e-38
-0.030681375 -0.11247168 -0.017953292 2.2590087e-38
-0.02124228 -0.11150609 -0.013947979 1.623692e-38
-0.019360781 -0.11150609 -0.013947979 9.8779673e-39
-0.017479282 -0.11150609 -0.013947979 1.0522999e-38
-0.01561662 -0.11076607 -0.010878459 1.0247514e-38
-0.013740502 -0.11076607 -0.010878459 1.0248258e-38
-0.011864386 -0.11076607 -0.010878459 1.0618478e-38
-0.0099882688 -0.11076607 -0.010878459 8.1303043e-39
-0.0081121512 -0.11076607 -0.010878459 8.7767457e-39
-0.0062798406 -0.11005743 -0.0079391152 7.2094242e-39
-0.0044088787 -0.11005743 -0.0079391152 6.0112327e-39
-0.0024838015 -0.11076607 -0.010878459 5.6417243e-39
-0.00060768379 -0.11076607 -0.010878459 6.1945366e-39
0.001268432 -0.11076607 -0.010878459 6.8384696e-39
0.0031445497 -0.11076607 -0.010878459 6.9295891e-39
0.0050206655 -0.11076607 -0.010878459 7.1125482e-39
0.0068967831 -0.11076607 -0.010878459 7.2054683e-39
0.0088617001 -0.11150609 -0.013947979 8.4972889e-39
0.010649016 -0.11076607 -0.010878459 9.4203116e-39
0.012525132 -0.11076607 -0.010878459 8.6831109e-39
0.014401251 -0.11076607 -0.010878459 9.1444394e-39
0.016277367 -0.11076607 -0.010878459 9.3284593e-39
0.018269194 -0.11150609 -0.013947979 1.0158206e-38
0.020029599 -0.11076607 -0.010878459 1.0433701e-38
0.021905718 -0.11076607 -0.010878459 1.38442e-38
0.023781834 -0.11076607 -0.010878459 1.5040925e-38
0.02565795 -0.11076607 -0.010878459 2.0477879e-38
0.027534069 -0.11076607 -0.010878459 2.1856847e-38
0.029410185 -0.11076607 -0.010878459 2.1671741e-38
0.031139424 -0.11005743 -0.0079391152 2.2774843e-38
0.033010386 -0.11005743 -0.0079391152 2.3325497e-38
0.03488135 -0.11005743 -0.0079391152 2.3509879e-38
0.036752313 -0.11005743 -0.0079391152 2.3509879e-38
0.052136172 -0.11150609 -0.013947979 2.3418045e-38
0.053590979 -0.11005743 -0.0079391152 2.3418047e-38
0.055167738 -0.10908265 -0.0038957745 2.3141816e-38
0.057031613 -0.10908265 -0.0038957745 2.350988e-38
0.058665726 -0.1083564 -0.00088335574 2.3509879e-38
0.060524318 -0.1083564 -0.00088335574 2.3418043e-38
0.062382907 -0.1083564 -0.00088335574 2.3509879e-38
0.063997298 -0.10763429 0.0021120161 2.350988e-38
0.06585063 -0.10763429 0.0021120161 2.3509883e-38
-0.043961409 -0.11508749 -0.020948187 2.1205358e-38
-0.04206764 -0.11508749 -0.020948187 2.1851083e-38
-0.040173866 -0.11508749 -0.020948187 2.1297907e-38
-0.038280092 -0.11508749 -0.020948187 1.890082e-38
-0.036386319 -0.11508749 -0.020948187 1.7887747e-38
-0.034458417 -0.1143602 -0.017953292 1.8164334e-38
-0.032569896 -0.1143602 -0.017953292 2.0285197e-38
-0.030681375 -0.1143602 -0.017953292 2.2313503e-38
-0.026886776 -0.11338757 -0.013947979 2.2683366e-38
-0.025005277 -0.11338757 -0.013947979 2.2867037e-38
-0.023123778 -0.11338757 -0.013947979 1.6140386e-38
-0.02124228 -0.11338757 -0.013947979 1.4669259e-38
-0.019360781 -0.11338757 -0.013947979 7.7571329e-39
-0.017479282 -0.11338757 -0.013947979 9.4166724e-39
-0.01561662 -0.11264218 -0.010878459 9.5095995e-39
-0.013740502 -0.11264218 -0.010878459 7.7586197e-39
-0.011864386 -0.11264218 -0.010878459 8.1281323e-39
-0.0099882688 -0.11264218 -0.010878459 5.2707936e-39
-0.0081508048 -0.11192839 -0.0079391152 6.4704172e-39
-0.0062798406 -0.11192839 -0.0079391152 7.1157852e-39
-0.0044088787 -0.11192839 -0.0079391152 6.655163e-39
-0.002537915 -0.11192839 -0.0079391152 6.6540784e-39
-0.00066695129 -0.11192839 -0.0079391152 6.8384696e-39
0.001268432 -0.11264218 -0.010878459 6.8377536e-39
0.0031445497 -0.11264218 -0.010878459 6.6526462e-39
0.0050206655 -0.11264218 -0.010878459 7.1125482e-39
0.0068967831 -0.11264218 -0.010878459 7.666801e-39
0.0087728985 -0.11264218 -0.010878459 6.5611667e-39
0.010649016 -0.11264218 -0.010878459 8.4061527e-39
0.012525132 -0.11264218 -0.010878459 8.8674839e-39
0.014401251 -0.11264218 -0.010878459 9.6975963e-39
0.016277367 -0.11264218 -0.010878459 9.6979467e-39
0.018269194 -0.11338757 -0.013947979 1.0342946e-38
0.020029599 -0.11264218 -0.010878459 1.0527323e-38
0.021905718 -0.11264218 -0.010878459 1.2461617e-38
0.023781834 -0.11264218 -0.010878459 1.6055067e-38
0.02565795 -0.11264218 -0.010878459 2.0754821e-38
0.027534069 -0.11264218 -0.010878459 2.1856847e-38
0.029410185 -0.11264218 -0.010878459 2.2316024e-38
0.031286303 -0.11264218 -0.010878459 2.2958873e-38
0.033010386 -0.11192839 -0.0079391152 2.3509886e-38
0.03488135 -0.11192839 -0.0079391152 2.350952e-38
0.036752313 -0.11192839 -0.0079391152 2.258612e-38
0.053590979 -0.11192839 -0.0079391152 2.3233652e-38
0.055167738 -0.11094652 -0.0038957745 2.2588281e-38
0.057031613 -0.11094652 -0.0038957745 2.3232932e-38
0.058665726 -0.11021499 -0.00088335574 2.3509876e-38
0.060524318 -0.11021499 -0.00088335574 2.3509879e-38
0.062382907 -0.11021499 -0.00088335574 2.3417679e-38
0.063997298 -0.10948761 0.0021120161 2.3509879e-38
0.06585063 -0.10948761 0.0021120161 2.350988e-38
0.067703977 -0.10948761 0.0021120161 2.341805e-38
0.069557309 -0.10948761 0.0021120161 2.2497539e-38
-0.043961409 -0.11698125 -0.020948187 1.8992663e-38
-0.04206764 -0.11698125 -0.020948187 2.0375953e-38
-0.04012398 -0.11624874 -0.017953292 2.0836928e-38
-0.038235459 -0.11624874 -0.017953292 1.8163255e-38
-0.036346938 -0.11624874 -0.017953292 1.8347646e-38
-0.034458417 -0.11624874 -0.017953292 1.6965435e-38
-0.032531269 -0.11526908 -0.013947979 1.8810069e-38
-0.030649774 -0.11526908 -0.013947979 2.2406423e-38
-0.028792854 -0.11624874 -0.017953292 2.2867037e-38
-0.026886776 -0.11526908 -0.013947979 2.2038365e-38
-0.025005277 -0.11526908 -0.013947979 2.037885e-38
-0.023123778 -0.11526908 -0.013947979 1.1991226e-38
-0.02124228 -0.11526908 -0.013947979 1.079704e-38
-0.019360781 -0.11526908 -0.013947979 1.0983613e-38
-0.017479282 -0.11526908 -0.013947979 1.4578884e-38
-0.01561662 -0.1145183 -0.010878459 1.6330933e-38
-0.013740502 -0.1145183 -0.010878459 1.4948737e-38
-0.01189273 -0.11379938 -0.0079391152 1.3842765e-38
-0.010021769 -0.11379938 -0.0079391152 1.0154958e-38
-0.0081508048 -0.11379938 -0.0079391152 9.9709266e-39
-0.0062798406 -0.11379938 -0.0079391152 1.0155318e-38
-0.0044088787 -0.11379938 -0.0079391152 1.0985079e-38
-0.002537915 -0.11379938 -0.0079391152 1.1630448e-38
-0.00066695129 -0.11379938 -0.0079391152 1.1077274e-38
0.0012040124 -0.11379938 -0.0079391152 9.4177556e-39
0.0030749743 -0.11379938 -0.0079391152 8.3114109e-39
0.004945938 -0.11379938 -0.0079391152 9.1404555e-39
0.0068169017 -0.11379938 -0.0079391152 1.0523387e-38
0.0086878631 -0.11379938 -0.0079391152 1.0799971e-38
0.010558827 -0.11379938 -0.0079391152 1.1261665e-38
0.012429791 -0.11379938 -0.0079391152 1.0248591e-38
0.014300754 -0.11379938 -0.0079391152 1.0156749e-38
0.016171718 -0.11379938 -0.0079391152 1.0250016e-38
0.018153483 -0.1145183 -0.010878459 1.1541107e-38
0.020029599 -0.1145183 -0.010878459 1.2830755e-38
0.021905718 -0.1145183 -0.010878459 1.2461603e-38
0.023781834 -0.1145183 -0.010878459 1.4302981e-38
0.02565795 -0.1145183 -0.010878459 1.8726906e-38
0.027534069 -0.1145183 -0.010878459 2.0936339e-38
0.02926846 -0.11379938 -0.0079391152 2.1578829e-38
0.031139424 -0.11379938 -0.0079391152 2.1852894e-38
0.033010386 -0.11379938 -0.0079391152 2.2311342e-38
0.03488135 -0.11379938 -0.0079391152 2.1203189e-38
0.036752313 -0.11379938 -0.0079391152 1.7699755e-38
0.051439989 -0.11281042 -0.0038957745 1.7240935e-38
0.053303864 -0.11281042 -0.0038957745 1.6964349e-38
0.055167738 -0.11281042 -0.0038957745 1.6318259e-38
0.056807134 -0.11207359 -0.00088335574 1.7055824e-38
0.058665726 -0.11207359 -0.00088335574 1.8254724e-38
0.060524318 -0.11207359 -0.00088335574 1.8069256e-38
0.062143952 -0.11134095 0.0021120161 1.7608275e-38
0.063997298 -0.11134095 0.0021120161 1.8069256e-38
0.06585063 -0.11134095 0.0021120161 1.8346563e-38
0.067703977 -0.11134095 0.0021120161 1.8255451e-38
0.069557309 -0.11134095 0.0021120161 1.7057631e-38
-0.045789547 -0.11813726 -0.017953292 1.6872163e-38
-0.043901023 -0.11813726 -0.017953292 1.8531324e-38
-0.042012502 -0.11813726 -0.017953292 2.1020604e-38
-0.040057264 -0.11715056 -0.013947979 2.166597e-38
-0.038175769 -0.11715056 -0.013947979 1.7794473e-38
-0.036294267 -0.11715056 -0.013947979 1.8347649e-38
-0.034377787 -0.11639442 -0.010878459 1.7149829e-38
-0.032501671 -0.11639442 -0.010878459 1.7611172e-38
-0.030625554 -0.11639442 -0.010878459 2.2406066e-38
-0.028749438 -0.11639442 -0.010878459 2.2683366e-38
-0.026873322 -0.11639442 -0.010878459 2.2407142e-38
-0.025005277 -0.11715056 -0.013947979 1.816688e-38
-0.023123778 -0.11715056 -0.013947979 8.6725395e-39
-0.02124228 -0.11715056 -0.013947979 8.4917622e-39
-0.019368853 -0.11639442 -0.010878459 1.7620573e-38
-0.017492736 -0.11639442 -0.010878459 1.9833237e-38
-0.01561662 -0.11639442 -0.010878459 2.1213998e-38
-0.013763694 -0.11567034 -0.0079391152 2.1213998e-38
-0.01189273 -0.11567034 -0.0079391152 2.1305834e-38
-0.010021769 -0.11567034 -0.0079391152 1.9556654e-38
-0.0081508048 -0.11567034 -0.0079391152 1.9003489e-38
-0.0063401009 -0.11467429 -0.0038957745 1.9556296e-38
-0.0044762264 -0.11467429 -0.0038957745 2.0386403e-38
-0.0026123519 -0.11467429 -0.0038957745 2.1122163e-38
-0.00074847927 -0.11467429 -0.0038957745 2.0294208e-38
0.0011153952 -0.11467429 -0.0038957745 1.8174459e-38
0.0030749743 -0.11567034 -0.0079391152 1.669934e-38
0.004945938 -0.11567034 -0.0079391152 1.6976645e-38
0.0068169017 -0.11567034 -0.0079391152 1.7989711e-38
0.0085708909 -0.11467429 -0.0038957745 1.9002054e-38
0.010434764 -0.11467429 -0.0038957745 1.8540724e-38
0.012298638 -0.11467429 -0.0038957745 1.7066334e-38
0.014162512 -0.11467429 -0.0038957745 1.6238021e-38
0.016026387 -0.11467429 -0.0038957745 1.6146544e-38
0.017890258 -0.11467429 -0.0038957745 1.6424203e-38
0.019913642 -0.11567034 -0.0079391152 1.6055777e-38
0.021784605 -0.11567034 -0.0079391152 1.1906249e-38
0.023655569 -0.11567034 -0.0079391152 1.3472844e-38
0.025526533 -0.11567034 -0.0079391152 1.8633632e-38
0.027397497 -0.11567034 -0.0079391152 2.1120369e-38
0.02926846 -0.11567034 -0.0079391152 2.1025661e-38
0.031139424 -0.11567034 -0.0079391152 2.0285568e-38
0.033010386 -0.11567034 -0.0079391152 2.0283402e-38
0.03488135 -0.11567034 -0.0079391152 2.000501e-38
0.036752313 -0.11567034 -0.0079391152 1.7331334e-38
0.05308995 -0.11393218 -0.00088335574 1.5858364e-38
0.054948542 -0.11393218 -0.00088335574 1.5397023e-38
0.056807134 -0.11393218 -0.00088335574 1.6226784e-38
0.058437269 -0.1131943 0.0021120161 1.7425326e-38
0.060290616 -0.1131943 0.0021120161 1.7055826e-38
0.062143952 -0.1131943 0.0021120161 1.6410455e-38
0.063997298 -0.1131943 0.0021120161 1.6779239e-38
0.06585063 -0.1131943 0.0021120161 1.7240217e-38
0.067703977 -0.1131943 0.0021120161 1.631898e-38
0.069557309 -0.1131943 0.0021120161 1.6872514e-38
-0.094318047 -0.12498946 -0.037960425 1.5770146e-38
-0.092394441 -0.12498946 -0.037960425 1.4941104e-38
-0.090278536 -0.12422292 -0.034870639 1.355889e-38
-0.088360339 -0.12422292 -0.034870639 1.2637652e-38
-0.086206377 -0.12322696 -0.030856267 1.3006436e-38
-0.084295228 -0.12322696 -0.030856267 1.3835477e-38
-0.082222097 -0.1224993 -0.02792336 1.1805734e-38
-0.080316097 -0.1224993 -0.02792336 1.1436228e-38
-0.045701761 -0.11903207 -0.013947979 1.7240946e-38
-0.043820262 -0.11903207 -0.013947979 1.9914259e-38
-0.041938763 -0.11903207 -0.013947979 2.3325494e-38
-0.040006138 -0.11827053 -0.010878459 2.3233296e-38
-0.038130023 -0.11827053 -0.010878459 1.7424974e-38
-0.036215253 -0.1175413 -0.0079391152 1.6595576e-38
-0.034344286 -0.1175413 -0.0079391152 1.7795201e-38
-0.032473326 -0.1175413 -0.0079391152 1.8256544e-38
-0.030602364 -0.1175413 -0.0079391152 2.2130201e-38
-0.0287314 -0.1175413 -0.0079391152 2.2407142e-38
-0.026860436 -0.1175413 -0.0079391152 2.2591531e-38
-0.024997205 -0.11827053 -0.010878459 1.8720418e-38
-0.023121087 -0.11827053 -0.010878459 8.6725395e-39
-0.021244971 -0.11827053 -0.010878459 1.0241316e-38
-0.019376583 -0.1175413 -0.0079391152 2.158134e-38
-0.017505622 -0.1175413 -0.0079391152 2.1397669e-38
-0.015634658 -0.1175413 -0.0079391152 2.1305834e-38
-0.013763694 -0.1175413 -0.0079391152 2.1856847e-38
-0.01189273 -0.1175413 -0.0079391152 2.2224186e-38
-0.010067848 -0.11653815 -0.0038957745 2.2316019e-38
-0.008203974 -0.11653815 -0.0038957745 2.2316021e-38
-0.0063401009 -0.11653815 -0.0038957745 2.2316024e-38
-0.0044762264 -0.11653815 -0.0038957745 2.2316024e-38
-0.0026123519 -0.11653815 -0.0038957745 2.2224189e-38
-0.00074847927 -0.11653815 -0.0038957745 2.2132353e-38
0.0011153952 -0.11653815 -0.0038957745 2.1948682e-38
0.0029792697 -0.11653815 -0.0038957745 2.1489505e-38
0.0048431423 -0.11653815 -0.0038957745 2.1030327e-38
0.0067070168 -0.11653815 -0.0038957745 2.1121804e-38
0.0084837414 -0.11579077 -0.00088335574 2.2316024e-38
0.010342332 -0.11579077 -0.00088335574 2.2499695e-38
0.012298638 -0.11653815 -0.0038957745 2.2224189e-38
0.014059516 -0.11579077 -0.00088335574 2.1948682e-38
0.015918108 -0.11579077 -0.00088335574 2.158134e-38
0.0177767 -0.11579077 -0.00088335574 2.1305834e-38
0.019635292 -0.11579077 -0.00088335574 1.9648849e-38
0.021618007 -0.11653815 -0.0038957745 1.1444169e-38
0.023481881 -0.11653815 -0.0038957745 1.2918578e-38
0.025345756 -0.11653815 -0.0038957745 1.9555577e-38
0.02720963 -0.11653815 -0.0038957745 2.1948682e-38
0.029073505 -0.11653815 -0.0038957745 2.2131994e-38
0.030937376 -0.11653815 -0.0038957745 2.0286287e-38
0.033010386 -0.1175413 -0.0079391152 1.908594e-38
0.03488135 -0.1175413 -0.0079391152 1.9544757e-38
0.036752313 -0.1175413 -0.0079391152 1.89923e-38
0.05053683 -0.11330278 0.0091450065 1.5583219e-38
0.052377839 -0.11330278 0.0091450065 1.5951283e-38
0.054513868 -0.1143087 0.0050904602 1.5858367e-38
0.05658393 -0.11504765 0.0021120161 1.6872516e-38
0.058437269 -0.11504765 0.0021120161 1.7793754e-38
0.060290616 -0.11504765 0.0021120161 1.7148384e-38
0.062382907 -0.11579077 -0.00088335574 1.6687406e-38
0.063997298 -0.11504765 0.0021120161 1.7148024e-38
0.06585063 -0.11504765 0.0021120161 1.714874e-38
0.067958698 -0.11579077 -0.00088335574 1.6687761e-38
-0.098165244 -0.12691309 -0.037960425 2.2038724e-38
-0.096033081 -0.12614109 -0.034870639 2.240786e-38
-0.0941149 -0.12614109 -0.034870639 2.1948682e-38
-0.092196718 -0.12614109 -0.034870639 2.0750869e-38
-0.090278536 -0.12614109 -0.034870639 1.9736717e-38
-0.088360339 -0.12614109 -0.034870639 1.9091708e-38
-0.086206377 -0.12513812 -0.030856267 1.8815124e-38
-0.084295228 -0.12513812 -0.030856267 1.863037e-38
-0.082222097 -0.12440531 -0.02792336 1.4110624e-38
-0.080316097 -0.12440531 -0.02792336 1.1344032e-38
-0.078561798 -0.12513812 -0.030856267 9.3150096e-39
-0.045701761 -0.12091358 -0.013947979 1.7425337e-38
-0.043820262 -0.12091358 -0.013947979 2.009865e-38
-0.041828141 -0.11941226 -0.0079391152 2.3509886e-38
-0.039957177 -0.11941226 -0.0079391152 2.3509886e-38
-0.038086213 -0.11941226 -0.0079391152 1.7056192e-38
-0.036215253 -0.11941226 -0.0079391152 1.5581424e-38
-0.034298208 -0.11840202 -0.0038957745 1.8255822e-38
-0.032434333 -0.11840202 -0.0038957745 1.9915709e-38
-0.03057046 -0.11840202 -0.0038957745 2.2498619e-38
-0.0287314 -0.11941226 -0.0079391152 2.2775202e-38
-0.026860436 -0.11941226 -0.0079391152 2.2038724e-38
-0.024989475 -0.11941226 -0.0079391152 1.79825e-38
-0.023118511 -0.11941226 -0.0079391152 9.5012296e-39
-0.021247547 -0.11941226 -0.0079391152 1.1436999e-38
-0.019376583 -0.11941226 -0.0079391152 2.222383e-38
-0.017505622 -0.11941226 -0.0079391152 2.2224189e-38
-0.015634658 -0.11941226 -0.0079391152 2.2591531e-38
-0.013763694 -0.11941226 -0.0079391152 2.2775202e-38
-0.011931723 -0.11840202 -0.0038957745 2.3142534e-38
-0.010067848 -0.11840202 -0.0038957745 2.2958853e-38
-0.008203974 -0.11840202 -0.0038957745 2.3142168e-38
-0.0063401009 -0.11840202 -0.0038957745 2.3418047e-38
-0.0044762264 -0.11840202 -0.0038957745 2.3049273e-38
-0.0026678122 -0.11764936 -0.00088335574 2.2588661e-38
-0.00080922013 -0.11764936 -0.00088335574 2.2497901e-38
0.0010493738 -0.11764936 -0.00088335574 2.2775202e-38
0.0029079658 -0.11764936 -0.00088335574 2.2591531e-38
0.0047665578 -0.11764936 -0.00088335574 2.2499695e-38
0.0066251499 -0.11764936 -0.00088335574 2.2775202e-38
0.0084837414 -0.11764936 -0.00088335574 2.341805e-38
0.010342332 -0.11764936 -0.00088335574 2.3509886e-38
0.012200924 -0.11764936 -0.00088335574 2.2958155e-38
0.014059516 -0.11764936 -0.00088335574 2.2407142e-38
0.015918108 -0.11764936 -0.00088335574 2.2499695e-38
0.0177767 -0.11764936 -0.00088335574 2.2132353e-38
0.019635292 -0.11764936 -0.00088335574 2.1856847e-38
0.021493888 -0.11764936 -0.00088335574 1.3470295e-38
0.023223808 -0.11690097 0.0021120161 1.291784e-38
0.025077147 -0.11690097 0.0021120161 1.9555207e-38
0.026930487 -0.11690097 0.0021120161 2.2132353e-38
0.028783826 -0.11690097 0.0021120161 2.1763576e-38
0.030637169 -0.11690097 0.0021120161 2.0378482e-38
0.033010386 -0.11941226 -0.0079391152 1.8164345e-38
0.048089456 -0.11289944 0.018127784 1.8534205e-38
0.049914714 -0.11289944 0.018127784 1.484638e-38
0.052377839 -0.11514379 0.0091450065 1.4845657e-38
0.054513868 -0.1161568 0.0050904602 1.5122244e-38
0.056361992 -0.1161568 0.0050904602 1.650446e-38
0.058665726 -0.11764936 -0.00088335574 1.7240946e-38
0.060524318 -0.11764936 -0.00088335574 1.6780324e-38
0.062382907 -0.11764936 -0.00088335574 1.6872519e-38
0.064241514 -0.11764936 -0.00088335574 1.7424974e-38
0.066100106 -0.11764936 -0.00088335574 1.724058e-38
0.067958698 -0.11764936 -0.00088335574 1.7701913e-38
-0.10178763 -0.12805928 -0.034870639 2.2129835e-38
-0.099869445 -0.12805928 -0.034870639 2.2958873e-38
-0.097951263 -0.12805928 -0.034870639 2.2498978e-38
-0.096033081 -0.12805928 -0.034870639 2.2867037e-38
-0.0941149 -0.12805928 -0.034870639 2.2775202e-38
-0.092196718 -0.12805928 -0.034870639 2.2499695e-38
-0.090028659 -0.12704925 -0.030856267 2.2499695e-38
-0.08811751 -0.12704925 -0.030856267 2.2316024e-38
-0.086206377 -0.12704925 -0.030856267 2.1488429e-38
-0.084295228 -0.12704925 -0.030856267 1.9090992e-38
-0.082222097 -0.12631132 -0.02792336 1.6323681e-38
-0.080316097 -0.12631132 -0.02792336 1.420282e-38
-0.078410089 -0.12631132 -0.02792336 1.5953814e-38
-0.043961409 -0.12455635 -0.020948187 1.8808627e-38
-0.041828141 -0.12128322 -0.0079391152 2.3048907e-38
-0.039957177 -0.12128322 -0.0079391152 2.3417691e-38
-0.038086213 -0.12128322 -0.0079391152 1.6963999e-38
-0.036215253 -0.12128322 -0.0079391152 1.6410469e-38
-0.034298208 -0.12026589 -0.0038957745 1.8808274e-38
-0.032434333 -0.12026589 -0.0038957745 2.12068e-38
-0.03057046 -0.12026589 -0.0038957745 2.2867037e-38
-0.0287314 -0.12128322 -0.0079391152 2.2591531e-38
-0.026860436 -0.12128322 -0.0079391152 1.7983582e-38
-0.024989475 -0.12128322 -0.0079391152 1.4664553e-38
-0.023118511 -0.12128322 -0.0079391152 8.4867385e-39
-0.021247547 -0.12128322 -0.0079391152 1.4109957e-38
-0.019376583 -0.12128322 -0.0079391152 2.1945095e-38
-0.017523345 -0.12026589 -0.0038957745 2.2497543e-38
-0.01565947 -0.12026589 -0.0038957745 2.3142544e-38
-0.013795596 -0.12026589 -0.0038957745 2.2680488e-38
-0.011931723 -0.12026589 -0.0038957745 2.3509879e-38
-0.010067848 -0.12026589 -0.0038957745 2.3508793e-38
-0.0082435869 -0.11950795 -0.00088335574 2.3509514e-38
-0.0063849962 -0.11950795 -0.00088335574 2.350952e-38
-0.0045264042 -0.11950795 -0.00088335574 2.3509527e-38
-0.0026678122 -0.11950795 -0.00088335574 2.3324421e-38
-0.00080922013 -0.11950795 -0.00088335574 2.2863809e-38
0.0010493738 -0.11950795 -0.00088335574 2.2680855e-38
0.0029079658 -0.11950795 -0.00088335574 2.2865961e-38
0.0047665578 -0.11950795 -0.00088335574 2.2867037e-38
0.0066251499 -0.11950795 -0.00088335574 2.3234376e-38
0.0084837414 -0.11950795 -0.00088335574 2.3508437e-38
0.010342332 -0.11950795 -0.00088335574 2.3509514e-38
0.012200924 -0.11950795 -0.00088335574 2.3509876e-38
0.013957104 -0.11875431 0.0021120161 2.3418045e-38
0.015810447 -0.11875431 0.0021120161 2.2683362e-38
0.017663786 -0.11875431 0.0021120161 2.240786e-38
0.019517126 -0.11875431 0.0021120161 2.2499695e-38
0.021370465 -0.11875431 0.0021120161 1.3006432e-38
0.023223808 -0.11875431 0.0021120161 1.6141805e-38
0.025077147 -0.11875431 0.0021120161 2.1396952e-38
0.026930487 -0.11875431 0.0021120161 2.2132353e-38
0.028783826 -0.11875431 0.0021120161 2.1117489e-38
0.030488336 -0.11800493 0.0050904602 2.0931656e-38
0.032336455 -0.11800493 0.0050904602 1.8809715e-38
0.048089456 -0.11472471 0.018127784 1.8534926e-38
0.049914714 -0.11472471 0.018127784 1.5584666e-38
0.052169133 -0.11624531 0.012084112 1.4293208e-38
0.054218847 -0.1169848 0.0091450065 1.5030772e-38
0.056059856 -0.1169848 0.0091450065 1.6689214e-38
0.058895487 -0.12026589 -0.0038957745 1.7426419e-38
0.060524318 -0.11950795 -0.00088335574 1.7425337e-38
0.062382907 -0.11950795 -0.00088335574 1.8070706e-38
0.064241514 -0.11950795 -0.00088335574 1.8716076e-38
0.066350982 -0.12026589 -0.0038957745 1.8439123e-38
-0.10393605 -0.13076027 -0.037960425 2.2591531e-38
-0.10178763 -0.12997745 -0.034870639 2.2775202e-38
-0.099869445 -0.12997745 -0.034870639 2.2775202e-38
-0.097951263 -0.12997745 -0.034870639 2.2864879e-38
-0.096033081 -0.12997745 -0.034870639 2.3509886e-38
-0.093850955 -0.12896039 -0.030856267 2.3509883e-38
-0.091939807 -0.12896039 -0.030856267 2.3509886e-38
-0.090028659 -0.12896039 -0.030856267 2.3049273e-38
-0.08811751 -0.12896039 -0.030856267 2.3142544e-38
-0.086206377 -0.12896039 -0.030856267 2.2683366e-38
-0.084295228 -0.12896039 -0.030856267 1.872077e-38
-0.082222097 -0.12821732 -0.02792336 1.7799537e-38
-0.080316097 -0.12821732 -0.02792336 1.5310611e-38
-0.078410089 -0.12821732 -0.02792336 1.558647e-38
-0.039957177 -0.12315418 -0.0079391152 2.3325138e-38
-0.038086213 -0.12315418 -0.0079391152 1.834586e-38
-0.036162082 -0.12212978 -0.0038957745 1.7147674e-38
-0.034298208 -0.12212978 -0.0038957745 1.8346928e-38
-0.032434333 -0.12212978 -0.0038957745 2.1298981e-38
-0.030602364 -0.12315418 -0.0079391152 2.2499687e-38
-0.0287314 -0.12315418 -0.0079391152 2.2316024e-38
-0.026860436 -0.12315418 -0.0079391152 1.5680498e-38
-0.024989475 -0.12315418 -0.0079391152 1.2269656e-38
-0.023118511 -0.12315418 -0.0079391152 9.8718562e-39
-0.021251092 -0.12212978 -0.0038957745 1.3925565e-38
-0.019387217 -0.12212978 -0.0038957745 2.2681931e-38
-0.017523345 -0.12212978 -0.0038957745 2.3142185e-38
-0.01565947 -0.12212978 -0.0038957745 2.3417333e-38
-0.013819365 -0.12136655 -0.00088335574 2.3508091e-38
-0.011960773 -0.12136655 -0.00088335574 2.3508809e-38
-0.010102179 -0.12136655 -0.00088335574 2.3508451e-38
-0.0082435869 -0.12136655 -0.00088335574 2.350773e-38
-0.0064296364 -0.12060766 0.0021120161 2.3509161e-38
-0.004576297 -0.12060766 0.0021120161 2.3509521e-38
-0.0026678122 -0.12136655 -0.00088335574 2.3509527e-38
-0.0008696164 -0.12060766 0.0021120161 2.3325138e-38
0.00098372484 -0.12060766 0.0021120161 2.295672e-38
0.0028370642 -0.12060766 0.0021120161 2.3417691e-38
0.0047665578 -0.12136655 -0.00088335574 2.3326213e-38
0.0066251499 -0.12136655 -0.00088335574 2.3509879e-38
0.0084837414 -0.12136655 -0.00088335574 2.3509879e-38
0.010342332 -0.12136655 -0.00088335574 2.3416603e-38
0.012103764 -0.12060766 0.0021120161 2.3416245e-38
0.013957104 -0.12060766 0.0021120161 2.3509886e-38
0.015810447 -0.12060766 0.0021120161 2.3234379e-38
0.017663786 -0.12060766 0.0021120161 2.2681931e-38
0.019517126 -0.12060766 0.0021120161 2.093094e-38
0.021370465 -0.12060766 0.0021120161 1.8811162e-38
0.023095863 -0.11985306 0.0050904602 2.1208249e-38
0.024943979 -0.11985306 0.0050904602 2.2775202e-38
0.0267921 -0.11985306 0.0050904602 2.2867037e-38
0.028640216 -0.11985306 0.0050904602 2.0838744e-38
0.030285729 -0.11882581 0.0091450065 1.973275e-38
0.03212674 -0.11882581 0.0091450065 1.9270692e-38
0.05033328 -0.11808117 0.012084112 1.5769417e-38
0.052169133 -0.11808117 0.012084112 1.4570514e-38
0.054218847 -0.11882581 0.0091450065 1.4754186e-38
0.056059856 -0.11882581 0.0091450065 1.5306279e-38
0.058210108 -0.11985306 0.0050904602 1.613568e-38
0.060524318 -0.12136655 -0.00088335574 1.7517533e-38
0.062382907 -0.12136655 -0.00088335574 1.8439489e-38
0.064487115 -0.12212978 -0.0038957745 1.8900104e-38
-0.10393605 -0.13268389 -0.037960425 2.222383e-38
-0.10201246 -0.13268389 -0.037960425 2.2775202e-38
-0.099869445 -0.13189565 -0.034870639 2.2958873e-38
-0.097951263 -0.13189565 -0.034870639 2.3509886e-38
-0.096033081 -0.13189565 -0.034870639 2.350952e-38
-0.093850955 -0.13087155 -0.030856267 2.3508077e-38
-0.091939807 -0.13087155 -0.030856267 2.3509161e-38
-0.090028659 -0.13087155 -0.030856267 2.3509524e-38
-0.08811751 -0.13087155 -0.030856267 2.3509886e-38
-0.086206377 -0.13087155 -0.030856267 2.2589737e-38
-0.084295228 -0.13087155 -0.030856267 1.7520785e-38
-0.082222097 -0.13012333 -0.02792336 1.6693189e-38
-0.080316097 -0.13012333 -0.02792336 1.5219497e-38
-0.078561798 -0.13087155 -0.030856267 1.6324759e-38
-0.039889827 -0.12399365 -0.0038957745 2.3509527e-38
-0.038025953 -0.12399365 -0.0038957745 2.009758e-38
-0.036162082 -0.12399365 -0.0038957745 2.0189048e-38
-0.034298208 -0.12399365 -0.0038957745 2.0282673e-38
-0.032434333 -0.12399365 -0.0038957745 2.1943625e-38
-0.030602364 -0.12502514 -0.0079391152 2.2223097e-38
-0.0287314 -0.12502514 -0.0079391152 2.2132353e-38
-0.026860436 -0.12502514 -0.0079391152 1.4852187e-38
-0.024989475 -0.12502514 -0.0079391152 1.1626821e-38
-0.023118511 -0.12502514 -0.0079391152 9.9655064e-39
-0.021251092 -0.12399365 -0.0038957745 1.3742259e-38
-0.019387217 -0.12399365 -0.0038957745 2.2313872e-38
-0.017523345 -0.12399365 -0.0038957745 2.3142185e-38
-0.015677957 -0.12322514 -0.00088335574 2.3509527e-38
-0.013819365 -0.12322514 -0.00088335574 2.3508092e-38
-0.011989657 -0.12246101 0.0021120161 2.3508092e-38
-0.010136317 -0.12246101 0.0021120161 2.3507374e-38
-0.0082829762 -0.12246101 0.0021120161 2.3507733e-38
-0.0064296364 -0.12246101 0.0021120161 2.3509168e-38
-0.004576297 -0.12246101 0.0021120161 2.341769e-38
-0.0027229558 -0.12246101 0.0021120161 2.341805e-38
-0.0008696164 -0.12246101 0.0021120161 2.323402e-38
0.00098372484 -0.12246101 0.0021120161 2.3233662e-38
0.002766565 -0.12170117 0.0050904602 2.3233662e-38
0.0046146833 -0.12170117 0.0050904602 2.3325856e-38
0.0064628017 -0.12170117 0.0050904602 2.3233296e-38
0.0083970856 -0.12246101 0.0021120161 2.3048545e-38
0.010250425 -0.12246101 0.0021120161 2.3509527e-38
0.012103764 -0.12246101 0.0021120161 2.3509527e-38
0.013855273 -0.12170117 0.0050904602 2.3509527e-38
0.015703389 -0.12170117 0.0050904602 2.3417691e-38
0.01755151 -0.12170117 0.0050904602 2.3234379e-38
0.019399626 -0.12170117 0.0050904602 2.1851101e-38
0.021247746 -0.12170117 0.0050904602 1.9454735e-38
0.023095863 -0.12170117 0.0050904602 2.2958155e-38
0.024943979 -0.12170117 0.0050904602 2.2958873e-38
0.0267921 -0.12170117 0.0050904602 2.240499e-38
0.028640216 -0.12170117 0.0050904602 2.1114252e-38
0.030285729 -0.12066682 0.0091450065 2.0745823e-38
0.03212674 -0.12066682 0.0091450065 1.9916061e-38
0.048089456 -0.11837523 0.018127784 1.5308442e-38
0.049914714 -0.11837523 0.018127784 1.5031855e-38
0.051953938 -0.11914389 0.01511465 1.5215883e-38
0.054004986 -0.11991702 0.012084112 1.5031492e-38
0.055840846 -0.11991702 0.012084112 1.5029693e-38
0.057900865 -0.12066682 0.0091450065 1.5306279e-38
0.059741873 -0.12066682 0.0091450065 1.6135677e-38
0.061582878 -0.12066682 0.0091450065 1.6872163e-38
0.064487115 -0.12399365 -0.0038957745 1.6871803e-38
0.066350982 -0.12399365 -0.0038957745 1.6410819e-38
0.067907304 -0.11761098 0.021123514 1.5673246e-38
0.069727316 -0.11761098 0.021123514 1.5857637e-38
0.07119225 -0.11660783 0.025055751 1.7240216e-38
0.073005363 -0.11660783 0.025055751 1.8991934e-38
0.07518734 -0.11761098 0.021123514 1.9545111e-38
0.077007338 -0.11761098 0.021123514 2.0558907e-38
0.078444704 -0.11660783 0.025055751 2.2495015e-38
0.080257818 -0.11660783 0.025055751 2.1112083e-38
-0.10370581 -0.13381381 -0.034870639 2.1763576e-38
-0.10178763 -0.13381381 -0.034870639 2.2775202e-38
-0.099584386 -0.13278268 -0.030856267 2.2958873e-38
-0.097673237 -0.13278268 -0.030856267 2.3509886e-38
-0.095762089 -0.13278268 -0.030856267 2.3509879e-38
-0.093850955 -0.13278268 -0.030856267 2.3508074e-38
-0.091939807 -0.13278268 -0.030856267 2.3509154e-38
-0.090028659 -0.13278268 -0.030856267 2.350916e-38
-0.08811751 -0.13278268 -0.030856267 2.3509883e-38
-0.086206377 -0.13278268 -0.030856267 2.2864882e-38
-0.084295228 -0.13278268 -0.030856267 1.798068e-38
-0.082222097 -0.13202934 -0.02792336 1.6785385e-38
-0.080316097 -0.13202934 -0.02792336 1.5403532e-38
-0.078410089 -0.13202934 -0.02792336 1.6416956e-38
-0.041753702 -0.12585752 -0.0038957745 2.341805e-38
-0.039889827 -0.12585752 -0.0038957745 2.3509527e-38
-0.038025953 -0.12585752 -0.0038957745 2.2402467e-38
-0.036162082 -0.12585752 -0.0038957745 2.3324775e-38
-0.034298208 -0.12585752 -0.0038957745 2.2680478e-38
-0.032434333 -0.12585752 -0.0038957745 2.3142532e-38
-0.030602364 -0.1268961 -0.0079391152 2.2683365e-38
-0.0287314 -0.1268961 -0.0079391152 2.2132353e-38
-0.026842713 -0.12585752 -0.0038957745 1.4852556e-38
-0.024978841 -0.12585752 -0.0038957745 1.2272558e-38
-0.023114966 -0.12585752 -0.0038957745 1.0888553e-38
-0.021251092 -0.12585752 -0.0038957745 1.4664951e-38
-0.019387217 -0.12585752 -0.0038957745 2.2038724e-38
-0.017523345 -0.12585752 -0.0038957745 2.2591172e-38
-0.015677957 -0.12508373 -0.00088335574 2.2958514e-38
-0.013842998 -0.12431435 0.0021120161 2.3416615e-38
-0.011989657 -0.12431435 0.0021120161 2.341518e-38
-0.01017026 -0.1235493 0.0050904602 2.3507733e-38
-0.0083221439 -0.1235493 0.0050904602 2.3508092e-38
-0.0064740251 -0.1235493 0.0050904602 2.3417333e-38
-0.0046259067 -0.1235493 0.0050904602 2.3142185e-38
-0.0027777902 -0.1235493 0.0050904602 2.2682649e-38
-0.00092967181 -0.1235493 0.0050904602 2.2774843e-38
0.00091844657 -0.1235493 0.0050904602 2.2774484e-38
0.002766565 -0.1235493 0.0050904602 2.2774484e-38
0.0046146833 -0.1235493 0.0050904602 2.2867037e-38
0.0064628017 -0.1235493 0.0050904602 2.3050349e-38
0.0083109178 -0.1235493 0.0050904602 2.341805e-38
0.010159036 -0.1235493 0.0050904602 2.341805e-38
0.012007153 -0.1235493 0.0050904602 2.341805e-38
0.013855273 -0.1235493 0.0050904602 2.2220237e-38
0.015703389 -0.1235493 0.0050904602 2.2497184e-38
0.01755151 -0.1235493 0.0050904602 2.2958873e-38
0.019399626 -0.1235493 0.0050904602 2.2497901e-38
0.021247746 -0.1235493 0.0050904602 2.1575958e-38
0.022921694 -0.12250783 0.0091450065 2.2221319e-38
0.024762703 -0.12250783 0.0091450065 2.1668871e-38
0.0267921 -0.1235493 0.0050904602 2.1022781e-38
0.028640216 -0.1235493 0.0050904602 2.0930943e-38
0.030285729 -0.12250783 0.0091450065 2.1023136e-38
0.03212674 -0.12250783 0.0091450065 2.0008981e-38
0.046264198 -0.12020047 0.018127784 1.4754552e-38
0.048089456 -0.12020047 0.018127784 1.512405e-38
0.049914714 -0.12020047 0.018127784 1.5677224e-38
0.051953938 -0.12097444 0.01511465 1.549247e-38
0.053784478 -0.12097444 0.01511465 1.5215883e-38
0.055615019 -0.12097444 0.01511465 1.5121888e-38
0.057900865 -0.12250783 0.0091450065 1.5214084e-38
0.059512559 -0.12175287 0.012084112 1.5859093e-38
0.061348408 -0.12175287 0.012084112 1.6411185e-38
0.063184261 -0.12175287 0.012084112 1.567326e-38
0.065020129 -0.12175287 0.012084112 1.4474714e-38
0.067907304 -0.11943097 0.021123514 1.4751653e-38
0.069727316 -0.11943097 0.021123514 1.484385e-38
0.07119225 -0.11842094 0.025055751 1.5488863e-38
0.073005363 -0.11842094 0.025055751 1.6226428e-38
0.07518734 -0.11943097 0.021123514 1.6503018e-38
0.077007338 -0.11943097 0.021123514 1.7978148e-38
0.078444704 -0.11842094 0.025055751 2.0375237e-38
0.080257818 -0.11842094 0.025055751 1.9913903e-38
0.082070932 -0.11842094 0.025055751 1.5857295e-38
-0.10340667 -0.13469382 -0.030856267 2.1487711e-38
-0.10149553 -0.13469382 -0.030856267 2.2499695e-38
-0.099584386 -0.13469382 -0.030856267 2.2867037e-38
-0.097673237 -0.13469382 -0.030856267 2.3142542e-38
-0.095762089 -0.13469382 -0.030856267 2.350988e-38
-0.093850955 -0.13469382 -0.030856267 2.3509517e-38
-0.091939807 -0.13469382 -0.030856267 2.3509517e-38
-0.089846104 -0.13393532 -0.02792336 2.3140016e-38
-0.087940112 -0.13393532 -0.02792336 2.350988e-38
-0.086034104 -0.13393532 -0.02792336 2.341805e-38
-0.084128097 -0.13393532 -0.02792336 2.0193375e-38
-0.082222097 -0.13393532 -0.02792336 1.9183193e-38
-0.080316097 -0.13393532 -0.02792336 1.6418765e-38
-0.078410089 -0.13393532 -0.02792336 1.5771952e-38
-0.076504096 -0.13393532 -0.02792336 1.6693897e-38
-0.074598089 -0.13393532 -0.02792336 1.6968317e-38
-0.045481451 -0.12772138 -0.0038957745 2.2958504e-38
-0.043617576 -0.12772138 -0.0038957745 2.3234374e-38
-0.041753702 -0.12772138 -0.0038957745 2.2957428e-38
-0.039889827 -0.12772138 -0.0038957745 2.3325497e-38
-0.038025953 -0.12772138 -0.0038957745 2.3509527e-38
-0.03608308 -0.12616767 0.0021120161 2.3509527e-38
-0.034229741 -0.12616767 0.0021120161 2.2773037e-38
-0.032376397 -0.12616767 0.0021120161 2.2774832e-38
-0.03052306 -0.12616767 0.0021120161 2.1302237e-38
-0.028706588 -0.12772138 -0.0038957745 2.001368e-38
-0.026842713 -0.12772138 -0.0038957745 1.2640591e-38
-0.024978841 -0.12772138 -0.0038957745 1.033754e-38
-0.023114966 -0.12772138 -0.0038957745 9.2308434e-39
-0.021251092 -0.12772138 -0.0038957745 1.171615e-38
-0.019387217 -0.12772138 -0.0038957745 1.7338612e-38
-0.017536549 -0.12694232 -0.00088335574 1.77985e-38
-0.015696337 -0.12616767 0.0021120161 1.7889604e-38
-0.013842998 -0.12616767 0.0021120161 1.8347708e-38
-0.012018379 -0.1253974 0.0050904602 1.8070045e-38
-0.01017026 -0.1253974 0.0050904602 1.8715061e-38
-0.0083221439 -0.1253974 0.0050904602 1.8070765e-38
-0.0065344512 -0.12434883 0.0091450065 1.8533167e-38
-0.0046934425 -0.12434883 0.0091450065 1.798143e-38
-0.0028524338 -0.12434883 0.0091450065 1.687653e-38
-0.0010114252 -0.12434883 0.0091450065 1.6692506e-38
0.00091844657 -0.1253974 0.0050904602 1.6230823e-38
0.002766565 -0.1253974 0.0050904602 1.5678002e-38
0.0046146833 -0.1253974 0.0050904602 1.687653e-38
0.0064628017 -0.1253974 0.0050904602 1.7797749e-38
0.0083109178 -0.1253974 0.0050904602 1.8349111e-38
0.010159036 -0.1253974 0.0050904602 2.1390479e-38
0.012007153 -0.1253974 0.0050904602 2.3142544e-38
0.013855273 -0.1253974 0.0050904602 2.2958873e-38
0.015703389 -0.1253974 0.0050904602 2.2867037e-38
0.01755151 -0.1253974 0.0050904602 2.2313872e-38
0.019399626 -0.1253974 0.0050904602 2.0101912e-38
0.021247746 -0.1253974 0.0050904602 1.908776e-38
0.022921694 -0.12434883 0.0091450065 2.1023869e-38
0.024762703 -0.12434883 0.0091450065 2.0470695e-38
0.0267921 -0.1253974 0.0050904602 2.0839475e-38
0.028640216 -0.1253974 0.0050904602 2.1761065e-38
0.030285729 -0.12434883 0.0091450065 2.1577031e-38
0.031974718 -0.12358873 0.012084112 2.0469962e-38
0.033810575 -0.12358873 0.012084112 1.8441655e-38
0.046264198 -0.12202574 0.018127784 1.5676508e-38
0.048089456 -0.12202574 0.018127784 1.5585029e-38
0.049914714 -0.12202574 0.018127784 1.576942e-38
0.051953938 -0.12280498 0.01511465 1.549247e-38
0.053784478 -0.12280498 0.01511465 1.5400274e-38
0.055615019 -0.12280498 0.01511465 1.5215163e-38
0.057900865 -0.12434883 0.0091450065 1.5398475e-38
0.059512559 -0.12358873 0.012084112 1.6320071e-38
0.061348408 -0.12358873 0.012084112 1.6781049e-38
0.063184261 -0.12358873 0.012084112 1.5765818e-38
0.066087306 -0.121251 0.021123514 1.4935689e-38
0.067907304 -0.121251 0.021123514 1.4936405e-38
0.069727316 -0.121251 0.021123514 1.4659102e-38
0.071547315 -0.121251 0.021123514 1.4291041e-38
0.073367327 -0.121251 0.021123514 1.4290325e-38
0.07518734 -0.121251 0.021123514 1.4014099e-38
0.077007338 -0.121251 0.021123514 1.5396317e-38
0.078827351 -0.121251 0.021123514 1.7794122e-38
0.080647349 -0.121251 0.021123514 1.9176338e-38
0.082467362 -0.121251 0.021123514 1.6042405e-38
0.08428736 -0.121251 0.021123514 1.5304121e-38
0.086107373 -0.121251 0.021123514 9.5887084e-39
-0.10531782 -0.13660498 -0.030856267 9.7788688e-39
-0.10340667 -0.13660498 -0.030856267 2.1580623e-38
-0.10128212 -0.13584132 -0.02792336 2.2316024e-38
-0.099376112 -0.13584132 -0.02792336 2.2316024e-38
-0.09747012 -0.13584132 -0.02792336 2.2867037e-38
-0.095564112 -0.13584132 -0.02792336 2.3142541e-38
-0.093658105 -0.13584132 -0.02792336 2.350988e-38
-0.091752112 -0.13584132 -0.02792336 2.3509879e-38
-0.089657277 -0.13505147 -0.024889722 2.3233652e-38
-0.087756604 -0.13505147 -0.024889722 2.3418047e-38
-0.085855916 -0.13505147 -0.024889722 2.3234379e-38
-0.083955228 -0.13505147 -0.024889722 2.0655072e-38
-0.082054555 -0.13505147 -0.024889722 2.0289904e-38
-0.080153868 -0.13505147 -0.024889722 1.70645e-38
-0.07825318 -0.13505147 -0.024889722 1.5772316e-38
-0.076352499 -0.13505147 -0.024889722 1.6048892e-38
-0.074451819 -0.13505147 -0.024889722 1.595489e-38
-0.045481451 -0.12958528 -0.0038957745 2.1943273e-38
-0.043617576 -0.12958528 -0.0038957745 2.3418043e-38
-0.041753702 -0.12958528 -0.0038957745 2.3234369e-38
-0.039889827 -0.12958528 -0.0038957745 2.3509883e-38
-0.038025953 -0.12958528 -0.0038957745 2.3509886e-38
-0.03608308 -0.12802102 0.0021120161 2.3509883e-38
-0.034229741 -0.12802102 0.0021120161 2.3142542e-38
-0.032376397 -0.12802102 0.0021120161 2.2683366e-38
-0.03052306 -0.12802102 0.0021120161 2.0196979e-38
-0.028688101 -0.12880091 -0.00088335574 1.8447454e-38
-0.026842713 -0.12958528 -0.0038957745 1.1627172e-38
-0.024978841 -0.12958528 -0.0038957745 1.0062043e-38
-0.023114966 -0.12958528 -0.0038957745 9.415969e-39
-0.021251092 -0.12958528 -0.0038957745 1.0888567e-38
-0.019395141 -0.12880091 -0.00088335574 1.485152e-38
-0.017536549 -0.12880091 -0.00088335574 1.4481638e-38
-0.015696337 -0.12802102 0.0021120161 1.4019569e-38
-0.013866497 -0.12724553 0.0050904602 1.5214877e-38
-0.012018379 -0.12724553 0.0050904602 1.5121965e-38
-0.010216469 -0.12618984 0.0091450065 1.6043568e-38
-0.0083754603 -0.12618984 0.0091450065 1.4476956e-38
-0.0065344512 -0.12618984 0.0091450065 1.4479103e-38
-0.0046934425 -0.12618984 0.0091450065 1.4941876e-38
-0.0028524338 -0.12618984 0.0091450065 1.4296875e-38
-0.0010114252 -0.12618984 0.0091450065 1.4297244e-38
0.00091844657 -0.12724553 0.0050904602 1.2913963e-38
0.002766565 -0.12724553 0.0050904602 1.1715414e-38
0.0046146833 -0.12724553 0.0050904602 1.4389071e-38
0.0064628017 -0.12724553 0.0050904602 1.6416635e-38
0.0083109178 -0.12724553 0.0050904602 1.4938605e-38
0.010159036 -0.12724553 0.0050904602 1.7519353e-38
0.012007153 -0.12724553 0.0050904602 2.0654369e-38
0.013716647 -0.12618984 0.0091450065 2.2775202e-38
0.015557656 -0.12618984 0.0091450065 2.2499695e-38
0.01755151 -0.12724553 0.0050904602 1.9826053e-38
0.019239673 -0.12618984 0.0091450065 1.7337131e-38
0.021080682 -0.12618984 0.0091450065 1.6691761e-38
0.022921694 -0.12618984 0.0091450065 1.8812261e-38
0.024762703 -0.12618984 0.0091450065 1.7982856e-38
0.026603712 -0.12618984 0.0091450065 1.9180678e-38
0.02844472 -0.12618984 0.0091450065 2.0840554e-38
0.030285729 -0.12618984 0.0091450065 2.1116417e-38
0.031974718 -0.12542458 0.012084112 2.0378131e-38
0.033810575 -0.12542458 0.012084112 1.8626768e-38
0.048292849 -0.12463553 0.01511465 1.6229679e-38
0.05012339 -0.12463553 0.01511465 1.6137483e-38
0.051953938 -0.12463553 0.01511465 1.6875404e-38
0.05356523 -0.12385099 0.018127784 1.6598818e-38
0.055390488 -0.12385099 0.018127784 1.5676142e-38
0.05744556 -0.12463553 0.01511465 1.512189e-38
0.059276108 -0.12463553 0.01511465 1.5858736e-38
0.061106652 -0.12463553 0.01511465 1.6688496e-38
0.062937185 -0.12463553 0.01511465 1.576582e-38
0.064267293 -0.123071 0.021123514 1.382971e-38
0.066087306 -0.123071 0.021123514 1.4936055e-38
0.067907304 -0.123071 0.021123514 1.4937131e-38
0.069727316 -0.123071 0.021123514 1.4567272e-38
0.071547315 -0.123071 0.021123514 1.4015178e-38
0.073367327 -0.123071 0.021123514 1.4198493e-38
0.075468346 -0.12385099 0.018127784 1.4199572e-38
0.077007338 -0.123071 0.021123514 1.576582e-38
0.078827351 -0.123071 0.021123514 1.7794844e-38
0.080647349 -0.123071 0.021123514 1.9269254e-38
0.082467362 -0.123071 0.021123514 1.7057636e-38
0.08428736 -0.123071 0.021123514 1.5581427e-38
0.086419895 -0.12385099 0.018127784 9.3132006e-39
-0.10509412 -0.13774733 -0.02792336 1.0517153e-38
-0.10318813 -0.13774733 -0.02792336 2.1765011e-38
-0.10128212 -0.13774733 -0.02792336 2.2132353e-38
-0.099376112 -0.13774733 -0.02792336 2.2040518e-38
-0.09747012 -0.13774733 -0.02792336 2.2499695e-38
-0.095564112 -0.13774733 -0.02792336 2.2499695e-38
-0.093658105 -0.13774733 -0.02792336 2.2591529e-38
-0.091557965 -0.13695215 -0.024889722 2.2958873e-38
-0.089657277 -0.13695215 -0.024889722 2.2958873e-38
-0.08751817 -0.13591899 -0.020948187 2.2867037e-38
-0.085624397 -0.13591899 -0.020948187 2.240786e-38
-0.083955228 -0.13695215 -0.024889722 1.8352342e-38
-0.082054555 -0.13695215 -0.024889722 1.7616955e-38
-0.080153868 -0.13695215 -0.024889722 1.5865604e-38
-0.07825318 -0.13695215 -0.024889722 1.5588648e-38
-0.076352499 -0.13695215 -0.024889722 1.6140734e-38
-0.074451819 -0.13695215 -0.024889722 1.5494275e-38
-0.072551131 -0.13695215 -0.024889722 1.4755265e-38
-0.070786089 -0.13774733 -0.02792336 1.4661989e-38
-0.045481451 -0.13144915 -0.0038957745 1.8532035e-38
-0.043617576 -0.13144915 -0.0038957745 2.0099718e-38
-0.041698243 -0.13065951 -0.00088335574 1.9823128e-38
-0.039839651 -0.13065951 -0.00088335574 1.9638022e-38
-0.038025953 -0.13144915 -0.0038957745 1.8808622e-38
-0.03608308 -0.12987436 0.0021120161 1.9453994e-38
-0.034229741 -0.12987436 0.0021120161 1.9271047e-38
-0.032376397 -0.12987436 0.0021120161 1.8719683e-38
-0.03052306 -0.12987436 0.0021120161 1.5587572e-38
-0.028688101 -0.13065951 -0.00088335574 1.4299383e-38
-0.026842713 -0.13144915 -0.0038957745 9.1386226e-39
-0.024978841 -0.13144915 -0.0038957745 8.6798389e-39
-0.023114966 -0.13144915 -0.0038957745 8.1259602e-39
-0.021253733 -0.13065951 -0.00088335574 9.5989211e-39
-0.019395141 -0.13065951 -0.00088335574 1.2639922e-38
-0.017549679 -0.12987436 0.0021120161 1.199381e-38
-0.015714616 -0.12909363 0.0050904602 1.1070045e-38
-0.013866497 -0.12909363 0.0050904602 1.2634855e-38
-0.012018379 -0.12909363 0.0050904602 1.2726335e-38
-0.010216469 -0.12803085 0.0091450065 1.3740132e-38
-0.0083754603 -0.12803085 0.0091450065 1.1067174e-38
-0.0065344512 -0.12803085 0.0091450065 9.8707772e-39
-0.0046934425 -0.12803085 0.0091450065 1.1900876e-38
-0.0028524338 -0.12803085 0.0091450065 1.2638808e-38
-0.0010114252 -0.12803085 0.0091450065 1.3837723e-38
0.00091844657 -0.12909363 0.0050904602 1.2362244e-38
0.002766565 -0.12909363 0.0050904602 1.0979308e-38
0.0046146833 -0.12909363 0.0050904602 1.5035895e-38
0.0064628017 -0.12909363 0.0050904602 1.8353466e-38
0.0083109178 -0.12909363 0.0050904602 1.8904831e-38
0.010159036 -0.12909363 0.0050904602 1.7889589e-38
0.012007153 -0.12909363 0.0050904602 1.8443484e-38
0.013716647 -0.12803085 0.0091450065 1.9458356e-38
0.015557656 -0.12803085 0.0091450065 1.8536401e-38
0.017398665 -0.12803085 0.0091450065 1.715383e-38
0.019239673 -0.12803085 0.0091450065 1.7246025e-38
0.021080682 -0.12803085 0.0091450065 1.7522968e-38
0.022921694 -0.12803085 0.0091450065 1.6416621e-38
0.024762703 -0.12803085 0.0091450065 1.5125878e-38
0.026603712 -0.12803085 0.0091450065 1.6600645e-38
0.02844472 -0.12803085 0.0091450065 1.9365788e-38
0.030285729 -0.12803085 0.0091450065 2.0563967e-38
0.031974718 -0.12726043 0.012084112 2.1024222e-38
0.033810575 -0.12726043 0.012084112 1.9640923e-38
0.046854813 -0.12803085 0.0091450065 1.9087744e-38
0.04849742 -0.12726043 0.012084112 1.8626765e-38
0.05033328 -0.12726043 0.012084112 1.8811157e-38
0.051739972 -0.12567626 0.018127784 1.90881e-38
0.053347256 -0.124891 0.021123514 1.8534926e-38
0.055167262 -0.124891 0.021123514 1.6690294e-38
