# .PCD v0.7 - Point Cloud Data file format
VERSION 0.7
FIELDS x y z rgb
SIZE 4 4 4 4
TYPE F F F F
COUNT 1 1 1 1
WIDTH 858
HEIGHT 1
VIEWPOINT 0 0 0 1 0 0 0
POINTS 858
DATA ascii
-0.021220256 -0.10951753 -0.042389534 2.0101569e-38
-0.019282766 -0.10951753 -0.042389534 1.4662781e-38
-0.017407781 -0.10767709 -0.034467362 1.3834477e-38
-0.015513976 -0.10695927 -0.031377576 1.3834489e-38
-0.013595792 -0.10695927 -0.031377576 1.401888e-38
-0.01167761 -0.10695927 -0.031377576 1.3649376e-38
-0.009759427 -0.10695927 -0.031377576 7.7477652e-39
-0.0061793728 -0.10372485 -0.017455122 6.3640839e-39
-0.0043459879 -0.10302909 -0.014460227 5.350278e-39
-0.002457465 -0.10302909 -0.014460227 6.0881934e-39
-0.023178581 -0.10960068 -0.034467362 2.2591531e-38
-0.021220256 -0.11145501 -0.042389534 2.1485917e-38
-0.019282766 -0.11145501 -0.042389534 1.2728141e-38
-0.017432159 -0.10887744 -0.031377576 1.1622895e-38
-0.015513976 -0.10887744 -0.031377576 1.2177159e-38
-0.013595792 -0.10887744 -0.031377576 1.2823606e-38
-0.011730399 -0.1079378 -0.027363202 1.2177516e-38
-0.0098192533 -0.1079378 -0.027363202 1.0424355e-38
-0.0080074919 -0.1065412 -0.021396657 1.1069707e-38
-0.0061793728 -0.10561861 -0.017455122 1.3835193e-38
-0.0043459879 -0.1049176 -0.014460227 1.4849327e-38
-0.002457465 -0.1049176 -0.014460227 1.6509556e-38
-0.00056894403 -0.1049176 -0.014460227 1.6417361e-38
0.001319577 -0.1049176 -0.014460227 1.6324461e-38
-0.023178581 -0.11152427 -0.034467362 2.0104439e-38
-0.021254983 -0.11152427 -0.034467362 1.7246418e-38
-0.019307163 -0.11245503 -0.038414143 9.2268904e-39
-0.017463833 -0.10984896 -0.027363202 8.2142028e-39
-0.015552688 -0.10984896 -0.027363202 8.5851573e-39
-0.013641544 -0.10984896 -0.027363202 1.0614173e-38
-0.011730399 -0.10984896 -0.027363202 9.7844166e-39
-0.009862964 -0.10915731 -0.024430295 7.201497e-39
-0.0080074919 -0.1084419 -0.021396657 9.3209021e-39
-0.0061793728 -0.1075124 -0.017455122 1.3654069e-38
-0.004285601 -0.1075124 -0.017455122 1.5866733e-38
-0.0023918273 -0.1075124 -0.017455122 1.7987559e-38
-0.00056894403 -0.10680611 -0.014460227 1.7895006e-38
0.001319577 -0.10680611 -0.014460227 1.7340764e-38
0.003208098 -0.10680611 -0.014460227 1.485152e-38
0.005096619 -0.10680611 -0.014460227 1.079601e-38
-0.02318671 -0.1127138 -0.031377576 1.2455087e-38
-0.021268524 -0.1127138 -0.031377576 1.1256245e-38
-0.019331381 -0.11344786 -0.034467362 8.8602799e-39
-0.017463833 -0.11176009 -0.027363202 8.9543028e-39
-0.015580971 -0.11106332 -0.024430295 7.2973122e-39
-0.013674969 -0.11106332 -0.024430295 8.0355961e-39
-0.011768966 -0.11106332 -0.024430295 6.1916835e-39
-0.009908176 -0.11034258 -0.021396657 7.4817035e-39
-0.0080074919 -0.11034258 -0.021396657 8.9561007e-39
-0.0061793728 -0.10940616 -0.017455122 1.2181834e-38
-0.004285601 -0.10940616 -0.017455122 1.3103772e-38
-0.0023918273 -0.10940616 -0.017455122 1.4579242e-38
-0.00056894403 -0.10869466 -0.014460227 1.4946584e-38
0.001319577 -0.10869466 -0.014460227 1.5314285e-38
0.0030992469 -0.10774307 -0.010454914 1.3194894e-38
0.0049807457 -0.10774307 -0.010454914 1.162938e-38
0.0067680618 -0.10701384 -0.0073853936 1.3842047e-38
0.0086441776 -0.10701384 -0.0073853936 1.7435829e-38
0.010520297 -0.10701384 -0.0073853936 2.084558e-38
0.012396413 -0.10701384 -0.0073853936 1.9645261e-38
0.014272529 -0.10701384 -0.0073853936 1.8721523e-38
0.016148645 -0.10701384 -0.0073853936 2.0103721e-38
0.018024765 -0.10701384 -0.0073853936 1.825944e-38
0.019900881 -0.10701384 -0.0073853936 1.9550534e-38
0.021776997 -0.10701384 -0.0073853936 1.9550531e-38
-0.023197267 -0.11367123 -0.027363202 1.1166865e-38
-0.021286123 -0.11367123 -0.027363202 1.1074012e-38
-0.019350342 -0.114632 -0.031377576 9.5085303e-39
-0.017486973 -0.11296929 -0.024430295 8.4043674e-39
-0.015580971 -0.11296929 -0.024430295 8.1292337e-39
-0.013674969 -0.11296929 -0.024430295 7.6686213e-39
-0.011768966 -0.11296929 -0.024430295 7.3931148e-39
-0.009908176 -0.11224325 -0.021396657 6.8388634e-39
-0.0080731446 -0.11129995 -0.017455122 7.8519237e-39
-0.0061793728 -0.11129995 -0.017455122 8.4972665e-39
-0.004285601 -0.11129995 -0.017455122 7.6667645e-39
-0.0023918273 -0.11129995 -0.017455122 8.0351701e-39
-0.00056894403 -0.11058317 -0.014460227 1.1538252e-38
0.001319577 -0.11058317 -0.014460227 1.3749853e-38
0.0030992469 -0.10962458 -0.010454914 1.2091792e-38
0.0049807457 -0.10962458 -0.010454914 9.1444198e-39
0.0067680618 -0.10888995 -0.0073853936 1.1818434e-38
0.0086441776 -0.10888995 -0.0073853936 1.4120782e-38
0.010520297 -0.10888995 -0.0073853936 1.6054709e-38
0.012396413 -0.10888995 -0.0073853936 1.7342917e-38
0.014272529 -0.10888995 -0.0073853936 1.6049643e-38
0.016148645 -0.10888995 -0.0073853936 1.6601361e-38
0.018024765 -0.10888995 -0.0073853936 2.0380291e-38
0.019900881 -0.10888995 -0.0073853936 2.1855053e-38
0.021776997 -0.10888995 -0.0073853936 2.2775202e-38
0.023653116 -0.10888995 -0.0073853936 2.2775202e-38
0.025529232 -0.10888995 -0.0073853936 2.2682649e-38
-0.023197267 -0.11558239 -0.027363202 1.2090263e-38
-0.021286123 -0.11558239 -0.027363202 9.9701797e-39
-0.019350342 -0.11655019 -0.031377576 8.8642329e-39
-0.017486973 -0.1148753 -0.024430295 8.9589747e-39
-0.015580971 -0.1148753 -0.024430295 9.0518934e-39
-0.013674969 -0.1148753 -0.024430295 8.2235803e-39
-0.011808859 -0.11414395 -0.021396657 7.9469976e-39
-0.0099669183 -0.11319371 -0.017455122 7.5775032e-39
-0.00812303 -0.11247168 -0.014460227 6.8392109e-39
-0.0063082473 -0.11150609 -0.010454914 7.0228609e-39
-0.0044267485 -0.11150609 -0.010454914 7.5763752e-39
-0.002457465 -0.11247168 -0.014460227 7.9451465e-39
-0.0006637508 -0.11150609 -0.010454914 8.4057701e-39
0.001217748 -0.11150609 -0.010454914 8.6820221e-39
0.0030158283 -0.11076607 -0.0073853936 8.2214041e-39
0.0048919441 -0.11076607 -0.0073853936 8.3175303e-39
0.0067680618 -0.11076607 -0.0073853936 1.0069225e-38
0.0086441776 -0.11076607 -0.0073853936 1.1541103e-38
0.010520297 -0.11076607 -0.0073853936 1.3658704e-38
0.012396413 -0.11076607 -0.0073853936 1.7712411e-38
0.014272529 -0.11076607 -0.0073853936 2.0568639e-38
0.016148645 -0.11076607 -0.0073853936 2.2224189e-38
0.018024765 -0.11076607 -0.0073853936 2.2591531e-38
0.019900881 -0.11076607 -0.0073853936 2.2775202e-38
0.021776997 -0.11076607 -0.0073853936 2.2867037e-38
0.023653116 -0.11076607 -0.0073853936 2.3142544e-38
0.025529232 -0.11076607 -0.0073853936 2.2865602e-38
0.027405348 -0.11076607 -0.0073853936 2.3509168e-38
0.029281463 -0.11076607 -0.0073853936 2.3509168e-38
0.034169573 -0.10763429 0.0056050811 2.3142544e-38
0.036022916 -0.10763429 0.0056050811 2.2867037e-38
-0.02318671 -0.11846836 -0.031377576 1.2366858e-38
-0.021268524 -0.11846836 -0.031377576 1.0431152e-38
-0.019374978 -0.11749353 -0.027363202 9.8798128e-39
-0.017486973 -0.11678131 -0.024430295 1.0525925e-38
-0.015610225 -0.11604463 -0.021396657 9.8823589e-39
-0.013709542 -0.11604463 -0.021396657 8.8689399e-39
-0.01186069 -0.11508749 -0.017455122 8.3154158e-39
-0.010011551 -0.1143602 -0.014460227 8.4990868e-39
-0.00812303 -0.1143602 -0.014460227 8.3143298e-39
-0.0063647563 -0.11264218 -0.0073853936 8.129563e-39
-0.0044886386 -0.11264218 -0.0073853936 8.4061387e-39
-0.0025452496 -0.11338757 -0.010454914 8.5908802e-39
-0.00073640514 -0.11264218 -0.0073853936 8.1302678e-39
0.0011397107 -0.11264218 -0.0073853936 8.0380918e-39
0.0030158283 -0.11264218 -0.0073853936 9.0533143e-39
0.0048919441 -0.11264218 -0.0073853936 9.9781181e-39
0.0067680618 -0.11264218 -0.0073853936 1.0807493e-38
0.0085488362 -0.11192839 -0.0044460502 1.2371568e-38
0.0104198 -0.11192839 -0.0044460502 1.4950148e-38
0.012290764 -0.11192839 -0.0044460502 1.8818742e-38
0.014161727 -0.11192839 -0.0044460502 2.1765011e-38
0.016148645 -0.11264218 -0.0073853936 2.240786e-38
0.018024765 -0.11264218 -0.0073853936 2.1853968e-38
0.019900881 -0.11264218 -0.0073853936 2.2867037e-38
0.021914236 -0.11338757 -0.010454914 2.3142544e-38
0.023653116 -0.11264218 -0.0073853936 2.3141467e-38
0.025529232 -0.11264218 -0.0073853936 2.3048554e-38
0.027258471 -0.11192839 -0.0044460502 2.3509168e-38
0.028920297 -0.11094652 -0.00040270947 2.3509168e-38
0.030623078 -0.11021499 0.0026097093 2.3508092e-38
0.032316234 -0.10948761 0.0056050811 2.3509168e-38
0.034169573 -0.10948761 0.0056050811 2.2681931e-38
0.036022916 -0.10948761 0.0056050811 2.2406783e-38
0.037876252 -0.10948761 0.0056050811 2.2958873e-38
0.039729599 -0.10948761 0.0056050811 2.2958873e-38
0.055160057 -0.10559841 0.021620849 2.2865961e-38
0.056985311 -0.10559841 0.021620849 2.2128396e-38
-0.02318671 -0.12038656 -0.031377576 1.2919322e-38
-0.021286123 -0.11940466 -0.027363202 1.1537137e-38
-0.019392975 -0.11868732 -0.024430295 1.0985067e-38
-0.01751091 -0.11794533 -0.021396657 1.1723732e-38
-0.015610225 -0.11794533 -0.021396657 1.107909e-38
-0.013754463 -0.11698125 -0.017455122 9.6965342e-39
-0.01186069 -0.11698125 -0.017455122 7.94482e-39
-0.010071243 -0.11526908 -0.010454914 7.8522614e-39
-0.0081897443 -0.11526908 -0.010454914 1.126312e-38
-0.0063647563 -0.1145183 -0.0073853936 1.1632256e-38
-0.0044886386 -0.1145183 -0.0073853936 9.6043161e-39
-0.0026125228 -0.1145183 -0.0073853936 9.3284453e-39
-0.00073640514 -0.1145183 -0.0073853936 1.0066373e-38
0.0011397107 -0.1145183 -0.0073853936 1.0712466e-38
0.0029359469 -0.11379938 -0.0044460502 1.154329e-38
0.0048069088 -0.11379938 -0.0044460502 1.1729095e-38
0.0066778725 -0.11379938 -0.0044460502 1.2834701e-38
0.0085488362 -0.11379938 -0.0044460502 1.6427432e-38
0.0104198 -0.11379938 -0.0044460502 2.0203808e-38
0.012290764 -0.11379938 -0.0044460502 2.158134e-38
0.014161727 -0.11379938 -0.0044460502 2.2224189e-38
0.016032688 -0.11379938 -0.0044460502 2.2775202e-38
0.018024765 -0.1145183 -0.0073853936 2.3142544e-38
0.020032737 -0.11526908 -0.010454914 2.3234379e-38
0.021914236 -0.11526908 -0.010454914 2.341805e-38
0.023795735 -0.11526908 -0.010454914 2.3509886e-38
0.025529232 -0.1145183 -0.0073853936 2.3509886e-38
0.027258471 -0.11379938 -0.0044460502 2.3509527e-38
0.028764486 -0.11207359 0.0026097093 2.3509168e-38
0.030462895 -0.11134095 0.0056050811 2.3507374e-38
0.032151736 -0.11061247 0.0085835252 2.314039e-38
0.033999853 -0.11061247 0.0085835252 2.3234379e-38
0.035847973 -0.11061247 0.0085835252 2.2590813e-38
0.03769609 -0.11061247 0.0085835252 2.2867037e-38
0.039544206 -0.11061247 0.0085835252 2.2958873e-38
0.041392323 -0.11061247 0.0085835252 2.2683007e-38
0.054926317 -0.10669093 0.024616579 2.3234379e-38
0.056432623 -0.10572915 0.028548816 2.3234379e-38
0.058245741 -0.10572915 0.028548816 2.3234379e-38
0.060058855 -0.10572915 0.028548816 2.3234379e-38
0.061871953 -0.10572915 0.028548816 2.3141826e-38
0.063685067 -0.10572915 0.028548816 2.2957079e-38
-0.023204979 -0.12059332 -0.024430295 1.4299755e-38
-0.021298978 -0.12059332 -0.024430295 1.3010106e-38
-0.019435778 -0.11887501 -0.017455122 1.1352041e-38
-0.017542008 -0.11887501 -0.017455122 1.2182541e-38
-0.015648235 -0.11887501 -0.017455122 1.2183269e-38
-0.013788594 -0.11813726 -0.014460227 1.1168771e-38
-0.011900073 -0.11813726 -0.014460227 8.4029017e-39
-0.010071243 -0.11715056 -0.010454914 9.1400982e-39
-0.0082408739 -0.11639442 -0.0073853936 1.3565823e-38
-0.0064188698 -0.11567034 -0.0044460502 1.4119347e-38
-0.0045479061 -0.11567034 -0.0044460502 1.0985079e-38
-0.0026769424 -0.11567034 -0.0044460502 1.0248595e-38
-0.00080598053 -0.11567034 -0.0044460502 1.1540773e-38
0.0010649832 -0.11567034 -0.0044460502 1.2003185e-38
0.002826062 -0.11467429 -0.00040270947 1.1911694e-38
0.0046899365 -0.11467429 -0.00040270947 1.1727275e-38
0.0065538092 -0.11467429 -0.00040270947 1.4122544e-38
0.0084176837 -0.11467429 -0.00040270947 1.7992581e-38
0.010281558 -0.11467429 -0.00040270947 2.0938492e-38
0.012145433 -0.11467429 -0.00040270947 2.1488787e-38
0.013895745 -0.11393218 0.0026097093 2.1854329e-38
0.015754338 -0.11393218 0.0026097093 2.3050349e-38
0.017612934 -0.11393218 0.0026097093 2.3509883e-38
0.019774616 -0.11567034 -0.0044460502 2.3509883e-38
0.021914236 -0.11715056 -0.010454914 2.3509886e-38
0.023795735 -0.11715056 -0.010454914 2.3509886e-38
0.025677234 -0.11715056 -0.010454914 2.3325856e-38
0.028764486 -0.11393218 0.0026097093 2.3509527e-38
0.030462895 -0.1131943 0.0056050811 2.304891e-38
0.032151736 -0.11246057 0.0085835252 2.185073e-38
0.03376881 -0.11146177 0.012638072 2.3234379e-38
0.035609819 -0.11146177 0.012638072 2.2405343e-38
0.037450831 -0.11146177 0.012638072 2.2681931e-38
0.03929184 -0.11146177 0.012638072 2.3142544e-38
0.040944759 -0.11073773 0.015577177 2.3142544e-38
0.042780612 -0.11073773 0.015577177 2.3142544e-38
0.044616465 -0.11073773 0.015577177 2.3142544e-38
0.054926317 -0.10851096 0.024616579 2.304927e-38
0.056432623 -0.10754226 0.028548816 2.2865235e-38
0.058245741 -0.10754226 0.028548816 2.2957431e-38
0.060058855 -0.10754226 0.028548816 2.3233662e-38
0.061871953 -0.10754226 0.028548816 2.341805e-38
0.063685067 -0.10754226 0.028548816 2.3234379e-38
0.065498181 -0.10754226 0.028548816 2.3142544e-38
-0.040450357 -0.12422292 -0.031377576 2.341805e-38
-0.038532175 -0.12422292 -0.031377576 2.3234379e-38
-0.036575276 -0.12322696 -0.027363202 2.3142544e-38
-0.034640994 -0.1224993 -0.024430295 2.2590096e-38
-0.03273499 -0.1224993 -0.024430295 2.2774843e-38
-0.03082899 -0.1224993 -0.024430295 2.2775202e-38
-0.028922986 -0.1224993 -0.024430295 2.2037648e-38
-0.027010869 -0.1207688 -0.017455122 1.6138965e-38
-0.025117096 -0.1207688 -0.017455122 1.623191e-38
-0.023223326 -0.1207688 -0.017455122 1.697127e-38
-0.021329552 -0.1207688 -0.017455122 1.8263783e-38
-0.019454159 -0.12002577 -0.014460227 1.6328063e-38
-0.017565638 -0.12002577 -0.014460227 1.5591226e-38
-0.015677117 -0.12002577 -0.014460227 1.503842e-38
-0.013834242 -0.11903207 -0.010454914 1.5222091e-38
-0.011952743 -0.11903207 -0.010454914 1.3378565e-38
-0.010071243 -0.11903207 -0.010454914 1.4023923e-38
-0.0082408739 -0.11827053 -0.0073853936 1.5683779e-38
-0.0064188698 -0.1175413 -0.0044460502 1.4762196e-38
-0.0046294341 -0.11653815 -0.00040270947 1.2089254e-38
-0.0027655596 -0.11653815 -0.00040270947 1.1538244e-38
-0.0009016851 -0.11653815 -0.00040270947 1.3383587e-38
0.00096218754 -0.11653815 -0.00040270947 1.4308399e-38
0.0027441951 -0.11579077 0.0026097093 1.4493147e-38
0.0046027871 -0.11579077 0.0026097093 1.4767553e-38
0.0063694706 -0.11504765 0.0056050811 1.8637223e-38
0.00822281 -0.11504765 0.0056050811 2.1305834e-38
0.010076149 -0.11504765 0.0056050811 2.1948682e-38
0.011929492 -0.11504765 0.0056050811 2.240786e-38
0.013670555 -0.1143087 0.0085835252 2.3234379e-38
0.015518672 -0.1143087 0.0085835252 2.3509883e-38
0.017366793 -0.1143087 0.0085835252 2.3139658e-38
0.019774616 -0.1175413 -0.0044460502 2.1941118e-38
0.032151736 -0.1143087 0.0085835252 2.1207156e-38
0.03376881 -0.11330278 0.012638072 1.9916417e-38
0.035609819 -0.11330278 0.012638072 1.963983e-38
0.037450831 -0.11330278 0.012638072 1.9916061e-38
0.03929184 -0.11330278 0.012638072 2.0100808e-38
0.040944759 -0.11257361 0.015577177 1.9732026e-38
0.042780612 -0.11257361 0.015577177 2.0285199e-38
0.044814866 -0.11330278 0.012638072 2.1206437e-38
0.046655875 -0.11330278 0.012638072 2.1206434e-38
0.048496883 -0.11330278 0.012638072 2.1022043e-38
0.050337892 -0.11330278 0.012638072 2.1851803e-38
0.05076516 -0.10859586 0.031610228 2.3234018e-38
0.052572902 -0.10859586 0.031610228 2.3418047e-38
0.054380652 -0.10859586 0.031610228 2.341805e-38
0.056188393 -0.10859586 0.031610228 2.3418047e-38
0.057996131 -0.10859586 0.031610228 2.3418047e-38
0.060058855 -0.10935538 0.028548816 2.3418047e-38
0.061871953 -0.10935538 0.028548816 2.1943273e-38
0.063685067 -0.10935538 0.028548816 2.3142539e-38
0.065498181 -0.10935538 0.028548816 2.3234379e-38
-0.040450357 -0.12614109 -0.031377576 2.1575222e-38
-0.038532175 -0.12614109 -0.031377576 2.1391195e-38
-0.036575276 -0.12513812 -0.027363202 2.2958873e-38
-0.034640994 -0.12440531 -0.024430295 2.2867037e-38
-0.03273499 -0.12440531 -0.024430295 2.2222036e-38
-0.030815691 -0.12364738 -0.021396657 2.0655452e-38
-0.028915007 -0.12364738 -0.021396657 1.7521528e-38
-0.027008243 -0.12191428 -0.014460227 1.2727377e-38
-0.025119722 -0.12191428 -0.014460227 1.5031586e-38
-0.023231201 -0.12191428 -0.014460227 1.7706671e-38
-0.02134268 -0.12191428 -0.014460227 2.0105515e-38
-0.019478738 -0.12091358 -0.010454914 1.8907708e-38
-0.017597239 -0.12091358 -0.010454914 1.8170154e-38
-0.015715741 -0.12091358 -0.010454914 1.6695405e-38
-0.013834242 -0.12091358 -0.010454914 1.7156017e-38
-0.011993106 -0.12014665 -0.0073853936 1.5956775e-38
-0.01011699 -0.12014665 -0.0073853936 1.6510658e-38
-0.0082898336 -0.11941226 -0.0044460502 1.6695405e-38
-0.0064933067 -0.11840202 -0.00040270947 1.5681986e-38
-0.0046294341 -0.11840202 -0.00040270947 1.3470737e-38
-0.002831581 -0.11764936 0.0026097093 1.3011565e-38
-0.00097298902 -0.11764936 0.0026097093 1.5411143e-38
0.00088560302 -0.11764936 0.0026097093 1.7442286e-38
0.0027441951 -0.11764936 0.0026097093 1.7627033e-38
0.0045161312 -0.11690097 0.0056050811 1.5686974e-38
0.0063694706 -0.11690097 0.0056050811 1.9924714e-38
0.00822281 -0.11690097 0.0056050811 2.1765011e-38
0.010076149 -0.11690097 0.0056050811 2.1855053e-38
0.011929492 -0.11690097 0.0056050811 2.3234379e-38
0.013670555 -0.1161568 0.0085835252 2.3509883e-38
0.015518672 -0.1161568 0.0085835252 2.3507362e-38
0.017366793 -0.1161568 0.0085835252 2.2769437e-38
0.032151736 -0.1161568 0.0085835252 2.0102247e-38
0.03376881 -0.11514379 0.012638072 1.9271047e-38
0.035437189 -0.11440946 0.015577177 1.9085935e-38
0.037273046 -0.11440946 0.015577177 1.9178133e-38
0.03929184 -0.11514379 0.012638072 1.9270326e-38
0.040944759 -0.11440946 0.015577177 1.9454717e-38
0.042780612 -0.11440946 0.015577177 2.0192282e-38
0.044411894 -0.11365227 0.018607715 2.0283757e-38
0.046242435 -0.11365227 0.018607715 1.890082e-38
0.047646288 -0.11215095 0.024616579 1.8808625e-38
0.048957419 -0.11040358 0.031610228 1.954619e-38
0.05054618 -0.10966937 0.034548856 2.0928405e-38
0.052348774 -0.10966937 0.034548856 2.2311696e-38
0.054151367 -0.10966937 0.034548856 2.2956709e-38
0.055953961 -0.10966937 0.034548856 2.2957065e-38
0.057756551 -0.10966937 0.034548856 2.3141456e-38
0.059559144 -0.10966937 0.034548856 2.3509879e-38
0.061871953 -0.11116849 0.028548816 2.3418035e-38
0.063685067 -0.11116849 0.028548816 2.3234362e-38
0.065498181 -0.11116849 0.028548816 2.2774467e-38
-0.036575276 -0.12704925 -0.027363202 2.0560363e-38
-0.034664135 -0.12704925 -0.027363202 2.065365e-38
-0.03273499 -0.12631132 -0.024430295 1.6507021e-38
-0.030815691 -0.12554805 -0.021396657 1.2729535e-38
-0.028896764 -0.12380283 -0.014460227 1.2639512e-38
-0.027004734 -0.12279506 -0.010454914 1.3284901e-38
-0.025123235 -0.12279506 -0.010454914 1.3190572e-38
-0.023241736 -0.12279506 -0.010454914 1.3282771e-38
-0.021360237 -0.12279506 -0.010454914 1.3191277e-38
-0.019497573 -0.12202276 -0.0073853936 1.2639178e-38
-0.017621458 -0.12202276 -0.0073853936 1.4206152e-38
-0.015745342 -0.12202276 -0.0073853936 1.3376759e-38
-0.013869224 -0.12202276 -0.0073853936 1.2823232e-38
-0.012031759 -0.12128322 -0.0044460502 1.0149912e-38
-0.010160795 -0.12128322 -0.0044460502 1.3469659e-38
-0.0082898336 -0.12128322 -0.0044460502 1.5313924e-38
-0.0064933067 -0.12026589 -0.00040270947 1.632878e-38
-0.0046901749 -0.11950795 0.0026097093 1.4578163e-38
-0.002831581 -0.11950795 0.0026097093 1.3381061e-38
-0.00097298902 -0.11950795 0.0026097093 1.6056861e-38
0.00088560302 -0.11950795 0.0026097093 1.7995451e-38
0.00266279 -0.11875431 0.0056050811 1.7256462e-38
0.0045161312 -0.11875431 0.0056050811 1.9095683e-38
0.0062780818 -0.11800493 0.0085835252 2.1948682e-38
0.0081261983 -0.11800493 0.0085835252 2.2499695e-38
0.0099743186 -0.11800493 0.0085835252 2.2774843e-38
0.011822435 -0.11800493 0.0085835252 2.3509527e-38
0.013670555 -0.11800493 0.0085835252 2.3509527e-38
0.015518672 -0.11800493 0.0085835252 2.3322255e-38
0.035437189 -0.11624531 0.015577177 1.8532761e-38
0.037273046 -0.11624531 0.015577177 1.9085214e-38
0.03929184 -0.1169848 0.012638072 2.0284478e-38
0.040944759 -0.11624531 0.015577177 2.212839e-38
0.042780612 -0.11624531 0.015577177 2.3234379e-38
0.044208501 -0.11472471 0.021620849 2.2496453e-38
0.045826282 -0.11397095 0.024616579 1.9453997e-38
0.046941001 -0.11147197 0.034548856 1.8624236e-38
0.048743594 -0.11147197 0.034548856 1.8163258e-38
0.05054618 -0.11147197 0.034548856 1.8163255e-38
0.052117992 -0.11071064 0.037574746 1.8623514e-38
0.053915281 -0.11071064 0.037574746 1.8900101e-38
0.055712562 -0.11071064 0.037574746 1.8992297e-38
0.057756551 -0.11147197 0.034548856 1.9361079e-38
0.059559144 -0.11147197 0.034548856 1.9914609e-38
0.061871953 -0.1129816 0.028548816 2.0468851e-38
0.063685067 -0.1129816 0.028548816 2.0192264e-38
-0.036575276 -0.12896039 -0.027363202 2.1293605e-38
-0.034640994 -0.12821732 -0.024430295 1.7978184e-38
-0.032716375 -0.12744872 -0.021396657 1.5678365e-38
-0.030798413 -0.12645011 -0.017455122 1.0798147e-38
-0.028896764 -0.12569134 -0.014460227 1.0803578e-38
-0.027004734 -0.12467657 -0.010454914 1.1449661e-38
-0.025123235 -0.12467657 -0.010454914 1.2829346e-38
-0.023241736 -0.12467657 -0.010454914 1.1352077e-38
-0.021360237 -0.12467657 -0.010454914 9.6007148e-39
-0.019497573 -0.12389888 -0.0073853936 9.4156004e-39
-0.017621458 -0.12389888 -0.0073853936 9.9684197e-39
-0.015745342 -0.12389888 -0.0073853936 9.9691428e-39
-0.013902723 -0.12315418 -0.0044460502 9.4166906e-39
-0.012031759 -0.12315418 -0.0044460502 8.7720373e-39
-0.010221056 -0.12212978 -0.00040270947 8.4043296e-39
-0.0083571812 -0.12212978 -0.00040270947 1.1815918e-38
-0.0064933067 -0.12212978 -0.00040270947 1.1909184e-38
-0.0046901749 -0.12136655 0.0026097093 1.246271e-38
-0.00289723 -0.12060766 0.0056050811 1.3292459e-38
-0.0010438906 -0.12060766 0.0056050811 1.6242326e-38
0.00080945063 -0.12060766 0.0056050811 1.6519626e-38
0.00266279 -0.12060766 0.0056050811 1.8360282e-38
0.0045161312 -0.12060766 0.0056050811 1.9830009e-38
0.0062780818 -0.11985306 0.0085835252 2.2499695e-38
0.0081261983 -0.11985306 0.0085835252 2.2775202e-38
0.0099743186 -0.11985306 0.0085835252 2.3142544e-38
0.011822435 -0.11985306 0.0085835252 2.3509527e-38
0.037450831 -0.11882581 0.012638072 1.9729868e-38
0.03929184 -0.11882581 0.012638072 2.0652184e-38
0.041132849 -0.11882581 0.012638072 2.2864879e-38
0.044208501 -0.11654995 0.021620849 2.2036197e-38
0.045826282 -0.11579098 0.024616579 1.945472e-38
0.046941001 -0.11327456 0.034548856 1.8440568e-38
0.048743594 -0.11327456 0.034548856 1.8256177e-38
0.05054618 -0.11327456 0.034548856 1.7795198e-38
0.052117992 -0.11250792 0.037574746 1.7886315e-38
0.053915281 -0.11250792 0.037574746 1.8531687e-38
0.055712562 -0.11250792 0.037574746 1.8992665e-38
0.057509847 -0.11250792 0.037574746 1.9361448e-38
0.059307136 -0.11250792 0.037574746 1.9914619e-38
-0.036546994 -0.13012333 -0.024430295 1.944897e-38
-0.034617059 -0.12934943 -0.021396657 1.3552797e-38
-0.032692187 -0.1283439 -0.017455122 9.5023478e-39
-0.030798413 -0.1283439 -0.017455122 4.2540731e-39
-0.028896764 -0.12757985 -0.014460227 4.0758405e-39
-0.027004734 -0.12655805 -0.010454914 4.723019e-39
-0.025123235 -0.12655805 -0.010454914 5.5480853e-39
-0.023241736 -0.12655805 -0.010454914 6.8362976e-39
-0.021360237 -0.12655805 -0.010454914 6.5597107e-39
-0.019497573 -0.12577499 -0.0073853936 5.6377544e-39
-0.017621458 -0.12577499 -0.0073853936 6.4664389e-39
-0.015745342 -0.12577499 -0.0073853936 7.6660639e-39
-0.013902723 -0.12502514 -0.0044460502 7.2054487e-39
-0.012031759 -0.12502514 -0.0044460502 5.0863883e-39
-0.010221056 -0.12399365 -0.00040270947 6.377846e-39
-0.0083571812 -0.12399365 -0.00040270947 8.8685573e-39
-0.006548767 -0.12322514 0.0026097093 8.9611019e-39
-0.0047505712 -0.12246101 0.0056050811 9.8826854e-39
-0.0029625082 -0.12170117 0.0085835252 1.0619874e-38
-0.0011143899 -0.12170117 0.0085835252 1.2370497e-38
0.00073372852 -0.12170117 0.0085835252 1.2185016e-38
0.0025818469 -0.12170117 0.0085835252 1.4026032e-38
0.0044299634 -0.12170117 0.0085835252 1.6602451e-38
0.0062780818 -0.12170117 0.0085835252 2.1485559e-38
0.0079946844 -0.12066682 0.012638072 2.2867037e-38
0.0098356931 -0.12066682 0.012638072 2.2773767e-38
0.046941001 -0.11507715 0.034548856 1.7887397e-38
0.048743594 -0.11507715 0.034548856 1.7426419e-38
0.05054618 -0.11507715 0.034548856 1.8071788e-38
0.052117992 -0.11430521 0.037574746 1.8348375e-38
0.053915281 -0.11430521 0.037574746 1.8623884e-38
0.055712562 -0.11430521 0.037574746 2.0928775e-38
0.057509847 -0.11430521 0.037574746 2.2403905e-38
0.059307136 -0.11430521 0.037574746 2.1113166e-38
0.061104424 -0.11430521 0.037574746 2.0559277e-38
-0.038452998 -0.13202934 -0.024430295 1.9634432e-38
-0.036517739 -0.1312501 -0.021396657 1.8344786e-38
-0.034617059 -0.1312501 -0.021396657 1.1432657e-38
-0.032692187 -0.13023765 -0.017455122 7.843181e-39
-0.030798413 -0.13023765 -0.017455122 4.2529829e-39
-0.028886233 -0.12843956 -0.010454914 4.0736629e-39
-0.027004734 -0.12843956 -0.010454914 4.5353753e-39
-0.025123235 -0.12843956 -0.010454914 5.3629654e-39
-0.023241736 -0.12843956 -0.010454914 4.0697071e-39
-0.021373689 -0.12765111 -0.0073853936 4.2540997e-39
-0.019515611 -0.1268961 -0.0044460502 6.2820476e-39
-0.017644648 -0.1268961 -0.0044460502 6.650833e-39
-0.015773686 -0.1268961 -0.0044460502 4.8076434e-39
-0.013902723 -0.1268961 -0.0044460502 4.4392281e-39
-0.012084929 -0.12585752 -0.00040270947 5.4548219e-39
-0.010221056 -0.12585752 -0.00040270947 6.9306709e-39
-0.008407359 -0.12508373 0.0026097093 8.5901866e-39
-0.0066039106 -0.12431435 0.0056050811 7.8540523e-39
-0.0048106266 -0.1235493 0.0085835252 7.7614853e-39
-0.0029625082 -0.1235493 0.0085835252 8.1302566e-39
-0.0011143899 -0.1235493 0.0085835252 9.973079e-39
0.00073372852 -0.1235493 0.0085835252 1.1999934e-38
0.0025818469 -0.1235493 0.0085835252 1.5961797e-38
0.0043126652 -0.12250783 0.012638072 1.623368e-38
0.0061536757 -0.12250783 0.012638072 2.1117499e-38
0.0078993505 -0.12175287 0.015577177 2.2775202e-38
0.0097352033 -0.12175287 0.015577177 2.2958873e-38
0.046941001 -0.11687975 0.034548856 1.8348375e-38
0.048743594 -0.11687975 0.034548856 1.7334223e-38
0.05054618 -0.11687975 0.034548856 1.7979235e-38
0.052117992 -0.1161025 0.037574746 1.7518257e-38
0.053915281 -0.1161025 0.037574746 1.724167e-38
0.055712562 -0.1161025 0.037574746 2.1390474e-38
0.057509847 -0.1161025 0.037574746 2.3234379e-38
0.059307136 -0.1161025 0.037574746 2.2680492e-38
0.061104424 -0.1161025 0.037574746 2.2495385e-38
-0.038452998 -0.13393532 -0.024430295 1.7055478e-38
-0.036517739 -0.13315077 -0.021396657 1.5672917e-38
-0.03458596 -0.13213144 -0.017455122 8.4845581e-39
-0.032692187 -0.13213144 -0.017455122 7.1974459e-39
-0.030785285 -0.13135691 -0.014460227 5.7263011e-39
-0.028886233 -0.13032107 -0.010454914 4.7154114e-39
-0.027004734 -0.13032107 -0.010454914 3.7945453e-39
-0.025123235 -0.13032107 -0.010454914 5.5448231e-39
-0.023249809 -0.12952723 -0.0073853936 4.3462799e-39
-0.021386575 -0.12876706 -0.0044460502 3.5165221e-39
-0.019515611 -0.12876706 -0.0044460502 3.7927544e-39
-0.017644648 -0.12876706 -0.0044460502 4.3455751e-39
-0.015812676 -0.12772138 -0.00040270947 4.0693525e-39
-0.013948803 -0.12772138 -0.00040270947 3.5169074e-39
-0.012084929 -0.12772138 -0.00040270947 3.1495654e-39
-0.010265951 -0.12694232 0.0026097093 5.2700677e-39
-0.0084572518 -0.12616767 0.0056050811 7.483123e-39
-0.006658745 -0.1253974 0.0085835252 7.3920007e-39
-0.0048106266 -0.1253974 0.0085835252 6.2852846e-39
-0.0029625082 -0.1253974 0.0085835252 6.1927219e-39
-0.0011143899 -0.1253974 0.0085835252 8.0362659e-39
0.00073372852 -0.1253974 0.0085835252 1.1723723e-38
0.0025818469 -0.1253974 0.0085835252 1.6884098e-38
0.0043126652 -0.12434883 0.012638072 1.6142932e-38
0.0061536757 -0.12434883 0.012638072 1.7891747e-38
0.0078993505 -0.12358873 0.015577177 1.9733854e-38
0.0097352033 -0.12358873 0.015577177 2.1945095e-38
0.046941001 -0.11868234 0.034548856 1.8163984e-38
0.048523415 -0.11789979 0.037574746 1.7795201e-38
0.050320704 -0.11789979 0.037574746 1.7702648e-38
0.051888552 -0.1171218 0.040582992 1.6780692e-38
0.053680565 -0.1171218 0.040582992 1.6780692e-38
0.055712562 -0.11789979 0.037574746 2.0099735e-38
0.057509847 -0.11789979 0.037574746 2.3049991e-38
0.059307136 -0.11789979 0.037574746 2.2681212e-38
-0.040450357 -0.13765021 -0.031377576 1.9547634e-38
-0.038452998 -0.13584132 -0.024430295 1.6321156e-38
-0.036517739 -0.13505147 -0.021396657 1.3463827e-38
-0.03458596 -0.1340252 -0.017455122 6.2733035e-39
-0.032692187 -0.1340252 -0.017455122 8.3041451e-39
-0.030785285 -0.13324542 -0.014460227 1.0333904e-38
-0.028886233 -0.13220255 -0.010454914 9.3204859e-39
-0.027004734 -0.13220255 -0.010454914 7.3858224e-39
-0.025125924 -0.13140334 -0.0073853936 6.0961668e-39
-0.023249809 -0.13140334 -0.0073853936 4.2529801e-39
-0.021386575 -0.13063805 -0.0044460502 3.3310266e-39
-0.019515611 -0.13063805 -0.0044460502 4.3451869e-39
-0.017676551 -0.12958528 -0.00040270947 5.635574e-39
-0.015812676 -0.12958528 -0.00040270947 5.4519114e-39
-0.013948803 -0.12958528 -0.00040270947 4.345931e-39
-0.012124542 -0.12880091 0.0026097093 3.2406681e-39
-0.010265951 -0.12880091 0.0026097093 3.7938446e-39
-0.0085068615 -0.12724553 0.0085835252 6.3756852e-39
-0.006658745 -0.12724553 0.0085835252 7.2058018e-39
-0.0048106266 -0.12724553 0.0085835252 6.09945e-39
-0.0029625082 -0.12724553 0.0085835252 6.6529798e-39
-0.0011143899 -0.12724553 0.0085835252 7.8511572e-39
0.00073372852 -0.12724553 0.0085835252 1.107728e-38
0.0024716565 -0.12618984 0.012638072 1.4855825e-38
0.0043126652 -0.12618984 0.012638072 1.6327687e-38
0.0061536757 -0.12618984 0.012638072 1.5680495e-38
0.0078010475 -0.12463553 0.018607715 1.6877595e-38
0.0096315918 -0.12463553 0.018607715 2.0103356e-38
0.046941001 -0.12048493 0.034548856 1.6965083e-38
0.048523415 -0.11969708 0.037574746 1.8071431e-38
0.050320704 -0.11969708 0.037574746 1.7518257e-38
0.051888552 -0.11891381 0.040582992 1.6965083e-38
0.053680565 -0.11891381 0.040582992 1.788704e-38
-0.040450357 -0.13956837 -0.031377576 1.6784647e-38
-0.038452998 -0.13774733 -0.024430295 1.2636935e-38
-0.036517739 -0.13695215 -0.021396657 9.6866914e-39
-0.03458596 -0.13591899 -0.017455122 4.6159458e-39
-0.032692187 -0.13591899 -0.017455122 1.2728454e-38
-0.030785285 -0.13513394 -0.014460227 2.074944e-38
-0.028886233 -0.13408406 -0.010454914 2.2132353e-38
-0.02700204 -0.13327946 -0.0073853936 2.1856488e-38
-0.025128502 -0.13250901 -0.0044460502 2.1489505e-38
-0.023257539 -0.13250901 -0.0044460502 1.7435111e-38
-0.021386575 -0.13250901 -0.0044460502 1.5407547e-38
-0.019540425 -0.13144915 -0.00040270947 1.6329856e-38
-0.017676551 -0.13144915 -0.00040270947 1.5223526e-38
-0.015812676 -0.13144915 -0.00040270947 1.0614479e-38
-0.013948803 -0.13144915 -0.00040270947 6.9270205e-39
-0.012124542 -0.13065951 0.0026097093 6.0969067e-39
-0.010310591 -0.12987436 0.0056050811 5.5444574e-39
-0.0085068615 -0.12909363 0.0085835252 5.8217631e-39
-0.006658745 -0.12909363 0.0085835252 5.1763937e-39
-0.0048106266 -0.12909363 0.0085835252 3.9778505e-39
-0.0029625082 -0.12909363 0.0085835252 5.9139574e-39
-0.0012103608 -0.12803085 0.012638072 7.2046962e-39
0.00063064788 -0.12803085 0.012638072 1.043154e-38
0.0024716565 -0.12803085 0.012638072 1.402643e-38
0.0041399645 -0.12646608 0.018607715 1.3654737e-38
0.0059705069 -0.12646608 0.018607715 1.3008266e-38
0.0076061403 -0.124891 0.024616579 1.3836582e-38
0.0094261495 -0.124891 0.024616579 1.614003e-38
0.011246155 -0.124891 0.024616579 1.5401023e-38
-0.040397566 -0.14042725 -0.027363202 1.8722195e-38
-0.038452998 -0.13965334 -0.024430295 1.3376305e-38
-0.03647973 -0.13781275 -0.017455122 9.2275196e-39
-0.03458596 -0.13781275 -0.017455122 3.4184872e-39
-0.03267381 -0.13702248 -0.014460227 1.2544415e-38
-0.030785285 -0.13702248 -0.014460227 2.1854336e-38
-0.02887816 -0.13515557 -0.0073853936 2.2866678e-38
-0.026999466 -0.13437997 -0.0044460502 2.2775202e-38
-0.025128502 -0.13437997 -0.0044460502 2.2224189e-38
-0.023257539 -0.13437997 -0.0044460502 2.1856847e-38
-0.021386575 -0.13437997 -0.0044460502 2.0937057e-38
-0.019540425 -0.13331302 -0.00040270947 1.9462667e-38
-0.017676551 -0.13331302 -0.00040270947 1.8633636e-38
-0.015812676 -0.13331302 -0.00040270947 1.7712052e-38
-0.013983134 -0.1325181 0.0026097093 1.5223153e-38
-0.012124542 -0.1325181 0.0026097093 1.2733874e-38
-0.010310591 -0.13172771 0.0056050811 1.1904116e-38
-0.0085068615 -0.13094176 0.0085835252 1.0429347e-38
-0.006658745 -0.13094176 0.0085835252 9.2308042e-39
-0.0048106266 -0.13094176 0.0085835252 7.8485886e-39
-0.0029625082 -0.13094176 0.0085835252 8.770189e-39
-0.0012103608 -0.12987186 0.012638072 6.9273554e-39
0.00063064788 -0.12987186 0.012638072 8.7716309e-39
0.0024716565 -0.12987186 0.012638072 1.2551641e-38
0.0041399645 -0.1282966 0.018607715 1.3563258e-38
0.0059705069 -0.1282966 0.018607715 1.3008631e-38
0.0076061403 -0.126711 0.024616579 1.3376693e-38
0.0094261495 -0.126711 0.024616579 1.5035128e-38
0.011246155 -0.126711 0.024616579 1.3927699e-38
-0.040397566 -0.14233841 -0.027363202 1.752509e-38
-0.038452998 -0.14155935 -0.024430295 1.2363953e-38
-0.03647973 -0.13970654 -0.017455122 8.6761507e-39
-0.034562331 -0.13891099 -0.014460227 3.2355379e-39
-0.03267381 -0.13891099 -0.014460227 1.309687e-38
-0.030767731 -0.13784705 -0.010454914 2.249826e-38
-0.02887816 -0.13703169 -0.0073853936 2.3417333e-38
-0.026999466 -0.13625093 -0.0044460502 2.295672e-38
-0.025128502 -0.13625093 -0.0044460502 2.1853615e-38
-0.023257539 -0.13625093 -0.0044460502 2.056468e-38
-0.0214043 -0.13517688 -0.00040270947 2.0105149e-38
-0.019540425 -0.13517688 -0.00040270947 2.0567204e-38
-0.017676551 -0.13517688 -0.00040270947 2.0476086e-38
-0.015841726 -0.13437669 0.0026097093 1.9923638e-38
-0.013983134 -0.13437669 0.0026097093 2.0292056e-38
-0.012124542 -0.13437669 0.0026097093 2.1397669e-38
-0.010310591 -0.13358103 0.0056050811 2.1673176e-38
-0.0085068615 -0.13278987 0.0085835252 2.1397669e-38
-0.006658745 -0.13278987 0.0085835252 2.158134e-38
-0.0048106266 -0.13278987 0.0085835252 2.1489505e-38
-0.0030513695 -0.13171287 0.012638072 1.9371549e-38
-0.0012103608 -0.13171287 0.012638072 1.1536387e-38
0.00063064788 -0.13171287 0.012638072 9.4166122e-39
0.0024716565 -0.13171287 0.012638072 1.199809e-38
0.0043126652 -0.13171287 0.012638072 1.319483e-38
-0.040358998 -0.14346536 -0.024430295 1.7802756e-38
-0.038418423 -0.1426542 -0.021396657 1.2733816e-38
-0.03647973 -0.1416003 -0.017455122 8.7690708e-39
-0.034562331 -0.14079951 -0.014460227 4.3418911e-39
-0.03267381 -0.14079951 -0.014460227 1.1990526e-38
-0.030767731 -0.13972856 -0.010454914 2.286632e-38
-0.02887816 -0.13890781 -0.0073853936 2.2862369e-38
-0.026999466 -0.13812189 -0.0044460502 2.2309184e-38
-0.025128502 -0.13812189 -0.0044460502 2.2957075e-38
-0.023268171 -0.13704078 -0.00040270947 1.7888837e-38
-0.0214043 -0.13704078 -0.00040270947 1.8627131e-38
-0.019540425 -0.13704078 -0.00040270947 1.9366142e-38
-0.017676551 -0.13704078 -0.00040270947 1.8629662e-38
-0.015841726 -0.13623528 0.0026097093 1.9736375e-38
-0.013983134 -0.13623528 0.0026097093 2.0934904e-38
-0.012124542 -0.13623528 0.0026097093 2.2224189e-38
-0.010310591 -0.13543437 0.0056050811 2.1671741e-38
-0.0085068615 -0.134638 0.0085835252 2.1579547e-38
-0.006658745 -0.134638 0.0085835252 2.2316024e-38
-0.0048106266 -0.134638 0.0085835252 2.1948682e-38
-0.0030513695 -0.13355388 0.012638072 2.1948682e-38
-0.0012103608 -0.13355388 0.012638072 1.0981027e-38
0.00063064788 -0.13355388 0.012638072 9.507342e-39
0.0024716565 -0.13355388 0.012638072 1.3011863e-38
0.0043126652 -0.13355388 0.012638072 1.3379218e-38
-0.040358998 -0.14537133 -0.024430295 1.7341778e-38
-0.038418423 -0.14455487 -0.021396657 1.2088091e-38
-0.03647973 -0.14349405 -0.017455122 7.5705332e-39
-0.034562331 -0.14268802 -0.014460227 3.0508005e-39
-0.03267381 -0.14268802 -0.014460227 1.1344803e-38
-0.030767731 -0.14161004 -0.010454914 2.2957796e-38
-0.02887816 -0.14078392 -0.0073853936 2.3046762e-38
-0.026999466 -0.13999285 -0.0044460502 2.157054e-38
-0.025128502 -0.13999285 -0.0044460502 2.0557833e-38
-0.023268171 -0.13890465 -0.00040270947 1.6502313e-38
-0.0214043 -0.13890465 -0.00040270947 1.6504119e-38
-0.019540425 -0.13890465 -0.00040270947 1.7336043e-38
-0.017676551 -0.13890465 -0.00040270947 1.6138944e-38
-0.015841726 -0.13809387 0.0026097093 1.5863077e-38
-0.013983134 -0.13809387 0.0026097093 1.696978e-38
-0.012124542 -0.13809387 0.0026097093 1.8535663e-38
-0.010310591 -0.13728772 0.0056050811 2.1300444e-38
-0.0085068615 -0.13648613 0.0085835252 2.129972e-38
-0.006658745 -0.13648613 0.0085835252 2.2775202e-38
-0.0048106266 -0.13648613 0.0085835252 2.2499695e-38
-0.0029625082 -0.13648613 0.0085835252 2.240786e-38
-0.0011143899 -0.13648613 0.0085835252 1.0794107e-38
0.00063064788 -0.13539489 0.012638072 9.321862e-39
0.0024716565 -0.13539489 0.012638072 1.3471756e-38
0.0043126652 -0.13539489 0.012638072 1.3932392e-38
-0.042308711 -0.14807184 -0.027363202 1.7522193e-38
-0.040319107 -0.14645557 -0.021396657 1.706411e-38
-0.038418423 -0.14645557 -0.021396657 1.22714e-38
-0.03647973 -0.14538784 -0.017455122 7.7538482e-39
-0.034562331 -0.14457656 -0.014460227 2.7731416e-39
-0.03267381 -0.14457656 -0.014460227 9.8693213e-39
-0.030767731 -0.14349155 -0.010454914 2.1667436e-38
-0.02887816 -0.14266007 -0.0073853936 2.1757831e-38
-0.026999466 -0.14186381 -0.0044460502 2.0373087e-38
-0.025128502 -0.14186381 -0.0044460502 2.0740802e-38
-0.023268171 -0.14076851 -0.00040270947 1.7238814e-38
-0.0214043 -0.14076851 -0.00040270947 1.5396709e-38
-0.019540425 -0.14076851 -0.00040270947 1.6228274e-38
-0.017676551 -0.14076851 -0.00040270947 1.5031891e-38
-0.015812676 -0.14076851 -0.00040270947 1.4571992e-38
-0.013983134 -0.13995247 0.0026097093 1.77052e-38
-0.012124542 -0.13995247 0.0026097093 1.9640217e-38
-0.010265951 -0.13995247 0.0026097093 1.9085953e-38
-0.0084572518 -0.13914107 0.0056050811 1.9545485e-38
-0.006658745 -0.13833423 0.0085835252 2.2035123e-38
-0.0048106266 -0.13833423 0.0085835252 2.3142185e-38
-0.0029625082 -0.13833423 0.0085835252 2.2222754e-38
-0.0011143899 -0.13833423 0.0085835252 1.0055107e-38
0.00063064788 -0.13723589 0.012638072 8.4903062e-39
0.0024716565 -0.13723589 0.012638072 1.282531e-38
0.0043126652 -0.13723589 0.012638072 1.4393373e-38
0.0061536757 -0.13723589 0.012638072 1.3102637e-38
-0.042265002 -0.14918335 -0.024430295 1.6692433e-38
-0.040319107 -0.14835624 -0.021396657 1.6510574e-38
-0.038418423 -0.14835624 -0.021396657 1.2546548e-38
-0.03647973 -0.1472816 -0.017455122 8.582174e-39
-0.034562331 -0.14646508 -0.014460227 3.233045e-39
-0.03264923 -0.14537306 -0.010454914 7.1031034e-39
-0.030767731 -0.14537306 -0.010454914 1.6229016e-38
-0.02887816 -0.14453618 -0.0073853936 1.7518645e-38
-0.026999466 -0.14373477 -0.0044460502 1.7793422e-38
-0.025128502 -0.14373477 -0.0044460502 1.8804708e-38
-0.023268171 -0.14263238 -0.00040270947 1.7422145e-38
-0.0214043 -0.14263238 -0.00040270947 1.6041374e-38
-0.019540425 -0.14263238 -0.00040270947 1.7519026e-38
-0.017676551 -0.14263238 -0.00040270947 1.6414124e-38
-0.015812676 -0.14263238 -0.00040270947 1.4663483e-38
-0.013983134 -0.14181106 0.0026097093 1.6875807e-38
-0.012124542 -0.14181106 0.0026097093 1.7611563e-38
-0.010265951 -0.14181106 0.0026097093 1.9269272e-38
-0.0084572518 -0.14099441 0.0056050811 1.9544769e-38
-0.006658745 -0.14018236 0.0085835252 2.2218079e-38
-0.0048106266 -0.14018236 0.0085835252 2.3417691e-38
-0.0029625082 -0.14018236 0.0085835252 2.2774484e-38
-0.0012103608 -0.1390769 0.012638072 1.1068184e-38
0.00063064788 -0.1390769 0.012638072 9.1353239e-39
0.0023917826 -0.13827558 0.015577177 1.3193741e-38
0.0042276373 -0.13827558 0.015577177 1.4301177e-38
0.0061536757 -0.1390769 0.012638072 1.3563615e-38
-0.040267274 -0.14917539 -0.017455122 1.6600608e-38
-0.038373504 -0.14917539 -0.017455122 1.2175603e-38
-0.03647973 -0.14917539 -0.017455122 8.3952646e-39
-0.034562331 -0.14835359 -0.014460227 3.1390571e-39
-0.03264923 -0.14725454 -0.010454914 3.9684632e-39
-0.030767731 -0.14725454 -0.010454914 9.7767739e-39
-0.02887816 -0.1464123 -0.0073853936 1.1343714e-38
-0.026999466 -0.14560573 -0.0044460502 1.272484e-38
-0.025128502 -0.14560573 -0.0044460502 1.4842108e-38
-0.023257539 -0.14560573 -0.0044460502 1.4933233e-38
-0.021386575 -0.14560573 -0.0044460502 1.3829772e-38
-0.019540425 -0.14449625 -0.00040270947 1.5215229e-38
-0.017676551 -0.14449625 -0.00040270947 1.5216671e-38
-0.015812676 -0.14449625 -0.00040270947 1.4572017e-38
-0.013948803 -0.14449625 -0.00040270947 1.6876178e-38
-0.012084929 -0.14449625 -0.00040270947 1.7519375e-38
-0.010265951 -0.14366965 0.0026097093 1.8254768e-38
-0.0084572518 -0.14284773 0.0056050811 1.8530265e-38
-0.006658745 -0.14203046 0.0085835252 2.111138e-38
-0.0048106266 -0.14203046 0.0085835252 2.3508809e-38
-0.0029625082 -0.14203046 0.0085835252 2.2405349e-38
-0.0012103608 -0.14091791 0.012638072 1.2082707e-38
0.00063064788 -0.14091791 0.012638072 1.0057654e-38
0.0023917826 -0.14011143 0.015577177 1.3194113e-38
0.0042276373 -0.14011143 0.015577177 1.3839483e-38
0.0059705069 -0.13927986 0.018607715 1.3747284e-38
0.0078010475 -0.13927986 0.018607715 1.3654366e-38
-0.030767731 -0.14913605 -0.010454914 6.273354e-39
-0.02887816 -0.14828841 -0.0073853936 6.9208562e-39
-0.02700204 -0.14828841 -0.0073853936 7.8410034e-39
-0.025128502 -0.14747669 -0.0044460502 8.5738923e-39
-0.023257539 -0.14747669 -0.0044460502 8.7575703e-39
-0.021386575 -0.14747669 -0.0044460502 7.192411e-39
-0.019515611 -0.14747669 -0.0044460502 6.6424798e-39
-0.017676551 -0.14636014 -0.00040270947 7.2896499e-39
-0.015812676 -0.14636014 -0.00040270947 9.0417242e-39
-0.013948803 -0.14636014 -0.00040270947 1.1714307e-38
-0.012084929 -0.14636014 -0.00040270947 1.2911039e-38
-0.010265951 -0.14552824 0.0026097093 1.3000339e-38
-0.008407359 -0.14552824 0.0026097093 1.4934638e-38
-0.006658745 -0.14387859 0.0085835252 1.8898687e-38
-0.0048106266 -0.14387859 0.0085835252 2.2679061e-38
-0.0029625082 -0.14387859 0.0085835252 2.2313513e-38
-0.0012103608 -0.14275892 0.012638072 1.4019184e-38
0.00063064788 -0.14275892 0.012638072 1.162499e-38
0.0023917826 -0.14194728 0.015577177 1.2917891e-38
0.0041399645 -0.14111041 0.018607715 1.3562897e-38
0.0059705069 -0.14111041 0.018607715 1.4115347e-38
0.0078010475 -0.14111041 0.018607715 1.3838038e-38
0.0097352033 -0.14194728 0.015577177 1.346889e-38
0.01157106 -0.14194728 0.015577177 1.300719e-38
-0.023257539 -0.14934768 -0.0044460502 7.8377692e-39
-0.021386575 -0.14934768 -0.0044460502 7.0108938e-39
-0.019515611 -0.14934768 -0.0044460502 4.8000036e-39
-0.017676551 -0.14822401 -0.00040270947 4.8943614e-39
-0.015812676 -0.14822401 -0.00040270947 6.2780105e-39
-0.013948803 -0.14822401 -0.00040270947 6.0918102e-39
-0.012084929 -0.14822401 -0.00040270947 5.9974425e-39
-0.010265951 -0.14738683 0.0026097093 9.7745683e-39
-0.0084572518 -0.14655443 0.0056050811 1.2907053e-38
-0.006658745 -0.1457267 0.0085835252 1.6962579e-38
-0.0048106266 -0.1457267 0.0085835252 2.0374543e-38
-0.0030513695 -0.14459993 0.012638072 2.0193403e-38
-0.0012103608 -0.14459993 0.012638072 1.4388328e-38
0.00063064788 -0.14459993 0.012638072 1.2823897e-38
0.0023917826 -0.14378314 0.015577177 1.3195204e-38
0.0041399645 -0.14294095 0.018607715 1.3747289e-38
0.0059705069 -0.14294095 0.018607715 1.4391931e-38
0.0078010475 -0.14294095 0.018607715 1.4022427e-38
0.0097352033 -0.14378314 0.015577177 1.346889e-38
0.01157106 -0.14378314 0.015577177 1.3468168e-38
-0.010265951 -0.14924543 0.0026097093 9.9589693e-39
-0.0084572518 -0.14840777 0.0056050811 1.1986184e-38
-0.006658745 -0.14757483 0.0085835252 1.3829378e-38
-0.00489238 -0.14644094 0.012638072 1.4752779e-38
-0.0030513695 -0.14644094 0.012638072 1.4018462e-38
-0.0012103608 -0.14644094 0.012638072 1.0609752e-38
0.000555926 -0.14561899 0.015577177 1.1073262e-38
0.0023917826 -0.14561899 0.015577177 1.2457639e-38
0.0041399645 -0.1447715 0.018607715 1.4024238e-38
0.0059705069 -0.1447715 0.018607715 1.4577048e-38
0.0078010475 -0.1447715 0.018607715 1.4114625e-38
-0.006658745 -0.14942293 0.0085835252 9.7763885e-39
-0.00489238 -0.14828195 0.012638072 1.0146613e-38
-0.0030513695 -0.14828195 0.012638072 1.1439157e-38
-0.0012103608 -0.14828195 0.012638072 1.0888145e-38
0.000555926 -0.14745484 0.015577177 9.7832395e-39
0.0023917826 -0.14745484 0.015577177 1.0337139e-38
0.0041399645 -0.14660202 0.018607715 1.2181053e-38
0.0059705069 -0.14660202 0.018607715 1.4854725e-38
0.0078010475 -0.14660202 0.018607715 1.328631e-38
0.000555926 -0.14929073 0.015577177 9.7832395e-39
0.0023917826 -0.14929073 0.015577177 8.4932237e-39
0.0042276373 -0.14929073 0.015577177 9.6914152e-39
0.0060634939 -0.14929073 0.015577177 1.4485944e-38
