# .PCD v0.7 - Point Cloud Data file format
VERSION 0.7
FIELDS x y z rgb
SIZE 4 4 4 4
TYPE F F F F
COUNT 1 1 1 1
WIDTH 937
HEIGHT 1
VIEWPOINT 0 0 0 1 0 0 0
POINTS 937
DATA ascii
-0.024155349 -0.096067667 -0.042742733 2.3509521e-38
-0.022119634 -0.096067667 -0.042742733 2.3509527e-38
-0.020083923 -0.096067667 -0.042742733 2.3509168e-38
-0.018023722 -0.095231608 -0.03875244 2.3509527e-38
-0.015995007 -0.095231608 -0.03875244 2.3509164e-38
-0.013966289 -0.095231608 -0.03875244 2.3509521e-38
-0.011937573 -0.095231608 -0.03875244 2.3509521e-38
-0.0099088578 -0.095231608 -0.03875244 2.3508809e-38
-0.0078696469 -0.096067667 -0.042742733 2.3507374e-38
-0.0058339331 -0.096067667 -0.042742733 2.3507016e-38
-0.0037982203 -0.096067667 -0.042742733 2.3508809e-38
-0.0017308062 -0.096909523 -0.046760682 2.3508809e-38
0.00031195115 -0.096909523 -0.046760682 2.3508451e-38
0.0023547094 -0.096909523 -0.046760682 2.3508809e-38
0.0043974668 -0.096909523 -0.046760682 2.3509168e-38
0.0064402232 -0.096909523 -0.046760682 2.3509168e-38
0.0084160557 -0.096067667 -0.042742733 2.3509168e-38
0.010451769 -0.096067667 -0.042742733 2.3509527e-38
0.012487481 -0.096067667 -0.042742733 2.3509527e-38
0.014523194 -0.096067667 -0.042742733 2.3417333e-38
0.016464457 -0.095231608 -0.03875244 2.3325856e-38
0.018392421 -0.09440127 -0.034789447 2.3325856e-38
0.020414189 -0.09440127 -0.034789447 2.3417333e-38
0.022435959 -0.09440127 -0.034789447 2.3509527e-38
0.024457727 -0.09440127 -0.034789447 2.3509527e-38
0.026347585 -0.093549207 -0.030722741 2.1574143e-38
0.028228596 -0.092730328 -0.026814464 2.3234379e-38
0.030236382 -0.092730328 -0.026814464 2.0286276e-38
0.032544799 -0.09440127 -0.034789447 1.1897192e-38
-0.028226774 -0.098103389 -0.042742733 2.3509511e-38
-0.026191059 -0.098103389 -0.042742733 2.3508797e-38
-0.024155349 -0.098103389 -0.042742733 2.3508805e-38
-0.022119634 -0.098103389 -0.042742733 2.3509168e-38
-0.020083923 -0.098103389 -0.042742733 2.3509168e-38
-0.018023722 -0.097260326 -0.03875244 2.3508808e-38
-0.015995007 -0.097260326 -0.03875244 2.3415885e-38
-0.013966289 -0.097260326 -0.03875244 2.35088e-38
-0.011937573 -0.097260326 -0.03875244 2.350952e-38
-0.0099088578 -0.097260326 -0.03875244 2.3509163e-38
-0.0078696469 -0.098103389 -0.042742733 2.3509163e-38
-0.0058339331 -0.098103389 -0.042742733 2.3509163e-38
-0.0037982203 -0.098103389 -0.042742733 2.3508807e-38
-0.0017308062 -0.098952278 -0.046760682 2.3508807e-38
0.00031195115 -0.098952278 -0.046760682 2.3509168e-38
0.0023547094 -0.098952278 -0.046760682 2.3509168e-38
0.0043974668 -0.098952278 -0.046760682 2.3509168e-38
0.0064402232 -0.098952278 -0.046760682 2.3509168e-38
0.0084160557 -0.098103389 -0.042742733 2.3416974e-38
0.010451769 -0.098103389 -0.042742733 2.3416615e-38
0.012487481 -0.098103389 -0.042742733 2.3509527e-38
0.014523194 -0.098103389 -0.042742733 2.3509527e-38
0.016464457 -0.097260326 -0.03875244 2.3509527e-38
0.018392421 -0.096423045 -0.034789447 2.3325138e-38
0.02030367 -0.095563844 -0.030722741 2.295636e-38
0.022318307 -0.095563844 -0.030722741 2.3508091e-38
0.024213027 -0.094738111 -0.026814464 2.3509527e-38
0.026090719 -0.093890756 -0.022803787 2.3509886e-38
0.027985968 -0.093238786 -0.019717935 2.2496453e-38
0.029981308 -0.093238786 -0.019717935 1.1895394e-38
-0.028286655 -0.10099503 -0.046760682 1.1048958e-39
-0.026243895 -0.10099503 -0.046760682 2.2108888e-39
-0.02420114 -0.10099503 -0.046760682 3.3168819e-39
-0.022158381 -0.10099503 -0.046760682 5.3451913e-39
-0.019665837 -0.088850766 0.010246631 7.8344733e-39
-0.017704431 -0.088205129 0.013277408 9.95497e-39
-0.015766941 -0.088205129 0.013277408 1.2075823e-38
-0.013829452 -0.088205129 0.013277408 1.4196321e-38
-0.01189196 -0.088205129 0.013277408 1.5856195e-38
-0.0099614142 -0.086517468 0.02119958 1.7054014e-38
-0.0080378139 -0.086517468 0.02119958 1.751427e-38
-0.0061142137 -0.086517468 0.02119958 1.797597e-38
-0.0037735635 -0.10099503 -0.046760682 1.8252557e-38
-0.0017308062 -0.10099503 -0.046760682 1.82522e-38
0.00031195115 -0.10099503 -0.046760682 1.7791224e-38
0.0023547094 -0.10099503 -0.046760682 1.7054382e-38
0.0043974668 -0.10099503 -0.046760682 1.6593409e-38
0.0063803429 -0.1001391 -0.042742733 1.5026446e-38
0.0084160557 -0.1001391 -0.042742733 1.4012297e-38
0.010451769 -0.1001391 -0.042742733 1.2169107e-38
0.012487481 -0.1001391 -0.042742733 1.0417393e-38
0.014523194 -0.1001391 -0.042742733 8.6660375e-39
0.016464457 -0.099289045 -0.03875244 7.0065161e-39
0.018289033 -0.097578481 -0.030722741 5.4391904e-39
0.02030367 -0.097578481 -0.030722741 4.5165153e-39
0.022318307 -0.097578481 -0.030722741 1.6577263e-39
0.024213027 -0.096745893 -0.026814464 7.3612591e-40
0.026090719 -0.095891505 -0.022803787 9.1835496e-41
0.027850535 -0.094390273 -0.01575673 5.5388984e-40
0.029838931 -0.094390273 -0.01575673 7.1746481e-43
-0.025494251 -0.09079358 0.010246631 2.7550649e-40
-0.023551445 -0.09079358 0.010246631 2.7550649e-40
-0.02160864 -0.09079358 0.010246631 3.6734619e-40
-0.019665837 -0.09079358 0.010246631 6.4357435e-40
-0.017704431 -0.090142623 0.013277408 6.4393028e-40
-0.015766941 -0.090142623 0.013277408 6.4392467e-40
-0.013829452 -0.090142623 0.013277408 1.197453e-39
-0.01189196 -0.090142623 0.013277408 2.0268465e-39
-0.0099614142 -0.088441074 0.02119958 3.6863496e-39
-0.0080378139 -0.088441074 0.02119958 4.1473222e-39
-0.0061142137 -0.088441074 0.02119958 4.88489e-39
-0.0041663935 -0.089288771 0.017252799 5.345871e-39
-0.0022358727 -0.089288771 0.017252799 5.0700071e-39
-0.00026701577 -0.090142623 0.013277408 4.5168362e-39
0.0023547094 -0.10303779 -0.046760682 3.7789138e-39
0.0043974668 -0.10303779 -0.046760682 3.3179413e-39
0.0063803429 -0.1021748 -0.042742733 4.3324575e-39
0.0074829469 -0.090142623 0.013277408 3.5945366e-39
0.0093472516 -0.089288771 0.017252799 2.3970752e-39
0.011277772 -0.089288771 0.017252799 1.4747643e-39
0.014523194 -0.1021748 -0.042742733 6.4536661e-40
0.016558908 -0.1021748 -0.042742733 0
0.018289033 -0.099593118 -0.030722741 0
0.02030367 -0.099593118 -0.030722741 9.1835496e-41
0.022318307 -0.099593118 -0.030722741 5.5173465e-40
0.024213027 -0.098753676 -0.026814464 6.4393028e-40
0.025730435 -0.095506594 -0.011696462 9.1835496e-41
0.027578179 -0.094667718 -0.0077908076 5.5317098e-40
0.029552609 -0.094667718 -0.0077908076 7.393601e-40
0.033225816 -0.093166932 -0.00080335513 3.2304372e-39
-0.025585946 -0.094246268 0.0032737218 1.1049056e-39
-0.023551445 -0.092736378 0.010246631 9.2016124e-40
-0.02160864 -0.092736378 0.010246631 8.2796841e-40
-0.019665837 -0.092736378 0.010246631 7.3576998e-40
-0.017723031 -0.092736378 0.010246631 2.7550649e-40
-0.015766941 -0.092080101 0.013277408 2.7550649e-40
-0.013829452 -0.092080101 0.013277408 2.7550649e-40
-0.01189196 -0.092080101 0.013277408 8.2938932e-40
-0.0099579552 -0.091219291 0.017252799 3.6841818e-40
-0.0080274353 -0.091219291 0.017252799 7.3647763e-40
-0.0060969135 -0.091219291 0.017252799 9.2086609e-40
-0.0041663935 -0.091219291 0.017252799 1.1052545e-39
-0.0022358727 -0.091219291 0.017252799 9.2158355e-40
-0.0003053518 -0.091219291 0.017252799 7.371951e-40
0.0016251691 -0.091219291 0.017252799 4.6025368e-40
0.003607966 -0.092080101 0.013277408 2.7622395e-40
0.0055454569 -0.092080101 0.013277408 8.2938932e-40
0.0074829469 -0.092080101 0.013277408 4.6132988e-40
0.0093472516 -0.091219291 0.017252799 2.7658269e-40
0.011277772 -0.091219291 0.017252799 1.8474719e-40
0.013208291 -0.091219291 0.017252799 4.6132988e-40
0.015138813 -0.091219291 0.017252799 7.3791817e-40
0.017069332 -0.091219291 0.017252799 8.301138e-40
0.019107893 -0.092080101 0.013277408 9.219535e-40
0.021133065 -0.092736378 0.010246631 4.5953902e-40
0.023075867 -0.092736378 0.010246631 1.6580822e-39
0.025506265 -0.095991403 -0.0047855414 2.4889191e-39
0.027475428 -0.095991403 -0.0047855414 2.0283011e-39
0.029301457 -0.095129102 -0.00080335513 2.1212156e-39
0.031263635 -0.095129102 -0.00080335513 3.043169e-39
0.033225816 -0.095129102 -0.00080335513 4.4271825e-39
-0.033568565 -0.097960562 -0.0047855414 1.06936e-38
-0.031599406 -0.097960562 -0.0047855414 6.2692916e-39
-0.029563915 -0.097091287 -0.00080335513 3.1342843e-39
-0.027601738 -0.097091287 -0.00080335513 1.0137862e-39
-0.025585946 -0.096201301 0.0032737218 1.0134331e-39
-0.023630913 -0.096201301 0.0032737218 7.3685178e-40
-0.02160864 -0.094679192 0.010246631 6.4465615e-40
-0.019665837 -0.094679192 0.010246631 4.6026209e-40
-0.017723031 -0.094679192 0.010246631 1.8402972e-40
-0.015780225 -0.094679192 0.010246631 9.1835496e-41
-0.013829452 -0.094017595 0.013277408 9.2194229e-41
-0.01189196 -0.094017595 0.013277408 8.2938932e-40
-0.0099579552 -0.093149811 0.017252799 1.4747489e-39
-0.0080274353 -0.093149811 0.017252799 1.6584199e-39
-0.0060969135 -0.093149811 0.017252799 1.4747489e-39
-0.0041663935 -0.093149811 0.017252799 1.5669432e-39
-0.0022358727 -0.093149811 0.017252799 1.5665844e-39
-0.0003053518 -0.093149811 0.017252799 1.6587786e-39
0.0016251691 -0.093149811 0.017252799 1.5669432e-39
0.003607966 -0.094017595 0.013277408 1.5669432e-39
0.0055454569 -0.094017595 0.013277408 1.9357229e-39
0.0074167298 -0.093149811 0.017252799 1.6598619e-39
0.0093472516 -0.093149811 0.017252799 1.4751133e-39
0.011277772 -0.093149811 0.017252799 1.2914437e-39
0.013208291 -0.093149811 0.017252799 1.1066965e-39
0.015138813 -0.093149811 0.017252799 7.3863563e-40
0.017069332 -0.093149811 0.017252799 4.6204874e-40
0.019107893 -0.094017595 0.013277408 3.6913565e-40
0.021045383 -0.094017595 0.013277408 2.0283011e-39
0.022982873 -0.094017595 0.013277408 1.9353894e-39
0.025244851 -0.096201301 0.0032737218 1.6595213e-39
0.027339276 -0.097091287 -0.00080335513 1.4751273e-39
0.029301457 -0.097091287 -0.00080335513 2.1204967e-39
0.031263635 -0.097091287 -0.00080335513 3.1346486e-39
0.033225816 -0.097091287 -0.00080335513 4.5172201e-39
-0.033568565 -0.09992972 -0.0047855414 9.680174e-39
-0.031599406 -0.09992972 -0.0047855414 6.1767401e-39
-0.029563915 -0.099053472 -0.00080335513 4.1484376e-39
-0.027601738 -0.099053472 -0.00080335513 1.013789e-39
-0.025585946 -0.098156333 0.0032737218 6.4465335e-40
-0.023597334 -0.097507954 0.006220337 4.6026489e-40
-0.02160864 -0.09662199 0.010246631 4.6026489e-40
-0.019665837 -0.09662199 0.010246631 7.3684898e-40
-0.017723031 -0.09662199 0.010246631 8.2939773e-40
-0.015780225 -0.09662199 0.010246631 8.2939353e-40
-0.013829452 -0.095955089 0.013277408 1.1063307e-39
-0.01189196 -0.095955089 0.013277408 1.8431713e-39
-0.0099579552 -0.095080331 0.017252799 2.1193925e-39
-0.0080274353 -0.095080331 0.017252799 2.4874533e-39
-0.0060969135 -0.095080331 0.017252799 2.488175e-39
-0.0041663935 -0.095080331 0.017252799 2.6725662e-39
-0.0022358727 -0.095080331 0.017252799 2.8569603e-39
-0.00034341216 -0.094211861 0.02119958 2.672932e-39
0.001580189 -0.094211861 0.02119958 2.6729348e-39
0.003555689 -0.095080331 0.017252799 2.3974269e-39
0.0054862099 -0.095080331 0.017252799 1.9360914e-39
0.0074167298 -0.095080331 0.017252799 1.9368131e-39
0.0093472516 -0.095080331 0.017252799 2.1208484e-39
0.011277772 -0.095080331 0.017252799 2.1208512e-39
0.013208291 -0.095080331 0.017252799 1.9368215e-39
0.015138813 -0.095080331 0.017252799 1.568039e-39
0.017069332 -0.095080331 0.017252799 1.2914521e-39
0.019107893 -0.095955089 0.013277408 1.1070636e-39
0.021045383 -0.095955089 0.013277408 1.3836533e-39
0.022982873 -0.095955089 0.013277408 1.4751301e-39
0.025149275 -0.097507954 0.006220337 1.1985432e-39
0.027199883 -0.098156333 0.0032737218 1.9361082e-39
0.029301457 -0.099053472 -0.00080335513 2.3045278e-39
0.031263635 -0.099053472 -0.00080335513 3.8707745e-39
0.033225816 -0.099053472 -0.00080335513 4.792728e-39
-0.033568565 -0.10189888 -0.0047855414 8.9433292e-39
-0.031599406 -0.10189888 -0.0047855414 6.9150254e-39
-0.029563915 -0.10101564 -0.00080335513 5.7161262e-39
-0.027601738 -0.10101564 -0.00080335513 1.8439126e-40
-0.025585946 -0.10011137 0.0032737218 8.2940754e-40
-0.023597334 -0.099457815 0.006220337 6.4501768e-40
-0.02160864 -0.098564804 0.010246631 7.3649445e-40
-0.019665837 -0.098564804 0.010246631 1.0134387e-39
-0.017723031 -0.098564804 0.010246631 1.013789e-39
-0.015780225 -0.098564804 0.010246631 9.2158916e-40
-0.013829452 -0.097892582 0.013277408 1.0141365e-39
-0.01189196 -0.097892582 0.013277408 1.5665886e-39
-0.0099579552 -0.097010851 0.017252799 1.5655194e-39
-0.0080274353 -0.097010851 0.017252799 1.7499121e-39
-0.0060969135 -0.097010851 0.017252799 1.9343034e-39
-0.0041663935 -0.097010851 0.017252799 2.2108902e-39
-0.0022358727 -0.097010851 0.017252799 2.303446e-39
-0.00034341216 -0.096135467 0.02119958 2.3956444e-39
0.001580189 -0.096135467 0.02119958 2.3956444e-39
0.003555689 -0.097010851 0.017252799 2.1201366e-39
0.0054862099 -0.097010851 0.017252799 2.1201366e-39
0.0074167298 -0.097010851 0.017252799 2.1204995e-39
0.0093472516 -0.097010851 0.017252799 2.2126979e-39
0.011198192 -0.096135467 0.02119958 2.0286668e-39
0.013121792 -0.096135467 0.02119958 1.6598843e-39
0.015138813 -0.097010851 0.017252799 1.2911018e-39
0.017069332 -0.097010851 0.017252799 7.3900698e-40
0.019107893 -0.097892582 0.013277408 5.5461572e-40
0.021045383 -0.097892582 0.013277408 1.1077895e-39
0.022982873 -0.097892582 0.013277408 2.0286668e-39
0.025018673 -0.098564804 0.010246631 1.1063476e-39
0.027199883 -0.10011137 0.0032737218 1.3822156e-39
0.029154912 -0.10011137 0.0032737218 2.7550649e-40
0.031263635 -0.10101564 -0.00080335513 2.4871212e-39
0.033225816 -0.10101564 -0.00080335513 3.777137e-39
-0.035537731 -0.10386805 -0.0047855414 9.772734e-39
-0.033568565 -0.10386805 -0.0047855414 8.1132126e-39
-0.031599406 -0.10386805 -0.0047855414 5.9005175e-39
-0.029563915 -0.10297783 -0.00080335513 5.6239334e-39
-0.027601738 -0.10297783 -0.00080335513 2.7623376e-40
-0.025585946 -0.1020664 0.0032737218 1.8403953e-40
-0.023630913 -0.1020664 0.0032737218 7.0064923e-45
-0.021647468 -0.10140768 0.006220337 2.755163e-40
-0.019697603 -0.10140768 0.006220337 6.4465615e-40
-0.017723031 -0.1005076 0.010246631 7.3684617e-40
-0.015780225 -0.1005076 0.010246631 7.371979e-40
-0.013837422 -0.1005076 0.010246631 8.2974806e-40
-0.01189196 -0.099830076 0.013277408 1.198532e-39
-0.0099544702 -0.099830076 0.013277408 1.6580794e-39
-0.0080169784 -0.099830076 0.013277408 1.7495618e-39
-0.0060794884 -0.099830076 0.013277408 1.7495618e-39
-0.0041663935 -0.098941371 0.017252799 1.7499219e-39
-0.0022358727 -0.098941371 0.017252799 1.9343132e-39
-0.00034341216 -0.098059073 0.02119958 2.1197834e-39
0.001580189 -0.098059073 0.02119958 2.3963703e-39
0.003555689 -0.098941371 0.017252799 2.4892848e-39
0.0054862099 -0.098941371 0.017252799 2.2126979e-39
0.0074167298 -0.098941371 0.017252799 2.2130581e-39
0.0093472516 -0.098941371 0.017252799 2.0286696e-39
0.011198192 -0.098059073 0.02119958 1.7520827e-39
0.013121792 -0.098059073 0.02119958 1.2911046e-39
0.015138813 -0.098941371 0.017252799 7.3793078e-40
0.017069332 -0.098941371 0.017252799 4.6134389e-40
0.019107893 -0.099830076 0.013277408 2.7695263e-40
0.021045383 -0.099830076 0.013277408 2.7694983e-40
0.022982873 -0.099830076 0.013277408 2.0290227e-39
0.025018673 -0.1005076 0.010246631 1.4751301e-39
0.027199883 -0.1020664 0.0032737218 2.6733103e-39
0.029154912 -0.1020664 0.0032737218 1.3814925e-39
0.031263635 -0.10297783 -0.00080335513 4.0544469e-39
0.033225816 -0.10297783 -0.00080335513 3.4083544e-39
-0.033568565 -0.10583721 -0.0047855414 7.8366285e-39
-0.031599406 -0.10583721 -0.0047855414 7.0068707e-39
-0.029563915 -0.10494001 -0.00080335513 5.5313847e-39
-0.027601738 -0.10494001 -0.00080335513 1.4747784e-39
-0.025585946 -0.10402142 0.0032737218 1.8435637e-39
-0.023597334 -0.10335754 0.006220337 1.1059986e-39
-0.021647468 -0.10335754 0.006220337 6.4501768e-40
-0.019665837 -0.1024504 0.010246631 8.2940754e-40
-0.017723031 -0.1024504 0.010246631 7.3756504e-40
-0.015780225 -0.1024504 0.010246631 5.5317098e-40
-0.013837422 -0.1024504 0.010246631 8.3011239e-40
-0.01189196 -0.10176755 0.013277408 1.6591542e-39
-0.0099544702 -0.10176755 0.013277408 1.1049028e-39
-0.0080169784 -0.10176755 0.013277408 1.6580794e-39
-0.0060794884 -0.10176755 0.013277408 1.6580794e-39
-0.0041419975 -0.10176755 0.013277408 1.5669628e-39
-0.0022358727 -0.10087189 0.017252799 2.2130482e-39
-0.0003053518 -0.10087189 0.017252799 2.1212127e-39
0.0016251691 -0.10087189 0.017252799 1.9368215e-39
0.0035037892 -0.099982664 0.02119958 2.3977996e-39
0.0054273894 -0.099982664 0.02119958 2.0290171e-39
0.0073509896 -0.099982664 0.02119958 2.7665822e-39
0.0092745917 -0.099982664 0.02119958 1.6602374e-39
0.011198192 -0.099982664 0.02119958 2.8587834e-39
0.013121792 -0.099982664 0.02119958 1.6595213e-39
0.015138813 -0.10087189 0.017252799 1.7510009e-39
0.017170399 -0.10176755 0.013277408 8.2904461e-40
0.019107893 -0.10176755 0.013277408 4.6026209e-40
0.021045383 -0.10176755 0.013277408 8.2939773e-40
0.022982873 -0.10176755 0.013277408 1.4747671e-39
0.025018673 -0.1024504 0.010246631 1.751354e-39
0.027099136 -0.10335754 0.006220337 2.0268591e-39
0.029049002 -0.10335754 0.006220337 1.8424679e-39
0.031109944 -0.10402142 0.0032737218 4.2395542e-39
0.033064973 -0.10402142 0.0032737218 3.6863805e-39
-0.031526092 -0.1069022 -0.00080335513 7.7440798e-39
-0.029563915 -0.1069022 -0.00080335513 5.4391904e-39
-0.027497061 -0.10530742 0.006220337 1.1981943e-39
-0.025547195 -0.10530742 0.006220337 4.6062923e-40
-0.023597334 -0.10530742 0.006220337 1.013803e-39
-0.021647468 -0.10530742 0.006220337 1.0138002e-39
-0.019665837 -0.1043932 0.010246631 4.6062502e-40
-0.017723031 -0.1043932 0.010246631 4.6098095e-40
-0.015780225 -0.1043932 0.010246631 9.219535e-40
-0.013837422 -0.1043932 0.010246631 8.2975787e-40
-0.01189196 -0.10370506 0.013277408 1.8474719e-40
-0.0099544702 -0.10370506 0.013277408 1.1049028e-39
-0.0080169784 -0.10370506 0.013277408 1.9346635e-39
-0.0060794884 -0.10370506 0.013277408 1.7513512e-39
-0.0041419975 -0.10370506 0.013277408 1.4747629e-39
-0.0022358727 -0.10280241 0.017252799 1.6598731e-39
-0.0003053518 -0.10280241 0.017252799 1.4761979e-39
0.0016251691 -0.10280241 0.017252799 1.6605891e-39
0.0035037892 -0.10190627 0.02119958 2.4914288e-39
0.0054273894 -0.10190627 0.02119958 1.4772769e-39
0.0073509896 -0.10190627 0.02119958 1.2925297e-39
0.0092745917 -0.10190627 0.02119958 9.3270426e-41
0.011198192 -0.10190627 0.02119958 1.3832876e-39
0.013121792 -0.10190627 0.02119958 1.4747671e-39
0.015138813 -0.10280241 0.017252799 2.3963675e-39
0.017170399 -0.10370506 0.013277408 1.7502778e-39
0.019190259 -0.1043932 0.010246631 1.1971041e-39
0.021045383 -0.10370506 0.013277408 1.3814925e-39
0.022982873 -0.10370506 0.013277408 1.4736853e-39
0.025018673 -0.1043932 0.010246631 1.4736853e-39
0.027099136 -0.10530742 0.006220337 1.7502722e-39
0.029049002 -0.10530742 0.006220337 2.3956416e-39
0.031109944 -0.10597645 0.0032737218 5.7146843e-39
-0.029496003 -0.10793148 0.0032737218 5.4391904e-39
-0.027497061 -0.10725726 0.006220337 2.4889303e-39
-0.025547195 -0.10725726 0.006220337 1.1059986e-39
-0.023597334 -0.10725726 0.006220337 9.2160738e-40
-0.021647468 -0.10725726 0.006220337 3.6843079e-40
-0.019697603 -0.10725726 0.006220337 5.6051939e-45
-0.017747741 -0.10725726 0.006220337 2.7658969e-40
-0.015780225 -0.10633601 0.010246631 9.219535e-40
-0.013837422 -0.10633601 0.010246631 1.1063448e-39
-0.011894618 -0.10633601 0.010246631 1.0145051e-39
-0.0099544702 -0.10564254 0.013277408 1.2896514e-39
-0.0080169784 -0.10564254 0.013277408 1.6584339e-39
-0.0060794884 -0.10564254 0.013277408 1.4747629e-39
-0.0041419975 -0.10564254 0.013277408 1.7517058e-39
-0.0022358727 -0.10473295 0.017252799 2.5818266e-39
-0.0003053518 -0.10473295 0.017252799 2.2137601e-39
0.0016251691 -0.10473295 0.017252799 1.3839994e-39
0.003555689 -0.10473295 0.017252799 1.2918038e-39
0.0054862099 -0.10473295 0.017252799 2.6747383e-39
0.0074167298 -0.10473295 0.017252799 2.3059585e-39
0.0093472516 -0.10473295 0.017252799 1.5676746e-39
0.011277772 -0.10473295 0.017252799 2.2130468e-39
0.013208291 -0.10473295 0.017252799 2.0279381e-39
0.01523291 -0.10564254 0.013277408 2.3967234e-39
0.017247453 -0.10633601 0.010246631 1.2892969e-39
0.019190259 -0.10633601 0.010246631 6.4392747e-40
0.021133065 -0.10633601 0.010246631 1.750275e-39
0.023075867 -0.10633601 0.010246631 1.6580794e-39
0.025018673 -0.10633601 0.010246631 1.3814925e-39
0.027099136 -0.10725726 0.006220337 1.9346663e-39
0.029154912 -0.10793148 0.0032737218 3.2254051e-39
-0.029496003 -0.10988651 0.0032737218 8.2050579e-39
-0.027497061 -0.10920714 0.006220337 8.297255e-39
-0.025547195 -0.10920714 0.006220337 7.4674971e-39
-0.023597334 -0.10920714 0.006220337 4.3328429e-39
-0.021647468 -0.10920714 0.006220337 1.6591682e-39
-0.019697603 -0.10920714 0.006220337 1.1063504e-39
-0.017747741 -0.10920714 0.006220337 8.2976347e-40
-0.015797876 -0.10920714 0.006220337 0
-0.013848011 -0.10920714 0.006220337 2.7658409e-40
-0.011894618 -0.10827883 0.010246631 1.4747643e-39
-0.0099544702 -0.10758002 0.013277408 1.8428252e-39
-0.0080169784 -0.10758002 0.013277408 2.1194093e-39
-0.0060794884 -0.10758002 0.013277408 1.7506268e-39
-0.0041419975 -0.10758002 0.013277408 1.4751161e-39
-0.0022358727 -0.10666345 0.017252799 2.0282898e-39
-0.0003053518 -0.10666345 0.017252799 1.5680278e-39
0.0016251691 -0.10666345 0.017252799 7.3827129e-40
0.003555689 -0.10666345 0.017252799 6.4679453e-40
0.0054862099 -0.10666345 0.017252799 9.3629158e-41
0.0074167298 -0.10666345 0.017252799 5.546003e-40
0.0093472516 -0.10666345 0.017252799 1.7524218e-39
0.011277772 -0.10666345 0.017252799 2.0286528e-39
0.013208291 -0.10666345 0.017252799 1.7513498e-39
0.01523291 -0.10758002 0.013277408 1.7513498e-39
0.017247453 -0.10827883 0.010246631 1.0127072e-39
0.019190259 -0.10827883 0.010246631 1.1971013e-39
0.021045383 -0.10758002 0.013277408 1.750275e-39
0.022982873 -0.10758002 0.013277408 1.9346663e-39
0.025018673 -0.10827883 0.010246631 1.9346691e-39
0.027199883 -0.10988651 0.0032737218 2.4878401e-39
0.029154912 -0.10988651 0.0032737218 3.5941904e-39
-0.031526092 -0.11278872 -0.00080335513 8.1132182e-39
-0.029563915 -0.11278872 -0.00080335513 9.3114055e-39
-0.027497061 -0.11115701 0.006220337 1.0786536e-38
-0.025547195 -0.11115701 0.006220337 1.0141168e-38
-0.023630913 -0.11184154 0.0032737218 6.7299293e-39
-0.021675881 -0.11184154 0.0032737218 3.8718633e-39
-0.019697603 -0.11115701 0.006220337 3.5034367e-39
-0.017747741 -0.11115701 0.006220337 3.8722193e-39
-0.015797876 -0.11115701 0.006220337 3.5034311e-39
-0.013848011 -0.11115701 0.006220337 3.5956268e-39
-0.011894618 -0.11022164 0.010246631 4.4250231e-39
-0.0099544702 -0.10951753 0.013277408 2.8569743e-39
-0.0080169784 -0.10951753 0.013277408 3.3183056e-39
-0.0060794884 -0.10951753 0.013277408 2.7651318e-39
-0.0041419975 -0.10951753 0.013277408 1.7520575e-39
-0.0022045067 -0.10951753 0.013277408 1.4754706e-39
-0.0003053518 -0.10859399 0.017252799 1.2914395e-39
0.0016251691 -0.10859399 0.017252799 1.7524176e-39
0.003555689 -0.10859399 0.017252799 2.9509608e-39
0.0054862099 -0.10859399 0.017252799 3.6885258e-39
0.0074167298 -0.10859399 0.017252799 2.7665695e-39
0.0093472516 -0.10859399 0.017252799 3.3190259e-39
0.011277772 -0.10859399 0.017252799 1.9360914e-39
0.013208291 -0.10859399 0.017252799 1.6584283e-39
0.01523291 -0.10951753 0.013277408 1.6584311e-39
0.017170399 -0.10951753 0.013277408 1.1045413e-39
0.019190259 -0.11022164 0.010246631 1.7499121e-39
0.021045383 -0.10951753 0.013277408 1.5658866e-39
0.022982873 -0.10951753 0.013277408 2.0268647e-39
0.025018673 -0.11022164 0.010246631 2.1187044e-39
0.027099136 -0.11115701 0.006220337 2.3034516e-39
-0.031599406 -0.115683 -0.0047855414 8.2976067e-39
-0.029630248 -0.115683 -0.0047855414 8.5741964e-39
-0.027601738 -0.11475091 -0.00080335513 8.2050579e-39
-0.025639556 -0.11475091 -0.00080335513 9.1270156e-39
-0.023677379 -0.11475091 -0.00080335513 8.6660361e-39
-0.021675881 -0.11379658 0.0032737218 7.8362754e-39
-0.019720852 -0.11379658 0.0032737218 7.8366313e-39
-0.017765824 -0.11379658 0.0032737218 9.4039542e-39
-0.015797876 -0.11310686 0.006220337 1.1340062e-38
-0.013848011 -0.11310686 0.006220337 1.1524451e-38
-0.011894618 -0.11216442 0.010246631 1.060213e-38
-0.0099518122 -0.11216442 0.010246631 1.2629708e-38
-0.0080169784 -0.11145501 0.013277408 1.2629344e-38
-0.0060794884 -0.11145501 0.013277408 1.2169085e-38
-0.0041419975 -0.11145501 0.013277408 1.2722256e-38
-0.0022045067 -0.11145501 0.013277408 1.4106269e-38
-0.0003053518 -0.11052449 0.017252799 1.465944e-38
0.0016251691 -0.11052449 0.017252799 1.429066e-38
0.003555689 -0.11052449 0.017252799 1.4199181e-38
0.0054862099 -0.11052449 0.017252799 1.2723335e-38
0.0074829469 -0.11145501 0.013277408 8.8511182e-39
0.0093472516 -0.11052449 0.017252799 6.5462274e-39
0.011277772 -0.11052449 0.017252799 2.3974269e-39
0.013208291 -0.11052449 0.017252799 1.9353711e-39
0.01523291 -0.11145501 0.013277408 2.0272108e-39
0.017170399 -0.11145501 0.013277408 1.1048958e-39
0.019190259 -0.11216442 0.010246631 1.4733238e-39
0.021045383 -0.11145501 0.013277408 1.1971041e-39
0.022982873 -0.11145501 0.013277408 1.7499219e-39
0.025018673 -0.11216442 0.010246631 1.6577263e-39
0.027099136 -0.11310686 0.006220337 1.473335e-39
-0.031599406 -0.11765216 -0.0047855414 9.7727368e-39
-0.029630248 -0.11765216 -0.0047855414 8.9429789e-39
-0.027601738 -0.11671309 -0.00080335513 6.0849144e-39
-0.025639556 -0.11671309 -0.00080335513 7.0987104e-39
-0.023677379 -0.11671309 -0.00080335513 8.0206667e-39
-0.021675881 -0.11575161 0.0032737218 8.1128623e-39
-0.019720852 -0.11575161 0.0032737218 7.8366313e-39
-0.017765824 -0.11575161 0.0032737218 9.0351717e-39
-0.015797876 -0.11505674 0.006220337 1.1155671e-38
-0.013848011 -0.11505674 0.006220337 1.1432255e-38
-0.011894618 -0.11410724 0.010246631 1.0417739e-38
-0.0099518122 -0.11410724 0.010246631 1.207689e-38
-0.0080169784 -0.11339252 0.013277408 1.2168722e-38
-0.0060794884 -0.11339252 0.013277408 1.1892495e-38
-0.0041419975 -0.11339252 0.013277408 1.2999198e-38
-0.0022045067 -0.11339252 0.013277408 1.5304089e-38
-0.0003053518 -0.11245503 0.017252799 1.6041651e-38
0.001580189 -0.11152427 0.02119958 1.5211894e-38
0.0035037892 -0.11152427 0.02119958 1.45676e-38
0.0054273894 -0.11152427 0.02119958 1.3828959e-38
0.0074167298 -0.11245503 0.017252799 9.0347864e-39
0.0093472516 -0.11245503 0.017252799 6.6377e-39
0.011277772 -0.11245503 0.017252799 1.7509757e-39
0.01329542 -0.11339252 0.013277408 1.6587829e-39
0.01523291 -0.11339252 0.013277408 2.0275668e-39
0.017170399 -0.11339252 0.013277408 1.19709e-39
0.019190259 -0.11410724 0.010246631 1.7499079e-39
0.021133065 -0.11410724 0.010246631 8.2832154e-40
0.023075867 -0.11410724 0.010246631 1.3811422e-39
0.025018673 -0.11410724 0.010246631 1.1967509e-39
0.027199883 -0.11575161 0.0032737218 9.2016404e-40
-0.031654734 -0.12033533 -0.0077908076 9.4039542e-39
-0.029680301 -0.12033533 -0.0077908076 7.6522401e-39
-0.027601738 -0.11867525 -0.00080335513 3.2268498e-39
-0.025639556 -0.11867525 -0.00080335513 2.8025969e-45
-0.023677379 -0.11867525 -0.00080335513 2.8025969e-45
-0.021675881 -0.11770664 0.0032737218 1.8439406e-40
-0.019720852 -0.11770664 0.0032737218 3.6878252e-40
-0.017765824 -0.11770664 0.0032737218 1.1985432e-39
-0.015797876 -0.11700659 0.006220337 2.5814776e-39
-0.013848011 -0.11700659 0.006220337 3.9644093e-39
-0.011894618 -0.11605005 0.010246631 4.70161e-39
-0.0099518122 -0.11605005 0.010246631 8.6656521e-39
-0.0080169784 -0.11533 0.013277408 9.9560266e-39
-0.0060794884 -0.11533 0.013277408 9.864547e-39
-0.0041419975 -0.11533 0.013277408 8.9425907e-39
-0.0022045067 -0.11533 0.013277408 8.3894142e-39
-0.0003053518 -0.11438553 0.017252799 8.4816098e-39
0.001580189 -0.11344786 0.02119958 1.0048935e-38
0.0035037892 -0.11344786 0.02119958 1.2261631e-38
0.0054273894 -0.11344786 0.02119958 1.124676e-38
0.0074167298 -0.11438553 0.017252799 7.4674579e-39
0.0093472516 -0.11438553 0.017252799 6.5455044e-39
0.011277772 -0.11438553 0.017252799 1.9357229e-39
0.01329542 -0.11533 0.013277408 1.6587829e-39
0.01523291 -0.11533 0.013277408 1.5665872e-39
0.017170399 -0.11533 0.013277408 8.2831313e-40
0.019190259 -0.11605005 0.010246631 1.5655166e-39
0.021133065 -0.11605005 0.010246631 6.4393028e-40
0.023075867 -0.11605005 0.010246631 1.2889466e-39
0.025018673 -0.11605005 0.010246631 1.1045553e-39
0.027199883 -0.11770664 0.0032737218 1.0123597e-39
-0.031654734 -0.12230973 -0.0077908076 9.9571252e-39
-0.029680301 -0.12230973 -0.0077908076 8.0210198e-39
-0.027661081 -0.12159048 -0.0047855414 3.5956296e-39
-0.025639556 -0.12063743 -0.00080335513 9.219563e-40
-0.023677379 -0.12063743 -0.00080335513 6.4536941e-40
-0.021675881 -0.11966167 0.0032737218 6.4536941e-40
-0.019720852 -0.11966167 0.0032737218 0
-0.017765824 -0.11966167 0.0032737218 9.219563e-41
-0.015797876 -0.11895646 0.006220337 4.6097535e-40
-0.013837422 -0.11799283 0.010246631 0
-0.011894618 -0.11799283 0.010246631 1.1059804e-39
-0.0099544702 -0.11726747 0.013277408 2.0275668e-39
-0.0080169784 -0.11726747 0.013277408 3.5023325e-39
-0.0060794884 -0.11726747 0.013277408 4.2398948e-39
-0.0041419975 -0.11726747 0.013277408 3.4101341e-39
-0.0022358727 -0.11631607 0.017252799 2.5803706e-39
-0.0003053518 -0.11631607 0.017252799 2.6725662e-39
0.0016251691 -0.11631607 0.017252799 3.1335444e-39
0.0035037892 -0.11537148 0.02119958 3.22574e-39
0.0054273894 -0.11537148 0.02119958 3.409411e-39
0.0074167298 -0.11631607 0.017252799 3.1335444e-39
0.0093472516 -0.11631607 0.017252799 2.4881778e-39
0.011277772 -0.11631607 0.017252799 1.7506141e-39
0.01329542 -0.11726747 0.013277408 1.658064e-39
0.01523291 -0.11726747 0.013277408 1.8424552e-39
0.017170399 -0.11726747 0.013277408 1.5658698e-39
0.019190259 -0.11799283 0.010246631 1.1045385e-39
0.021133065 -0.11799283 0.010246631 1.2892997e-39
0.023075867 -0.11799283 0.010246631 2.7551209e-40
0.025018673 -0.11799283 0.010246631 6.4357715e-40
0.027099136 -0.11895646 0.006220337 5.5138152e-40
-0.031654734 -0.12428416 -0.0077908076 1.0049321e-38
-0.029680301 -0.12428416 -0.0077908076 9.0351717e-39
-0.027661081 -0.12355967 -0.0047855414 5.0707596e-39
-0.025639556 -0.12259962 -0.00080335513 1.1063476e-39
-0.023677379 -0.12259962 -0.00080335513 5.5317378e-40
-0.021675881 -0.12161671 0.0032737218 4.6097815e-40
-0.019720852 -0.12161671 0.0032737218 0
-0.017765824 -0.12161671 0.0032737218 9.2194229e-41
-0.015797876 -0.12090631 0.006220337 4.6097535e-40
-0.013837422 -0.11993565 0.010246631 0
-0.01189196 -0.11920498 0.013277408 1.0137848e-39
-0.0099544702 -0.11920498 0.013277408 3.6805945e-40
-0.0080169784 -0.11920498 0.013277408 1.3818372e-39
-0.0060794884 -0.11920498 0.013277408 1.7506155e-39
-0.0041419975 -0.11920498 0.013277408 1.289643e-39
-0.0022358727 -0.11824657 0.017252799 1.0130603e-39
-0.0003053518 -0.11824657 0.017252799 1.6577025e-39
0.0016251691 -0.11824657 0.017252799 1.8417322e-39
0.003555689 -0.11824657 0.017252799 1.5655082e-39
0.0054862099 -0.11824657 0.017252799 2.1183163e-39
0.0074167298 -0.11824657 0.017252799 2.1183163e-39
0.0093472516 -0.11824657 0.017252799 1.9339264e-39
0.011357929 -0.11920498 0.013277408 1.3818372e-39
0.01329542 -0.11920498 0.013277408 1.3814785e-39
0.01523291 -0.11920498 0.013277408 1.5658698e-39
0.017170399 -0.11920498 0.013277408 1.2892843e-39
0.019107893 -0.11920498 0.013277408 8.279544e-40
0.021133065 -0.11993565 0.010246631 8.2832154e-40
0.023075867 -0.11993565 0.010246631 4.5918589e-40
0.025018673 -0.11993565 0.010246631 1.0123597e-39
0.027099136 -0.12090631 0.006220337 1.0123597e-39
0.029154912 -0.12161671 0.0032737218 3.1328592e-39
-0.031599406 -0.12552883 -0.0047855414 1.0418459e-38
-0.029630248 -0.12552883 -0.0047855414 1.0049321e-38
-0.027661081 -0.12552883 -0.0047855414 6.3614957e-39
-0.025691923 -0.12552883 -0.0047855414 1.7517142e-39
-0.023677379 -0.1245618 -0.00080335513 4.6097535e-40
-0.021675881 -0.12357174 0.0032737218 4.6097535e-40
-0.019720852 -0.12357174 0.0032737218 9.2194229e-41
-0.017747741 -0.12285618 0.006220337 1.8438846e-40
-0.015780225 -0.12187846 0.010246631 5.5317098e-40
-0.013829452 -0.12114246 0.013277408 0
-0.01189196 -0.12114246 0.013277408 9.2159056e-40
-0.0099544702 -0.12114246 0.013277408 1.2896458e-39
-0.0080169784 -0.12114246 0.013277408 1.7502596e-39
-0.0060794884 -0.12114246 0.013277408 1.658064e-39
-0.0041663935 -0.12017711 0.017252799 1.4740315e-39
-0.0022358727 -0.12017711 0.017252799 1.9339278e-39
-0.0003053518 -0.12017711 0.017252799 2.5789343e-39
0.0016251691 -0.12017711 0.017252799 2.4863827e-39
0.003555689 -0.12017711 0.017252799 1.9335677e-39
0.0054862099 -0.12017711 0.017252799 1.7488205e-39
0.0074167298 -0.12017711 0.017252799 1.9332089e-39
0.0093472516 -0.12017711 0.017252799 1.9332089e-39
0.011357929 -0.12114246 0.013277408 1.7495393e-39
0.01329542 -0.12114246 0.013277408 1.5658698e-39
0.01523291 -0.12114246 0.013277408 1.6580682e-39
0.017170399 -0.12114246 0.013277408 1.3814813e-39
0.019107893 -0.12114246 0.013277408 1.0123457e-39
0.021133065 -0.12187846 0.010246631 7.3612591e-40
0.023075867 -0.12187846 0.010246631 7.3576998e-40
0.025018673 -0.12187846 0.010246631 1.1045525e-39
0.026961479 -0.12187846 0.010246631 1.1967481e-39
0.029154912 -0.12357174 0.0032737218 3.4094432e-39
-0.029680301 -0.12823303 -0.0077908076 1.0602495e-38
-0.027705874 -0.12823303 -0.0077908076 6.7302782e-39
-0.025691923 -0.12749799 -0.0047855414 2.5814748e-39
-0.023677379 -0.12652399 -0.00080335513 5.5317098e-40
-0.021675881 -0.12552677 0.0032737218 4.6097535e-40
-0.019697603 -0.12480606 0.006220337 3.6877972e-40
-0.017723031 -0.12382124 0.010246631 3.6877972e-40
-0.015780225 -0.12382124 0.010246631 6.4536661e-40
-0.013829452 -0.12307997 0.013277408 2.7658409e-40
-0.011888475 -0.12210761 0.017252799 9.2159056e-40
-0.0099579552 -0.12210761 0.017252799 1.8428224e-39
-0.0080274353 -0.12210761 0.017252799 1.9346523e-39
-0.0060969135 -0.12210761 0.017252799 1.6580654e-39
-0.0041663935 -0.12210761 0.017252799 1.6573437e-39
-0.0022358727 -0.12210761 0.017252799 2.0254074e-39
-0.0003053518 -0.12210761 0.017252799 2.4863855e-39
0.0016251691 -0.12210761 0.017252799 2.3019943e-39
0.003555689 -0.12210761 0.017252799 1.8410161e-39
0.0054862099 -0.12210761 0.017252799 2.3012754e-39
0.0074167298 -0.12210761 0.017252799 2.3019943e-39
0.0093472516 -0.12210761 0.017252799 2.3016369e-39
0.011357929 -0.12307997 0.013277408 2.1172457e-39
0.01329542 -0.12307997 0.013277408 1.9335761e-39
0.01523291 -0.12307997 0.013277408 1.5655166e-39
0.017170399 -0.12307997 0.013277408 1.2889325e-39
0.019107893 -0.12307997 0.013277408 1.1045427e-39
0.021133065 -0.12382124 0.010246631 8.2832154e-40
0.023075867 -0.12382124 0.010246631 1.1049084e-39
0.025018673 -0.12382124 0.010246631 9.2016124e-40
0.026961479 -0.12382124 0.010246631 1.1049084e-39
0.029154912 -0.12552677 0.0032737218 3.5016389e-39
0.031263635 -0.12652399 -0.00080335513 9.4025151e-39
0.033225816 -0.12652399 -0.00080335513 9.4954338e-39
-0.025691923 -0.12946714 -0.0047855414 3.5037871e-39
-0.023677379 -0.12848614 -0.00080335513 4.6133128e-40
-0.021675881 -0.1274818 0.0032737218 1.8438846e-40
-0.019697603 -0.12675591 0.006220337 3.6877972e-40
-0.017723031 -0.12576406 0.010246631 1.8438846e-40
-0.015766941 -0.12501745 0.013277408 4.6097535e-40
-0.013829452 -0.12501745 0.013277408 1.8439126e-40
-0.011888475 -0.12403814 0.017252799 7.372021e-40
-0.0099579552 -0.12403814 0.017252799 1.1052602e-39
-0.0080274353 -0.12403814 0.017252799 1.3811254e-39
-0.0060969135 -0.12403814 0.017252799 1.5647964e-39
-0.0041663935 -0.12403814 0.017252799 1.3804023e-39
-0.0022358727 -0.12403814 0.017252799 1.4718791e-39
-0.0003053518 -0.12403814 0.017252799 1.7484632e-39
0.0016251691 -0.12403814 0.017252799 1.8402986e-39
0.003555689 -0.12403814 0.017252799 1.748103e-39
0.0054862099 -0.12403814 0.017252799 2.5767847e-39
0.0074167298 -0.12403814 0.017252799 2.3012768e-39
0.0093472516 -0.12403814 0.017252799 2.0250528e-39
0.011357929 -0.12501745 0.013277408 1.8406644e-39
0.01329542 -0.12501745 0.013277408 1.5644404e-39
0.01523291 -0.12501745 0.013277408 1.2878535e-39
0.017247453 -0.12576406 0.010246631 1.0123471e-39
0.019190259 -0.12576406 0.010246631 1.0119911e-39
0.021133065 -0.12576406 0.010246631 6.4392747e-40
0.023075867 -0.12576406 0.010246631 1.1049056e-39
0.025149275 -0.12675591 0.006220337 8.2832154e-40
0.027099136 -0.12675591 0.006220337 1.6580794e-39
0.029154912 -0.1274818 0.0032737218 3.962973e-39
0.031263635 -0.12848614 -0.00080335513 9.1259254e-39
0.033225816 -0.12848614 -0.00080335513 9.495431e-39
-0.027661081 -0.1314363 -0.0047855414 7.5603948e-39
-0.025639556 -0.13044833 -0.00080335513 4.3335477e-39
-0.023677379 -0.13044833 -0.00080335513 3.6913565e-40
-0.021675881 -0.12943684 0.0032737218 0
-0.019697603 -0.12870578 0.006220337 2.7658409e-40
-0.017723031 -0.12770687 0.010246631 0
-0.015766941 -0.12695493 0.013277408 9.2194229e-41
-0.013829452 -0.12695493 0.013277408 0
-0.011888475 -0.12596865 0.017252799 3.6841958e-40
-0.0099579552 -0.12596865 0.017252799 9.2051156e-40
-0.0080274353 -0.12596865 0.017252799 1.2889325e-39
-0.0060969135 -0.12596865 0.017252799 1.7488317e-39
-0.0041663935 -0.12596865 0.017252799 1.7491876e-39
-0.0022358727 -0.12596865 0.017252799 1.8406644e-39
-0.0003053518 -0.12596865 0.017252799 2.024334e-39
0.0016251691 -0.12596865 0.017252799 2.4845919e-39
0.003555689 -0.12596865 0.017252799 2.6689831e-39
0.0054862099 -0.12596865 0.017252799 2.3923962e-39
0.0074167298 -0.12596865 0.017252799 2.207649e-39
0.0093472516 -0.12596865 0.017252799 2.0243368e-39
0.011357929 -0.12695493 0.013277408 1.8403085e-39
0.01329542 -0.12695493 0.013277408 1.5644418e-39
0.01523291 -0.12695493 0.013277408 1.1953034e-39
0.017247453 -0.12770687 0.010246631 1.1041868e-39
0.019190259 -0.12770687 0.010246631 1.288578e-39
0.021133065 -0.12770687 0.010246631 3.6734198e-40
0.023075867 -0.12770687 0.010246631 1.01271e-39
0.025149275 -0.12870578 0.006220337 9.2051436e-40
0.027099136 -0.12870578 0.006220337 2.764427e-39
0.029154912 -0.12943684 0.0032737218 4.7927308e-39
0.031263635 -0.13044833 -0.00080335513 8.480556e-39
0.033225816 -0.13044833 -0.00080335513 8.481635e-39
-0.027601738 -0.13241051 -0.00080335513 7.3760021e-39
-0.025639556 -0.13241051 -0.00080335513 5.255504e-39
-0.023630913 -0.13139187 0.0032737218 6.4572254e-40
-0.021675881 -0.13139187 0.0032737218 3.5873241e-43
-0.019697603 -0.13065563 0.006220337 3.6913565e-40
-0.017723031 -0.12964968 0.010246631 0
-0.015766941 -0.12889244 0.013277408 0
-0.013829452 -0.12889244 0.013277408 9.219563e-41
-0.011888475 -0.12789918 0.017252799 3.6841958e-40
-0.0099579552 -0.12789918 0.017252799 6.4392467e-40
-0.0080274353 -0.12789918 0.017252799 9.2015143e-40
-0.0060969135 -0.12789918 0.017252799 1.3800506e-39
-0.0041663935 -0.12789918 0.017252799 1.5644404e-39
-0.0022358727 -0.12789918 0.017252799 1.7481128e-39
-0.0003053518 -0.12789918 0.017252799 1.8399455e-39
0.0016251691 -0.12789918 0.017252799 2.1154534e-39
0.003555689 -0.12789918 0.017252799 2.2998447e-39
0.0054862099 -0.12789918 0.017252799 2.2998447e-39
0.0074167298 -0.12789918 0.017252799 2.2076518e-39
0.0093472516 -0.12789918 0.017252799 2.2087308e-39
0.011357929 -0.12889244 0.013277408 2.301288e-39
0.01329542 -0.12889244 0.013277408 1.9328684e-39
0.01523291 -0.12889244 0.013277408 1.3796974e-39
0.017247453 -0.12964968 0.010246631 1.1041896e-39
0.019190259 -0.12964968 0.010246631 1.4729721e-39
0.021133065 -0.12964968 0.010246631 5.5173184e-40
0.023075867 -0.12964968 0.010246631 1.1049028e-39
0.025149275 -0.13065563 0.006220337 9.2051156e-40
0.027099136 -0.13065563 0.006220337 3.5941848e-39
0.029049002 -0.13065563 0.006220337 5.3459018e-39
0.031109944 -0.13139187 0.0032737218 7.9273794e-39
0.033064973 -0.13139187 0.0032737218 7.9284584e-39
-0.027601738 -0.1343727 -0.00080335513 6.5462414e-39
-0.025585946 -0.13334687 0.0032737218 5.9930691e-39
-0.023597334 -0.13260551 0.006220337 9.2230943e-40
-0.021647468 -0.13260551 0.006220337 9.2552961e-41
-0.019697603 -0.13260551 0.006220337 5.5352691e-40
-0.017723031 -0.13159247 0.010246631 3.5873241e-43
-0.015780225 -0.13159247 0.010246631 1.8438846e-40
-0.013829452 -0.13082992 0.013277408 3.6877972e-40
-0.011888475 -0.12982969 0.017252799 4.6097535e-40
-0.0099579552 -0.12982969 0.017252799 1.2892969e-39
-0.0080274353 -0.12982969 0.017252799 1.2892941e-39
-0.0060969135 -0.12982969 0.017252799 1.4733252e-39
-0.0041906135 -0.12883668 0.02119958 1.7499121e-39
-0.0022670124 -0.12883668 0.02119958 2.1176142e-39
-0.00034341216 -0.12883668 0.02119958 2.1172513e-39
0.0016251691 -0.12982969 0.017252799 1.93286e-39
0.003555689 -0.12982969 0.017252799 1.8406644e-39
0.0054862099 -0.12982969 0.017252799 1.8403085e-39
0.0074167298 -0.12982969 0.017252799 1.8403085e-39
0.0093472516 -0.12982969 0.017252799 2.1168967e-39
0.011357929 -0.13082992 0.013277408 2.3020069e-39
0.01329542 -0.13082992 0.013277408 1.9328712e-39
0.01523291 -0.13082992 0.013277408 1.0119939e-39
0.017247453 -0.13159247 0.010246631 7.3540984e-40
0.019190259 -0.13159247 0.010246631 9.197983e-40
0.021133065 -0.13159247 0.010246631 1.1049056e-39
0.023075867 -0.13159247 0.010246631 1.1059846e-39
0.025018673 -0.13159247 0.010246631 7.361231e-40
0.026961479 -0.13159247 0.010246631 3.5952666e-39
0.029049002 -0.13260551 0.006220337 5.6224915e-39
0.030998867 -0.13260551 0.006220337 7.6518743e-39
-0.025547195 -0.13455538 0.006220337 5.4398953e-39
-0.023597334 -0.13455538 0.006220337 3.6877972e-40
-0.021647468 -0.13455538 0.006220337 2.7694142e-40
-0.019697603 -0.13455538 0.006220337 3.5873241e-43
-0.017723031 -0.13353528 0.010246631 7.1746481e-43
-0.015780225 -0.13353528 0.010246631 3.5873241e-43
-0.013829452 -0.13276742 0.013277408 3.6949578e-40
-0.011888475 -0.13176022 0.017252799 3.5873241e-43
-0.0099579552 -0.13176022 0.017252799 8.2975787e-40
-0.0080274353 -0.13176022 0.017252799 1.1059846e-39
-0.0060969135 -0.13176022 0.017252799 1.2903731e-39
-0.0041906135 -0.13076027 0.02119958 1.3825687e-39
-0.0022670124 -0.13076027 0.02119958 1.3825673e-39
-0.00034341216 -0.13076027 0.02119958 1.5662355e-39
0.0016251691 -0.13176022 0.017252799 1.5662355e-39
0.003555689 -0.13176022 0.017252799 1.6584283e-39
0.0054862099 -0.13176022 0.017252799 2.0272136e-39
0.0074167298 -0.13176022 0.017252799 1.4740427e-39
0.0093472516 -0.13176022 0.017252799 1.2892941e-39
0.011357929 -0.13276742 0.013277408 1.565881e-39
0.01329542 -0.13276742 0.013277408 1.5658866e-39
0.01523291 -0.13276742 0.013277408 1.1963852e-39
0.017247453 -0.13353528 0.010246631 8.2760547e-40
0.019190259 -0.13353528 0.010246631 7.3576998e-40
0.021133065 -0.13353528 0.010246631 1.4744112e-39
0.023075867 -0.13353528 0.010246631 6.4536941e-40
0.025018673 -0.13353528 0.010246631 2.7586802e-40
0.026961479 -0.13353528 0.010246631 4.0566077e-39
0.028904282 -0.13353528 0.010246631 5.8076086e-39
0.030998867 -0.13455538 0.006220337 7.6522401e-39
-0.027391884 -0.1347049 0.013277408 8.6660235e-39
-0.025454395 -0.1347049 0.013277408 6.1771044e-39
-0.023597334 -0.13650523 0.006220337 6.4536661e-40
-0.021647468 -0.13650523 0.006220337 2.7694142e-40
-0.019697603 -0.13650523 0.006220337 2.7694142e-40
-0.017723031 -0.13547809 0.010246631 3.6949578e-40
-0.015780225 -0.13547809 0.010246631 7.1746481e-43
-0.013829452 -0.1347049 0.013277408 4.6204874e-40
-0.01189196 -0.1347049 0.013277408 1.8510592e-40
-0.0099544702 -0.1347049 0.013277408 5.5317098e-40
-0.0080169784 -0.1347049 0.013277408 7.3756224e-40
-0.0060794884 -0.1347049 0.013277408 1.1067007e-39
-0.0041663935 -0.13369073 0.017252799 1.2910919e-39
-0.0022358727 -0.13369073 0.017252799 1.3832862e-39
-0.0003053518 -0.13369073 0.017252799 1.3832834e-39
0.0016251691 -0.13369073 0.017252799 1.475479e-39
0.003555689 -0.13369073 0.017252799 1.5680306e-39
0.0054862099 -0.13369073 0.017252799 1.6595101e-39
0.0074167298 -0.13369073 0.017252799 1.2907276e-39
0.0093472516 -0.13369073 0.017252799 1.1059818e-39
0.011357929 -0.1347049 0.013277408 1.3825687e-39
0.01329542 -0.1347049 0.013277408 1.6580822e-39
0.01523291 -0.1347049 0.013277408 1.1971041e-39
0.017170399 -0.1347049 0.013277408 1.0119967e-39
0.019190259 -0.13547809 0.010246631 9.2016124e-40
0.021133065 -0.13547809 0.010246631 9.2123743e-40
0.023075867 -0.13547809 0.010246631 5.5317378e-40
0.025018673 -0.13547809 0.010246631 2.7658969e-40
0.026857857 -0.1347049 0.013277408 4.1488061e-39
0.028795347 -0.1347049 0.013277408 5.9001672e-39
0.030732837 -0.1347049 0.013277408 8.1128623e-39
-0.029329378 -0.13664238 0.013277408 8.5738264e-39
-0.027391884 -0.13664238 0.013277408 8.3894366e-39
-0.025454395 -0.13664238 0.013277408 6.9143093e-39
-0.023597334 -0.13845511 0.006220337 6.4500647e-40
-0.021647468 -0.13845511 0.006220337 0
-0.019697603 -0.13845511 0.006220337 1.8474719e-40
-0.017723031 -0.13742088 0.010246631 3.6949578e-40
-0.015780225 -0.13742088 0.010246631 3.5873241e-43
-0.013837422 -0.13742088 0.010246631 1.8510592e-40
-0.011894618 -0.13742088 0.010246631 9.2911693e-41
-0.0099544702 -0.13664238 0.013277408 2.7658409e-40
-0.0080169784 -0.13664238 0.013277408 6.4536661e-40
-0.0060794884 -0.13664238 0.013277408 1.0145051e-39
-0.0041663935 -0.13562126 0.017252799 1.1988963e-39
-0.0022358727 -0.13562126 0.017252799 1.1988949e-39
-0.0003053518 -0.13562126 0.017252799 1.1988921e-39
0.0016704751 -0.13664238 0.013277408 1.1988921e-39
0.003555689 -0.13562126 0.017252799 1.1988921e-39
0.0054862099 -0.13562126 0.017252799 1.2907276e-39
0.0074167298 -0.13562126 0.017252799 1.0141407e-39
0.0093472516 -0.13562126 0.017252799 1.0137862e-39
0.011357929 -0.13664238 0.013277408 1.1981774e-39
0.01329542 -0.13664238 0.013277408 1.3814953e-39
0.01523291 -0.13664238 0.013277408 1.1049084e-39
0.017170399 -0.13664238 0.013277408 9.2016124e-40
0.019190259 -0.13742088 0.010246631 8.2796561e-40
0.021133065 -0.13742088 0.010246631 4.6025928e-40
0.023075867 -0.13742088 0.010246631 5.5317378e-40
0.025018673 -0.13742088 0.010246631 5.5317658e-40
0.026857857 -0.13664238 0.013277408 4.1488061e-39
0.028399542 -0.13381381 0.024289366 5.9001672e-39
0.030317724 -0.13381381 0.024289366 8.2972536e-39
-0.029329378 -0.13857989 0.013277408 8.8504147e-39
-0.027391884 -0.13857989 0.013277408 9.1270016e-39
-0.025494251 -0.13936369 0.010246631 7.5596787e-39
-0.023597334 -0.14040495 0.006220337 8.2939773e-40
-0.021647468 -0.14040495 0.006220337 0
-0.019697603 -0.14040495 0.006220337 1.8438846e-40
-0.017747741 -0.14040495 0.006220337 4.6169421e-40
-0.015797876 -0.14040495 0.006220337 3.5873241e-43
-0.013837422 -0.13936369 0.010246631 9.2911693e-41
-0.011894618 -0.13936369 0.010246631 2.7730015e-40
-0.0099518122 -0.13936369 0.010246631 3.6877972e-40
-0.0080169784 -0.13857989 0.013277408 6.4536661e-40
-0.0060794884 -0.13857989 0.013277408 9.2230943e-40
-0.0041663935 -0.1375518 0.017252799 1.1067007e-39
-0.0022358727 -0.1375518 0.017252799 1.0145037e-39
-0.0003053518 -0.1375518 0.017252799 8.3011239e-40
0.0016704751 -0.13857989 0.013277408 6.4571833e-40
0.003607966 -0.13857989 0.013277408 5.535241e-40
0.0055454569 -0.13857989 0.013277408 1.0141407e-39
0.0074167298 -0.1375518 0.017252799 1.0137848e-39
0.0093472516 -0.1375518 0.017252799 9.2159056e-40
0.011357929 -0.13857989 0.013277408 1.013789e-39
0.01329542 -0.13857989 0.013277408 1.1049084e-39
0.01523291 -0.13857989 0.013277408 9.2051717e-40
0.017170399 -0.13857989 0.013277408 6.4357435e-40
0.019190259 -0.13936369 0.010246631 3.6806646e-40
0.021133065 -0.13936369 0.010246631 2.7586802e-40
0.023075867 -0.13936369 0.010246631 6.4536941e-40
0.025018673 -0.13936369 0.010246631 8.2976347e-40
0.026721936 -0.1375518 0.017252799 4.425393e-39
0.028149832 -0.13393532 0.031236645 5.8079716e-39
0.030055836 -0.13393532 0.031236645 8.1128623e-39
-0.029329378 -0.14051737 0.013277408 9.4035885e-39
-0.027391884 -0.14051737 0.013277408 8.7582219e-39
-0.025494251 -0.1413065 0.010246631 8.2968878e-39
-0.023597334 -0.14235483 0.006220337 1.3822156e-39
-0.021647468 -0.14235483 0.006220337 1.8439126e-40
-0.019697603 -0.14235483 0.006220337 5.5317098e-40
-0.017747741 -0.14235483 0.006220337 9.219535e-40
-0.015797876 -0.14235483 0.006220337 0
-0.013837422 -0.1413065 0.010246631 5.5317098e-40
-0.011894618 -0.1413065 0.010246631 7.3756224e-40
-0.0099518122 -0.1413065 0.010246631 2.7730015e-40
-0.0080169784 -0.14051737 0.013277408 5.5388704e-40
-0.0060794884 -0.14051737 0.013277408 1.0145051e-39
