# .PCD v0.7 - Point Cloud Data file format
VERSION 0.7
FIELDS x y z rgb
SIZE 4 4 4 4
TYPE F F F F
COUNT 1 1 1 1
WIDTH 934
HEIGHT 1
VIEWPOINT 0 0 0 1 0 0 0
POINTS 934
DATA ascii
0.019937653 -0.085887745 -0.030900303 2.3142544e-38
0.021938406 -0.085887745 -0.030900303 2.258902e-38
0.023939159 -0.085887745 -0.030900303 2.2496824e-38
0.025839817 -0.085257411 -0.027814452 2.3234379e-38
0.02783516 -0.085257411 -0.027814452 2.3049991e-38
0.0298305 -0.085257411 -0.027814452 2.3142544e-38
0.031825844 -0.085257411 -0.027814452 2.0285571e-38
-0.032302584 -0.090357736 -0.042885963 2.350988e-38
-0.030280817 -0.090357736 -0.042885963 2.3232936e-38
-0.028318111 -0.091174185 -0.046848956 2.3049261e-38
-0.026289396 -0.091174185 -0.046848956 2.3509879e-38
-0.024260677 -0.091174185 -0.046848956 2.3509876e-38
-0.022231963 -0.091174185 -0.046848956 2.3326203e-38
-0.020203248 -0.091174185 -0.046848956 2.3234367e-38
-0.018199015 -0.091996253 -0.050839249 2.3326206e-38
-0.016163304 -0.091996253 -0.050839249 2.332621e-38
-0.014117097 -0.091174185 -0.046848956 2.3234018e-38
-0.01208838 -0.091174185 -0.046848956 2.304927e-38
-0.010059665 -0.091174185 -0.046848956 2.3234379e-38
-0.0080309482 -0.091174185 -0.046848956 2.3234379e-38
-0.0060022315 -0.091174185 -0.046848956 2.3142542e-38
-0.0039735148 -0.091174185 -0.046848956 2.3142542e-38
-0.0019133147 -0.091996253 -0.050839249 2.3234376e-38
0.00012239814 -0.091996253 -0.050839249 2.3234376e-38
0.002158111 -0.091996253 -0.050839249 2.3418047e-38
0.0041938229 -0.091996253 -0.050839249 2.3418047e-38
0.006170067 -0.091174185 -0.046848956 2.341805e-38
0.0081987837 -0.091174185 -0.046848956 2.2957431e-38
0.0102275 -0.091174185 -0.046848956 2.3233662e-38
0.01217631 -0.090357736 -0.042885963 2.341805e-38
0.014198077 -0.090357736 -0.042885963 2.341805e-38
0.016123585 -0.089519933 -0.038819257 2.3325856e-38
0.018038861 -0.088714764 -0.034910981 2.3233303e-38
0.019937653 -0.087888494 -0.030900303 2.3417691e-38
0.021938406 -0.087888494 -0.030900303 2.3234379e-38
0.023939159 -0.087888494 -0.030900303 2.3234379e-38
0.025839817 -0.087252751 -0.027814452 2.3234379e-38
0.027699728 -0.086436674 -0.023853246 2.1575586e-38
0.029688124 -0.086436674 -0.023853246 2.2312796e-38
0.033664919 -0.086436674 -0.023853246 2.2958873e-38
0.035653315 -0.086436674 -0.023853246 2.8605939e-39
-0.032302584 -0.09237951 -0.042885963 2.3509165e-38
-0.030280817 -0.09237951 -0.042885963 2.3508081e-38
-0.02825905 -0.09237951 -0.042885963 2.3509521e-38
-0.026237283 -0.09237951 -0.042885963 2.3509876e-38
-0.024215516 -0.09237951 -0.042885963 2.3509873e-38
-0.022231963 -0.093202889 -0.046848956 2.3509872e-38
-0.020203248 -0.093202889 -0.046848956 2.3509876e-38
-0.018174529 -0.093202889 -0.046848956 2.3509879e-38
-0.016145814 -0.093202889 -0.046848956 2.350988e-38
-0.014117097 -0.093202889 -0.046848956 2.3509886e-38
-0.01208838 -0.093202889 -0.046848956 2.3509886e-38
-0.010059665 -0.093202889 -0.046848956 2.341805e-38
-0.0080309482 -0.093202889 -0.046848956 2.3326213e-38
-0.0060022315 -0.093202889 -0.046848956 2.332621e-38
-0.0039735148 -0.093202889 -0.046848956 2.3418047e-38
-0.0019133147 -0.09403196 -0.050839249 2.3418047e-38
0.00012239814 -0.09403196 -0.050839249 2.3418047e-38
0.002158111 -0.09403196 -0.050839249 2.3509883e-38
0.0041938229 -0.09403196 -0.050839249 2.3509883e-38
0.006170067 -0.093202889 -0.046848956 2.3509886e-38
0.0081987837 -0.093202889 -0.046848956 2.341769e-38
0.0102275 -0.093202889 -0.046848956 2.3140384e-38
0.01217631 -0.09237951 -0.042885963 2.3324778e-38
0.014198077 -0.09237951 -0.042885963 2.3509527e-38
0.016123585 -0.09153457 -0.038819257 2.3509527e-38
0.017936897 -0.089889243 -0.030900303 2.3509168e-38
0.019937653 -0.089889243 -0.030900303 2.3509527e-38
0.021938406 -0.089889243 -0.030900303 2.2957079e-38
0.023939159 -0.089889243 -0.030900303 2.2681212e-38
0.025839817 -0.089248091 -0.027814452 2.231243e-38
0.027699728 -0.08842507 -0.023853246 2.3142544e-38
0.029688124 -0.08842507 -0.023853246 2.2958514e-38
-0.032302584 -0.09440127 -0.042885963 2.3508807e-38
-0.030280817 -0.09440127 -0.042885963 2.3508442e-38
-0.02825905 -0.09440127 -0.042885963 2.3509161e-38
-0.026237283 -0.09440127 -0.042885963 2.3508437e-38
-0.024215516 -0.09440127 -0.042885963 2.3509153e-38
-0.022193745 -0.09440127 -0.042885963 2.3509873e-38
-0.020171978 -0.09440127 -0.042885963 2.3509873e-38
-0.018174529 -0.095231608 -0.046848956 2.3509157e-38
-0.016128443 -0.09440127 -0.042885963 2.3509161e-38
-0.014106675 -0.09440127 -0.042885963 2.3509168e-38
-0.012084906 -0.09440127 -0.042885963 2.3509527e-38
-0.010063139 -0.09440127 -0.042885963 2.3509886e-38
-0.0080309482 -0.095231608 -0.046848956 2.341805e-38
-0.0060022315 -0.095231608 -0.046848956 2.3418047e-38
-0.0039735148 -0.095231608 -0.046848956 2.3418047e-38
-0.0019133147 -0.096067667 -0.050839249 2.3417687e-38
0.00012239814 -0.096067667 -0.050839249 2.3325492e-38
0.002158111 -0.096067667 -0.050839249 2.3325492e-38
0.0041938229 -0.096067667 -0.050839249 2.3417327e-38
0.006170067 -0.095231608 -0.046848956 2.3140384e-38
0.0081987837 -0.095231608 -0.046848956 2.3509527e-38
0.0102275 -0.095231608 -0.046848956 2.3509527e-38
0.01217631 -0.09440127 -0.042885963 2.3509168e-38
0.014198077 -0.09440127 -0.042885963 2.3508088e-38
0.016123585 -0.093549207 -0.038819257 2.3509168e-38
0.017936897 -0.091889992 -0.030900303 2.3509168e-38
0.019937653 -0.091889992 -0.030900303 2.3508451e-38
0.021938406 -0.091889992 -0.030900303 2.3509527e-38
0.023844473 -0.091243446 -0.027814452 2.2773408e-38
0.025839817 -0.091243446 -0.027814452 2.3234379e-38
0.027699728 -0.090413481 -0.023853246 2.2957796e-38
0.029688124 -0.090413481 -0.023853246 2.3050708e-38
-0.032302584 -0.096423045 -0.042885963 2.3508089e-38
-0.030280817 -0.096423045 -0.042885963 2.2582887e-38
-0.02825905 -0.096423045 -0.042885963 2.3508802e-38
-0.026237283 -0.096423045 -0.042885963 2.3508797e-38
-0.024215516 -0.096423045 -0.042885963 2.3509153e-38
-0.022193745 -0.096423045 -0.042885963 2.3509153e-38
-0.020171978 -0.096423045 -0.042885963 2.3509153e-38
-0.018174529 -0.097260326 -0.046848956 2.3507359e-38
-0.016128443 -0.096423045 -0.042885963 2.3508082e-38
-0.014106675 -0.096423045 -0.042885963 2.3508448e-38
-0.012084906 -0.096423045 -0.042885963 2.3508809e-38
-0.010063139 -0.096423045 -0.042885963 2.3509527e-38
-0.0080309482 -0.097260326 -0.046848956 2.3509883e-38
-0.0060022315 -0.097260326 -0.046848956 2.3509883e-38
-0.0039735148 -0.097260326 -0.046848956 2.3509883e-38
-0.0019133147 -0.098103389 -0.050839249 2.3509883e-38
0.00012239814 -0.098103389 -0.050839249 2.3509883e-38
0.002158111 -0.098103389 -0.050839249 2.3509883e-38
0.0041938229 -0.098103389 -0.050839249 2.3509524e-38
0.006170067 -0.097260326 -0.046848956 2.3509524e-38
0.0081327735 -0.096423045 -0.042885963 2.3508805e-38
0.010154541 -0.096423045 -0.042885963 2.3509165e-38
0.01217631 -0.096423045 -0.042885963 2.3508807e-38
0.014198077 -0.096423045 -0.042885963 2.3508807e-38
0.016123585 -0.095563844 -0.038819257 2.3508807e-38
0.017936897 -0.093890756 -0.030900303 2.3509163e-38
0.019853789 -0.093238786 -0.027814452 2.3323334e-38
0.021849133 -0.093238786 -0.027814452 2.3509527e-38
0.023844473 -0.093238786 -0.027814452 2.3049273e-38
0.025711328 -0.092401877 -0.023853246 2.341805e-38
0.027560905 -0.091544032 -0.019792978 2.3142544e-38
0.029542185 -0.091544032 -0.019792978 2.3142544e-38
0.033232104 -0.090083912 -0.012882058 9.4990337e-39
-0.036346119 -0.098444805 -0.042885963 1.0504541e-38
-0.032302584 -0.098444805 -0.042885963 7.2776968e-39
-0.030280817 -0.098444805 -0.042885963 1.0688932e-38
-0.02825905 -0.098444805 -0.042885963 1.640506e-38
-0.026237283 -0.098444805 -0.042885963 2.2674716e-38
-0.024215516 -0.098444805 -0.042885963 2.332044e-38
-0.022193745 -0.098444805 -0.042885963 2.3507352e-38
-0.020171978 -0.098444805 -0.042885963 2.3508435e-38
-0.018174529 -0.099289045 -0.046848956 2.3508438e-38
-0.016145814 -0.099289045 -0.046848956 2.3508085e-38
-0.014106675 -0.098444805 -0.042885963 2.3508089e-38
-0.012084906 -0.098444805 -0.042885963 2.3508091e-38
-0.010059665 -0.099289045 -0.046848956 2.3509164e-38
-0.0080309482 -0.099289045 -0.046848956 2.3417687e-38
-0.0062961606 -0.085004061 0.020207223 2.3417687e-38
-0.0043850159 -0.085004061 0.020207223 2.3509883e-38
-0.0024738712 -0.085004061 0.020207223 2.3509883e-38
0.00012239814 -0.1001391 -0.050839249 2.3509883e-38
0.002158111 -0.1001391 -0.050839249 2.3509524e-38
0.0041938229 -0.1001391 -0.050839249 2.3509524e-38
0.006170067 -0.099289045 -0.046848956 2.3508085e-38
0.0081327735 -0.098444805 -0.042885963 2.3508801e-38
0.010154541 -0.098444805 -0.042885963 2.3509163e-38
0.01217631 -0.098444805 -0.042885963 2.3509161e-38
0.014198077 -0.098444805 -0.042885963 2.3507722e-38
0.016123585 -0.097578481 -0.038819257 2.3507002e-38
0.017936897 -0.095891505 -0.030900303 2.2676521e-38
0.019853789 -0.095234126 -0.027814452 2.0833327e-38
0.021849133 -0.095234126 -0.027814452 1.078545e-38
0.023844473 -0.095234126 -0.027814452 8.5741964e-39
0.025579628 -0.093525305 -0.019792978 6.2693056e-39
0.027324621 -0.092053071 -0.012882058 2.8584275e-39
0.029293783 -0.092053071 -0.012882058 2.3063327e-39
0.031262942 -0.092053071 -0.012882058 5.7182871e-39
-0.030280817 -0.10046658 -0.042885963 2.8523038e-39
-0.02825905 -0.10046658 -0.042885963 4.8809622e-39
-0.026237283 -0.10046658 -0.042885963 8.9375643e-39
-0.024215516 -0.10046658 -0.042885963 1.068856e-38
-0.022193745 -0.10046658 -0.042885963 1.3454428e-38
-0.020171978 -0.10046658 -0.042885963 1.6865667e-38
-0.018174529 -0.10131776 -0.046848956 2.0460582e-38
-0.016145814 -0.10131776 -0.046848956 2.3226097e-38
-0.014117097 -0.10131776 -0.046848956 2.3506291e-38
-0.012033113 -0.087777436 0.01619285 2.3507733e-38
-0.010114932 -0.087777436 0.01619285 2.3508445e-38
-0.0081967479 -0.087777436 0.01619285 2.3417324e-38
-0.0062961606 -0.08691521 0.020207223 2.350952e-38
-0.0043850159 -0.08691521 0.020207223 2.3509521e-38
-0.0024738712 -0.08691521 0.020207223 2.3509524e-38
-0.00056272745 -0.08691521 0.020207223 2.3509524e-38
0.0013484173 -0.08691521 0.020207223 2.3509165e-38
0.003259562 -0.08691521 0.020207223 2.3509165e-38
0.006170067 -0.10131776 -0.046848956 2.3509163e-38
0.0081987837 -0.10131776 -0.046848956 2.3507002e-38
0.0090669012 -0.087777436 0.01619285 2.2307738e-38
0.010985083 -0.087777436 0.01619285 1.9634421e-38
0.012903267 -0.087777436 0.01619285 1.6223183e-38
0.01482145 -0.087777436 0.01619285 1.3365115e-38
0.017019592 -0.090142623 0.0051808916 1.0414855e-38
0.018957086 -0.090142623 0.0051808916 7.4653167e-39
0.020982258 -0.09079358 0.0021501146 4.0551658e-39
0.02292506 -0.09079358 0.0021501146 2.027585e-39
0.025226291 -0.093166932 -0.0088998713 4.6025928e-40
0.027049076 -0.092291236 -0.0048227943 9.2194229e-41
0.029004104 -0.092291236 -0.0048227943 1.4758461e-39
0.030959137 -0.092291236 -0.0048227943 6.3632935e-39
0.032914165 -0.092291236 -0.0048227943 7.1008586e-39
-0.031547595 -0.093608215 -0.0018761791 3.2225282e-39
-0.029597733 -0.093608215 -0.0018761791 2.2998489e-39
-0.027647868 -0.093608215 -0.0018761791 1.2856969e-39
-0.025645059 -0.092736378 0.0021501146 1.5619209e-39
-0.023702253 -0.092736378 0.0021501146 1.9299803e-39
-0.021759447 -0.092736378 0.0021501146 2.206563e-39
-0.019816644 -0.092736378 0.0021501146 2.6668209e-39
-0.017830845 -0.091219291 0.009156283 3.3114757e-39
-0.015900325 -0.091219291 0.009156283 3.6799051e-39
-0.013959424 -0.090364665 0.013103064 3.6795505e-39
-0.012033113 -0.089695618 0.01619285 3.3122057e-39
-0.010114932 -0.089695618 0.01619285 1.5644418e-39
-0.0081967479 -0.089695618 0.01619285 1.3814897e-39
-0.0062785642 -0.089695618 0.01619285 1.4736853e-39
-0.0043850159 -0.088826358 0.020207223 1.565881e-39
-0.0024738712 -0.088826358 0.020207223 1.6580794e-39
-0.00056272745 -0.088826358 0.020207223 1.8424707e-39
0.0013484173 -0.088826358 0.020207223 1.9339474e-39
0.003259562 -0.088826358 0.020207223 2.0261431e-39
0.0051707076 -0.088826358 0.020207223 2.6707894e-39
0.0070818523 -0.088826358 0.020207223 2.4863967e-39
0.008992997 -0.088826358 0.020207223 2.5782294e-39
0.010985083 -0.089695618 0.01619285 2.0250528e-39
0.012903267 -0.089695618 0.01619285 1.3796848e-39
0.01482145 -0.089695618 0.01619285 1.6562675e-39
0.016818184 -0.090364665 0.013103064 1.5640733e-39
0.018957086 -0.092080101 0.0051808916 5.5101298e-40
0.020894576 -0.092080101 0.0051808916 2.5796714e-39
0.022832066 -0.092080101 0.0051808916 2.8566198e-39
0.024867866 -0.092736378 0.0021501146 3.6863805e-39
0.026948329 -0.093608215 -0.0018761791 4.8860026e-39
0.028898194 -0.093608215 -0.0018761791 4.8867215e-39
0.03084806 -0.093608215 -0.0018761791 8.7596554e-39
0.032797921 -0.093608215 -0.0018761791 1.0050037e-38
-0.035601262 -0.097091287 -0.0088998713 9.95497e-39
-0.031547595 -0.095558092 -0.0018761791 3.6845854e-39
-0.029597733 -0.095558092 -0.0018761791 2.2090924e-39
-0.027647868 -0.095558092 -0.0018761791 2.7619018e-39
-0.025645059 -0.094679192 0.0021501146 3.7753265e-39
-0.023702253 -0.094679192 0.0021501146 3.4983766e-39
-0.021730222 -0.094017595 0.0051808916 3.0363195e-39
-0.019792732 -0.094017595 0.0051808916 2.2987573e-39
-0.017855238 -0.094017595 0.0051808916 1.5612034e-39
-0.015900325 -0.093149811 0.009156283 1.2856969e-39
-0.013959424 -0.092288271 0.013103064 1.3775324e-39
-0.012033113 -0.091613799 0.01619285 1.1938615e-39
-0.010114932 -0.091613799 0.01619285 6.4284847e-40
-0.0081967479 -0.091613799 0.01619285 3.6734198e-40
-0.0062785642 -0.091613799 0.01619285 3.6734198e-40
-0.0043850159 -0.090737507 0.020207223 3.6734198e-40
-0.0024738712 -0.090737507 0.020207223 3.6734198e-40
-0.00056272745 -0.090737507 0.020207223 3.6734198e-40
0.0013484173 -0.090737507 0.020207223 3.6734198e-40
0.003259562 -0.090737507 0.020207223 3.6734198e-40
0.0051707076 -0.090737507 0.020207223 7.3468397e-40
0.0070818523 -0.090737507 0.020207223 6.4284847e-40
0.008992997 -0.090737507 0.020207223 9.1943116e-40
0.010985083 -0.091613799 0.01619285 9.1943116e-40
0.012903267 -0.091613799 0.01619285 1.1963726e-39
0.014894585 -0.092288271 0.013103064 2.7636885e-39
0.016818184 -0.092288271 0.013103064 3.9622317e-39
0.018849045 -0.093149811 0.009156283 3.5934519e-39
0.020894576 -0.094017595 0.0051808916 3.8696871e-39
0.022832066 -0.094017595 0.0051808916 3.5016277e-39
0.024867866 -0.094679192 0.0021501146 3.8704102e-39
0.026948329 -0.095558092 -0.0018761791 4.2399116e-39
0.028898194 -0.095558092 -0.0018761791 3.5030668e-39
0.03084806 -0.095558092 -0.0018761791 8.2979556e-39
0.032797921 -0.095558092 -0.0018761791 1.078724e-38
0.034747787 -0.095558092 -0.0018761791 9.866003e-39
-0.035601262 -0.099053472 -0.0088998713 1.0602497e-38
-0.033556875 -0.098156333 -0.0048227943 8.6663892e-39
-0.031547595 -0.097507954 -0.0018761791 4.0562448e-39
-0.029530667 -0.09662199 0.0021501146 1.565881e-39
-0.027587865 -0.09662199 0.0021501146 3.0399264e-39
-0.025645059 -0.09662199 0.0021501146 3.3161462e-39
-0.023702253 -0.09662199 0.0021501146 3.6834868e-39
-0.021730222 -0.095955089 0.0051808916 3.959352e-39
-0.019792732 -0.095955089 0.0051808916 4.3270583e-39
-0.017830845 -0.095080331 0.009156283 4.3270625e-39
-0.015900325 -0.095080331 0.009156283 4.4181862e-39
-0.013959424 -0.094211861 0.013103064 4.9713641e-39
-0.012033113 -0.093531981 0.01619285 5.5248981e-39
-0.010114932 -0.093531981 0.01619285 4.6061788e-39
-0.0082073053 -0.09264864 0.020207223 4.3313883e-39
-0.0062961606 -0.09264864 0.020207223 4.4235854e-39
-0.0043850159 -0.09264864 0.020207223 4.515781e-39
-0.0024738712 -0.09264864 0.020207223 4.6076207e-39
-0.00056272745 -0.09264864 0.020207223 4.6998163e-39
0.0013484173 -0.09264864 0.020207223 4.6998163e-39
0.003259562 -0.09264864 0.020207223 4.7923679e-39
0.0051707076 -0.09264864 0.020207223 5.3444613e-39
0.0071487175 -0.093531981 0.01619285 5.0682303e-39
0.0090669012 -0.093531981 0.01619285 4.9760319e-39
0.010985083 -0.093531981 0.01619285 4.238464e-39
0.012970985 -0.094211861 0.013103064 3.6856476e-39
0.014894585 -0.094211861 0.013103064 4.3310114e-39
0.016818184 -0.094211861 0.013103064 4.7919895e-39
0.018741786 -0.094211861 0.013103064 4.0544273e-39
0.020779569 -0.095080331 0.009156283 4.7916406e-39
0.022710089 -0.095080331 0.009156283 4.2384696e-39
0.02476956 -0.095955089 0.0051808916 4.9760347e-39
0.026810672 -0.09662199 0.0021501146 4.9771109e-39
0.028898194 -0.097507954 -0.0018761791 5.0696694e-39
0.03084806 -0.097507954 -0.0018761791 1.0325897e-38
0.032797921 -0.097507954 -0.0018761791 1.1432247e-38
0.034747787 -0.097507954 -0.0018761791 1.0141868e-38
-0.035601262 -0.10101564 -0.0088998713 8.8529385e-39
-0.033556875 -0.10011137 -0.0048227943 8.3912415e-39
-0.031601842 -0.10011137 -0.0048227943 4.1495194e-39
-0.029530667 -0.098564804 0.0021501146 1.7520701e-39
-0.027587865 -0.098564804 0.0021501146 3.1335612e-39
-0.025645059 -0.098564804 0.0021501146 3.3175853e-39
-0.023702253 -0.098564804 0.0021501146 3.5005346e-39
-0.021730222 -0.097892582 0.0051808916 3.8689542e-39
-0.019792732 -0.097892582 0.0051808916 4.5132474e-39
-0.017830845 -0.097010851 0.009156283 4.6965653e-39
-0.015900325 -0.097010851 0.009156283 4.6954919e-39
-0.013959424 -0.096135467 0.013103064 4.8795286e-39
-0.012033113 -0.095450163 0.01619285 5.0649989e-39
-0.010114932 -0.095450163 0.01619285 4.1452006e-39
-0.0082073053 -0.094559789 0.020207223 4.1459181e-39
-0.0062961606 -0.094559789 0.020207223 4.2381151e-39
-0.0043850159 -0.094559789 0.020207223 4.3303107e-39
-0.0024738712 -0.094559789 0.020207223 4.3310338e-39
-0.00056272745 -0.094559789 0.020207223 4.5154251e-39
0.0013484173 -0.094559789 0.020207223 4.6079766e-39
0.0033123512 -0.095450163 0.01619285 4.7001723e-39
0.0052305339 -0.095450163 0.01619285 4.3313883e-39
0.0071487175 -0.095450163 0.01619285 4.3313855e-39
0.0090669012 -0.095450163 0.01619285 4.5161327e-39
0.010985083 -0.095450163 0.01619285 3.9629547e-39
0.012903267 -0.095450163 0.01619285 3.4101369e-39
0.014894585 -0.096135467 0.013103064 3.9633079e-39
0.016818184 -0.096135467 0.013103064 4.3320876e-39
0.018741786 -0.096135467 0.013103064 3.685642e-39
0.020779569 -0.097010851 0.009156283 2.5782238e-39
0.022710089 -0.097010851 0.009156283 3.0392048e-39
0.02476956 -0.097892582 0.0051808916 5.2526188e-39
0.026810672 -0.098564804 0.0021501146 3.8707605e-39
0.028898194 -0.099457815 -0.0018761791 3.4101453e-39
0.03069628 -0.098564804 0.0021501146 9.3117418e-39
0.032639086 -0.098564804 0.0021501146 1.0418092e-38
0.034581888 -0.098564804 0.0021501146 1.1340767e-38
-0.035601262 -0.10297783 -0.0088998713 9.3139138e-39
-0.03349746 -0.10140768 -0.0018761791 8.9451313e-39
-0.031547595 -0.10140768 -0.0018761791 3.505229e-39
-0.029597733 -0.10140768 -0.0018761791 1.4769223e-39
-0.027647868 -0.10140768 -0.0018761791 2.6747439e-39
-0.025645059 -0.1005076 0.0021501146 2.1204855e-39
-0.023702253 -0.1005076 0.0021501146 1.8431755e-39
-0.021730222 -0.099830076 0.0051808916 2.1183219e-39
-0.019792732 -0.099830076 0.0051808916 2.8548107e-39
-0.017830845 -0.098941371 0.009156283 3.4072684e-39
-0.015900325 -0.098941371 0.009156283 3.6827819e-39
-0.013959424 -0.098059073 0.013103064 3.7742601e-39
-0.012033113 -0.097368345 0.01619285 3.8671746e-39
-0.010114932 -0.097368345 0.01619285 3.9615282e-39
-0.0081967479 -0.097368345 0.01619285 3.8704102e-39
-0.0062785642 -0.097368345 0.01619285 3.9626072e-39
-0.0043850159 -0.096470937 0.020207223 4.2391941e-39
-0.0024738712 -0.096470937 0.020207223 4.4235854e-39
-0.00056272745 -0.096470937 0.020207223 4.7001723e-39
0.0013484173 -0.096470937 0.020207223 4.8845621e-39
0.0033123512 -0.097368345 0.01619285 4.9767577e-39
0.0052305339 -0.097368345 0.01619285 4.2391899e-39
0.0071487175 -0.097368345 0.01619285 4.2395458e-39
0.0090669012 -0.097368345 0.01619285 4.3317415e-39
0.010985083 -0.097368345 0.01619285 3.7785649e-39
0.012903267 -0.097368345 0.01619285 3.1331941e-39
0.014894585 -0.098059073 0.013103064 3.5026926e-39
0.016818184 -0.098059073 0.013103064 4.0555063e-39
0.018741786 -0.098059073 0.013103064 3.3175853e-39
0.020779569 -0.098941371 0.009156283 3.4087062e-39
0.022710089 -0.098941371 0.009156283 1.93286e-39
0.02476956 -0.099830076 0.0051808916 3.1321221e-39
0.026810672 -0.1005076 0.0021501146 2.3030817e-39
0.028898194 -0.10140768 -0.0018761791 4.9774738e-39
0.03069628 -0.1005076 0.0021501146 1.2630787e-38
0.032639086 -0.1005076 0.0021501146 1.1801027e-38
0.034581888 -0.1005076 0.0021501146 1.1616635e-38
-0.03349746 -0.10335754 -0.0018761791 9.2213552e-39
-0.031473469 -0.1024504 0.0021501146 3.2293582e-39
-0.029530667 -0.1024504 0.0021501146 2.5839888e-39
-0.027647868 -0.10335754 -0.0018761791 1.8464237e-39
-0.025645059 -0.1024504 0.0021501146 7.4007617e-40
-0.023702253 -0.1024504 0.0021501146 1.4769223e-39
-0.021730222 -0.10176755 0.0051808916 2.5818294e-39
-0.019792732 -0.10176755 0.0051808916 1.8428252e-39
-0.017830845 -0.10087189 0.009156283 3.5005501e-39
-0.015900325 -0.10087189 0.009156283 3.0381342e-39
-0.013959424 -0.099982664 0.013103064 4.1437615e-39
-0.012035823 -0.099982664 0.013103064 4.3295919e-39
-0.010114932 -0.099286526 0.01619285 3.041011e-39
-0.0081967479 -0.099286526 0.01619285 2.8584177e-39
-0.0062785642 -0.099286526 0.01619285 3.7803726e-39
-0.0043603815 -0.099286526 0.01619285 5.0703925e-39
-0.0024421979 -0.099286526 0.01619285 5.439531e-39
-0.00052401517 -0.099286526 0.01619285 4.9774738e-39
0.0013941685 -0.099286526 0.01619285 4.7008841e-39
0.0033123512 -0.099286526 0.01619285 4.8856313e-39
0.0052305339 -0.099286526 0.01619285 4.1473474e-39
0.0071487175 -0.099286526 0.01619285 4.239543e-39
0.0090669012 -0.099286526 0.01619285 4.0558706e-39
0.010985083 -0.099286526 0.01619285 3.5948925e-39
0.012970985 -0.099982664 0.013103064 2.6725803e-39
0.014894585 -0.099982664 0.013103064 3.4112243e-39
0.016918525 -0.10087189 0.009156283 3.7789306e-39
0.018849045 -0.10087189 0.009156283 2.9491727e-39
0.020894576 -0.10176755 0.0051808916 2.7637081e-39
0.022832066 -0.10176755 0.0051808916 2.9481022e-39
0.02476956 -0.10176755 0.0051808916 3.1324934e-39
0.026810672 -0.1024504 0.0021501146 2.1190576e-39
0.028753474 -0.1024504 0.0021501146 5.253709e-39
0.03069628 -0.1024504 0.0021501146 1.2169457e-38
0.032639086 -0.1024504 0.0021501146 1.1800675e-38
-0.03349746 -0.10530742 -0.0018761791 9.866003e-39
-0.031473469 -0.1043932 0.0021501146 2.76838e-39
-0.029530667 -0.1043932 0.0021501146 1.8471468e-39
-0.027647868 -0.10530742 -0.0018761791 2.1244525e-39
-0.025645059 -0.1043932 0.0021501146 1.2939758e-39
-0.023702253 -0.1043932 0.0021501146 1.9382634e-39
-0.021730222 -0.10370506 0.0051808916 1.9379033e-39
-0.019792732 -0.10370506 0.0051808916 2.3970836e-39
-0.017855238 -0.10370506 0.0051808916 2.3027299e-39
-0.015900325 -0.10280241 0.009156283 2.301288e-39
-0.013959424 -0.10190627 0.013103064 3.0374139e-39
-0.012035823 -0.10190627 0.013103064 4.4217861e-39
-0.010112221 -0.10190627 0.013103064 5.1625881e-39
-0.0081967479 -0.10120471 0.01619285 3.8740073e-39
-0.0062785642 -0.10120471 0.01619285 3.5045017e-39
-0.0043603815 -0.10120471 0.01619285 3.7803697e-39
-0.0024421979 -0.10120471 0.01619285 4.0565937e-39
-0.00052401517 -0.10120471 0.01619285 4.1487865e-39
0.0013941685 -0.10120471 0.01619285 4.7934343e-39
0.0033123512 -0.10120471 0.01619285 5.6231949e-39
0.0052305339 -0.10120471 0.01619285 4.5161285e-39
0.0071487175 -0.10120471 0.01619285 3.7785635e-39
0.0090669012 -0.10120471 0.01619285 3.1331955e-39
0.011047385 -0.10190627 0.013103064 3.5945366e-39
0.012970985 -0.10190627 0.013103064 2.8569743e-39
0.014988006 -0.10280241 0.009156283 3.2264799e-39
0.016918525 -0.10280241 0.009156283 2.9498944e-39
0.018849045 -0.10280241 0.009156283 2.8577016e-39
0.020894576 -0.10370506 0.0051808916 3.225052e-39
0.022832066 -0.10370506 0.0051808916 3.3172504e-39
0.02476956 -0.10370506 0.0051808916 3.225052e-39
0.026810672 -0.1043932 0.0021501146 2.8562695e-39
0.028753474 -0.1043932 0.0021501146 6.3607796e-39
0.03069628 -0.1043932 0.0021501146 1.3552039e-38
-0.03349746 -0.10725726 -0.0018761791 9.6812544e-39
-0.031547595 -0.10725726 -0.0018761791 3.782532e-39
-0.029597733 -0.10725726 -0.0018761791 2.6769075e-39
-0.027647868 -0.10725726 -0.0018761791 2.3088438e-39
-0.025645059 -0.10633601 0.0021501146 1.793662e-42
-0.023702253 -0.10633601 0.0021501146 2.7874209e-40
-0.021730222 -0.10564254 0.0051808916 8.3047673e-40
-0.019792732 -0.10564254 0.0051808916 3.6874595e-39
-0.017855238 -0.10564254 0.0051808916 3.4083544e-39
-0.015900325 -0.10473295 0.009156283 3.8686123e-39
-0.013959424 -0.10382988 0.013103064 3.3139994e-39
-0.012035823 -0.10382988 0.013103064 4.3299464e-39
-0.010112221 -0.10382988 0.013103064 2.5814636e-39
-0.0081967479 -0.1031229 0.01619285 2.3059557e-39
-0.0062785642 -0.1031229 0.01619285 3.0431606e-39
-0.0043603815 -0.1031229 0.01619285 4.241701e-39
-0.0024421979 -0.1031229 0.01619285 4.7941559e-39
-0.00052401517 -0.1031229 0.01619285 4.7012386e-39
0.0013941685 -0.1031229 0.01619285 4.6083241e-39
0.0033123512 -0.1031229 0.01619285 4.885267e-39
0.0052305339 -0.1031229 0.01619285 4.7919951e-39
0.0072001824 -0.10382988 0.013103064 4.3317373e-39
0.0091237845 -0.10382988 0.013103064 3.2253911e-39
0.011047385 -0.10382988 0.013103064 3.6867322e-39
0.013057484 -0.10473295 0.009156283 3.2257568e-39
0.014988006 -0.10473295 0.009156283 4.2399116e-39
0.016918525 -0.10473295 0.009156283 3.5019892e-39
0.018957086 -0.10564254 0.0051808916 3.4097992e-39
0.020779569 -0.10473295 0.009156283 3.7782258e-39
0.022710089 -0.10473295 0.009156283 3.5016417e-39
0.024640609 -0.10473295 0.009156283 2.9495441e-39
0.026707049 -0.10564254 0.0051808916 3.3183266e-39
0.028644539 -0.10564254 0.0051808916 7.3749315e-39
-0.029597733 -0.10920714 -0.0018761791 6.9179064e-39
-0.027647868 -0.10920714 -0.0018761791 4.7059302e-39
-0.025645059 -0.10827883 0.0021501146 2.6769075e-39
-0.023702253 -0.10827883 0.0021501146 1.6620325e-39
-0.021730222 -0.10758002 0.0051808916 7.382783e-40
-0.019792732 -0.10758002 0.0051808916 1.6591542e-39
-0.017830845 -0.10666345 0.009156283 1.6566361e-39
-0.015900325 -0.10666345 0.009156283 2.8540974e-39
-0.013959424 -0.10575347 0.013103064 3.0370496e-39
-0.012035823 -0.10575347 0.013103064 2.9462903e-39
-0.010112221 -0.10575347 0.013103064 3.5026955e-39
-0.0081967479 -0.10504107 0.01619285 2.9509608e-39
-0.0062785642 -0.10504107 0.01619285 3.0431564e-39
-0.0043603815 -0.10504107 0.01619285 3.5959701e-39
-0.0024421979 -0.10504107 0.01619285 3.7792795e-39
-0.00052401517 -0.10504107 0.01619285 3.6867238e-39
0.0013941685 -0.10504107 0.01619285 4.2398976e-39
0.0033123512 -0.10504107 0.01619285 5.3451661e-39
0.0052305339 -0.10504107 0.01619285 3.1324738e-39
0.0072001824 -0.10575347 0.013103064 4.238464e-39
0.0091237845 -0.10575347 0.013103064 3.7774887e-39
0.011047385 -0.10575347 0.013103064 3.3172336e-39
0.013057484 -0.10666345 0.009156283 3.2250408e-39
0.014988006 -0.10666345 0.009156283 4.2395542e-39
0.016918525 -0.10666345 0.009156283 3.5941876e-39
0.018957086 -0.10758002 0.0051808916 3.2254079e-39
0.020779569 -0.10666345 0.009156283 3.7782258e-39
0.022710089 -0.10666345 0.009156283 3.1339354e-39
0.024640609 -0.10666345 0.009156283 2.3963703e-39
0.026571129 -0.10666345 0.009156283 3.6871063e-39
0.028501652 -0.10666345 0.009156283 7.9281053e-39
-0.029597733 -0.11115701 -0.0018761791 9.8681666e-39
-0.027647868 -0.11115701 -0.0018761791 8.3008409e-39
-0.025645059 -0.11022164 0.0021501146 5.8108358e-39
-0.023702253 -0.11022164 0.0021501146 4.795965e-39
-0.021730222 -0.10951753 0.0051808916 4.2413521e-39
-0.019792732 -0.10951753 0.0051808916 1.9350208e-39
-0.017830845 -0.10859399 0.009156283 1.4718819e-39
-0.015900325 -0.10859399 0.009156283 2.1165296e-39
-0.013959424 -0.10767709 0.013103064 4.0511959e-39
-0.012035823 -0.10767709 0.013103064 2.8544492e-39
-0.010112221 -0.10767709 0.013103064 5.5280664e-40
-0.0081967479 -0.10695927 0.01619285 1.1996012e-39
-0.0062785642 -0.10695927 0.01619285 2.950951e-39
-0.0043603815 -0.10695927 0.01619285 4.3328064e-39
-0.0024421979 -0.10695927 0.01619285 3.9640267e-39
-0.00052401517 -0.10695927 0.01619285 3.1335472e-39
0.0013941685 -0.10695927 0.01619285 3.1324682e-39
0.0033123512 -0.10695927 0.01619285 3.8693172e-39
0.0052305339 -0.10695927 0.01619285 1.8410161e-39
0.0071487175 -0.10695927 0.01619285 2.9470063e-39
0.0090669012 -0.10695927 0.01619285 3.8689654e-39
0.010985083 -0.10695927 0.01619285 4.0540784e-39
0.012970985 -0.10767709 0.013103064 4.5147006e-39
0.014894585 -0.10767709 0.013103064 3.2250422e-39
0.016918525 -0.10859399 0.009156283 3.2246862e-39
0.018849045 -0.10859399 0.009156283 4.4239511e-39
0.020779569 -0.10859399 0.009156283 3.4105222e-39
0.022710089 -0.10859399 0.009156283 3.1339354e-39
0.024640609 -0.10859399 0.009156283 2.3041747e-39
0.026571129 -0.10859399 0.009156283 4.516867e-39
0.028501652 -0.10859399 0.009156283 8.757866e-39
-0.027587865 -0.11216442 0.0021501146 1.2726231e-38
-0.025645059 -0.11216442 0.0021501146 1.3186486e-38
-0.023667712 -0.11145501 0.0051808916 1.3001376e-38
-0.021730222 -0.11145501 0.0051808916 1.3368718e-38
-0.019792732 -0.11145501 0.0051808916 9.2184728e-39
-0.017830845 -0.11052449 0.009156283 7.6489863e-39
-0.015883025 -0.10960068 0.013103064 8.6616963e-39
-0.013959424 -0.10960068 0.013103064 1.2625747e-38
-0.012033113 -0.10887744 0.01619285 1.2534264e-38
-0.010114932 -0.10887744 0.01619285 1.2814803e-38
-0.0081967479 -0.10887744 0.01619285 1.217051e-38
-0.0062785642 -0.10887744 0.01619285 1.1985398e-38
-0.0043603815 -0.10887744 0.01619285 1.1708455e-38
-0.0024421979 -0.10887744 0.01619285 1.1431508e-38
-0.00052401517 -0.10887744 0.01619285 1.1983605e-38
0.0013941685 -0.10887744 0.01619285 1.3918994e-38
0.0033123512 -0.10887744 0.01619285 1.6039496e-38
0.0052305339 -0.10887744 0.01619285 1.5854749e-38
0.0071487175 -0.10887744 0.01619285 1.4563656e-38
0.0090669012 -0.10887744 0.01619285 1.4655854e-38
0.010985083 -0.10887744 0.01619285 1.2627197e-38
0.012970985 -0.10960068 0.013103064 1.1059873e-38
0.014894585 -0.10960068 0.013103064 3.4079985e-39
0.016918525 -0.11052449 0.009156283 2.2094581e-39
0.018849045 -0.11052449 0.009156283 4.1473642e-39
0.020779569 -0.11052449 0.009156283 3.4105222e-39
0.022710089 -0.11052449 0.009156283 3.226847e-39
0.024640609 -0.11052449 0.009156283 2.5807588e-39
0.026571129 -0.11052449 0.009156283 5.8079617e-39
0.028501652 -0.11052449 0.009156283 1.0141156e-38
-0.027587865 -0.11410724 0.0021501146 1.1712079e-38
-0.025645059 -0.11410724 0.0021501146 1.4108442e-38
-0.023667712 -0.11339252 0.0051808916 1.4014806e-38
-0.021730222 -0.11339252 0.0051808916 1.3737138e-38
-0.019792732 -0.11339252 0.0051808916 1.0601044e-38
-0.017830845 -0.11245503 0.009156283 7.8337321e-39
-0.015883025 -0.11152427 0.013103064 1.0044985e-38
-0.013959424 -0.11152427 0.013103064 1.4561852e-38
-0.012033113 -0.11079563 0.01619285 1.5577796e-38
-0.010114932 -0.11079563 0.01619285 1.6317871e-38
-0.0081967479 -0.11079563 0.01619285 1.5766492e-38
-0.0062785642 -0.11079563 0.01619285 1.6042003e-38
-0.0043603815 -0.11079563 0.01619285 1.6225676e-38
-0.0024421979 -0.11079563 0.01619285 1.5948012e-38
-0.00052401517 -0.11079563 0.01619285 1.5118255e-38
0.0013941685 -0.11079563 0.01619285 1.5394124e-38
0.0033123512 -0.11079563 0.01619285 1.6223169e-38
0.0052305339 -0.11079563 0.01619285 1.8527703e-38
0.0071487175 -0.11079563 0.01619285 1.7236969e-38
0.0090669012 -0.11079563 0.01619285 1.7974178e-38
0.010985083 -0.11079563 0.01619285 1.382574e-38
0.012970985 -0.11152427 0.013103064 1.3088177e-38
0.014894585 -0.11152427 0.013103064 3.8689767e-39
0.016918525 -0.11245503 0.009156283 3.1314144e-39
0.018849045 -0.11245503 0.009156283 4.6998191e-39
0.020779569 -0.11245503 0.009156283 3.1346514e-39
0.022710089 -0.11245503 0.009156283 3.1353703e-39
0.024640609 -0.11245503 0.009156283 2.5814776e-39
0.026707049 -0.11339252 0.0051808916 6.4536913e-39
0.028753474 -0.11410724 0.0021501146 1.0878721e-38
0.03069628 -0.11410724 0.0021501146 1.4566544e-38
-0.027587865 -0.11605005 0.0021501146 2.8602197e-39
-0.025645059 -0.11605005 0.0021501146 4.795965e-39
-0.023667712 -0.11533 0.0051808916 6.3625691e-39
-0.021730222 -0.11533 0.0051808916 8.9429649e-39
-0.019792732 -0.11533 0.0051808916 1.1338607e-38
-0.017830845 -0.11438553 0.009156283 9.4010578e-39
-0.015900325 -0.11438553 0.009156283 1.1244605e-38
-0.013959424 -0.11344786 0.013103064 1.2442069e-38
-0.012033113 -0.1127138 0.01619285 1.1982524e-38
-0.010114932 -0.1127138 0.01619285 1.2630402e-38
-0.0081967479 -0.1127138 0.01619285 1.2355251e-38
-0.0062785642 -0.1127138 0.01619285 1.3367967e-38
-0.0043850159 -0.11176009 0.020207223 1.4750545e-38
-0.0024738712 -0.11176009 0.020207223 1.557923e-38
-0.00052401517 -0.1127138 0.01619285 1.5394841e-38
0.0013941685 -0.1127138 0.01619285 1.5577796e-38
0.0033123512 -0.1127138 0.01619285 1.5946582e-38
0.0052305339 -0.1127138 0.01619285 1.6315011e-38
0.0071487175 -0.1127138 0.01619285 1.6499404e-38
0.0090669012 -0.1127138 0.01619285 1.7605395e-38
0.010985083 -0.1127138 0.01619285 1.0967316e-38
0.012970985 -0.11344786 0.013103064 1.1152068e-38
0.014894585 -0.11344786 0.013103064 3.0388558e-39
0.016918525 -0.11438553 0.009156283 2.8548247e-39
0.018849045 -0.11438553 0.009156283 2.487124e-39
0.020779569 -0.11438553 0.009156283 2.9502602e-39
0.022710089 -0.11438553 0.009156283 2.9509762e-39
0.024640609 -0.11438553 0.009156283 2.2134112e-39
0.026571129 -0.11438553 0.009156283 6.3618516e-39
0.028753474 -0.11605005 0.0021501146 1.0786523e-38
0.03069628 -0.11605005 0.0021501146 1.419776e-38
-0.027587865 -0.11799283 0.0021501146 1.9382634e-39
-0.025645059 -0.11799283 0.0021501146 1.8618352e-40
-0.023667712 -0.11726747 0.0051808916 2.1215673e-39
-0.021730222 -0.11726747 0.0051808916 3.7800068e-39
-0.019792732 -0.11726747 0.0051808916 5.0700212e-39
-0.017830845 -0.11631607 0.009156283 7.4656656e-39
-0.015900325 -0.11631607 0.009156283 1.0230453e-38
-0.013959424 -0.11537148 0.013103064 1.1335721e-38
-0.012033113 -0.114632 0.01619285 1.059959e-38
-0.010114932 -0.114632 0.01619285 1.1708446e-38
-0.0081967479 -0.114632 0.01619285 1.0419143e-38
-0.0062785642 -0.114632 0.01619285 1.1892837e-38
-0.0043850159 -0.11367123 0.020207223 1.4934937e-38
-0.0024738712 -0.11367123 0.020207223 1.5948012e-38
-0.00052401517 -0.114632 0.01619285 1.4011907e-38
0.0013941685 -0.114632 0.01619285 1.2811928e-38
0.0033123512 -0.114632 0.01619285 1.3180713e-38
0.0052305339 -0.114632 0.01619285 1.253499e-38
0.0071487175 -0.114632 0.01619285 1.44711e-38
0.0090669012 -0.114632 0.01619285 1.5116113e-38
0.010985083 -0.114632 0.01619285 1.1889272e-38
0.012970985 -0.11537148 0.013103064 9.6769384e-39
0.014894585 -0.11537148 0.013103064 5.0671569e-39
0.016918525 -0.11631607 0.009156283 3.0395719e-39
0.018849045 -0.11631607 0.009156283 2.3956444e-39
0.020779569 -0.11631607 0.009156283 2.5821937e-39
0.022710089 -0.11631607 0.009156283 2.3066858e-39
0.024640609 -0.11631607 0.009156283 1.1070636e-39
0.026571129 -0.11631607 0.009156283 7.2838079e-39
0.028753474 -0.11799283 0.0021501146 9.6801754e-39
0.03069628 -0.11799283 0.0021501146 1.3091412e-38
0.032639086 -0.11799283 0.0021501146 1.4658018e-38
-0.027587865 -0.11993565 0.0021501146 7.393573e-40
-0.025645059 -0.11993565 0.0021501146 1.384005e-39
-0.023667712 -0.11920498 0.0051808916 1.937176e-39
-0.021730222 -0.11920498 0.0051808916 1.9360942e-39
-0.019792732 -0.11920498 0.0051808916 1.5665872e-39
-0.017830845 -0.11824657 0.009156283 2.1183191e-39
-0.015900325 -0.11824657 0.009156283 3.2243037e-39
-0.013959424 -0.11729507 0.013103064 3.5923645e-39
-0.012033113 -0.11655019 0.01619285 3.0399082e-39
-0.010114932 -0.11655019 0.01619285 4.1487669e-39
-0.0081967479 -0.11655019 0.01619285 2.9512999e-39
-0.0062785642 -0.11655019 0.01619285 2.6736368e-39
-0.0043603815 -0.11655019 0.01619285 3.4104858e-39
-0.0024421979 -0.11655019 0.01619285 4.054779e-39
-0.00052401517 -0.11655019 0.01619285 3.7781935e-39
0.0013941685 -0.11655019 0.01619285 3.6852818e-39
0.003259562 -0.11558239 0.020207223 3.9607939e-39
0.0051707076 -0.11558239 0.020207223 3.8686025e-39
0.0070818523 -0.11558239 0.020207223 4.2370291e-39
0.008992997 -0.11558239 0.020207223 4.3292275e-39
0.01090414 -0.11558239 0.020207223 3.684577e-39
0.012903267 -0.11655019 0.01619285 4.5139817e-39
0.01482145 -0.11655019 0.01619285 4.2381137e-39
0.016818184 -0.11729507 0.013103064 4.2381137e-39
0.018849045 -0.11824657 0.009156283 3.8707717e-39
0.020779569 -0.11824657 0.009156283 2.766585e-39
0.022710089 -0.11824657 0.009156283 2.3992416e-39
0.024640609 -0.11824657 0.009156283 1.569118e-39
0.026707049 -0.11920498 0.0051808916 8.4827112e-39
0.028753474 -0.11993565 0.0021501146 1.0879436e-38
0.03069628 -0.11993565 0.0021501146 1.3552746e-38
-0.029597733 -0.12285618 -0.0018761791 8.1139315e-39
-0.027647868 -0.12285618 -0.0018761791 5.5388704e-40
-0.025645059 -0.12187846 0.0021501146 1.4762007e-39
-0.023702253 -0.12187846 0.0021501146 1.6605891e-39
-0.021730222 -0.12114246 0.0051808916 1.751703e-39
-0.019792732 -0.12114246 0.0051808916 1.382196e-39
-0.017830845 -0.12017711 0.009156283 1.289643e-39
-0.015900325 -0.12017711 0.009156283 1.9339264e-39
-0.013959424 -0.11921866 0.013103064 2.3952591e-39
-0.012033113 -0.11846836 0.01619285 2.4874533e-39
-0.010114932 -0.11846836 0.01619285 2.5821671e-39
-0.0081967479 -0.11846836 0.01619285 2.6743599e-39
-0.0062785642 -0.11846836 0.01619285 2.5810881e-39
-0.0043850159 -0.11749353 0.020207223 2.3045026e-39
-0.0024738712 -0.11749353 0.020207223 2.8569603e-39
-0.00052401517 -0.11846836 0.01619285 3.6856448e-39
0.0013484173 -0.11749353 0.020207223 3.6849287e-39
0.003259562 -0.11749353 0.020207223 3.039202e-39
0.0051707076 -0.11749353 0.020207223 3.4079845e-39
0.0070818523 -0.11749353 0.020207223 2.8548135e-39
0.008992997 -0.11749353 0.020207223 2.5782294e-39
0.01090414 -0.11749353 0.020207223 3.3157945e-39
0.012903267 -0.11846836 0.01619285 3.5001857e-39
0.01482145 -0.11846836 0.01619285 4.5150565e-39
0.016818184 -0.11921866 0.013103064 3.8696871e-39
0.018849045 -0.12017711 0.009156283 2.212328e-39
0.020779569 -0.12017711 0.009156283 2.1222917e-39
0.022710089 -0.12017711 0.009156283 1.5694809e-39
0.02476956 -0.12114246 0.0051808916 1.1081398e-39
0.026707049 -0.12114246 0.0051808916 9.035885e-39
0.028753474 -0.12187846 0.0021501146 1.1801392e-38
0.03069628 -0.12187846 0.0021501146 1.4013725e-38
-0.029597733 -0.12480606 -0.0018761791 9.4046675e-39
-0.027647868 -0.12480606 -0.0018761791 1.3836477e-39
-0.025645059 -0.12382124 0.0021501146 1.1996138e-39
-0.023702253 -0.12382124 0.0021501146 1.6605891e-39
-0.021730222 -0.12307997 0.0051808916 2.3977912e-39
-0.019792732 -0.12307997 0.0051808916 2.5818182e-39
-0.017830845 -0.12210761 0.009156283 2.4885407e-39
-0.015900325 -0.12210761 0.009156283 2.3045054e-39
-0.013959424 -0.12114228 0.013103064 2.672569e-39
-0.012033113 -0.12038656 0.01619285 2.8576764e-39
-0.010114932 -0.12038656 0.01619285 1.9367991e-39
-0.0081967479 -0.12038656 0.01619285 2.6747242e-39
-0.0062785642 -0.12038656 0.01619285 3.3193776e-39
-0.0043850159 -0.11940466 0.020207223 3.5948883e-39
-0.0024738712 -0.11940466 0.020207223 3.9636736e-39
-0.00052401517 -0.12038656 0.01619285 4.6083241e-39
0.0013484173 -0.11940466 0.020207223 4.3306597e-39
0.003259562 -0.11940466 0.020207223 3.4079873e-39
0.0051707076 -0.11940466 0.020207223 4.237748e-39
0.0070818523 -0.11940466 0.020207223 4.1455523e-39
0.008992997 -0.11940466 0.020207223 4.2377508e-39
0.01090414 -0.11940466 0.020207223 5.3448144e-39
0.012903267 -0.12038656 0.01619285 3.5930974e-39
0.014894585 -0.12114228 0.013103064 4.239543e-39
0.016818184 -0.12114228 0.013103064 3.1331955e-39
0.018849045 -0.12210761 0.009156283 1.4751161e-39
0.020779569 -0.12210761 0.009156283 2.3995975e-39
0.022710089 -0.12210761 0.009156283 1.1099377e-39
0.02476956 -0.12307997 0.0051808916 5.5568491e-40
0.026810672 -0.12382124 0.0021501146 8.8518511e-39
0.028753474 -0.12382124 0.0021501146 1.180139e-38
0.03069628 -0.12382124 0.0021501146 1.4012646e-38
-0.029597733 -0.12675591 -0.0018761791 1.0695046e-38
-0.027647868 -0.12675591 -0.0018761791 2.3974395e-39
-0.025645059 -0.12576406 0.0021501146 1.8546465e-40
-0.023702253 -0.12576406 0.0021501146 9.2302409e-40
-0.021730222 -0.12501745 0.0051808916 1.8446175e-39
-0.019792732 -0.12501745 0.0051808916 2.2133958e-39
-0.017830845 -0.12403814 0.009156283 2.1208372e-39
-0.015900325 -0.12403814 0.009156283 2.0286388e-39
-0.013959424 -0.12306587 0.013103064 2.4888966e-39
-0.012033113 -0.12230472 0.01619285 2.6740082e-39
-0.010114932 -0.12230472 0.01619285 3.3200993e-39
-0.0081967479 -0.12230472 0.01619285 3.3197433e-39
-0.0062785642 -0.12230472 0.01619285 3.4119404e-39
-0.0043603815 -0.12230472 0.01619285 3.5956127e-39
-0.0024421979 -0.12230472 0.01619285 3.8711234e-39
-0.00052401517 -0.12230472 0.01619285 3.8707633e-39
0.0013941685 -0.12230472 0.01619285 3.7782117e-39
0.0033123512 -0.12230472 0.01619285 3.9618827e-39
0.0052305339 -0.12230472 0.01619285 3.7774915e-39
0.0071487175 -0.12230472 0.01619285 3.408709e-39
0.0090669012 -0.12230472 0.01619285 3.0399236e-39
0.010985083 -0.12230472 0.01619285 3.686372e-39
0.012903267 -0.12230472 0.01619285 1.9346523e-39
0.014894585 -0.12306587 0.013103064 3.2261086e-39
0.016818184 -0.12306587 0.013103064 3.0417173e-39
0.018849045 -0.12403814 0.009156283 2.1212015e-39
0.020779569 -0.12403814 0.009156283 2.8616533e-39
0.022710089 -0.12403814 0.009156283 1.571276e-39
0.02476956 -0.12501745 0.0051808916 9.2446743e-40
0.026810672 -0.12576406 0.0021501146 8.8525713e-39
0.028753474 -0.12576406 0.0021501146 1.1616998e-38
0.03069628 -0.12576406 0.0021501146 1.3459472e-38
-0.029714722 -0.13044833 -0.0088998713 1.1893589e-38
-0.027647868 -0.12870578 -0.0018761791 3.2271988e-39
-0.025645059 -0.12770687 0.0021501146 9.3270426e-41
-0.023702253 -0.12770687 0.0021501146 8.3082846e-40
-0.021730222 -0.12695493 0.0051808916 1.4758349e-39
-0.019792732 -0.12695493 0.0051808916 1.3836365e-39
-0.017830845 -0.12596865 0.009156283 1.4758307e-39
-0.015900325 -0.12596865 0.009156283 2.0293604e-39
-0.013959424 -0.12498946 0.013103064 2.7669255e-39
-0.012033113 -0.12422292 0.01619285 3.2279036e-39
-0.010114932 -0.12422292 0.01619285 2.8594854e-39
-0.0081967479 -0.12422292 0.01619285 2.5825426e-39
-0.0062785642 -0.12422292 0.01619285 2.7662178e-39
-0.0043603815 -0.12422292 0.01619285 3.227196e-39
-0.0024421979 -0.12422292 0.01619285 3.3186755e-39
-0.00052401517 -0.12422292 0.01619285 2.9491727e-39
0.0013941685 -0.12422292 0.01619285 3.1328451e-39
0.0033123512 -0.12422292 0.01619285 3.6860189e-39
0.0052305339 -0.12422292 0.01619285 5.0678744e-39
0.0071487175 -0.12422292 0.01619285 4.0547986e-39
0.0090669012 -0.12422292 0.01619285 3.0410026e-39
0.010985083 -0.12422292 0.01619285 2.9495231e-39
0.012970985 -0.12498946 0.013103064 2.4885435e-39
0.014894585 -0.12498946 0.013103064 3.3183014e-39
0.016918525 -0.12596865 0.009156283 2.9495189e-39
0.018849045 -0.12596865 0.009156283 1.7524176e-39
0.020894576 -0.12695493 0.0051808916 1.6631073e-39
0.022832066 -0.12695493 0.0051808916 1.0184595e-39
0.024867866 -0.12770687 0.0021501146 7.4115376e-40
0.026810672 -0.12770687 0.0021501146 8.9451229e-39
0.028753474 -0.12770687 0.0021501146 1.1340411e-38
0.03069628 -0.12770687 0.0021501146 1.28141e-38
-0.031750213 -0.13340546 -0.012882058 1.2999217e-38
-0.029714722 -0.13241051 -0.0088998713 1.1893588e-38
-0.027587865 -0.12964968 0.0021501146 3.5959813e-39
-0.025645059 -0.12964968 0.0021501146 1.4762007e-39
-0.023667712 -0.12889244 0.0051808916 2.2137629e-39
-0.021730222 -0.12889244 0.0051808916 1.9371732e-39
-0.019792732 -0.12889244 0.0051808916 8.3118299e-40
-0.017830845 -0.12789918 0.009156283 4.6240607e-40
-0.015900325 -0.12789918 0.009156283 1.1999599e-39
-0.013959424 -0.12691309 0.013103064 1.6609381e-39
-0.012035823 -0.12691309 0.013103064 1.4765496e-39
-0.010114932 -0.12614109 0.01619285 2.2137601e-39
-0.0081967479 -0.12614109 0.01619285 2.2148419e-39
-0.0062785642 -0.12614109 0.01619285 2.9513307e-39
-0.0043603815 -0.12614109 0.01619285 3.6881769e-39
-0.0024421979 -0.12614109 0.01619285 3.7796551e-39
-0.00052401517 -0.12614109 0.01619285 3.5030682e-39
0.0013941685 -0.12614109 0.01619285 3.7785761e-39
0.0033123512 -0.12614109 0.01619285 4.2395542e-39
0.0052305339 -0.12614109 0.01619285 3.8704102e-39
0.0071487175 -0.12614109 0.01619285 3.6860161e-39
0.0090669012 -0.12614109 0.01619285 3.1331983e-39
0.011047385 -0.12691309 0.013103064 2.3963493e-39
0.012970985 -0.12691309 0.013103064 3.5948883e-39
0.014988006 -0.12789918 0.009156283 3.227182e-39
0.016918525 -0.12789918 0.009156283 2.7665597e-39
0.018849045 -0.12789918 0.009156283 1.9375249e-39
0.020894576 -0.12889244 0.0051808916 7.4150689e-40
0.022832066 -0.12889244 0.0051808916 8.3406826e-40
0.02476956 -0.12889244 0.0051808916 1.0177407e-39
0.026707049 -0.12889244 0.0051808916 8.8529273e-39
0.028644539 -0.12889244 0.0051808916 1.0971629e-38
0.030582029 -0.12889244 0.0051808916 1.2445317e-38
-0.031750213 -0.13537462 -0.012882058 1.1154584e-38
-0.029714722 -0.1343727 -0.0088998713 1.0786522e-38
-0.027587865 -0.13159247 0.0021501146 3.41159e-39
-0.025645059 -0.13159247 0.0021501146 1.384005e-39
-0.023667712 -0.13082992 0.0051808916 2.214486e-39
-0.021730222 -0.13082992 0.0051808916 2.2148419e-39
-0.019792732 -0.13082992 0.0051808916 1.1084915e-39
-0.017830845 -0.12982969 0.009156283 1.1999641e-39
-0.015900325 -0.12982969 0.009156283 2.214116e-39
-0.013959424 -0.12883668 0.013103064 2.6743739e-39
-0.012035823 -0.12883668 0.013103064 2.0297234e-39
-0.010114932 -0.12805928 0.01619285 2.2148391e-39
-0.0081967479 -0.12805928 0.01619285 2.491426e-39
-0.0062785642 -0.12805928 0.01619285 2.5836244e-39
-0.0043603815 -0.12805928 0.01619285 2.4903498e-39
-0.0024421979 -0.12805928 0.01619285 2.4896337e-39
-0.00052401517 -0.12805928 0.01619285 2.9506133e-39
0.0013941685 -0.12805928 0.01619285 3.6874595e-39
0.0033123512 -0.12805928 0.01619285 4.1484376e-39
0.0052305339 -0.12805928 0.01619285 3.4097936e-39
0.0071487175 -0.12805928 0.01619285 3.7789334e-39
0.0090669012 -0.12805928 0.01619285 3.2268358e-39
0.011047385 -0.12883668 0.013103064 1.2907248e-39
0.012970985 -0.12883668 0.013103064 2.7658521e-39
0.014988006 -0.12982969 0.009156283 1.8446132e-39
0.016918525 -0.12982969 0.009156283 2.3974241e-39
0.018849045 -0.12982969 0.009156283 2.7665695e-39
0.020779569 -0.12982969 0.009156283 2.1226463e-39
0.022710089 -0.12982969 0.009156283 2.3995961e-39
0.02476956 -0.13082992 0.0051808916 2.3070375e-39
0.026571129 -0.12982969 0.009156283 9.405022e-39
0.028501652 -0.12982969 0.009156283 1.0971266e-38
0.030432172 -0.12982969 0.009156283 1.2260926e-38
-0.027542692 -0.13276742 0.0051808916 4.8867201e-39
-0.025605202 -0.13276742 0.0051808916 2.3977996e-39
-0.023667712 -0.13276742 0.0051808916 2.76838e-39
-0.021730222 -0.13276742 0.0051808916 1.5709144e-39
-0.019792732 -0.13276742 0.0051808916 1.4776398e-39
-0.017830845 -0.13176022 0.009156283 1.938255e-39
-0.015883025 -0.13076027 0.013103064 1.7527848e-39
-0.013959424 -0.13076027 0.013103064 1.8438986e-39
-0.012035823 -0.13076027 0.013103064 1.5680278e-39
-0.010114932 -0.12997745 0.01619285 2.2151908e-39
-0.0081967479 -0.12997745 0.01619285 2.3081025e-39
-0.0062785642 -0.12997745 0.01619285 2.4924966e-39
-0.0043603815 -0.12997745 0.01619285 2.7683674e-39
-0.0024421979 -0.12997745 0.01619285 2.9524013e-39
-0.00052401517 -0.12997745 0.01619285 3.1367954e-39
0.0013941685 -0.12997745 0.01619285 3.5055807e-39
0.0033123512 -0.12997745 0.01619285 3.6896161e-39
0.0052305339 -0.12997745 0.01619285 3.2275603e-39
0.0071487175 -0.12997745 0.01619285 3.5041472e-39
0.0090669012 -0.12997745 0.01619285 3.5041472e-39
0.011047385 -0.13076027 0.013103064 3.1353647e-39
0.012970985 -0.13076027 0.013103064 2.9513307e-39
0.014988006 -0.13176022 0.009156283 2.9513307e-39
0.016918525 -0.13176022 0.009156283 2.8584163e-39
0.018849045 -0.13176022 0.009156283 2.4896337e-39
0.020779569 -0.13176022 0.009156283 3.0413684e-39
0.022710089 -0.13176022 0.009156283 1.5662383e-39
0.024640609 -0.13176022 0.009156283 1.5662355e-39
0.026571129 -0.13176022 0.009156283 1.0693603e-38
0.028501652 -0.13176022 0.009156283 1.1062383e-38
-0.027542692 -0.1347049 0.0051808916 5.9001532e-39
-0.025605202 -0.1347049 0.0051808916 1.4769223e-39
-0.023667712 -0.1347049 0.0051808916 1.9396984e-39
-0.021730222 -0.1347049 0.0051808916 1.6631115e-39
-0.019792732 -0.1347049 0.0051808916 1.5709158e-39
