# .PCD v0.7 - Point Cloud Data file format
VERSION 0.7
FIELDS x y z rgb
SIZE 4 4 4 4
TYPE F F F F
COUNT 1 1 1 1
WIDTH 925
HEIGHT 1
VIEWPOINT 0 0 0 1 0 0 0
POINTS 925
DATA ascii
-0.0095645264 -0.073424488 -0.011749607 2.3509886e-38
-0.0076707527 -0.073424488 -0.011749607 2.3509886e-38
-0.0058006104 -0.072812736 -0.0087547116 2.3509886e-38
-0.0039507141 -0.071994603 -0.0047493987 2.3509886e-38
-0.0021376964 -0.070767209 0.0012594648 2.3509886e-38
-0.00026673265 -0.070767209 0.0012594648 2.3509886e-38
0.0015439708 -0.069941312 0.0053028055 2.3509886e-38
0.0033576675 -0.069325984 0.0083152242 2.3509886e-38
0.0051062815 -0.068105742 0.01428904 2.3509886e-38
0.0068133846 -0.066677198 0.021282692 2.3509886e-38
0.0085828211 -0.066058174 0.02431323 2.3509886e-38
0.010342043 -0.065442696 0.027326364 2.3509886e-38
0.012091141 -0.06483078 0.030322094 2.3509886e-38
0.013804283 -0.064027563 0.034254331 2.3509886e-38
0.015617395 -0.064027563 0.034254331 2.3509886e-38
0.017336573 -0.063402236 0.037315745 2.3509886e-38
0.019048996 -0.062801987 0.040254373 2.3509527e-38
0.020748135 -0.062183902 0.043280263 2.3509527e-38
0.022437297 -0.061569422 0.046288509 2.3509886e-38
0.024116572 -0.060958564 0.049279112 2.3509886e-38
0.02590334 -0.060958564 0.049279112 2.350988e-38
0.02781333 -0.061569422 0.046288509 2.3509876e-38
0.029605344 -0.061569422 0.046288509 2.2587913e-38
0.031531855 -0.062183902 0.043280263 1.4843834e-38
0.033469737 -0.062801987 0.040254373 1.6317885e-38
0.035272326 -0.062801987 0.040254373 1.880717e-38
0.03707492 -0.062801987 0.040254373 2.018975e-38
0.03887751 -0.062801987 0.040254373 2.3509521e-38
0.040680103 -0.062801987 0.040254373 2.3509167e-38
0.042482696 -0.062801987 0.040254373 7.1894641e-39
0.044285286 -0.062801987 0.040254373 1.2892969e-39
-0.051959641 -0.091996253 -0.092704162 2.2864869e-38
-0.049801495 -0.091174185 -0.088713869 2.3049624e-38
-0.047658131 -0.090357736 -0.084750876 2.341805e-38
-0.045525841 -0.089519933 -0.08068417 2.3509886e-38
-0.043411843 -0.088714764 -0.076775894 2.3509886e-38
-0.041309126 -0.087888494 -0.072765216 2.3509886e-38
-0.03924074 -0.087252751 -0.069679365 2.3509886e-38
-0.037165526 -0.086436674 -0.065718159 2.3509886e-38
-0.035102379 -0.085600197 -0.061657887 2.3509886e-38
-0.033056043 -0.084795564 -0.057752233 2.3509886e-38
-0.031036824 -0.084176436 -0.054746967 2.3509886e-38
-0.029067665 -0.084176436 -0.054746967 2.3509886e-38
-0.027053121 -0.083356038 -0.05076478 2.3509886e-38
-0.025051624 -0.082516089 -0.046687704 2.3509886e-38
-0.023073345 -0.081909031 -0.043741088 2.3509886e-38
-0.021080174 -0.080455169 -0.036684018 2.3509886e-38
-0.019107958 -0.07882306 -0.028761845 2.3509886e-38
-0.017184358 -0.07882306 -0.028761845 2.3509886e-38
-0.015254529 -0.077359483 -0.021657687 2.3509886e-38
-0.013343384 -0.077359483 -0.021657687 2.3509886e-38
-0.011447933 -0.076130286 -0.015691143 2.3509886e-38
-0.0095645264 -0.075318262 -0.011749607 2.3509886e-38
-0.0076891314 -0.074701265 -0.0087547116 2.3509886e-38
-0.005832212 -0.073876098 -0.0047493987 2.3509886e-38
-0.0039803144 -0.073243722 -0.0016798787 2.3509886e-38
-0.0021376964 -0.072638169 0.0012594648 2.3509886e-38
-0.00031990279 -0.071805179 0.0053028055 2.3509886e-38
0.0015439708 -0.071805179 0.0053028055 2.3509886e-38
0.0033077747 -0.070567474 0.011310596 2.3509886e-38
0.0051062815 -0.069953859 0.01428904 2.3509886e-38
0.0068133846 -0.068513051 0.021282692 2.3509886e-38
0.0085828211 -0.067888707 0.02431323 2.3509886e-38
0.010342043 -0.067267954 0.027326364 2.3509886e-38
0.012091141 -0.066650793 0.030322094 2.3509886e-38
0.013804283 -0.065840676 0.034254331 2.3509886e-38
0.015617395 -0.065840676 0.034254331 2.3325497e-38
0.017246407 -0.06460458 0.040254373 2.3417691e-38
0.019048996 -0.06460458 0.040254373 2.3509527e-38
0.020645283 -0.063361436 0.046288509 2.3509527e-38
0.022437297 -0.063361436 0.046288509 2.3509886e-38
0.024116572 -0.062745333 0.049279112 2.3509886e-38
0.02590334 -0.062745333 0.049279112 2.350988e-38
0.027690109 -0.062745333 0.049279112 2.3509873e-38
0.029734567 -0.06398119 0.043280263 2.0559966e-38
0.031667143 -0.06460458 0.040254373 1.5120421e-38
0.033606272 -0.065209985 0.037315745 1.6410081e-38
0.035414018 -0.065209985 0.037315745 1.9083757e-38
0.03707492 -0.06460458 0.040254373 1.9913163e-38
0.03887751 -0.06460458 0.040254373 2.3509518e-38
0.040680103 -0.06460458 0.040254373 2.3509527e-38
0.042482696 -0.06460458 0.040254373 1.3274732e-38
0.044285286 -0.06460458 0.040254373 3.6863861e-39
-0.051959641 -0.09403196 -0.092704162 2.350988e-38
-0.049801495 -0.093202889 -0.088713869 2.3418047e-38
-0.047658131 -0.09237951 -0.084750876 2.3418047e-38
-0.045525841 -0.09153457 -0.08068417 2.3509886e-38
-0.043411843 -0.090722546 -0.076775894 2.3509886e-38
-0.041309126 -0.089889243 -0.072765216 2.3509886e-38
-0.03924074 -0.089248091 -0.069679365 2.3509886e-38
-0.037165526 -0.08842507 -0.065718159 2.3509886e-38
-0.035030477 -0.086769998 -0.057752233 2.3509886e-38
-0.033056043 -0.086769998 -0.057752233 2.3509886e-38
-0.031036824 -0.086145595 -0.054746967 2.3509886e-38
-0.029067665 -0.086145595 -0.054746967 2.3509886e-38
-0.027053121 -0.085318208 -0.05076478 2.3509886e-38
-0.025051624 -0.084471121 -0.046687704 2.3509886e-38
-0.023041578 -0.083022356 -0.039714795 2.3509886e-38
-0.021080174 -0.082392648 -0.036684018 2.3509886e-38
-0.019107958 -0.080746666 -0.028761845 2.3509886e-38
-0.017176231 -0.080104694 -0.02567206 2.3509886e-38
-0.015254529 -0.079270631 -0.021657687 2.3509886e-38
-0.013343384 -0.079270631 -0.021657687 2.3509886e-38
-0.011447933 -0.078030959 -0.015691143 2.3509886e-38
-0.0095645264 -0.077212036 -0.011749607 2.3509886e-38
-0.0076891314 -0.076589778 -0.0087547116 2.3509886e-38
-0.0058564311 -0.075119838 -0.0016798787 2.3509886e-38
-0.0040086592 -0.074509144 0.0012594648 2.3509886e-38
-0.0021837763 -0.073669046 0.0053028055 2.3509886e-38
-0.00035951566 -0.073043168 0.0083152242 2.3509886e-38
0.0014990754 -0.073043168 0.0083152242 2.3509886e-38
0.003258165 -0.071801975 0.01428904 2.3509886e-38
0.0051062815 -0.071801975 0.01428904 2.3509886e-38
0.0068133846 -0.070348918 0.021282692 2.3509886e-38
0.0085828211 -0.069719255 0.02431323 2.3509886e-38
0.010342043 -0.069093212 0.027326364 2.3509886e-38
0.012091141 -0.068470791 0.030322094 2.3509886e-38
0.013804283 -0.06765379 0.034254331 2.3509886e-38
0.015528828 -0.067017719 0.037315745 2.3325497e-38
0.017246407 -0.066407159 0.040254373 2.3417691e-38
0.01895085 -0.065778479 0.043280263 2.3509527e-38
0.020645283 -0.06515345 0.046288509 2.3509527e-38
0.022437297 -0.06515345 0.046288509 2.3509886e-38
0.024004497 -0.063914374 0.052252192 2.341769e-38
0.025786053 -0.063914374 0.052252192 2.3232932e-38
0.027690109 -0.064532101 0.049279112 2.3048893e-38
0.029734567 -0.065778479 0.043280263 1.8255075e-38
0.031667143 -0.066407159 0.040254373 1.5397005e-38
0.033606272 -0.067017719 0.037315745 1.6226045e-38
0.035414018 -0.067017719 0.037315745 1.9268145e-38
0.03707492 -0.066407159 0.040254373 1.9636932e-38
0.038721003 -0.065778479 0.043280263 2.3140013e-38
0.040518288 -0.065778479 0.043280263 2.3509524e-38
0.042482696 -0.066407159 0.040254373 1.8898665e-38
0.044285286 -0.066407159 0.040254373 7.9270291e-39
0.04608788 -0.066407159 0.040254373 7.3576998e-40
-0.051959641 -0.096067667 -0.092704162 2.350988e-38
-0.049801495 -0.095231608 -0.088713869 2.3418047e-38
-0.047658131 -0.09440127 -0.084750876 2.3049624e-38
-0.045525841 -0.093549207 -0.08068417 2.3509886e-38
-0.043411843 -0.092730328 -0.076775894 2.3509886e-38
-0.041309126 -0.091889992 -0.072765216 2.3509886e-38
-0.039153922 -0.090413481 -0.065718159 2.3509886e-38
-0.037083656 -0.089562759 -0.061657887 2.3509886e-38
-0.035030477 -0.088744432 -0.057752233 2.3509886e-38
-0.033056043 -0.088744432 -0.057752233 2.3509886e-38
-0.031036824 -0.088114753 -0.054746967 2.3509886e-38
-0.029067665 -0.088114753 -0.054746967 2.3509886e-38
-0.027053121 -0.087280393 -0.05076478 2.3509886e-38
-0.025051624 -0.086426154 -0.046687704 2.3509886e-38
-0.023041578 -0.084965169 -0.039714795 2.3509886e-38
-0.021080174 -0.084330142 -0.036684018 2.3509886e-38
-0.019107958 -0.082670271 -0.028761845 2.3509886e-38
-0.017176231 -0.08202289 -0.02567206 2.3509886e-38
-0.015254529 -0.08118178 -0.021657687 2.3509886e-38
-0.013345955 -0.080567271 -0.018724781 2.3509886e-38
-0.011447933 -0.079931647 -0.015691143 2.3509886e-38
-0.0095645264 -0.079105809 -0.011749607 2.3509886e-38
-0.0077137109 -0.077639103 -0.0047493987 2.3509886e-38
-0.0058564311 -0.076995969 -0.0016798787 2.3509886e-38
-0.0040476508 -0.075532928 0.0053028055 2.3509886e-38
-0.0022181077 -0.07490176 0.0083152242 2.3509886e-38
-0.00035951566 -0.07490176 0.0083152242 2.3509886e-38
0.0014544353 -0.074274153 0.011310596 2.3509886e-38
0.003258165 -0.073650107 0.01428904 2.3509886e-38
0.0051062815 -0.073650107 0.01428904 2.3509886e-38
0.0067522787 -0.071549803 0.02431323 2.3509886e-38
0.0085828211 -0.071549803 0.02431323 2.3509886e-38
0.010342043 -0.070918471 0.027326364 2.3509886e-38
0.012091141 -0.070290804 0.030322094 2.3509886e-38
0.013804283 -0.069466904 0.034254331 2.3509886e-38
0.015528828 -0.068825468 0.037315745 2.3417691e-38
0.017246407 -0.068209752 0.040254373 2.3509886e-38
0.01895085 -0.067575768 0.043280263 2.3509527e-38
0.020645283 -0.066945463 0.046288509 2.3509886e-38
0.022329804 -0.06631887 0.049279112 2.3509886e-38
0.024004497 -0.065695941 0.052252192 2.3233296e-38
0.025786053 -0.065695941 0.052252192 2.2956345e-38
0.02781333 -0.066945463 0.046288509 2.2680108e-38
0.029734567 -0.067575768 0.043280263 1.6779942e-38
0.031667143 -0.068209752 0.040254373 1.5581752e-38
0.033606272 -0.068825468 0.037315745 1.585726e-38
0.035272326 -0.068209752 0.040254373 1.9268501e-38
0.03707492 -0.068209752 0.040254373 1.9268148e-38
0.038721003 -0.067575768 0.043280263 2.2494643e-38
0.040518288 -0.067575768 0.043280263 2.3231854e-38
0.042482696 -0.068209752 0.040254373 2.1941121e-38
0.044285286 -0.068209752 0.040254373 1.1799248e-38
-0.051959641 -0.098103389 -0.092704162 2.2311696e-38
-0.049801495 -0.097260326 -0.088713869 2.3418047e-38
-0.047658131 -0.096423045 -0.084750876 2.2957428e-38
-0.045525841 -0.095563844 -0.08068417 2.3509886e-38
-0.043411843 -0.094738111 -0.076775894 2.3509886e-38
-0.04123608 -0.093238786 -0.069679365 2.3509886e-38
-0.039153922 -0.092401877 -0.065718159 2.3509886e-38
-0.037083656 -0.091544032 -0.061657887 2.3509886e-38
-0.035030477 -0.090718865 -0.057752233 2.3509886e-38
-0.033056043 -0.090718865 -0.057752233 2.3509886e-38
-0.031036824 -0.090083912 -0.054746967 2.3509886e-38
-0.029067665 -0.090083912 -0.054746967 2.3509886e-38
-0.027053121 -0.089242578 -0.05076478 2.3509886e-38
-0.025051624 -0.088381186 -0.046687704 2.3509886e-38
-0.023041578 -0.086907968 -0.039714795 2.3509886e-38
-0.021080174 -0.086267635 -0.036684018 2.3509886e-38
-0.019107958 -0.084593862 -0.028761845 2.3509886e-38
-0.017176231 -0.083941072 -0.02567206 2.3509886e-38
-0.015254529 -0.083092928 -0.021657687 2.3509886e-38
-0.013345955 -0.082473263 -0.018724781 2.3509886e-38
-0.011447933 -0.081832334 -0.015691143 2.3509886e-38
-0.0095776543 -0.08036682 -0.0087547116 2.3509886e-38
-0.0077137109 -0.079520598 -0.0047493987 2.3509886e-38
-0.005879622 -0.078251064 0.0012594648 2.3509886e-38
-0.0040767007 -0.076760352 0.0083152242 2.3509886e-38
-0.0022181077 -0.076760352 0.0083152242 2.3509886e-38
-0.00039890502 -0.076127499 0.011310596 2.3509886e-38
0.0014544353 -0.076127499 0.011310596 2.3509886e-38
0.003258165 -0.075498223 0.01428904 2.3509886e-38
0.0050316378 -0.074641585 0.018343586 2.3509886e-38
0.0067522787 -0.073380336 0.02431323 2.3509886e-38
0.0085167829 -0.072743744 0.027326364 2.3509886e-38
0.010342043 -0.072743744 0.027326364 2.3509886e-38
0.012091141 -0.072110802 0.030322094 2.3509886e-38
0.013804283 -0.071280017 0.034254331 2.3509886e-38
0.015528828 -0.070633218 0.037315745 2.3509886e-38
0.017246407 -0.070012346 0.040254373 2.3233302e-38
0.01895085 -0.069373056 0.043280263 2.3325497e-38
0.020645283 -0.068737477 0.046288509 2.3509886e-38
0.022329804 -0.068105638 0.049279112 2.3509886e-38
0.024004497 -0.067477494 0.052252192 2.3509883e-38
0.025786053 -0.067477494 0.052252192 2.3509879e-38
0.02781333 -0.068737477 0.046288509 1.7424957e-38
0.029734567 -0.069373056 0.043280263 1.6318964e-38
0.031667143 -0.070012346 0.040254373 1.6411513e-38
0.033606272 -0.070633218 0.037315745 1.6041651e-38
0.035272326 -0.070012346 0.040254373 1.8162151e-38
0.03707492 -0.070012346 0.040254373 1.9821319e-38
0.038721003 -0.069373056 0.043280263 2.1849271e-38
0.040357418 -0.068737477 0.046288509 2.2033668e-38
0.042149432 -0.068737477 0.046288509 2.3324055e-38
0.043941442 -0.068737477 0.046288509 1.7330986e-38
0.045383167 -0.067477494 0.052252192 2.7551209e-40
0.047164723 -0.067477494 0.052252192 2.7551209e-40
-0.053995356 -0.1001391 -0.092704162 2.350988e-38
-0.051959641 -0.1001391 -0.092704162 2.350988e-38
-0.049801495 -0.099289045 -0.088713869 2.3418047e-38
-0.047658131 -0.098444805 -0.084750876 2.3418047e-38
-0.045419626 -0.096745893 -0.076775894 2.3509886e-38
-0.043309875 -0.095891505 -0.072765216 2.3509886e-38
-0.04123608 -0.095234126 -0.069679365 2.3509886e-38
-0.039153922 -0.094390273 -0.065718159 2.3509886e-38
-0.037083656 -0.093525305 -0.061657887 2.3509886e-38
-0.035030477 -0.092693284 -0.057752233 2.3509886e-38
-0.03300599 -0.092053071 -0.054746967 2.3509886e-38
-0.031036824 -0.092053071 -0.054746967 2.3509886e-38
-0.029015299 -0.091204748 -0.05076478 2.3509886e-38
-0.027006656 -0.090336218 -0.046687704 2.3509886e-38
-0.025023211 -0.089708492 -0.043741088 2.3509886e-38
-0.023041578 -0.088850766 -0.039714795 2.3509886e-38
-0.021080174 -0.088205129 -0.036684018 2.3509886e-38
-0.019107958 -0.086517468 -0.028761845 2.3509886e-38
-0.017176231 -0.085859254 -0.02567206 2.3509886e-38
-0.015254529 -0.085004061 -0.021657687 2.3509886e-38
-0.013345955 -0.084379271 -0.018724781 2.3509886e-38
-0.011458298 -0.082893357 -0.011749607 2.3509886e-38
-0.0095952097 -0.081402093 -0.0047493987 2.3509886e-38
-0.0077325478 -0.0807482 -0.0016798787 2.3509886e-38
-0.0059115244 -0.079260677 0.0053028055 2.3509886e-38
-0.0040767007 -0.078618944 0.0083152242 2.3509886e-38
-0.0022522453 -0.077980831 0.011310596 2.3509886e-38
-0.00039890502 -0.077980831 0.011310596 2.3509886e-38
0.0014544353 -0.077980831 0.011310596 2.3509886e-38
0.003258165 -0.07734634 0.01428904 2.3509886e-38
0.0049775299 -0.075856477 0.021282692 2.3509886e-38
0.0067522787 -0.075210884 0.02431323 2.3509886e-38
0.0085167829 -0.074569002 0.027326364 2.3509886e-38
0.010271134 -0.073930815 0.030322094 2.3509886e-38
0.012091141 -0.073930815 0.030322094 2.3509886e-38
0.013804283 -0.073093131 0.034254331 2.3509886e-38
0.015528828 -0.072440952 0.037315745 2.3509886e-38
0.017246407 -0.071814939 0.040254373 2.3417691e-38
0.01895085 -0.07117033 0.043280263 2.3509886e-38
0.020645283 -0.070529491 0.046288509 2.3509886e-38
0.022437297 -0.070529491 0.046288509 2.3509886e-38
0.024116572 -0.069892406 0.049279112 2.3417687e-38
0.02590334 -0.069892406 0.049279112 2.3509876e-38
0.027937282 -0.07117033 0.043280263 1.6963979e-38
0.02986455 -0.071814939 0.040254373 1.5673592e-38
0.03179853 -0.072440952 0.037315745 1.6411512e-38
0.033606272 -0.072440952 0.037315745 1.6502628e-38
0.035272326 -0.071814939 0.040254373 1.8530933e-38
0.036923714 -0.07117033 0.043280263 1.9729124e-38
0.038565405 -0.070529491 0.046288509 2.1480845e-38
0.040197492 -0.069892406 0.049279112 2.1849274e-38
0.041820057 -0.069259048 0.052252192 2.3508444e-38
0.043601613 -0.069259048 0.052252192 2.0742224e-38
0.045383167 -0.069259048 0.052252192 1.4733392e-39
0.047164723 -0.069259048 0.052252192 2.7551209e-40
-0.053995356 -0.1021748 -0.092704162 2.350988e-38
-0.05183021 -0.10131776 -0.088713869 2.3509883e-38
-0.049679898 -0.10046658 -0.084750876 2.3233299e-38
-0.047427412 -0.098753676 -0.076775894 2.3509886e-38
-0.045419626 -0.098753676 -0.076775894 2.3509886e-38
-0.043309875 -0.097892255 -0.072765216 2.3509886e-38
-0.04123608 -0.097229466 -0.069679365 2.3509886e-38
-0.039153922 -0.096378669 -0.065718159 2.3509886e-38
-0.037083656 -0.095506594 -0.061657887 2.3509886e-38
-0.035030477 -0.094667718 -0.057752233 2.3509886e-38
-0.03300599 -0.094022244 -0.054746967 2.3509886e-38
-0.031036824 -0.094022244 -0.054746967 2.3509886e-38
-0.029015299 -0.093166932 -0.05076478 2.3509886e-38
-0.027006656 -0.092291236 -0.046687704 2.3509886e-38
-0.024984382 -0.09079358 -0.039714795 2.3509886e-38
-0.023041578 -0.09079358 -0.039714795 2.3509886e-38
-0.021055778 -0.089288771 -0.032708626 2.3509886e-38
-0.019107958 -0.088441074 -0.028761845 2.3509886e-38
-0.017176231 -0.087777436 -0.02567206 2.3509886e-38
-0.015254529 -0.08691521 -0.021657687 2.3509886e-38
-0.013345955 -0.086285278 -0.018724781 2.3509886e-38
-0.011466175 -0.084143862 -0.0087547116 2.3509886e-38
-0.0096086636 -0.082624316 -0.0016798787 2.3509886e-38
-0.0077505857 -0.081992984 0.0012594648 2.3509886e-38
-0.0059115244 -0.081124544 0.0053028055 2.3509886e-38
-0.0040767007 -0.080477536 0.0083152242 2.3509886e-38
-0.0022522453 -0.079834178 0.011310596 2.3509886e-38
-0.00039890502 -0.079834178 0.011310596 2.3509886e-38
0.0014100466 -0.079194456 0.01428904 2.3509886e-38
0.003258165 -0.079194456 0.01428904 2.3509886e-38
0.0049775299 -0.07769233 0.021282692 2.3509886e-38
0.0067522787 -0.077041432 0.02431323 2.3509886e-38
0.0085167829 -0.07639426 0.027326364 2.3509886e-38
0.010271134 -0.075750828 0.030322094 2.3509886e-38
0.011913339 -0.074248701 0.037315745 2.3509886e-38
0.013721084 -0.074248701 0.037315745 2.3509886e-38
0.015443813 -0.073617533 0.040254373 2.3509886e-38
0.017153561 -0.072967619 0.043280263 2.3509886e-38
0.01895085 -0.072967619 0.043280263 2.3509886e-38
0.020645283 -0.072321504 0.046288509 2.3509886e-38
0.022329804 -0.071679175 0.049279112 2.3509886e-38
0.024116572 -0.071679175 0.049279112 2.3417687e-38
0.02590334 -0.071679175 0.049279112 2.3509874e-38
0.02806196 -0.073617533 0.040254373 1.6410805e-38
0.030122291 -0.074906245 0.034254331 1.5028223e-38
0.031935405 -0.074906245 0.034254331 1.6503707e-38
0.033606272 -0.074248701 0.037315745 1.7055802e-38
0.035272326 -0.073617533 0.040254373 1.8807519e-38
0.036923714 -0.072967619 0.043280263 1.9452893e-38
0.038410723 -0.071679175 0.049279112 2.1112061e-38
0.040197492 -0.071679175 0.049279112 2.1757076e-38
0.041820057 -0.071040601 0.052252192 2.3509161e-38
0.043601613 -0.071040601 0.052252192 2.1849648e-38
0.045203581 -0.070383906 0.055309672 3.6771193e-40
0.046979778 -0.070383906 0.055309672 9.1841101e-41
0.04875597 -0.070383906 0.055309672 1.1978299e-39
-0.055887643 -0.10334648 -0.088713869 2.350988e-38
-0.053723432 -0.10248834 -0.084750876 2.3233296e-38
-0.051701665 -0.10248834 -0.084750876 2.341769e-38
-0.049555115 -0.10160775 -0.08068417 2.341769e-38
-0.047427412 -0.10076147 -0.076775894 2.3048907e-38
-0.045419626 -0.10076147 -0.076775894 2.3509886e-38
-0.043309875 -0.099893004 -0.072765216 2.3509886e-38
-0.04123608 -0.099224806 -0.069679365 2.3509886e-38
-0.039153922 -0.098367065 -0.065718159 2.3509886e-38
-0.037083656 -0.097487867 -0.061657887 2.3509886e-38
-0.035030477 -0.096642151 -0.057752233 2.3509886e-38
-0.03300599 -0.095991403 -0.054746967 2.3509886e-38
-0.031036824 -0.095991403 -0.054746967 2.3509886e-38
-0.029015299 -0.095129102 -0.05076478 2.3509886e-38
-0.026973076 -0.093608215 -0.043741088 2.3509886e-38
-0.024984382 -0.092736378 -0.039714795 2.3509886e-38
-0.023017665 -0.092080101 -0.036684018 2.3509886e-38
-0.021055778 -0.091219291 -0.032708626 2.3509886e-38
-0.019107958 -0.090364665 -0.028761845 2.3509886e-38
-0.017176231 -0.089695618 -0.02567206 2.3509886e-38
-0.015251959 -0.088191271 -0.018724781 2.3509886e-38
-0.01335207 -0.086680889 -0.011749607 2.3509886e-38
-0.011466175 -0.086032391 -0.0087547116 2.3509886e-38
-0.0096086636 -0.084500432 -0.0016798787 2.3509886e-38
-0.0077505857 -0.083863959 0.0012594648 2.3509886e-38
-0.0059115244 -0.082988426 0.0053028055 2.3509886e-38
-0.0040767007 -0.082336128 0.0083152242 2.3509886e-38
-0.0022522453 -0.08168751 0.011310596 2.3509886e-38
-0.00039890502 -0.08168751 0.011310596 2.3509886e-38
0.0014100466 -0.081042573 0.01428904 2.3509886e-38
0.0031906292 -0.080164611 0.018343586 2.3509886e-38
0.0049217362 -0.078871965 0.02431323 2.3509886e-38
0.0066915248 -0.078219518 0.027326364 2.3509886e-38
0.0084511265 -0.077570826 0.030322094 2.3509886e-38
0.010178057 -0.076719359 0.034254331 2.3509886e-38
0.011913339 -0.076056451 0.037315745 2.3509886e-38
0.013641221 -0.075420126 0.040254373 2.3509886e-38
0.015443813 -0.075420126 0.040254373 2.3509886e-38
0.017153561 -0.074764907 0.043280263 2.3509886e-38
0.01885327 -0.074113518 0.046288509 2.3509886e-38
0.020543035 -0.073465943 0.049279112 2.3509886e-38
0.02222294 -0.072822154 0.052252192 2.3509886e-38
0.024004497 -0.072822154 0.052252192 2.350988e-38
0.025786053 -0.072822154 0.052252192 2.3417679e-38
0.027937282 -0.074764907 0.043280263 1.604238e-38
0.030122291 -0.076719359 0.034254331 1.5028579e-38
0.031935405 -0.076719359 0.034254331 1.65959e-38
0.033748519 -0.076719359 0.034254331 1.7148354e-38
0.035272326 -0.075420126 0.040254373 1.8715323e-38
0.036923714 -0.074764907 0.043280263 1.908411e-38
0.038410723 -0.073465943 0.049279112 2.0835474e-38
0.040197492 -0.073465943 0.049279112 2.166488e-38
0.041820057 -0.072822154 0.052252192 2.3509879e-38
0.043601613 -0.072822154 0.052252192 2.3048191e-38
0.045203581 -0.072160095 0.055309672 8.2940894e-40
0.046979778 -0.072160095 0.055309672 5.5246052e-40
0.04875597 -0.072160095 0.055309672 1.0137988e-39
0.050532166 -0.072160095 0.055309672 7.3685178e-40
-0.062138207 -0.10624625 -0.092704162 6.0852633e-39
-0.055745199 -0.10451011 -0.084750876 2.3509883e-38
-0.053584393 -0.10362239 -0.08068417 2.3509886e-38
-0.051569756 -0.10362239 -0.08068417 2.2864519e-38
-0.049555115 -0.10362239 -0.08068417 2.3509886e-38
-0.047427412 -0.10276926 -0.076775894 2.3325497e-38
-0.045419626 -0.10276926 -0.076775894 2.3509886e-38
-0.043309875 -0.10189377 -0.072765216 2.3509886e-38
-0.041142322 -0.10035546 -0.065718159 2.3509886e-38
-0.039153922 -0.10035546 -0.065718159 2.3509886e-38
-0.037004907 -0.098616585 -0.057752233 2.3509886e-38
-0.035030477 -0.098616585 -0.057752233 2.3509886e-38
-0.03300599 -0.097960562 -0.054746967 2.3509886e-38
-0.03097748 -0.097091287 -0.05076478 2.3509886e-38
-0.028961688 -0.096201301 -0.046687704 2.3509886e-38
-0.026973076 -0.095558092 -0.043741088 2.3509886e-38
-0.024984382 -0.094679192 -0.039714795 2.3509886e-38
-0.023017665 -0.094017595 -0.036684018 2.3509886e-38
-0.021055778 -0.093149811 -0.032708626 2.3509886e-38
-0.019107958 -0.092288271 -0.028761845 2.3509886e-38
-0.017165674 -0.090737507 -0.021657687 2.3509886e-38
-0.015251959 -0.090097278 -0.018724781 2.3509886e-38
-0.01335207 -0.088574663 -0.011749607 2.3509886e-38
-0.011466175 -0.087920904 -0.0087547116 2.3509886e-38
-0.0096086636 -0.086376548 -0.0016798787 2.3509886e-38
-0.0077505857 -0.085734919 0.0012594648 2.3509886e-38
-0.0059115244 -0.084852293 0.0053028055 2.3509886e-38
-0.0040767007 -0.08419472 0.0083152242 2.3509886e-38
-0.0022522453 -0.083540857 0.011310596 2.3509886e-38
-0.00043807179 -0.082890689 0.01428904 2.3509886e-38
0.0014100466 -0.082890689 0.01428904 2.3509886e-38
0.0031416733 -0.081364051 0.021282692 2.3509886e-38
0.0049217362 -0.080702513 0.02431323 2.3509886e-38
0.0066915248 -0.080044776 0.027326364 2.3509886e-38
0.0084511265 -0.079390839 0.030322094 2.3509886e-38
0.010178057 -0.078532472 0.034254331 2.3509886e-38
0.011913339 -0.077864185 0.037315745 2.3509886e-38
0.013641221 -0.07722272 0.040254373 2.3509886e-38
0.015443813 -0.07722272 0.040254373 2.341769e-38
0.017153561 -0.076562196 0.043280263 2.341769e-38
0.01885327 -0.075905532 0.046288509 2.3509886e-38
0.020543035 -0.075252712 0.049279112 2.3509886e-38
0.02222294 -0.074603721 0.052252192 2.3509886e-38
0.024004497 -0.074603721 0.052252192 2.350988e-38
0.025786053 -0.074603721 0.052252192 2.3417679e-38
0.027937282 -0.076562196 0.043280263 1.5857989e-38
0.030122291 -0.078532472 0.034254331 1.5489557e-38
0.031935405 -0.078532472 0.034254331 1.6872487e-38
0.033748519 -0.078532472 0.034254331 1.7056158e-38
0.035272326 -0.07722272 0.040254373 1.8254701e-38
0.036923714 -0.076562196 0.043280263 1.880752e-38
0.038565405 -0.075905532 0.046288509 2.0743275e-38
0.040197492 -0.075252712 0.049279112 2.1665236e-38
0.041820057 -0.074603721 0.052252192 2.3325127e-38
0.043601613 -0.074603721 0.052252192 2.2864519e-38
0.045383167 -0.074603721 0.052252192 4.3335603e-39
0.046979778 -0.073936298 0.055309672 5.6051939e-45
0.04875597 -0.073936298 0.055309672 5.6051939e-45
0.050532166 -0.073936298 0.055309672 2.8025969e-45
-0.062138207 -0.10828196 -0.092704162 6.7309942e-39
-0.060102493 -0.10828196 -0.092704162 4.057321e-39
-0.058066785 -0.10828196 -0.092704162 5.9927131e-39
-0.055745199 -0.10653187 -0.084750876 2.3325494e-38
-0.053584393 -0.10563703 -0.08068417 2.3509886e-38
-0.051569756 -0.10563703 -0.08068417 2.2587932e-38
-0.049555115 -0.10563703 -0.08068417 2.3509527e-38
-0.047427412 -0.10477705 -0.076775894 2.3509527e-38
-0.045419626 -0.10477705 -0.076775894 2.3509886e-38
-0.043231424 -0.1032155 -0.069679365 2.3509886e-38
-0.041142322 -0.10234386 -0.065718159 2.3509886e-38
-0.039064936 -0.10145043 -0.061657887 2.3509886e-38
-0.037004907 -0.100591 -0.057752233 2.3509886e-38
-0.035030477 -0.100591 -0.057752233 2.3509886e-38
-0.03300599 -0.09992972 -0.054746967 2.3509886e-38
-0.03097748 -0.099053472 -0.05076478 2.3509886e-38
-0.028922938 -0.097507954 -0.043741088 2.3509886e-38
-0.026927188 -0.09662199 -0.039714795 2.3509886e-38
-0.024955157 -0.095955089 -0.036684018 2.3509886e-38
-0.023017665 -0.095955089 -0.036684018 2.3509886e-38
-0.021055778 -0.095080331 -0.032708626 2.3509886e-38
-0.019094415 -0.093531981 -0.02567206 2.3509886e-38
-0.017165674 -0.09264864 -0.021657687 2.3509886e-38
-0.015251959 -0.092003286 -0.018724781 2.3509886e-38
-0.01335207 -0.090468436 -0.011749607 2.3509886e-38
-0.011466175 -0.089809433 -0.0087547116 2.3509886e-38
-0.0096086636 -0.088252664 -0.0016798787 2.3509886e-38
-0.0077505857 -0.087605879 0.0012594648 2.3509886e-38
-0.0059115244 -0.086716175 0.0053028055 2.3509886e-38
-0.0040767007 -0.086053312 0.0083152242 2.3509886e-38
-0.0022522453 -0.085394189 0.011310596 2.3509886e-38
-0.00043807179 -0.084738806 0.01428904 2.3509886e-38
0.0014100466 -0.084738806 0.01428904 2.3509886e-38
0.0031416733 -0.083199903 0.021282692 2.3509886e-38
0.0049217362 -0.082533047 0.02431323 2.3509886e-38
0.0066915248 -0.081870034 0.027326364 2.3509886e-38
0.0084511265 -0.081210837 0.030322094 2.3509886e-38
0.010178057 -0.080345586 0.034254331 2.3509886e-38
0.011913339 -0.079671934 0.037315745 2.3509886e-38
0.013641221 -0.079025313 0.040254373 2.3509886e-38
0.015443813 -0.079025313 0.040254373 2.3233299e-38
0.017153561 -0.078359485 0.043280263 2.3325494e-38
0.01885327 -0.077697545 0.046288509 2.3509886e-38
0.020645283 -0.077697545 0.046288509 2.3509886e-38
0.022329804 -0.07703948 0.049279112 2.3509886e-38
0.024116572 -0.07703948 0.049279112 2.350988e-38
0.02602132 -0.077697545 0.046288509 2.3509872e-38
0.02806196 -0.079025313 0.040254373 1.5673595e-38
0.030122291 -0.080345586 0.034254331 1.5950535e-38
0.031935405 -0.080345586 0.034254331 1.7149074e-38
0.033748519 -0.080345586 0.034254331 1.7056155e-38
0.035414018 -0.079671934 0.037315745 1.7978114e-38
0.03707492 -0.079025313 0.040254373 1.8530933e-38
0.038410723 -0.07703948 0.049279112 2.065108e-38
0.0400385 -0.076385275 0.052252192 2.1480845e-38
0.041820057 -0.076385275 0.052252192 2.2956345e-38
0.043601613 -0.076385275 0.052252192 2.3509886e-38
0.045203581 -0.075712487 0.055309672 1.3645319e-38
0.046795942 -0.075043753 0.058348794 3.0428215e-39
0.048566807 -0.075043753 0.058348794 4.1491691e-39
0.050337676 -0.075043753 0.058348794 4.3335575e-39
-0.062138207 -0.11031766 -0.092704162 6.3622145e-39
-0.060102493 -0.11031766 -0.092704162 4.8870844e-39
-0.058066785 -0.11031766 -0.092704162 8.4827168e-39
-0.055745199 -0.10855366 -0.084750876 2.3326213e-38
-0.053723432 -0.10855366 -0.084750876 2.3509886e-38
-0.051701665 -0.10855366 -0.084750876 2.2864163e-38
-0.049555115 -0.10765167 -0.08068417 2.3509168e-38
-0.047427412 -0.10678484 -0.076775894 2.3509527e-38
-0.045419626 -0.10678484 -0.076775894 2.3509886e-38
-0.043231424 -0.10521083 -0.069679365 2.3509886e-38
-0.041142322 -0.10433225 -0.065718159 2.3509886e-38
-0.039064936 -0.10343169 -0.061657887 2.3509886e-38
-0.037004907 -0.10256544 -0.057752233 2.3509886e-38
-0.035030477 -0.10256544 -0.057752233 2.3509886e-38
-0.032939658 -0.10101564 -0.05076478 2.3509886e-38
-0.030916717 -0.10011137 -0.046687704 2.3509886e-38
-0.028869994 -0.098564804 -0.039714795 2.3509886e-38
-0.026927188 -0.098564804 -0.039714795 2.3509886e-38
-0.024955157 -0.097892582 -0.036684018 2.3509886e-38
-0.0229863 -0.097010851 -0.032708626 2.3509886e-38
-0.021031559 -0.096135467 -0.028761845 2.3509886e-38
-0.019094415 -0.095450163 -0.02567206 2.3509886e-38
-0.017165674 -0.094559789 -0.021657687 2.3509886e-38
-0.015251959 -0.093909279 -0.018724781 2.3509886e-38
-0.013354696 -0.091697961 -0.0087547116 2.3509886e-38
-0.011476709 -0.090809584 -0.0047493987 2.3509886e-38
-0.0096086636 -0.090128779 -0.0016798787 2.3509886e-38
-0.0077505857 -0.089476839 0.0012594648 2.3509886e-38
-0.0059115244 -0.088580042 0.0053028055 2.3509886e-38
-0.0040767007 -0.087911904 0.0083152242 2.3509886e-38
-0.0022522453 -0.087247536 0.011310596 2.3509886e-38
-0.00043807179 -0.086586922 0.01428904 2.3509886e-38
0.0014100466 -0.086586922 0.01428904 2.3509886e-38
0.0031416733 -0.085035756 0.021282692 2.3509886e-38
0.0049217362 -0.084363595 0.02431323 2.3509886e-38
0.0066915248 -0.083695292 0.027326364 2.3509886e-38
0.0084511265 -0.08303085 0.030322094 2.3509886e-38
0.010105595 -0.081479684 0.037315745 2.3509886e-38
0.011913339 -0.081479684 0.037315745 2.3509886e-38
0.013641221 -0.080827907 0.040254373 2.3509886e-38
0.015356274 -0.080156773 0.043280263 2.3325494e-38
0.01706126 -0.079489544 0.046288509 2.341769e-38
0.018756267 -0.078826249 0.049279112 2.3509886e-38
0.020543035 -0.078826249 0.049279112 2.3325494e-38
0.022329804 -0.078826249 0.049279112 2.3509886e-38
0.024116572 -0.078826249 0.049279112 2.350988e-38
0.02590334 -0.078826249 0.049279112 2.3417676e-38
0.028183039 -0.081479684 0.037315745 1.5489204e-38
0.030122291 -0.082158685 0.034254331 1.5950535e-38
0.032111216 -0.08303085 0.030322094 1.7425661e-38
0.033931222 -0.08303085 0.030322094 1.7424938e-38
0.035751227 -0.08303085 0.030322094 1.8162503e-38
0.037221763 -0.081479684 0.037315745 1.8438736e-38
0.038410723 -0.078826249 0.049279112 2.0374849e-38
0.0400385 -0.078166828 0.052252192 2.1112062e-38
0.041820057 -0.078166828 0.052252192 2.2587562e-38
0.043601613 -0.078166828 0.052252192 2.3049626e-38
0.045203581 -0.077488691 0.055309672 1.8532764e-38
0.046795942 -0.076814622 0.058348794 9.2210049e-39
0.048566807 -0.076814622 0.058348794 4.3346365e-39
0.050337676 -0.076814622 0.058348794 4.6112234e-39
0.052308362 -0.077488691 0.055309672 5.2565928e-39
-0.064689472 -0.11503632 -0.1047058 5.9941551e-39
-0.062138207 -0.11235337 -0.092704162 5.5331769e-39
-0.060102493 -0.11235337 -0.092704162 7.3770895e-39
-0.058066785 -0.11235337 -0.092704162 1.2355654e-38
-0.055745199 -0.11057542 -0.084750876 2.3234379e-38
-0.053723432 -0.11057542 -0.084750876 2.2957078e-38
-0.051701665 -0.11057542 -0.084750876 2.341805e-38
-0.049679898 -0.11057542 -0.084750876 2.341805e-38
-0.047427412 -0.10879262 -0.076775894 2.3509527e-38
-0.045419626 -0.10879262 -0.076775894 2.3509886e-38
-0.043231424 -0.10720618 -0.069679365 2.3509886e-38
-0.041142322 -0.10632066 -0.065718159 2.3509886e-38
-0.039064936 -0.10541297 -0.061657887 2.3509886e-38
-0.037004907 -0.10453986 -0.057752233 2.3509886e-38
-0.034975149 -0.10386805 -0.054746967 2.3509886e-38
-0.032939658 -0.10297783 -0.05076478 2.3509886e-38
-0.030916717 -0.1020664 -0.046687704 2.3509886e-38
-0.028869994 -0.1005076 -0.039714795 2.3509886e-38
-0.026927188 -0.1005076 -0.039714795 2.3509886e-38
-0.024955157 -0.099830076 -0.036684018 2.3509886e-38
-0.0229863 -0.098941371 -0.032708626 2.3509886e-38
-0.021031559 -0.098059073 -0.028761845 2.3509886e-38
-0.019094415 -0.097368345 -0.02567206 2.3509886e-38
-0.017157961 -0.095815286 -0.018724781 2.3509886e-38
-0.015249299 -0.095137119 -0.015691143 2.3509886e-38
-0.013354696 -0.093586475 -0.0087547116 2.3509886e-38
-0.011476709 -0.092691094 -0.0047493987 2.3509886e-38
-0.0096215494 -0.091347814 0.0012594648 2.3509886e-38
-0.0077505857 -0.091347814 0.0012594648 2.3509886e-38
-0.0059115244 -0.090443924 0.0053028055 2.3509886e-38
-0.0040767007 -0.089770496 0.0083152242 2.3509886e-38
-0.0022522453 -0.089100882 0.011310596 2.3509886e-38
-0.00043807179 -0.088435039 0.01428904 2.3509886e-38
0.0014100466 -0.088435039 0.01428904 2.3509886e-38
0.0031416733 -0.086871609 0.021282692 2.3509886e-38
0.0049217362 -0.086194143 0.02431323 2.3509886e-38
0.006631121 -0.084850863 0.030322094 2.3509886e-38
0.0083649457 -0.083971798 0.034254331 2.3509886e-38
0.010105595 -0.083287418 0.037315745 2.3509886e-38
0.01183863 -0.0826305 0.040254373 2.3509886e-38
0.013641221 -0.0826305 0.040254373 2.3509886e-38
0.015356274 -0.081954062 0.043280263 2.3509886e-38
0.01706126 -0.081281558 0.046288509 2.3509886e-38
0.018756267 -0.080613017 0.049279112 2.3509886e-38
0.020543035 -0.080613017 0.049279112 2.3233299e-38
0.02222294 -0.079948381 0.052252192 2.3417687e-38
0.024004497 -0.079948381 0.052252192 2.3509879e-38
0.025786053 -0.079948381 0.052252192 2.332548e-38
0.028309181 -0.083971798 0.034254331 1.5304812e-38
0.030122291 -0.083971798 0.034254331 1.5949456e-38
0.032245155 -0.085520551 0.027326364 1.7793723e-38
0.034070414 -0.085520551 0.027326364 1.779372e-38
0.035751227 -0.084850863 0.030322094 1.8439092e-38
0.037374742 -0.083971798 0.034254331 1.8346541e-38
0.038721003 -0.081954062 0.043280263 2.0098262e-38
0.040197492 -0.080613017 0.049279112 2.0835474e-38
0.04198426 -0.080613017 0.049279112 2.2311331e-38
0.043771029 -0.080613017 0.049279112 2.3049624e-38
0.045383167 -0.079948381 0.052252192 2.0191206e-38
0.046795942 -0.078585491 0.058348794 1.438396e-38
0.048566807 -0.078585491 0.058348794 1.1077895e-39
0.050532166 -0.079264879 0.055309672 1.85836e-40
0.052308362 -0.079264879 0.055309672 2.7673136e-39
-0.064689472 -0.1170931 -0.1047058 5.6275334e-39
-0.062138207 -0.11438908 -0.092704162 2.1240994e-39
-0.060102493 -0.11438908 -0.092704162 7.6558372e-39
-0.057916358 -0.11349006 -0.088713869 1.5861248e-38
-0.055887643 -0.11349006 -0.088713869 2.2867037e-38
-0.053723432 -0.11259718 -0.084750876 2.2683007e-38
-0.051701665 -0.11259718 -0.084750876 2.2958873e-38
-0.049679898 -0.11259718 -0.084750876 2.2406422e-38
-0.047427412 -0.1108004 -0.076775894 2.3142544e-38
-0.045419626 -0.1108004 -0.076775894 2.341805e-38
-0.043231424 -0.10920154 -0.069679365 2.3509886e-38
-0.041142322 -0.10830905 -0.065718159 2.3509886e-38
-0.039064936 -0.10739426 -0.061657887 2.3509886e-38
-0.036944307 -0.10583721 -0.054746967 2.3509886e-38
-0.034975149 -0.10583721 -0.054746967 2.3509886e-38
-0.032939658 -0.10494001 -0.05076478 2.3509886e-38
-0.030916717 -0.10402142 -0.046687704 2.3509886e-38
-0.028869994 -0.1024504 -0.039714795 2.3509886e-38
-0.026892647 -0.10176755 -0.036684018 2.3509886e-38
-0.02491682 -0.10087189 -0.032708626 2.3509886e-38
-0.022955161 -0.099982664 -0.028761845 2.3509886e-38
-0.021012597 -0.099286526 -0.02567206 2.3509886e-38
-0.019076819 -0.098382086 -0.021657687 2.3509886e-38
-0.017157961 -0.097721294 -0.018724781 2.3509886e-38
-0.015249299 -0.097037792 -0.015691143 2.3509886e-38
-0.013354696 -0.095475003 -0.0087547116 2.3509886e-38
-0.011476709 -0.094572589 -0.0047493987 2.3509886e-38
-0.0096215494 -0.093218774 0.0012594648 2.3509886e-38
-0.0077505857 -0.093218774 0.0012594648 2.3509886e-38
-0.0059115244 -0.092307791 0.0053028055 2.3509886e-38
-0.0040767007 -0.091629088 0.0083152242 2.3509886e-38
-0.0022522453 -0.090954214 0.011310596 2.3509886e-38
-0.00043807179 -0.090283155 0.01428904 2.3509886e-38
0.0014100466 -0.090283155 0.01428904 2.3509886e-38
0.0031416733 -0.088707477 0.021282692 2.3509886e-38
0.0048662648 -0.087345809 0.027326364 2.3509886e-38
0.006631121 -0.086670861 0.030322094 2.3509886e-38
0.0083649457 -0.085784912 0.034254331 2.3509886e-38
0.010036036 -0.084433094 0.040254373 2.3509886e-38
0.01183863 -0.084433094 0.040254373 2.3509886e-38
0.013558988 -0.083751351 0.043280263 2.3509886e-38
0.015269246 -0.083073571 0.046288509 2.3509886e-38
0.016969498 -0.082399786 0.049279112 2.3325497e-38
0.01865983 -0.081729934 0.052252192 2.3232583e-38
0.020441383 -0.081729934 0.052252192 2.3509883e-38
0.02222294 -0.081729934 0.052252192 2.350988e-38
0.024004497 -0.081729934 0.052252192 2.3509876e-38
0.025786053 -0.081729934 0.052252192 1.9821323e-38
0.028471202 -0.086670861 0.030322094 1.622569e-38
0.030291207 -0.086670861 0.030322094 1.6317519e-38
0.032379873 -0.088024676 0.02431323 1.7147998e-38
0.034070414 -0.087345809 0.027326364 1.7424584e-38
0.035751227 -0.086670861 0.030322094 1.8715323e-38
0.037374742 -0.085784912 0.034254331 1.8439817e-38
0.039029505 -0.085095167 0.037315745 2.0098982e-38
0.040357418 -0.083073571 0.046288509 2.0652162e-38
0.04198426 -0.082399786 0.049279112 2.1574482e-38
0.043771029 -0.082399786 0.049279112 2.3418043e-38
0.045557797 -0.082399786 0.049279112 2.2772321e-38
0.047164723 -0.081729934 0.052252192 1.7701924e-38
0.04875597 -0.081041083 0.055309672 5.5461852e-40
0.050532166 -0.081041083 0.055309672 3.657389e-43
0.052308362 -0.081041083 0.055309672 1.569132e-39
-0.062138207 -0.11642478 -0.092704162 3.3233643e-39
-0.060102493 -0.11642478 -0.092704162 1.1989753e-38
-0.057916358 -0.11551876 -0.088713869 1.8166142e-38
-0.055887643 -0.11551876 -0.088713869 2.2867037e-38
-0.053723432 -0.11461894 -0.084750876 2.2683007e-38
-0.051701665 -0.11461894 -0.084750876 2.2958873e-38
-0.049435198 -0.11280818 -0.076775894 2.2498973e-38
-0.047427412 -0.11280818 -0.076775894 2.3142544e-38
-0.045310631 -0.11189754 -0.072765216 2.341805e-38
-0.043130718 -0.11029746 -0.065718159 2.3509886e-38
-0.041046213 -0.10937552 -0.061657887 2.3509886e-38
-0.038979337 -0.10848872 -0.057752233 2.3509886e-38
-0.036944307 -0.10780637 -0.054746967 2.3509886e-38
-0.034975149 -0.10780637 -0.054746967 2.3509886e-38
-0.032939658 -0.1069022 -0.05076478 2.3509886e-38
-0.030916717 -0.10597645 -0.046687704 2.3509886e-38
-0.028869994 -0.1043932 -0.039714795 2.3509886e-38
-0.026892647 -0.10370506 -0.036684018 2.3509886e-38
-0.02491682 -0.10280241 -0.032708626 2.3509886e-38
-0.022955161 -0.10190627 -0.028761845 2.3509886e-38
-0.021012597 -0.10120471 -0.02567206 2.3509886e-38
-0.019076819 -0.10029322 -0.021657687 2.3509886e-38
-0.017149981 -0.09893848 -0.015691143 2.3509886e-38
-0.015249299 -0.09893848 -0.015691143 2.3509886e-38
-0.013354696 -0.097363517 -0.0087547116 2.3509886e-38
-0.011484781 -0.095757127 -0.0016798787 2.3509886e-38
-0.0096215494 -0.095089734 0.0012594648 2.3509886e-38
-0.0077505857 -0.095089734 0.0012594648 2.3509886e-38
-0.0059115244 -0.094171658 0.0053028055 2.3509886e-38
-0.0040767007 -0.09348768 0.0083152242 2.3509886e-38
-0.0022522453 -0.092807561 0.011310596 2.3509886e-38
-0.00043807179 -0.092131287 0.01428904 2.3509886e-38
0.0013058176 -0.09054333 0.021282692 2.3509886e-38
0.0031416733 -0.09054333 0.021282692 2.3509886e-38
0.0048662648 -0.089171067 0.027326364 2.3509886e-38
0.006631121 -0.088490874 0.030322094 2.3509886e-38
0.0083649457 -0.087598026 0.034254331 2.3509886e-38
0.010036036 -0.086235672 0.040254373 2.3509886e-38
0.01183863 -0.086235672 0.040254373 2.3509886e-38
0.013558988 -0.085548624 0.043280263 2.3509886e-38
0.015269246 -0.084865585 0.046288509 2.3509527e-38
0.016969498 -0.084186554 0.049279112 2.3417691e-38
0.01865983 -0.083511502 0.052252192 2.3509167e-38
0.020441383 -0.083511502 0.052252192 2.3509883e-38
0.02222294 -0.083511502 0.052252192 2.3509879e-38
0.024004497 -0.083511502 0.052252192 2.2494641e-38
0.025786053 -0.083511502 0.052252192 1.8990842e-38
0.028843656 -0.09054333 0.021282692 1.6501914e-38
0.030679509 -0.09054333 0.021282692 1.6594109e-38
0.032379873 -0.089855224 0.02431323 1.7331671e-38
0.034210414 -0.089855224 0.02431323 1.733239e-38
0.035895672 -0.089171067 0.027326364 1.8623129e-38
0.037571236 -0.088490874 0.030322094 1.8347265e-38
0.039187852 -0.087598026 0.034254331 1.9914591e-38
0.040518288 -0.085548624 0.043280263 2.01919e-38
0.042149432 -0.084865585 0.046288509 2.1113501e-38
0.043941442 -0.084865585 0.046288509 2.2495367e-38
0.045557797 -0.084186554 0.049279112 2.3233296e-38
0.047344565 -0.084186554 0.049279112 1.8992663e-38
0.049131338 -0.084186554 0.049279112 1.8048724e-42
0.050918106 -0.084186554 0.049279112 3.657389e-43
0.052704874 -0.084186554 0.049279112 4.6278442e-40
-0.062138207 -0.11846052 -0.092704162 4.4282741e-39
-0.060102493 -0.11846052 -0.092704162 1.7981032e-38
-0.058066785 -0.11846052 -0.092704162 2.1300074e-38
-0.055887643 -0.1175475 -0.088713869 2.2958873e-38
-0.053858928 -0.1175475 -0.088713869 2.286632e-38
-0.051701665 -0.11664073 -0.084750876 2.3142544e-38
-0.049435198 -0.11481597 -0.076775894 2.2958154e-38
-0.047311384 -0.11389829 -0.072765216 2.3234379e-38
-0.045310631 -0.11389829 -0.072765216 2.3509886e-38
-0.04302749 -0.11135681 -0.061657887 2.3509886e-38
-0.041046213 -0.11135681 -0.061657887 2.3509886e-38
-0.038979337 -0.11046316 -0.057752233 2.3509886e-38
-0.036944307 -0.10977553 -0.054746967 2.3509886e-38
-0.034901835 -0.10886435 -0.05076478 2.3509886e-38
-0.032939658 -0.10886435 -0.05076478 2.3509886e-38
-0.030916717 -0.10793148 -0.046687704 2.3509886e-38
-0.028869994 -0.10633601 -0.039714795 2.3509886e-38
-0.026892647 -0.10564254 -0.036684018 2.3509886e-38
-0.024878759 -0.10382988 -0.028761845 2.3509886e-38
-0.022955161 -0.10382988 -0.028761845 2.3509886e-38
-0.021012597 -0.1031229 -0.02567206 2.3509886e-38
-0.019076819 -0.10220437 -0.021657687 2.3509886e-38
-0.017149981 -0.10083917 -0.015691143 2.3509886e-38
-0.015245844 -0.099937305 -0.011749607 2.3509886e-38
-0.013354696 -0.099252045 -0.0087547116 2.3509886e-38
-0.011484781 -0.097633243 -0.0016798787 2.3509886e-38
-0.0096215494 -0.096960694 0.0012594648 2.3509886e-38
-0.007775398 -0.09603554 0.0053028055 2.3509886e-38
-0.0059115244 -0.09603554 0.0053028055 2.3509886e-38
-0.0040767007 -0.095346272 0.0083152242 2.3509886e-38
-0.0022522453 -0.094660893 0.011310596 2.3509886e-38
-0.00043807179 -0.093979403 0.01428904 2.3509886e-38
0.0013058176 -0.092379183 0.021282692 2.3509886e-38
0.0030911956 -0.091685757 0.02431323 2.3509886e-38
0.0048662648 -0.090996325 0.027326364 2.3509886e-38
0.006631121 -0.090310872 0.030322094 2.3509886e-38
0.0083649457 -0.089411139 0.034254331 2.3509886e-38
0.010036036 -0.088038266 0.040254373 2.3509886e-38
0.01183863 -0.088038266 0.040254373 2.3509886e-38
0.013558988 -0.087345913 0.043280263 2.3509886e-38
0.015269246 -0.086657599 0.046288509 2.3509527e-38
0.016969498 -0.085973322 0.049279112 2.3509886e-38
0.01865983 -0.085293055 0.052252192 2.3509527e-38
0.020441383 -0.085293055 0.052252192 2.350988e-38
0.02222294 -0.085293055 0.052252192 2.34166e-38
0.024004497 -0.085293055 0.052252192 2.0190106e-38
0.027123746 -0.093051672 0.018343586 1.7700104e-38
0.028964754 -0.093051672 0.018343586 1.6870696e-38
0.030805767 -0.093051672 0.018343586 1.7055087e-38
0.032379873 -0.091685757 0.02431323 1.7608258e-38
0.034210414 -0.091685757 0.02431323 1.7424586e-38
0.035895672 -0.090996325 0.027326364 1.880752e-38
0.037571236 -0.090310872 0.030322094 1.8439461e-38
0.039187852 -0.089411139 0.034254331 1.9914591e-38
0.040680103 -0.088038266 0.040254373 2.0007508e-38
0.042315576 -0.087345913 0.043280263 2.0836914e-38
0.043941442 -0.086657599 0.046288509 2.1849997e-38
0.045557797 -0.085973322 0.049279112 2.3509883e-38
0.047344565 -0.085973322 0.049279112 2.0375597e-38
0.04894628 -0.085293055 0.052252192 9.2376117e-40
0.050727833 -0.085293055 0.052252192 3.657389e-43
0.052509394 -0.085293055 0.052252192 9.2376257e-40
-0.064346522 -0.1214226 -0.096722111 4.8878103e-39
-0.062138207 -0.12049623 -0.092704162 4.3346393e-39
-0.060102493 -0.12049623 -0.092704162 2.2128396e-38
-0.058066785 -0.12049623 -0.092704162 2.3234379e-38
-0.055887643 -0.1195762 -0.088713869 2.3142544e-38
-0.053858928 -0.1195762 -0.088713869 2.3233662e-38
-0.051701665 -0.11866249 -0.084750876 2.341805e-38
-0.049435198 -0.11682375 -0.076775894 2.3417691e-38
-0.047311384 -0.11589904 -0.072765216 2.3417691e-38
-0.045310631 -0.11589904 -0.072765216 2.3509886e-38
-0.042928196 -0.11243759 -0.057752233 2.3509886e-38
-0.040953767 -0.11243759 -0.057752233 2.3509886e-38
-0.038979337 -0.11243759 -0.057752233 2.3509886e-38
-0.036944307 -0.11174469 -0.054746967 2.3509886e-38
-0.034901835 -0.11082654 -0.05076478 2.3509886e-38
-0.032871746 -0.10988651 -0.046687704 2.3509886e-38
-0.030916717 -0.10988651 -0.046687704 2.3509886e-38
-0.028869994 -0.10827883 -0.039714795 2.3509886e-38
-0.026892647 -0.10758002 -0.036684018 2.3509886e-38
-0.024878759 -0.10575347 -0.028761845 2.3509886e-38
-0.022930782 -0.10504107 -0.02567206 2.3509886e-38
-0.020987963 -0.1041155 -0.021657687 2.3509886e-38
-0.019063963 -0.10343929 -0.018724781 2.3509886e-38
-0.017149981 -0.10273984 -0.015691143 2.3509886e-38
-0.015245844 -0.10183108 -0.011749607 2.3509886e-38
-0.013358207 -0.10021709 -0.0047493987 2.3509886e-38
-0.011484781 -0.099509358 -0.0016798787 2.3509886e-38
-0.0096215494 -0.098831654 0.0012594648 2.3509886e-38
-0.007775398 -0.097899407 0.0053028055 2.3509886e-38
-0.0059115244 -0.097899407 0.0053028055 2.3509886e-38
-0.0040767007 -0.097204864 0.0083152242 2.3509886e-38
-0.0022522453 -0.09651424 0.011310596 2.3509886e-38
-0.00043807179 -0.09582752 0.01428904 2.3509886e-38
0.0013058176 -0.094215035 0.021282692 2.3509886e-38
0.0030911956 -0.093516305 0.02431323 2.3509886e-38
0.0048662648 -0.092821583 0.027326364 2.3509886e-38
0.006631121 -0.092130885 0.030322094 2.3509886e-38
0.0083649457 -0.091224253 0.034254331 2.3509886e-38
0.010036036 -0.089840859 0.040254373 2.3509886e-38
0.011761701 -0.089143202 0.043280263 2.3509886e-38
0.013477234 -0.088449612 0.046288509 2.3509886e-38
0.015182728 -0.087760091 0.049279112 2.3509527e-38
0.016969498 -0.087760091 0.049279112 2.3509886e-38
0.01865983 -0.087074608 0.052252192 2.3509527e-38
0.020336848 -0.086369663 0.055309672 2.350988e-38
0.022113044 -0.086369663 0.055309672 2.3324404e-38
0.02388924 -0.086369663 0.055309672 1.8438389e-38
0.027123746 -0.094892681 0.018343586 1.6778147e-38
0.028964754 -0.094892681 0.018343586 1.7239479e-38
0.030979935 -0.09582752 0.01428904 1.7608258e-38
0.032515366 -0.094215035 0.021282692 1.7977041e-38
0.034351222 -0.094215035 0.021282692 1.7701173e-38
0.036040954 -0.093516305 0.02431323 1.9084107e-38
0.037720934 -0.092821583 0.027326364 1.8808243e-38
0.039187852 -0.091224253 0.034254331 2.0098982e-38
0.040837251 -0.0905184 0.037315745 2.01919e-38
0.042482696 -0.089840859 0.040254373 2.1021304e-38
0.044112861 -0.089143202 0.043280263 2.1850353e-38
0.045733456 -0.088449612 0.046288509 2.3325847e-38
0.047344565 -0.087760091 0.049279112 2.1482301e-38
0.04894628 -0.087074608 0.052252192 4.7041379e-39
0.050727833 -0.087074608 0.052252192 1.0860063e-42
0.052509394 -0.087074608 0.052252192 2.307776e-39
-0.064346522 -0.12346537 -0.096722111 4.7023401e-39
-0.062138207 -0.12253194 -0.092704162 3.8725822e-39
-0.060102493 -0.12253194 -0.092704162 2.341805e-38
-0.057916358 -0.12160493 -0.088713869 2.341805e-38
-0.055887643 -0.12160493 -0.088713869 2.2957078e-38
-0.053858928 -0.12160493 -0.088713869 2.3417691e-38
-0.051701665 -0.12068425 -0.084750876 2.3509886e-38
-0.049435198 -0.11883153 -0.076775894 2.3509527e-38
-0.047311384 -0.11789979 -0.072765216 2.3416974e-38
-0.045226768 -0.1171829 -0.069679365 2.3509886e-38
-0.042928196 -0.11441202 -0.057752233 2.3509886e-38
-0.040882632 -0.11371385 -0.054746967 2.3509886e-38
-0.038913473 -0.11371385 -0.054746967 2.3509886e-38
-0.036864016 -0.11278872 -0.05076478 2.3509886e-38
-0.034901835 -0.11278872 -0.05076478 2.3509886e-38
-0.032871746 -0.11184154 -0.046687704 2.3509886e-38
-0.030916717 -0.11184154 -0.046687704 2.3509886e-38
-0.028830137 -0.10951753 -0.036684018 2.3509886e-38
-0.02684734 -0.10859399 -0.032708626 2.3509886e-38
