# .PCD v0.7 - Point Cloud Data file format
VERSION 0.7
FIELDS x y z rgb
SIZE 4 4 4 4
TYPE F F F F
COUNT 1 1 1 1
WIDTH 936
HEIGHT 1
VIEWPOINT 0 0 0 1 0 0 0
POINTS 936
DATA ascii
-0.031640258 -0.1143602 -0.0089071058 2.3509886e-38
-0.029751737 -0.1143602 -0.0089071058 2.3509886e-38
-0.027719252 -0.11338757 -0.0049017929 2.3509886e-38
-0.025837753 -0.11338757 -0.0049017929 2.3509886e-38
-0.023956254 -0.11338757 -0.0049017929 2.3509886e-38
-0.022074755 -0.11338757 -0.0049017929 2.3509886e-38
-0.020193256 -0.11338757 -0.0049017929 2.3509886e-38
-0.018311758 -0.11338757 -0.0049017929 2.3509886e-38
-0.016430259 -0.11338757 -0.0049017929 2.3509886e-38
-0.01454876 -0.11338757 -0.0049017929 2.3509886e-38
-0.012667261 -0.11338757 -0.0049017929 2.3509886e-38
-0.010785762 -0.11338757 -0.0049017929 2.3509886e-38
-0.0089042634 -0.11338757 -0.0049017929 2.3509886e-38
-0.0070227645 -0.11338757 -0.0049017929 2.3509886e-38
-0.0051412694 -0.11338757 -0.0049017929 2.3509886e-38
-0.0032194033 -0.11264218 -0.0018322729 2.3509886e-38
-0.0013432875 -0.11264218 -0.0018322729 2.3509886e-38
0.00053283013 -0.11264218 -0.0018322729 2.3509886e-38
0.0024321377 -0.11192839 0.0011070706 2.3509886e-38
0.0043031015 -0.11192839 0.0011070706 2.3509886e-38
0.0061740652 -0.11192839 0.0011070706 2.3509886e-38
0.008045027 -0.11192839 0.0011070706 2.3509886e-38
0.0099195354 -0.11094652 0.0051504113 2.3509886e-38
0.01178341 -0.11094652 0.0051504113 2.3509886e-38
0.013647284 -0.11094652 0.0051504113 2.3509886e-38
0.015511157 -0.11094652 0.0051504113 2.3509886e-38
0.017356545 -0.11021499 0.00816283 2.3509886e-38
0.019215137 -0.11021499 0.00816283 2.3509886e-38
0.021073729 -0.11021499 0.00816283 2.3509886e-38
0.022898184 -0.10948761 0.011158202 2.3509886e-38
0.024751525 -0.10948761 0.011158202 2.3509886e-38
0.026604865 -0.10948761 0.011158202 2.3509886e-38
0.028408594 -0.10876434 0.014136646 2.3509886e-38
0.030256711 -0.10876434 0.014136646 2.3509886e-38
0.032104827 -0.10876434 0.014136646 2.3509886e-38
0.033952948 -0.10876434 0.014136646 2.3509886e-38
0.035705097 -0.10777976 0.018191192 2.3509886e-38
0.037546106 -0.10777976 0.018191192 2.3509886e-38
0.039387114 -0.10777976 0.018191192 2.3509886e-38
0.041228123 -0.10777976 0.018191192 2.3509886e-38
0.04297895 -0.10706602 0.021130297 2.3509886e-38
0.044814806 -0.10706602 0.021130297 2.3509886e-38
0.046650659 -0.10706602 0.021130297 2.3509886e-38
0.048486516 -0.10706602 0.021130297 2.3509886e-38
0.050208133 -0.10633011 0.024160836 2.3509886e-38
0.052038673 -0.10633011 0.024160836 2.3509886e-38
0.053869218 -0.10633011 0.024160836 2.3509886e-38
0.055570323 -0.10559841 0.02717397 2.3509886e-38
0.057395585 -0.10559841 0.02717397 2.3325494e-38
0.059360843 -0.10633011 0.024160836 2.3141103e-38
0.061191384 -0.10633011 0.024160836 5.5317378e-40
0.063021928 -0.10633011 0.024160836 0
0.064852469 -0.10633011 0.024160836 2.3970864e-39
-0.071195647 -0.12210761 -0.03286102 9.9578413e-39
-0.068977952 -0.12114228 -0.028914239 1.4106284e-38
-0.067054346 -0.12114228 -0.028914239 2.3509883e-38
-0.06513074 -0.12114228 -0.028914239 2.3509883e-38
-0.06320715 -0.12114228 -0.028914239 2.3509883e-38
-0.0610804 -0.12038656 -0.025824454 2.3509886e-38
-0.058905307 -0.11940466 -0.021810081 2.3509886e-38
-0.056994159 -0.11940466 -0.021810081 2.3509886e-38
-0.054905612 -0.11868732 -0.018877175 2.3509886e-38
-0.052999604 -0.11868732 -0.018877175 2.3509886e-38
-0.051093597 -0.11868732 -0.018877175 2.3509886e-38
-0.049020056 -0.11794533 -0.015843537 2.3509886e-38
-0.047119368 -0.11794533 -0.015843537 2.3509886e-38
-0.04521868 -0.11794533 -0.015843537 2.3509886e-38
-0.043318 -0.11794533 -0.015843537 2.3509886e-38
-0.041417319 -0.11794533 -0.015843537 2.3509886e-38
-0.039333496 -0.11698125 -0.011902001 2.3509886e-38
-0.037439723 -0.11698125 -0.011902001 2.3509886e-38
-0.035545949 -0.11698125 -0.011902001 2.3509886e-38
-0.033528779 -0.11624874 -0.0089071058 2.3509886e-38
-0.031640258 -0.11624874 -0.0089071058 2.3509886e-38
-0.029751737 -0.11624874 -0.0089071058 2.3509886e-38
-0.027719252 -0.11526908 -0.0049017929 2.3509886e-38
-0.025837753 -0.11526908 -0.0049017929 2.3509886e-38
-0.023956254 -0.11526908 -0.0049017929 2.3509886e-38
-0.022074755 -0.11526908 -0.0049017929 2.3509886e-38
-0.020193256 -0.11526908 -0.0049017929 2.3509886e-38
-0.018311758 -0.11526908 -0.0049017929 2.3509886e-38
-0.016430259 -0.11526908 -0.0049017929 2.3509886e-38
-0.01454876 -0.11526908 -0.0049017929 2.3509886e-38
-0.012667261 -0.11526908 -0.0049017929 2.3509886e-38
-0.010785762 -0.11526908 -0.0049017929 2.3509886e-38
-0.0089042634 -0.11526908 -0.0049017929 2.3509886e-38
-0.0070227645 -0.11526908 -0.0049017929 2.3509886e-38
-0.0051412694 -0.11526908 -0.0049017929 2.3509886e-38
-0.0032597668 -0.11526908 -0.0049017929 2.3509886e-38
-0.001378268 -0.11526908 -0.0049017929 2.3509886e-38
0.00053283013 -0.1145183 -0.0018322729 2.3509886e-38
0.0024089478 -0.1145183 -0.0018322729 2.3509886e-38
0.0043031015 -0.11379938 0.0011070706 2.3509886e-38
0.0061740652 -0.11379938 0.0011070706 2.3509886e-38
0.0080556609 -0.11281042 0.0051504113 2.3509886e-38
0.0099195354 -0.11281042 0.0051504113 2.3509886e-38
0.01178341 -0.11281042 0.0051504113 2.3509886e-38
0.013647284 -0.11281042 0.0051504113 2.3509886e-38
0.015511157 -0.11281042 0.0051504113 2.3509886e-38
0.017356545 -0.11207359 0.00816283 2.3509886e-38
0.019215137 -0.11207359 0.00816283 2.3509886e-38
0.021073729 -0.11207359 0.00816283 2.3509886e-38
0.022898184 -0.11134095 0.011158202 2.3509886e-38
0.024751525 -0.11134095 0.011158202 2.3509886e-38
0.026560476 -0.11061247 0.014136646 2.3509886e-38
0.028408594 -0.11061247 0.014136646 2.3509886e-38
0.030256711 -0.11061247 0.014136646 2.3509886e-38
0.032104827 -0.11061247 0.014136646 2.3509886e-38
0.033952948 -0.11061247 0.014136646 2.3509886e-38
0.035705097 -0.10962076 0.018191192 2.3509886e-38
0.037546106 -0.10962076 0.018191192 2.3509886e-38
0.039387114 -0.10962076 0.018191192 2.3509886e-38
0.041228123 -0.10962076 0.018191192 2.3509886e-38
0.04297895 -0.10890187 0.021130297 2.341805e-38
0.044814806 -0.10890187 0.021130297 2.3509886e-38
0.046650659 -0.10890187 0.021130297 2.3509886e-38
0.048377588 -0.10816063 0.024160836 2.3509886e-38
0.050208133 -0.10816063 0.024160836 2.3509886e-38
0.052038673 -0.10816063 0.024160836 2.3509886e-38
0.053745065 -0.10742365 0.02717397 2.3509886e-38
0.055570323 -0.10742365 0.02717397 2.341769e-38
0.057395585 -0.10742365 0.02717397 2.3509883e-38
0.059360843 -0.10816063 0.024160836 2.2864513e-38
0.061337508 -0.10890187 0.021130297 5.5317098e-40
0.063173369 -0.10890187 0.021130297 0
-0.073126167 -0.12403814 -0.03286102 1.3552746e-38
-0.071195647 -0.12403814 -0.03286102 1.2907737e-38
-0.068753123 -0.12230472 -0.025824454 1.7424607e-38
-0.066834942 -0.12230472 -0.025824454 2.2772674e-38
-0.06491676 -0.12230472 -0.025824454 2.350988e-38
-0.062998578 -0.12230472 -0.025824454 2.3509883e-38
-0.060816456 -0.12131582 -0.021810081 2.3509886e-38
-0.058905307 -0.12131582 -0.021810081 2.3509886e-38
-0.056994159 -0.12131582 -0.021810081 2.3509886e-38
-0.054905612 -0.12059332 -0.018877175 2.3509886e-38
-0.052999604 -0.12059332 -0.018877175 2.3509886e-38
-0.051093597 -0.12059332 -0.018877175 2.3509886e-38
-0.049020056 -0.119846 -0.015843537 2.3509886e-38
-0.047119368 -0.119846 -0.015843537 2.3509886e-38
-0.04521868 -0.119846 -0.015843537 2.3509886e-38
-0.043318 -0.119846 -0.015843537 2.3509886e-38
-0.041417319 -0.119846 -0.015843537 2.3509886e-38
-0.039516632 -0.119846 -0.015843537 2.3509886e-38
-0.037439723 -0.11887501 -0.011902001 2.3509886e-38
-0.035545949 -0.11887501 -0.011902001 2.3509886e-38
-0.033652175 -0.11887501 -0.011902001 2.3509886e-38
-0.031640258 -0.11813726 -0.0089071058 2.3509886e-38
-0.029751737 -0.11813726 -0.0089071058 2.3509886e-38
-0.027863216 -0.11813726 -0.0089071058 2.3509886e-38
-0.025974695 -0.11813726 -0.0089071058 2.3509886e-38
-0.023956254 -0.11715056 -0.0049017929 2.3509886e-38
-0.022074755 -0.11715056 -0.0049017929 2.3509886e-38
-0.020193256 -0.11715056 -0.0049017929 2.3509886e-38
-0.018311758 -0.11715056 -0.0049017929 2.3509886e-38
-0.016430259 -0.11715056 -0.0049017929 2.3509886e-38
-0.01454876 -0.11715056 -0.0049017929 2.3509886e-38
-0.012667261 -0.11715056 -0.0049017929 2.3509886e-38
-0.010785762 -0.11715056 -0.0049017929 2.3509886e-38
-0.0089042634 -0.11715056 -0.0049017929 2.3509886e-38
-0.0070227645 -0.11715056 -0.0049017929 2.3509886e-38
-0.0051412694 -0.11715056 -0.0049017929 2.3509886e-38
-0.0032597668 -0.11715056 -0.0049017929 2.3509886e-38
-0.0013432875 -0.11639442 -0.0018322729 2.3509886e-38
0.00053283013 -0.11639442 -0.0018322729 2.3509886e-38
0.0024321377 -0.11567034 0.0011070706 2.3509886e-38
0.0043031015 -0.11567034 0.0011070706 2.3509886e-38
0.0061917882 -0.11467429 0.0051504113 2.3509886e-38
0.0080556609 -0.11467429 0.0051504113 2.3509886e-38
0.0099195354 -0.11467429 0.0051504113 2.3509886e-38
0.01178341 -0.11467429 0.0051504113 2.3509886e-38
0.013647284 -0.11467429 0.0051504113 2.3509886e-38
0.015511157 -0.11467429 0.0051504113 2.3509886e-38
0.017356545 -0.11393218 0.00816283 2.3509886e-38
0.019215137 -0.11393218 0.00816283 2.3509886e-38
0.021044843 -0.1131943 0.011158202 2.3509886e-38
0.022898184 -0.1131943 0.011158202 2.3509886e-38
0.024751525 -0.1131943 0.011158202 2.3509886e-38
0.026560476 -0.11246057 0.014136646 2.3509886e-38
0.028408594 -0.11246057 0.014136646 2.3509886e-38
0.030256711 -0.11246057 0.014136646 2.3509886e-38
0.032104827 -0.11246057 0.014136646 2.3509886e-38
0.033952948 -0.11246057 0.014136646 2.3509886e-38
0.035705097 -0.11146177 0.018191192 2.3509886e-38
0.037546106 -0.11146177 0.018191192 2.3509886e-38
0.039387114 -0.11146177 0.018191192 2.3509886e-38
0.041228123 -0.11146177 0.018191192 2.341805e-38
0.04297895 -0.11073773 0.021130297 2.3234379e-38
0.044814806 -0.11073773 0.021130297 2.341805e-38
0.046547048 -0.10999118 0.024160836 2.341805e-38
0.048377588 -0.10999118 0.024160836 2.341805e-38
0.050208133 -0.10999118 0.024160836 2.341805e-38
0.051919807 -0.10924892 0.02717397 2.3509883e-38
0.053745065 -0.10924892 0.02717397 2.3509883e-38
0.055570323 -0.10924892 0.02717397 2.31411e-38
0.057395585 -0.10924892 0.02717397 2.350988e-38
0.059360843 -0.10999118 0.024160836 2.2587564e-38
0.061337508 -0.11073773 0.021130297 1.8402972e-40
0.063173369 -0.11073773 0.021130297 1.8402972e-40
0.065161243 -0.11146177 0.018191192 2.3967206e-39
0.067002252 -0.11146177 0.018191192 5.3462591e-39
-0.073126167 -0.12596865 -0.03286102 1.1800304e-38
-0.071195647 -0.12596865 -0.03286102 1.299957e-38
-0.068461031 -0.12322696 -0.021810081 2.065181e-38
-0.066549882 -0.12322696 -0.021810081 2.3509879e-38
-0.06491676 -0.12422292 -0.025824454 2.3509879e-38
-0.062998578 -0.12422292 -0.025824454 2.350988e-38
-0.060816456 -0.12322696 -0.021810081 2.3509883e-38
-0.058905307 -0.12322696 -0.021810081 2.3509886e-38
-0.056811605 -0.1224993 -0.018877175 2.3509886e-38
-0.054905612 -0.1224993 -0.018877175 2.3509886e-38
-0.052821416 -0.12174667 -0.015843537 2.3509886e-38
-0.050920729 -0.12174667 -0.015843537 2.3509886e-38
-0.049020056 -0.12174667 -0.015843537 2.3509886e-38
-0.046908591 -0.1207688 -0.011902001 2.3509886e-38
-0.045014817 -0.1207688 -0.011902001 2.3509886e-38
-0.043121044 -0.1207688 -0.011902001 2.3509886e-38
-0.041417319 -0.12174667 -0.015843537 2.3509886e-38
-0.039516632 -0.12174667 -0.015843537 2.3509886e-38
-0.037439723 -0.1207688 -0.011902001 2.3509886e-38
-0.035545949 -0.1207688 -0.011902001 2.3509886e-38
-0.033652175 -0.1207688 -0.011902001 2.3509886e-38
-0.031640258 -0.12002577 -0.0089071058 2.3509886e-38
-0.029751737 -0.12002577 -0.0089071058 2.3509886e-38
-0.027719252 -0.11903207 -0.0049017929 2.3509886e-38
-0.025837753 -0.11903207 -0.0049017929 2.3509886e-38
-0.023956254 -0.11903207 -0.0049017929 2.3509886e-38
-0.022074755 -0.11903207 -0.0049017929 2.3509886e-38
-0.020193256 -0.11903207 -0.0049017929 2.3509886e-38
-0.018311758 -0.11903207 -0.0049017929 2.3509886e-38
-0.016430259 -0.11903207 -0.0049017929 2.3509886e-38
-0.01454876 -0.11903207 -0.0049017929 2.3509886e-38
-0.012667261 -0.11903207 -0.0049017929 2.3509886e-38
-0.010785762 -0.11903207 -0.0049017929 2.3509886e-38
-0.0089042634 -0.11903207 -0.0049017929 2.3509886e-38
-0.0070227645 -0.11903207 -0.0049017929 2.3509886e-38
-0.0050955229 -0.11827053 -0.0018322729 2.3509886e-38
-0.0032194033 -0.11827053 -0.0018322729 2.3509886e-38
-0.0013432875 -0.11827053 -0.0018322729 2.3509886e-38
0.00053283013 -0.11827053 -0.0018322729 2.3509886e-38
0.0024321377 -0.1175413 0.0011070706 2.3509886e-38
0.0043031015 -0.1175413 0.0011070706 2.3509886e-38
0.0061917882 -0.11653815 0.0051504113 2.3509886e-38
0.0080556609 -0.11653815 0.0051504113 2.3509886e-38
0.0099195354 -0.11653815 0.0051504113 2.3509886e-38
0.01178341 -0.11653815 0.0051504113 2.3509886e-38
0.013647284 -0.11653815 0.0051504113 2.3509886e-38
0.015511157 -0.11653815 0.0051504113 2.3509886e-38
0.017356545 -0.11579077 0.00816283 2.3509886e-38
0.019215137 -0.11579077 0.00816283 2.3509886e-38
0.021044843 -0.11504765 0.011158202 2.3509886e-38
0.022898184 -0.11504765 0.011158202 2.3509886e-38
0.024712358 -0.1143087 0.014136646 2.3509886e-38
0.026560476 -0.1143087 0.014136646 2.3509886e-38
0.028408594 -0.1143087 0.014136646 2.3509886e-38
0.030256711 -0.1143087 0.014136646 2.3509886e-38
0.032023076 -0.11330278 0.018191192 2.3509886e-38
0.033864088 -0.11330278 0.018191192 2.3509886e-38
0.035705097 -0.11330278 0.018191192 2.3509886e-38
0.037546106 -0.11330278 0.018191192 2.3509886e-38
0.039387114 -0.11330278 0.018191192 2.341805e-38
0.041143093 -0.11257361 0.021130297 2.3234379e-38
0.04297895 -0.11257361 0.021130297 2.3234379e-38
0.044814806 -0.11257361 0.021130297 2.3234379e-38
0.046547048 -0.11182173 0.024160836 2.3234379e-38
0.048377588 -0.11182173 0.024160836 2.341805e-38
0.050094545 -0.11107419 0.02717397 2.3418047e-38
0.051919807 -0.11107419 0.02717397 2.3509883e-38
0.053745065 -0.11107419 0.02717397 2.350988e-38
0.055570323 -0.11107419 0.02717397 2.3141456e-38
0.057395585 -0.11107419 0.02717397 2.3509879e-38
0.059360843 -0.11182173 0.024160836 2.1849997e-38
0.061337508 -0.11257361 0.021130297 9.1835496e-41
0.063320234 -0.11330278 0.018191192 5.5208917e-40
0.065161243 -0.11330278 0.018191192 2.3959962e-39
0.067002252 -0.11330278 0.018191192 5.2540607e-39
-0.073126167 -0.12789918 -0.03286102 1.1799583e-38
-0.071195647 -0.12789918 -0.03286102 1.3367629e-38
-0.068461031 -0.12513812 -0.021810081 2.1941467e-38
-0.066549882 -0.12513812 -0.021810081 2.3141092e-38
-0.06491676 -0.12614109 -0.025824454 2.3509879e-38
-0.062998578 -0.12614109 -0.025824454 2.350988e-38
-0.060816456 -0.12513812 -0.021810081 2.3509883e-38
-0.058905307 -0.12513812 -0.021810081 2.3509886e-38
-0.056811605 -0.12440531 -0.018877175 2.3509886e-38
-0.054722104 -0.12364738 -0.015843537 2.3509886e-38
-0.052821416 -0.12364738 -0.015843537 2.341805e-38
-0.050920729 -0.12364738 -0.015843537 2.341805e-38
-0.049020056 -0.12364738 -0.015843537 2.3509886e-38
-0.046908591 -0.12266256 -0.011902001 2.3509886e-38
-0.045014817 -0.12266256 -0.011902001 2.3509886e-38
-0.043121044 -0.12266256 -0.011902001 2.3509886e-38
-0.04122727 -0.12266256 -0.011902001 2.3509886e-38
-0.039333496 -0.12266256 -0.011902001 2.3509886e-38
-0.037305821 -0.12191428 -0.0089071058 2.3509886e-38
-0.035417307 -0.12191428 -0.0089071058 2.3509886e-38
-0.033528779 -0.12191428 -0.0089071058 2.3509886e-38
-0.031640258 -0.12191428 -0.0089071058 2.3509886e-38
-0.029751737 -0.12191428 -0.0089071058 2.3509886e-38
-0.027719252 -0.12091358 -0.0049017929 2.3509886e-38
-0.025837753 -0.12091358 -0.0049017929 2.3509886e-38
-0.023956254 -0.12091358 -0.0049017929 2.3509886e-38
-0.022074755 -0.12091358 -0.0049017929 2.3509886e-38
-0.020193256 -0.12091358 -0.0049017929 2.3509886e-38
-0.018311758 -0.12091358 -0.0049017929 2.3509886e-38
-0.016430259 -0.12091358 -0.0049017929 2.3509886e-38
-0.01454876 -0.12091358 -0.0049017929 2.3509886e-38
-0.012667261 -0.12091358 -0.0049017929 2.3509886e-38
-0.010785762 -0.12091358 -0.0049017929 2.3509886e-38
-0.0089042634 -0.12091358 -0.0049017929 2.3509886e-38
-0.0069716386 -0.12014665 -0.0018322729 2.3509886e-38
-0.0050955229 -0.12014665 -0.0018322729 2.3509886e-38
-0.0032194033 -0.12014665 -0.0018322729 2.3509886e-38
-0.0013432875 -0.12014665 -0.0018322729 2.3509886e-38
0.00056117401 -0.11941226 0.0011070706 2.3509886e-38
0.0024321377 -0.11941226 0.0011070706 2.3509886e-38
0.0043279137 -0.11840202 0.0051504113 2.3509886e-38
0.0061917882 -0.11840202 0.0051504113 2.3509886e-38
0.0080556609 -0.11840202 0.0051504113 2.3509886e-38
0.0099195354 -0.11840202 0.0051504113 2.3509886e-38
0.011780769 -0.11764936 0.00816283 2.3509886e-38
0.013639361 -0.11764936 0.00816283 2.3509886e-38
0.015497953 -0.11764936 0.00816283 2.3509886e-38
0.017356545 -0.11764936 0.00816283 2.3509886e-38
0.019191504 -0.11690097 0.011158202 2.3509886e-38
0.021044843 -0.11690097 0.011158202 2.3509886e-38
0.022864241 -0.1161568 0.014136646 2.3509886e-38
0.024712358 -0.1161568 0.014136646 2.3509886e-38
0.026560476 -0.1161568 0.014136646 2.3509886e-38
0.028408594 -0.1161568 0.014136646 2.3509886e-38
0.030256711 -0.1161568 0.014136646 2.3509886e-38
0.032023076 -0.11514379 0.018191192 2.3509886e-38
0.033864088 -0.11514379 0.018191192 2.3509886e-38
0.035705097 -0.11514379 0.018191192 2.3509886e-38
0.037546106 -0.11514379 0.018191192 2.3509886e-38
0.039387114 -0.11514379 0.018191192 2.341805e-38
0.041143093 -0.11440946 0.021130297 2.3234379e-38
0.04297895 -0.11440946 0.021130297 2.3142544e-38
0.044814806 -0.11440946 0.021130297 2.3142544e-38
0.046547048 -0.11365227 0.024160836 2.3142544e-38
0.048377588 -0.11365227 0.024160836 2.3234376e-38
0.050094545 -0.11289944 0.02717397 2.3234376e-38
0.051919807 -0.11289944 0.02717397 2.3418047e-38
0.053745065 -0.11289944 0.02717397 2.350988e-38
0.055570323 -0.11289944 0.02717397 2.3325847e-38
0.057395585 -0.11289944 0.02717397 2.3509879e-38
0.059360843 -0.11365227 0.024160836 2.1111712e-38
0.061337508 -0.11440946 0.021130297 2.7550649e-40
0.063173369 -0.11440946 0.021130297 5.5137171e-40
0.065161243 -0.11514379 0.018191192 1.5658726e-39
0.067002252 -0.11514379 0.018191192 4.7927196e-39
-0.071195647 -0.12982969 -0.03286102 1.428923e-38
-0.068461031 -0.12704925 -0.021810081 2.3509516e-38
-0.066549882 -0.12704925 -0.021810081 2.3509876e-38
-0.06491676 -0.12805928 -0.025824454 2.3509879e-38
-0.062727585 -0.12704925 -0.021810081 2.350988e-38
-0.060816456 -0.12704925 -0.021810081 2.3509883e-38
-0.058717612 -0.12631132 -0.018877175 2.3509886e-38
-0.056622777 -0.12554805 -0.015843537 2.3509886e-38
-0.054722104 -0.12554805 -0.015843537 2.3509886e-38
-0.052821416 -0.12554805 -0.015843537 2.341805e-38
-0.050920729 -0.12554805 -0.015843537 2.341805e-38
-0.048802365 -0.12455635 -0.011902001 2.3509886e-38
-0.046908591 -0.12455635 -0.011902001 2.3509886e-38
-0.045014817 -0.12455635 -0.011902001 2.3509886e-38
-0.043121044 -0.12455635 -0.011902001 2.3509886e-38
-0.04122727 -0.12455635 -0.011902001 2.3509886e-38
-0.039333496 -0.12455635 -0.011902001 2.3509886e-38
-0.037305821 -0.12380283 -0.0089071058 2.3509886e-38
-0.035417307 -0.12380283 -0.0089071058 2.3509886e-38
-0.033528779 -0.12380283 -0.0089071058 2.3509886e-38
-0.031640258 -0.12380283 -0.0089071058 2.3509886e-38
-0.029751737 -0.12380283 -0.0089071058 2.3509886e-38
-0.027863216 -0.12380283 -0.0089071058 2.3509886e-38
-0.025837753 -0.12279506 -0.0049017929 2.3509886e-38
-0.023956254 -0.12279506 -0.0049017929 2.3509886e-38
-0.022074755 -0.12279506 -0.0049017929 2.3509886e-38
-0.020193256 -0.12279506 -0.0049017929 2.3509886e-38
-0.018311758 -0.12279506 -0.0049017929 2.3509886e-38
-0.01653209 -0.12380283 -0.0089071058 2.3509886e-38
-0.01454876 -0.12279506 -0.0049017929 2.3509886e-38
-0.012667261 -0.12279506 -0.0049017929 2.3509886e-38
-0.01072387 -0.12202276 -0.0018322729 2.3509886e-38
-0.0088477544 -0.12202276 -0.0018322729 2.3509886e-38
-0.0069716386 -0.12202276 -0.0018322729 2.3509886e-38
-0.0050955229 -0.12202276 -0.0018322729 2.3509886e-38
-0.0031807534 -0.12128322 0.0011070706 2.3509886e-38
-0.001309786 -0.12128322 0.0011070706 2.3509886e-38
0.00056117401 -0.12128322 0.0011070706 2.3509886e-38
0.0024321377 -0.12128322 0.0011070706 2.3509886e-38
0.0043279137 -0.12026589 0.0051504113 2.3509886e-38
0.0061917882 -0.12026589 0.0051504113 2.3509886e-38
0.0080556609 -0.12026589 0.0051504113 2.3509886e-38
0.0099195354 -0.12026589 0.0051504113 2.3509886e-38
0.011780769 -0.11950795 0.00816283 2.3509886e-38
0.013639361 -0.11950795 0.00816283 2.3509886e-38
0.015497953 -0.11950795 0.00816283 2.3509886e-38
0.017356545 -0.11950795 0.00816283 2.3509886e-38
0.019191504 -0.11875431 0.011158202 2.3509886e-38
0.021044843 -0.11875431 0.011158202 2.3509886e-38
0.022864241 -0.11800493 0.014136646 2.3509886e-38
0.024712358 -0.11800493 0.014136646 2.3509886e-38
0.026560476 -0.11800493 0.014136646 2.3509886e-38
0.028341059 -0.1169848 0.018191192 2.3509886e-38
0.030182067 -0.1169848 0.018191192 2.3509886e-38
0.032023076 -0.1169848 0.018191192 2.3509886e-38
0.033864088 -0.1169848 0.018191192 2.3509886e-38
0.035705097 -0.1169848 0.018191192 2.3509886e-38
0.037546106 -0.1169848 0.018191192 2.3509886e-38
0.039387114 -0.1169848 0.018191192 2.341805e-38
0.041143093 -0.11624531 0.021130297 2.3234379e-38
0.04297895 -0.11624531 0.021130297 2.3234379e-38
0.044814806 -0.11624531 0.021130297 2.3234379e-38
0.046547048 -0.11548282 0.024160836 2.3234379e-38
0.048377588 -0.11548282 0.024160836 2.3234376e-38
0.050094545 -0.11472471 0.02717397 2.3418047e-38
0.051919807 -0.11472471 0.02717397 2.3418047e-38
0.053745065 -0.11472471 0.02717397 2.350988e-38
0.055570323 -0.11472471 0.02717397 2.350988e-38
0.057395585 -0.11472471 0.02717397 2.350988e-38
0.059360843 -0.11548282 0.024160836 2.0190476e-38
0.061337508 -0.11624531 0.021130297 2.7550649e-40
0.063173369 -0.11624531 0.021130297 3.6770072e-40
0.065370955 -0.11800493 0.014136646 5.5208917e-40
0.06753853 -0.11950795 0.00816283 4.2399088e-39
0.069397122 -0.11950795 0.00816283 8.1121224e-39
-0.070671305 -0.12997745 -0.025824454 1.4935325e-38
-0.068461031 -0.12896039 -0.021810081 2.3140737e-38
-0.066549882 -0.12896039 -0.021810081 2.3049261e-38
-0.064638734 -0.12896039 -0.021810081 2.3509883e-38
-0.062727585 -0.12896039 -0.021810081 2.3509883e-38
-0.060816456 -0.12896039 -0.021810081 2.3509886e-38
-0.058717612 -0.12821732 -0.018877175 2.341805e-38
-0.056622777 -0.12744872 -0.015843537 2.341805e-38
-0.054722104 -0.12744872 -0.015843537 2.341805e-38
-0.052821416 -0.12744872 -0.015843537 2.341805e-38
-0.050920729 -0.12744872 -0.015843537 2.341805e-38
-0.048802365 -0.12645011 -0.011902001 2.3509886e-38
-0.046908591 -0.12645011 -0.011902001 2.3509886e-38
-0.045014817 -0.12645011 -0.011902001 2.3509886e-38
-0.043121044 -0.12645011 -0.011902001 2.3509886e-38
-0.04122727 -0.12645011 -0.011902001 2.3509886e-38
-0.039333496 -0.12645011 -0.011902001 2.3509886e-38
-0.037439723 -0.12645011 -0.011902001 2.3509886e-38
-0.035417307 -0.12569134 -0.0089071058 2.3509886e-38
-0.033528779 -0.12569134 -0.0089071058 2.3509886e-38
-0.031640258 -0.12569134 -0.0089071058 2.3509886e-38
-0.029751737 -0.12569134 -0.0089071058 2.3509886e-38
-0.027863216 -0.12569134 -0.0089071058 2.3509886e-38
-0.025837753 -0.12467657 -0.0049017929 2.3509886e-38
-0.023956254 -0.12467657 -0.0049017929 2.3509886e-38
-0.022074755 -0.12467657 -0.0049017929 2.3509886e-38
-0.020193256 -0.12467657 -0.0049017929 2.3509886e-38
-0.018311758 -0.12467657 -0.0049017929 2.3509886e-38
-0.01653209 -0.12569134 -0.0089071058 2.3509886e-38
-0.01454876 -0.12467657 -0.0049017929 2.3509886e-38
-0.012667261 -0.12467657 -0.0049017929 2.3509886e-38
-0.01072387 -0.12389888 -0.0018322729 2.3509886e-38
-0.0088477544 -0.12389888 -0.0018322729 2.3509886e-38
-0.0069716386 -0.12389888 -0.0018322729 2.3509886e-38
-0.0050517134 -0.12315418 0.0011070706 2.3509886e-38
-0.0031807534 -0.12315418 0.0011070706 2.3509886e-38
-0.001309786 -0.12315418 0.0011070706 2.3509886e-38
0.00056117401 -0.12315418 0.0011070706 2.3509886e-38
0.0024640411 -0.12212978 0.0051504113 2.3509886e-38
0.0043279137 -0.12212978 0.0051504113 2.3509886e-38
0.0061917882 -0.12212978 0.0051504113 2.3509886e-38
0.0080556609 -0.12212978 0.0051504113 2.3509886e-38
0.0099221766 -0.12136655 0.00816283 2.3509886e-38
0.011780769 -0.12136655 0.00816283 2.3509886e-38
0.013639361 -0.12136655 0.00816283 2.3509886e-38
0.015484823 -0.12060766 0.011158202 2.3509886e-38
0.017338164 -0.12060766 0.011158202 2.3509886e-38
0.019191504 -0.12060766 0.011158202 2.3509886e-38
0.021016121 -0.11985306 0.014136646 2.3509886e-38
0.022864241 -0.11985306 0.014136646 2.3509886e-38
0.024712358 -0.11985306 0.014136646 2.3509886e-38
0.026560476 -0.11985306 0.014136646 2.3509886e-38
0.028341059 -0.11882581 0.018191192 2.3509886e-38
0.030182067 -0.11882581 0.018191192 2.3509886e-38
0.032023076 -0.11882581 0.018191192 2.3509886e-38
0.033864088 -0.11882581 0.018191192 2.3509886e-38
0.035705097 -0.11882581 0.018191192 2.3509886e-38
0.037546106 -0.11882581 0.018191192 2.3509886e-38
0.039387114 -0.11882581 0.018191192 2.3509886e-38
0.041143093 -0.11808117 0.021130297 2.341805e-38
0.04297895 -0.11808117 0.021130297 2.341805e-38
0.044814806 -0.11808117 0.021130297 2.341805e-38
0.046547048 -0.11731337 0.024160836 2.341805e-38
0.048377588 -0.11731337 0.024160836 2.341805e-38
0.050094545 -0.11654995 0.02717397 2.3509886e-38
0.051919807 -0.11654995 0.02717397 2.3509886e-38
0.053745065 -0.11654995 0.02717397 2.3509883e-38
0.055570323 -0.11654995 0.02717397 2.3509883e-38
0.057395585 -0.11654995 0.02717397 2.3325492e-38
0.059360843 -0.11731337 0.024160836 1.6687406e-38
0.061479222 -0.11882581 0.018191192 1.8402972e-40
0.063320234 -0.11882581 0.018191192 9.1835496e-41
0.065370955 -0.11985306 0.014136646 2.7622395e-40
0.06753853 -0.12136655 0.00816283 4.240636e-39
0.069563501 -0.12212978 0.0051504113 7.8362614e-39
0.071427375 -0.12212978 0.0051504113 7.3763552e-39
-0.070671305 -0.13189565 -0.025824454 1.7609e-38
-0.068461031 -0.13087155 -0.021810081 2.3509883e-38
-0.066549882 -0.13087155 -0.021810081 2.3509883e-38
-0.064638734 -0.13087155 -0.021810081 2.3509886e-38
-0.062727585 -0.13087155 -0.021810081 2.3509886e-38
-0.060816456 -0.13087155 -0.021810081 2.341805e-38
-0.058717612 -0.13012333 -0.018877175 2.341805e-38
-0.056622777 -0.12934943 -0.015843537 2.341805e-38
-0.054722104 -0.12934943 -0.015843537 2.341805e-38
-0.052821416 -0.12934943 -0.015843537 2.3418047e-38
-0.050920729 -0.12934943 -0.015843537 2.3418047e-38
-0.048802365 -0.1283439 -0.011902001 2.3509886e-38
-0.046908591 -0.1283439 -0.011902001 2.3509886e-38
-0.044859905 -0.12757985 -0.0089071058 2.3509886e-38
-0.042971391 -0.12757985 -0.0089071058 2.3509886e-38
-0.04122727 -0.1283439 -0.011902001 2.3509886e-38
-0.039194349 -0.12757985 -0.0089071058 2.3509886e-38
-0.037305821 -0.12757985 -0.0089071058 2.3509886e-38
-0.035417307 -0.12757985 -0.0089071058 2.3509886e-38
-0.033528779 -0.12757985 -0.0089071058 2.3509886e-38
-0.031640258 -0.12757985 -0.0089071058 2.3509886e-38
-0.029751737 -0.12757985 -0.0089071058 2.3509886e-38
-0.027863216 -0.12757985 -0.0089071058 2.3509886e-38
-0.025837753 -0.12655805 -0.0049017929 2.3509886e-38
-0.023956254 -0.12655805 -0.0049017929 2.3509886e-38
-0.022074755 -0.12655805 -0.0049017929 2.3509886e-38
-0.020193256 -0.12655805 -0.0049017929 2.3509886e-38
-0.018311758 -0.12655805 -0.0049017929 2.3509886e-38
-0.016430259 -0.12655805 -0.0049017929 2.3509886e-38
-0.01454876 -0.12655805 -0.0049017929 2.3509886e-38
-0.012599986 -0.12577499 -0.0018322729 2.3509886e-38
-0.01072387 -0.12577499 -0.0018322729 2.3509886e-38
-0.0088477544 -0.12577499 -0.0018322729 2.3509886e-38
-0.0069716386 -0.12577499 -0.0018322729 2.3509886e-38
-0.0050517134 -0.12502514 0.0011070706 2.3509886e-38
-0.0031807534 -0.12502514 0.0011070706 2.3509886e-38
-0.001309786 -0.12502514 0.0011070706 2.3509886e-38
0.00056117401 -0.12502514 0.0011070706 2.3509886e-38
0.0024640411 -0.12399365 0.0051504113 2.3509886e-38
0.0043279137 -0.12399365 0.0051504113 2.3509886e-38
0.0062049925 -0.12322514 0.00816283 2.3509886e-38
0.0080635846 -0.12322514 0.00816283 2.3509886e-38
0.0099221766 -0.12322514 0.00816283 2.3509886e-38
0.011778142 -0.12246101 0.011158202 2.3509886e-38
0.013631484 -0.12246101 0.011158202 2.3509886e-38
0.015484823 -0.12246101 0.011158202 2.3509886e-38
0.017319886 -0.12170117 0.014136646 2.3509886e-38
0.019168004 -0.12170117 0.014136646 2.3509886e-38
0.021016121 -0.12170117 0.014136646 2.3509886e-38
0.022864241 -0.12170117 0.014136646 2.3509886e-38
0.024712358 -0.12170117 0.014136646 2.3509886e-38
0.02650005 -0.12066682 0.018191192 2.3509886e-38
0.028341059 -0.12066682 0.018191192 2.3509886e-38
0.030182067 -0.12066682 0.018191192 2.3509886e-38
0.032023076 -0.12066682 0.018191192 2.3509886e-38
0.033864088 -0.12066682 0.018191192 2.3509886e-38
0.035635523 -0.11991702 0.021130297 2.3509886e-38
0.037471384 -0.11991702 0.021130297 2.3509886e-38
0.039307237 -0.11991702 0.021130297 2.3509886e-38
0.041143093 -0.11991702 0.021130297 2.3509886e-38
0.04297895 -0.11991702 0.021130297 2.3509886e-38
0.044814806 -0.11991702 0.021130297 2.3509886e-38
0.046547048 -0.11914389 0.024160836 2.3509886e-38
0.048377588 -0.11914389 0.024160836 2.3509886e-38
0.050094545 -0.11837523 0.02717397 2.3509886e-38
0.051919807 -0.11837523 0.02717397 2.3509886e-38
0.053621631 -0.11761098 0.030169699 2.3509886e-38
0.055441637 -0.11761098 0.030169699 2.3233299e-38
0.057395585 -0.11837523 0.02717397 2.3509886e-38
0.059220843 -0.11837523 0.02717397 1.5765453e-38
0.061337508 -0.11991702 0.021130297 4.6097815e-40
0.063320234 -0.12066682 0.018191192 0
0.065370955 -0.12170117 0.014136646 0
0.06753853 -0.12322514 0.00816283 3.3190427e-39
0.069563501 -0.12399365 0.0051504113 7.744786e-39
0.071427375 -0.12399365 0.0051504113 7.3763552e-39
-0.070671305 -0.13381381 -0.025824454 2.0190477e-38
-0.068461031 -0.13278268 -0.021810081 2.3509883e-38
-0.066549882 -0.13278268 -0.021810081 2.3509883e-38
-0.064638734 -0.13278268 -0.021810081 2.3509886e-38
-0.062727585 -0.13278268 -0.021810081 2.3509886e-38
-0.060623605 -0.13202934 -0.018877175 2.341805e-38
-0.058717612 -0.13202934 -0.018877175 2.341805e-38
-0.056622777 -0.1312501 -0.015843537 2.341805e-38
-0.054722104 -0.1312501 -0.015843537 2.341805e-38
-0.052821416 -0.1312501 -0.015843537 2.3418047e-38
-0.050920729 -0.1312501 -0.015843537 2.3418047e-38
-0.048636947 -0.1294684 -0.0089071058 2.3509886e-38
-0.046748433 -0.1294684 -0.0089071058 2.3509886e-38
-0.044859905 -0.1294684 -0.0089071058 2.3509886e-38
-0.042971391 -0.1294684 -0.0089071058 2.3509886e-38
-0.041082863 -0.1294684 -0.0089071058 2.3509886e-38
-0.039194349 -0.1294684 -0.0089071058 2.3509886e-38
-0.037305821 -0.1294684 -0.0089071058 2.3509886e-38
-0.035417307 -0.1294684 -0.0089071058 2.3509886e-38
-0.033528779 -0.1294684 -0.0089071058 2.3509886e-38
-0.031640258 -0.1294684 -0.0089071058 2.3509886e-38
-0.029600751 -0.12843956 -0.0049017929 2.3509886e-38
-0.027719252 -0.12843956 -0.0049017929 2.3509886e-38
-0.025837753 -0.12843956 -0.0049017929 2.3509886e-38
-0.023956254 -0.12843956 -0.0049017929 2.3509886e-38
-0.021980572 -0.12765111 -0.0018322729 2.3509886e-38
-0.020104457 -0.12765111 -0.0018322729 2.3509886e-38
-0.018228341 -0.12765111 -0.0018322729 2.3509886e-38
-0.016430259 -0.12843956 -0.0049017929 2.3509886e-38
-0.01454876 -0.12843956 -0.0049017929 2.3509886e-38
-0.012599986 -0.12765111 -0.0018322729 2.3509886e-38
-0.01072387 -0.12765111 -0.0018322729 2.3509886e-38
-0.0088477544 -0.12765111 -0.0018322729 2.3509886e-38
-0.0069716386 -0.12765111 -0.0018322729 2.3509886e-38
-0.0050517134 -0.1268961 0.0011070706 2.3509886e-38
-0.0031807534 -0.1268961 0.0011070706 2.3509886e-38
-0.001309786 -0.1268961 0.0011070706 2.3509886e-38
0.00056117401 -0.1268961 0.0011070706 2.3509886e-38
0.0024640411 -0.12585752 0.0051504113 2.3509886e-38
0.0043279137 -0.12585752 0.0051504113 2.3509886e-38
0.0062049925 -0.12508373 0.00816283 2.3509886e-38
0.0080635846 -0.12508373 0.00816283 2.3509886e-38
0.0099221766 -0.12508373 0.00816283 2.3509886e-38
0.011778142 -0.12431435 0.011158202 2.3509886e-38
0.013631484 -0.12431435 0.011158202 2.3509886e-38
0.015471768 -0.1235493 0.014136646 2.3509886e-38
0.017319886 -0.1235493 0.014136646 2.3509886e-38
0.019168004 -0.1235493 0.014136646 2.3509886e-38
0.021016121 -0.1235493 0.014136646 2.3509886e-38
0.022818033 -0.12250783 0.018191192 2.3509886e-38
0.024659041 -0.12250783 0.018191192 2.3509886e-38
0.02650005 -0.12250783 0.018191192 2.3509886e-38
0.028341059 -0.12250783 0.018191192 2.3509886e-38
0.030182067 -0.12250783 0.018191192 2.3509886e-38
0.032023076 -0.12250783 0.018191192 2.3509886e-38
0.033864088 -0.12250783 0.018191192 2.3509886e-38
0.035635523 -0.12175287 0.021130297 2.3509886e-38
0.037471384 -0.12175287 0.021130297 2.3509886e-38
0.039307237 -0.12175287 0.021130297 2.3509886e-38
0.041143093 -0.12175287 0.021130297 2.3509886e-38
0.04297895 -0.12175287 0.021130297 2.3509886e-38
0.044814806 -0.12175287 0.021130297 2.3509886e-38
0.046547048 -0.12097444 0.024160836 2.3509886e-38
0.048377588 -0.12097444 0.024160836 2.3509886e-38
0.050094545 -0.12020047 0.02717397 2.3509886e-38
0.051919807 -0.12020047 0.02717397 2.3509886e-38
0.053621631 -0.11943097 0.030169699 2.3509886e-38
0.055441637 -0.11943097 0.030169699 2.3048907e-38
0.057395585 -0.12020047 0.02717397 2.3509886e-38
0.059220843 -0.12020047 0.02717397 1.3091779e-38
0.061191384 -0.12097444 0.024160836 5.5317378e-40
0.063522838 -0.1235493 0.014136646 0
0.065370955 -0.1235493 0.014136646 0
0.06753853 -0.12508373 0.00816283 2.5814776e-39
0.069563501 -0.12585752 0.0051504113 7.5603948e-39
0.071427375 -0.12585752 0.0051504113 6.8231815e-39
-0.070671305 -0.13573201 -0.025824454 2.1573412e-38
-0.068461031 -0.13469382 -0.021810081 2.3233296e-38
-0.066549882 -0.13469382 -0.021810081 2.3048905e-38
-0.064638734 -0.13469382 -0.021810081 2.3509886e-38
-0.062727585 -0.13469382 -0.021810081 2.3509886e-38
-0.060623605 -0.13393532 -0.018877175 2.341805e-38
-0.058717612 -0.13393532 -0.018877175 2.341805e-38
-0.056622777 -0.13315077 -0.015843537 2.341805e-38
-0.054722104 -0.13315077 -0.015843537 2.341805e-38
-0.052821416 -0.13315077 -0.015843537 2.3418047e-38
-0.050696131 -0.13213144 -0.011902001 2.3418047e-38
-0.048636947 -0.13135691 -0.0089071058 2.3509886e-38
-0.046748433 -0.13135691 -0.0089071058 2.3509886e-38
-0.044859905 -0.13135691 -0.0089071058 2.3509886e-38
-0.042971391 -0.13135691 -0.0089071058 2.3509886e-38
-0.041082863 -0.13135691 -0.0089071058 2.3509886e-38
-0.039194349 -0.13135691 -0.0089071058 2.3509886e-38
-0.037126746 -0.13032107 -0.0049017929 2.3509886e-38
-0.035245243 -0.13032107 -0.0049017929 2.3509886e-38
-0.033363748 -0.13032107 -0.0049017929 2.3509886e-38
-0.031482253 -0.13032107 -0.0049017929 2.3509886e-38
-0.029600751 -0.13032107 -0.0049017929 2.3509886e-38
-0.027719252 -0.13032107 -0.0049017929 2.3509886e-38
-0.025837753 -0.13032107 -0.0049017929 2.3509886e-38
-0.023956254 -0.13032107 -0.0049017929 2.3509886e-38
-0.021980572 -0.12952723 -0.0018322729 2.3509886e-38
-0.020104457 -0.12952723 -0.0018322729 2.3509886e-38
-0.018228341 -0.12952723 -0.0018322729 2.3509886e-38
-0.016430259 -0.13032107 -0.0049017929 2.3509886e-38
-0.014476106 -0.12952723 -0.0018322729 2.3509886e-38
-0.012599986 -0.12952723 -0.0018322729 2.3509886e-38
-0.01072387 -0.12952723 -0.0018322729 2.3509886e-38
-0.0087936409 -0.12876706 0.0011070706 2.3509886e-38
-0.0069226772 -0.12876706 0.0011070706 2.3509886e-38
-0.0050517134 -0.12876706 0.0011070706 2.3509886e-38
-0.0031807534 -0.12876706 0.0011070706 2.3509886e-38
-0.001309786 -0.12876706 0.0011070706 2.3509886e-38
0.00056117401 -0.12876706 0.0011070706 2.3509886e-38
0.0024640411 -0.12772138 0.0051504113 2.3509886e-38
0.0043279137 -0.12772138 0.0051504113 2.3509886e-38
0.0062049925 -0.12694232 0.00816283 2.3509886e-38
0.0080635846 -0.12694232 0.00816283 2.3509886e-38
0.0099248029 -0.12616767 0.011158202 2.3509886e-38
0.011778142 -0.12616767 0.011158202 2.3509886e-38
0.013623649 -0.1253974 0.014136646 2.3509886e-38
0.015471768 -0.1253974 0.014136646 2.3509886e-38
0.017319886 -0.1253974 0.014136646 2.3509886e-38
0.019168004 -0.1253974 0.014136646 2.3509886e-38
0.020977022 -0.12434883 0.018191192 2.3509886e-38
0.022818033 -0.12434883 0.018191192 2.3509886e-38
0.024659041 -0.12434883 0.018191192 2.3509886e-38
0.02650005 -0.12434883 0.018191192 2.3509886e-38
0.028341059 -0.12434883 0.018191192 2.3509886e-38
0.030182067 -0.12434883 0.018191192 2.3509886e-38
0.031963814 -0.12358873 0.021130297 2.3509886e-38
0.033799671 -0.12358873 0.021130297 2.3509886e-38
0.035635523 -0.12358873 0.021130297 2.3509886e-38
0.037471384 -0.12358873 0.021130297 2.3509886e-38
0.039307237 -0.12358873 0.021130297 2.3509886e-38
0.041143093 -0.12358873 0.021130297 2.3509886e-38
0.04297895 -0.12358873 0.021130297 2.3509886e-38
0.044814806 -0.12358873 0.021130297 2.3509886e-38
0.046547048 -0.12280498 0.024160836 2.3509886e-38
0.048377588 -0.12280498 0.024160836 2.3509886e-38
0.050094545 -0.12202574 0.02717397 2.3509886e-38
0.051919807 -0.12202574 0.02717397 2.3509886e-38
0.053621631 -0.121251 0.030169699 2.3509886e-38
0.055441637 -0.121251 0.030169699 2.3325494e-38
0.057261646 -0.121251 0.030169699 2.341769e-38
0.059220843 -0.12202574 0.02717397 9.7727368e-39
0.061191384 -0.12280498 0.024160836 1.8439126e-40
0.063320234 -0.12434883 0.018191192 2.7658689e-40
0.065370955 -0.1253974 0.014136646 7.3756504e-40
0.067699626 -0.12772138 0.0051504113 2.3048907e-39
0.069563501 -0.12772138 0.0051504113 7.744786e-39
0.071657777 -0.12876706 0.0011070706 7.4685509e-39
0.073528737 -0.12876706 0.0011070706 7.8373306e-39
-0.070372164 -0.13660498 -0.021810081 2.2587564e-38
-0.068461031 -0.13660498 -0.021810081 2.3325492e-38
-0.066341609 -0.13584132 -0.018877175 2.3325492e-38
-0.064435616 -0.13584132 -0.018877175 2.3509886e-38
-0.062529609 -0.13584132 -0.018877175 2.3509886e-38
-0.060623605 -0.13584132 -0.018877175 2.341805e-38
-0.058717612 -0.13584132 -0.018877175 2.341805e-38
-0.056622777 -0.13505147 -0.015843537 2.341805e-38
-0.054722104 -0.13505147 -0.015843537 2.341805e-38
-0.052821416 -0.13505147 -0.015843537 2.3418047e-38
-0.050696131 -0.1340252 -0.011902001 2.3418047e-38
-0.048636947 -0.13324542 -0.0089071058 2.3509886e-38
-0.046748433 -0.13324542 -0.0089071058 2.3509886e-38
-0.044859905 -0.13324542 -0.0089071058 2.3509886e-38
-0.042971391 -0.13324542 -0.0089071058 2.3509886e-38
-0.041082863 -0.13324542 -0.0089071058 2.3509886e-38
-0.039194349 -0.13324542 -0.0089071058 2.3509886e-38
-0.037126746 -0.13220255 -0.0049017929 2.3509886e-38
-0.035245243 -0.13220255 -0.0049017929 2.3509886e-38
-0.033363748 -0.13220255 -0.0049017929 2.3509886e-38
-0.031482253 -0.13220255 -0.0049017929 2.3509886e-38
-0.029600751 -0.13220255 -0.0049017929 2.3509886e-38
-0.027719252 -0.13220255 -0.0049017929 2.3509886e-38
-0.025837753 -0.13220255 -0.0049017929 2.3509886e-38
-0.023956254 -0.13220255 -0.0049017929 2.3509886e-38
-0.021980572 -0.13140334 -0.0018322729 2.3509886e-38
-0.020104457 -0.13140334 -0.0018322729 2.3509886e-38
-0.018228341 -0.13140334 -0.0018322729 2.3509886e-38
-0.016430259 -0.13220255 -0.0049017929 2.3509886e-38
-0.014476106 -0.13140334 -0.0018322729 2.3509886e-38
-0.012599986 -0.13140334 -0.0018322729 2.3509886e-38
-0.010664605 -0.13063805 0.0011070706 2.3509886e-38
-0.0087936409 -0.13063805 0.0011070706 2.3509886e-38
-0.0069226772 -0.13063805 0.0011070706 2.3509886e-38
-0.0050517134 -0.13063805 0.0011070706 2.3509886e-38
-0.0031807534 -0.13063805 0.0011070706 2.3509886e-38
-0.001309786 -0.13063805 0.0011070706 2.3509886e-38
0.00060016662 -0.12958528 0.0051504113 2.3509886e-38
0.0024640411 -0.12958528 0.0051504113 2.3509886e-38
0.0043279137 -0.12958528 0.0051504113 2.3509886e-38
0.0062049925 -0.12880091 0.00816283 2.3509886e-38
0.0080635846 -0.12880091 0.00816283 2.3509886e-38
0.0099248029 -0.12802102 0.011158202 2.3509886e-38
0.011778142 -0.12802102 0.011158202 2.3509886e-38
0.013623649 -0.12724553 0.014136646 2.3509886e-38
0.015471768 -0.12724553 0.014136646 2.3509886e-38
0.017319886 -0.12724553 0.014136646 2.3509886e-38
0.019168004 -0.12724553 0.014136646 2.3509886e-38
0.020977022 -0.12618984 0.018191192 2.3509886e-38
0.022818033 -0.12618984 0.018191192 2.3509886e-38
0.024659041 -0.12618984 0.018191192 2.3509886e-38
0.02650005 -0.12618984 0.018191192 2.3509886e-38
0.028292103 -0.12542458 0.021130297 2.3509886e-38
0.030127959 -0.12542458 0.021130297 2.3509886e-38
0.031963814 -0.12542458 0.021130297 2.3509886e-38
0.033799671 -0.12542458 0.021130297 2.3509886e-38
0.035635523 -0.12542458 0.021130297 2.3509886e-38
0.037394337 -0.12463553 0.024160836 2.3509886e-38
0.039224878 -0.12463553 0.024160836 2.3509886e-38
0.041055419 -0.12463553 0.024160836 2.3509886e-38
0.04297895 -0.12542458 0.021130297 2.3509886e-38
0.044716503 -0.12463553 0.024160836 2.3509886e-38
0.046547048 -0.12463553 0.024160836 2.3509886e-38
0.048269287 -0.12385099 0.02717397 2.3509886e-38
0.050094545 -0.12385099 0.02717397 2.3509886e-38
0.051919807 -0.12385099 0.02717397 2.3509886e-38
0.053621631 -0.123071 0.030169699 2.3509886e-38
0.055441637 -0.123071 0.030169699 2.3509886e-38
0.057261646 -0.123071 0.030169699 2.2587929e-38
0.059220843 -0.12385099 0.02717397 8.0210198e-39
0.061479222 -0.12618984 0.018191192 2.7658689e-40
0.063320234 -0.12618984 0.018191192 9.219563e-41
0.065679938 -0.12880091 0.00816283 6.4536941e-40
0.067915849 -0.13063805 0.0011070706 1.751717e-39
0.069786817 -0.13063805 0.0011070706 8.2976039e-39
0.071657777 -0.13063805 0.0011070706 8.6667381e-39
0.073528737 -0.13063805 0.0011070706 8.4827028e-39
-0.072589487 -0.13956837 -0.025824454 1.0141154e-38
-0.070372164 -0.13851611 -0.021810081 2.3232933e-38
-0.068461031 -0.13851611 -0.021810081 2.3509883e-38
-0.066341609 -0.13774733 -0.018877175 2.3509883e-38
-0.064435616 -0.13774733 -0.018877175 2.3509886e-38
-0.062529609 -0.13774733 -0.018877175 2.3509886e-38
-0.060623605 -0.13774733 -0.018877175 2.341805e-38
-0.058717612 -0.13774733 -0.018877175 2.341805e-38
-0.056622777 -0.13695215 -0.015843537 2.341805e-38
-0.054722104 -0.13695215 -0.015843537 2.341805e-38
-0.052821416 -0.13695215 -0.015843537 2.3418047e-38
-0.050920729 -0.13695215 -0.015843537 2.3418047e-38
-0.048802365 -0.13591899 -0.011902001 2.3509886e-38
-0.046908591 -0.13591899 -0.011902001 2.3509886e-38
-0.045014817 -0.13591899 -0.011902001 2.3509886e-38
-0.042971391 -0.13513394 -0.0089071058 2.3509886e-38
-0.041082863 -0.13513394 -0.0089071058 2.3509886e-38
-0.039008249 -0.13408406 -0.0049017929 2.3509886e-38
-0.037126746 -0.13408406 -0.0049017929 2.3509886e-38
-0.035245243 -0.13408406 -0.0049017929 2.3509886e-38
-0.033363748 -0.13408406 -0.0049017929 2.3509886e-38
-0.031482253 -0.13408406 -0.0049017929 2.3509886e-38
-0.029600751 -0.13408406 -0.0049017929 2.3509886e-38
-0.027719252 -0.13408406 -0.0049017929 2.3509886e-38
-0.025837753 -0.13408406 -0.0049017929 2.3509886e-38
-0.023956254 -0.13408406 -0.0049017929 2.3509886e-38
-0.021980572 -0.13327946 -0.0018322729 2.3509886e-38
-0.020104457 -0.13327946 -0.0018322729 2.3509886e-38
-0.018228341 -0.13327946 -0.0018322729 2.3509886e-38
-0.016430259 -0.13408406 -0.0049017929 2.3509886e-38
-0.014476106 -0.13327946 -0.0018322729 2.3509886e-38
-0.012535568 -0.13250901 0.0011070706 2.3509886e-38
-0.010664605 -0.13250901 0.0011070706 2.3509886e-38
-0.0087936409 -0.13250901 0.0011070706 2.3509886e-38
-0.0069226772 -0.13250901 0.0011070706 2.3509886e-38
-0.0050517134 -0.13250901 0.0011070706 2.3509886e-38
-0.0031807534 -0.13250901 0.0011070706 2.3509886e-38
-0.0012637079 -0.13144915 0.0051504113 2.3509886e-38
0.00060016662 -0.13144915 0.0051504113 2.3509886e-38
0.0024640411 -0.13144915 0.0051504113 2.3509886e-38
0.0043279137 -0.13144915 0.0051504113 2.3509886e-38
0.0062049925 -0.13065951 0.00816283 2.3509886e-38
0.0080635846 -0.13065951 0.00816283 2.3509886e-38
0.0099248029 -0.12987436 0.011158202 2.3509886e-38
0.011778142 -0.12987436 0.011158202 2.3509886e-38
0.013623649 -0.12909363 0.014136646 2.3509886e-38
0.015471768 -0.12909363 0.014136646 2.3509886e-38
0.017319886 -0.12909363 0.014136646 2.3509886e-38
0.019136013 -0.12803085 0.018191192 2.3509886e-38
0.020977022 -0.12803085 0.018191192 2.3509886e-38
0.022818033 -0.12803085 0.018191192 2.3509886e-38
0.024659041 -0.12803085 0.018191192 2.3509886e-38
0.02650005 -0.12803085 0.018191192 2.3509886e-38
0.028292103 -0.12726043 0.021130297 2.3509886e-38
0.030127959 -0.12726043 0.021130297 2.3509886e-38
0.031902708 -0.12646608 0.024160836 2.3509886e-38
0.033733249 -0.12646608 0.024160836 2.3509886e-38
0.035563793 -0.12646608 0.024160836 2.3509886e-38
0.037394337 -0.12646608 0.024160836 2.3509886e-38
0.039224878 -0.12646608 0.024160836 2.3509886e-38
0.041055419 -0.12646608 0.024160836 2.3509886e-38
0.042885963 -0.12646608 0.024160836 2.3509886e-38
0.044716503 -0.12646608 0.024160836 2.3509886e-38
0.046444029 -0.12567626 0.02717397 2.3509886e-38
0.048269287 -0.12567626 0.02717397 2.3509886e-38
0.050094545 -0.12567626 0.02717397 2.3509886e-38
0.051801626 -0.124891 0.030169699 2.3509886e-38
0.053621631 -0.124891 0.030169699 2.3509886e-38
0.055441637 -0.124891 0.030169699 2.3509886e-38
0.057261646 -0.124891 0.030169699 2.1020604e-38
0.060244132 -0.13144915 0.0051504113 7.5600416e-39
0.062108006 -0.13144915 0.0051504113 6.4536941e-40
0.063971877 -0.13144915 0.0051504113 0
0.065835752 -0.13144915 0.0051504113 0
0.067915849 -0.13250901 0.0011070706 6.4536941e-40
0.069786817 -0.13250901 0.0011070706 8.3897995e-39
0.071825266 -0.13327946 -0.0018322729 7.6525862e-39
0.073701389 -0.13327946 -0.0018322729 7.5607465e-39
-0.074194461 -0.14042725 -0.021810081 1.0325899e-38
-0.072283313 -0.14042725 -0.021810081 1.2077262e-38
-0.070372164 -0.14042725 -0.021810081 2.3232933e-38
-0.068461031 -0.14042725 -0.021810081 2.3509883e-38
-0.066341609 -0.13965334 -0.018877175 2.3417687e-38
-0.064435616 -0.13965334 -0.018877175 2.3509886e-38
-0.062529609 -0.13965334 -0.018877175 2.3509886e-38
-0.060623605 -0.13965334 -0.018877175 2.341805e-38
-0.058523465 -0.13885282 -0.015843537 2.341805e-38
-0.056622777 -0.13885282 -0.015843537 2.341805e-38
-0.054722104 -0.13885282 -0.015843537 2.341805e-38
-0.052821416 -0.13885282 -0.015843537 2.3418047e-38
-0.050696131 -0.13781275 -0.011902001 2.3418047e-38
-0.048802365 -0.13781275 -0.011902001 2.3509886e-38
-0.046908591 -0.13781275 -0.011902001 2.3509886e-38
-0.045014817 -0.13781275 -0.011902001 2.3509886e-38
-0.042971391 -0.13702248 -0.0089071058 2.3509886e-38
-0.041082863 -0.13702248 -0.0089071058 2.3509886e-38
-0.039008249 -0.13596557 -0.0049017929 2.3509886e-38
-0.037126746 -0.13596557 -0.0049017929 2.3509886e-38
-0.035245243 -0.13596557 -0.0049017929 2.3509886e-38
-0.033363748 -0.13596557 -0.0049017929 2.3509886e-38
-0.031482253 -0.13596557 -0.0049017929 2.3509886e-38
-0.029600751 -0.13596557 -0.0049017929 2.3509886e-38
-0.027719252 -0.13596557 -0.0049017929 2.3509886e-38
-0.025837753 -0.13596557 -0.0049017929 2.3509886e-38
-0.023956254 -0.13596557 -0.0049017929 2.3509886e-38
-0.021980572 -0.13515557 -0.0018322729 2.3509886e-38
-0.020104457 -0.13515557 -0.0018322729 2.3509886e-38
-0.018228341 -0.13515557 -0.0018322729 2.3509886e-38
-0.016430259 -0.13596557 -0.0049017929 2.3509886e-38
-0.014476106 -0.13515557 -0.0018322729 2.3509886e-38
-0.012535568 -0.13437997 0.0011070706 2.3509886e-38
-0.010664605 -0.13437997 0.0011070706 2.3509886e-38
-0.0087936409 -0.13437997 0.0011070706 2.3509886e-38
-0.0068553276 -0.13331302 0.0051504113 2.3509886e-38
-0.0049914531 -0.13331302 0.0051504113 2.3509886e-38
-0.0031275824 -0.13331302 0.0051504113 2.3509886e-38
-0.0012637079 -0.13331302 0.0051504113 2.3509886e-38
0.00060016662 -0.13331302 0.0051504113 2.3509886e-38
0.0024640411 -0.13331302 0.0051504113 2.3509886e-38
0.0043464005 -0.1325181 0.00816283 2.3509886e-38
0.0062049925 -0.1325181 0.00816283 2.3509886e-38
0.0080714617 -0.13172771 0.011158202 2.3509886e-38
0.0099274144 -0.13094176 0.014136646 2.3509886e-38
0.011775531 -0.13094176 0.014136646 2.3509886e-38
0.013623649 -0.13094176 0.014136646 2.3509886e-38
0.015471768 -0.13094176 0.014136646 2.3509886e-38
0.017295005 -0.12987186 0.018191192 2.3509886e-38
0.019136013 -0.12987186 0.018191192 2.3509886e-38
0.020977022 -0.12987186 0.018191192 2.3509886e-38
