# .PCD v0.7 - Point Cloud Data file format
VERSION 0.7
FIELDS x y z rgb
SIZE 4 4 4 4
TYPE F F F F
COUNT 1 1 1 1
WIDTH 929
HEIGHT 1
VIEWPOINT 0 0 0 1 0 0 0
POINTS 929
DATA ascii
0.0095348284 -0.088928089 -0.013443084 2.3509883e-38
0.011416327 -0.088928089 -0.013443084 2.3509883e-38
0.01333645 -0.089809433 -0.017448397 2.3509883e-38
0.015224972 -0.089809433 -0.017448397 2.3509883e-38
0.017152876 -0.090468436 -0.020443292 2.3509883e-38
0.01910539 -0.091335744 -0.024384828 2.3509886e-38
0.021006074 -0.091335744 -0.024384828 2.3509886e-38
0.022962606 -0.092003286 -0.027418466 2.3509886e-38
0.024927745 -0.09264864 -0.030351372 2.3509886e-38
0.026838889 -0.09264864 -0.030351372 2.3509886e-38
0.028845055 -0.093531981 -0.034365743 2.3509886e-38
0.03084179 -0.094211861 -0.037455529 2.3509886e-38
0.032872651 -0.095080331 -0.04140231 2.3509883e-38
0.034803174 -0.095080331 -0.04140231 2.3509883e-38
0.036855668 -0.095955089 -0.045377702 2.3418043e-38
0.038793162 -0.095955089 -0.045377702 2.3417687e-38
0.040834278 -0.09662199 -0.048408478 2.3509883e-38
0.042777076 -0.09662199 -0.048408478 2.3509886e-38
0.044719882 -0.09662199 -0.048408478 2.3509886e-38
0.046662688 -0.09662199 -0.048408478 2.3509527e-38
0.048771389 -0.097507954 -0.052434772 2.3509527e-38
0.050721258 -0.097507954 -0.052434772 2.3325138e-38
0.052802861 -0.098156333 -0.055381387 5.807973e-39
0.054757893 -0.098156333 -0.055381387 1.8403813e-40
-0.051867664 -0.080156773 0.034586579 1.7241653e-38
-0.050070375 -0.080156773 0.034586579 1.945398e-38
-0.048273087 -0.080156773 0.034586579 2.3059445e-39
-0.046475798 -0.080156773 0.034586579 8.3046552e-40
-0.044819109 -0.080827907 0.031560689 2.3509856e-38
-0.043016516 -0.080827907 0.031560689 2.350986e-38
-0.041213922 -0.080827907 0.031560689 2.3232197e-38
-0.039411336 -0.080827907 0.031560689 2.350952e-38
-0.037608743 -0.080827907 0.031560689 2.3509168e-38
-0.035806149 -0.080827907 0.031560689 2.3508809e-38
-0.034003556 -0.080827907 0.031560689 2.3508809e-38
-0.032200962 -0.080827907 0.031560689 2.3508809e-38
-0.03049369 -0.081479684 0.028622059 2.3509168e-38
-0.028685948 -0.081479684 0.028622059 2.3509527e-38
-0.026966767 -0.082158685 0.025560645 2.3509883e-38
-0.025153657 -0.082158685 0.025560645 2.3509886e-38
-0.023516679 -0.083695292 0.018632678 2.3509886e-38
-0.021762738 -0.084363595 0.015619544 2.3509886e-38
-0.019998616 -0.085035756 0.012589006 2.3509886e-38
-0.018222021 -0.085687637 0.0096499007 2.3509886e-38
-0.016381012 -0.085687637 0.0096499007 2.3509886e-38
-0.014540004 -0.085687637 0.0096499007 2.3509886e-38
-0.012759419 -0.086586922 0.0055953544 2.3509886e-38
-0.010911303 -0.086586922 0.0055953544 2.3509883e-38
-0.009097131 -0.087247536 0.0026169103 2.3509883e-38
-0.0072437879 -0.087247536 0.0026169103 2.3509883e-38
-0.0054140817 -0.087911904 -0.00037846155 2.3509883e-38
-0.0035554897 -0.087911904 -0.00037846155 2.3509883e-38
-0.001710102 -0.088580042 -0.0033908803 2.3509883e-38
0.00014313683 -0.089476839 -0.007434221 2.3509883e-38
0.0020141006 -0.089476839 -0.007434221 2.3509883e-38
0.0038850643 -0.089476839 -0.007434221 2.350988e-38
0.005756028 -0.089476839 -0.007434221 2.3509879e-38
0.0076398756 -0.090128779 -0.010373564 2.350988e-38
0.0095348284 -0.090809584 -0.013443084 2.350988e-38
0.011416327 -0.090809584 -0.013443084 2.350988e-38
0.01333645 -0.091697961 -0.017448397 2.350988e-38
0.015224972 -0.091697961 -0.017448397 2.350988e-38
0.017152876 -0.09236221 -0.020443292 2.350988e-38
0.01910539 -0.093236431 -0.024384828 2.3509883e-38
0.021006074 -0.093236431 -0.024384828 2.3509883e-38
0.022906756 -0.093236431 -0.024384828 2.3509886e-38
0.024927745 -0.094559789 -0.030351372 2.3509886e-38
0.026838889 -0.094559789 -0.030351372 2.3509886e-38
0.028845055 -0.095450163 -0.034365743 2.3509886e-38
0.03084179 -0.096135467 -0.037455529 2.3509886e-38
0.032872651 -0.097010851 -0.04140231 2.3509883e-38
0.034803174 -0.097010851 -0.04140231 2.3509883e-38
0.036855668 -0.097892582 -0.045377702 2.350988e-38
0.038793162 -0.097892582 -0.045377702 2.3509883e-38
0.040834278 -0.098564804 -0.048408478 2.3509883e-38
0.042777076 -0.098564804 -0.048408478 2.3509886e-38
0.044719882 -0.098564804 -0.048408478 2.3509886e-38
0.046662688 -0.098564804 -0.048408478 2.3509527e-38
0.048605494 -0.098564804 -0.048408478 2.3509527e-38
0.050418109 -0.097892582 -0.045377702 2.3232944e-38
0.052355595 -0.097892582 -0.045377702 9.2192113e-39
0.054293089 -0.097892582 -0.045377702 5.5282065e-40
-0.051706791 -0.081281558 0.037594825 1.899121e-38
-0.049914777 -0.081281558 0.037594825 1.9636932e-38
-0.048122764 -0.081281558 0.037594825 1.2900017e-39
-0.046475798 -0.081954062 0.034586579 3.6770072e-40
-0.044819109 -0.0826305 0.031560689 2.3509863e-38
-0.043016516 -0.0826305 0.031560689 2.3509865e-38
-0.041213922 -0.0826305 0.031560689 2.3509873e-38
-0.039411336 -0.0826305 0.031560689 2.3509521e-38
-0.037608743 -0.0826305 0.031560689 2.3509168e-38
-0.035806149 -0.0826305 0.031560689 2.3508809e-38
-0.034109183 -0.083287418 0.028622059 2.3508809e-38
-0.032301433 -0.083287418 0.028622059 2.3508809e-38
-0.03049369 -0.083287418 0.028622059 2.3509168e-38
-0.028685948 -0.083287418 0.028622059 2.3509527e-38
-0.026966767 -0.083971798 0.025560645 2.3509527e-38
-0.025153657 -0.083971798 0.025560645 2.3509886e-38
-0.023516679 -0.085520551 0.018632678 2.3509886e-38
-0.021762738 -0.086194143 0.015619544 2.3509886e-38
-0.019998616 -0.086871609 0.012589006 2.3509886e-38
-0.018162759 -0.086871609 0.012589006 2.3509886e-38
-0.016381012 -0.087528646 0.0096499007 2.3509886e-38
-0.014540004 -0.087528646 0.0096499007 2.3509886e-38
-0.012698995 -0.087528646 0.0096499007 2.3509886e-38
-0.010911303 -0.088435039 0.0055953544 2.3509883e-38
-0.009097131 -0.089100882 0.0026169103 2.3509883e-38
-0.0072437879 -0.089100882 0.0026169103 2.3509883e-38
-0.0054140817 -0.089770496 -0.00037846155 2.3509883e-38
-0.0035554897 -0.089770496 -0.00037846155 2.3509883e-38
-0.001710102 -0.090443924 -0.0033908803 2.3509883e-38
0.00014313683 -0.091347814 -0.007434221 2.3509883e-38
0.0020141006 -0.091347814 -0.007434221 2.3509883e-38
0.0038850643 -0.091347814 -0.007434221 2.350988e-38
0.005756028 -0.091347814 -0.007434221 2.350988e-38
0.0076398756 -0.092004895 -0.010373564 2.350988e-38
0.0095348284 -0.092691094 -0.013443084 2.350988e-38
0.011416327 -0.092691094 -0.013443084 2.350988e-38
0.01333645 -0.093586475 -0.017448397 2.350988e-38
0.015224972 -0.093586475 -0.017448397 2.3509883e-38
0.017152876 -0.094255984 -0.020443292 2.3509883e-38
0.01910539 -0.095137119 -0.024384828 2.3509883e-38
0.021006074 -0.095137119 -0.024384828 2.3509883e-38
0.022906756 -0.095137119 -0.024384828 2.3509886e-38
0.024868608 -0.095815286 -0.027418466 2.3509886e-38
0.026838889 -0.096470937 -0.030351372 2.3509886e-38
0.028845055 -0.097368345 -0.034365743 2.3509886e-38
0.030763239 -0.097368345 -0.034365743 2.3509886e-38
0.032872651 -0.098941371 -0.04140231 2.3509886e-38
0.034803174 -0.098941371 -0.04140231 2.3509886e-38
0.036855668 -0.099830076 -0.045377702 2.3509886e-38
0.038793162 -0.099830076 -0.045377702 2.3509886e-38
0.040730655 -0.099830076 -0.045377702 2.3509886e-38
0.042777076 -0.1005076 -0.048408478 2.3233302e-38
0.044719882 -0.1005076 -0.048408478 2.314075e-38
0.046662688 -0.1005076 -0.048408478 2.3232944e-38
0.048605494 -0.1005076 -0.048408478 2.3325138e-38
0.050418109 -0.099830076 -0.045377702 2.3509527e-38
0.052355595 -0.099830076 -0.045377702 1.4197778e-38
0.054433905 -0.1005076 -0.048408478 4.3328457e-39
0.056376711 -0.1005076 -0.048408478 3.5952778e-39
-0.051706791 -0.083073571 0.037594825 2.037018e-38
-0.049914777 -0.083073571 0.037594825 1.9817366e-38
-0.048122764 -0.083073571 0.037594825 1.1027434e-39
-0.046475798 -0.083751351 0.034586579 2.2094441e-39
-0.044819109 -0.084433094 0.031560689 2.3508437e-38
-0.043016516 -0.084433094 0.031560689 2.3509163e-38
-0.041213922 -0.084433094 0.031560689 2.3509527e-38
-0.039411336 -0.084433094 0.031560689 2.3509527e-38
-0.037608743 -0.084433094 0.031560689 2.3509168e-38
-0.035806149 -0.084433094 0.031560689 2.3509168e-38
-0.034109183 -0.085095167 0.028622059 2.3509168e-38
-0.032301433 -0.085095167 0.028622059 2.3509168e-38
-0.03049369 -0.085095167 0.028622059 2.3509168e-38
-0.028685948 -0.085095167 0.028622059 2.3509527e-38
-0.026966767 -0.085784912 0.025560645 2.3509527e-38
-0.025153657 -0.085784912 0.025560645 2.3509886e-38
-0.023516679 -0.087345809 0.018632678 2.3509886e-38
-0.021691417 -0.087345809 0.018632678 2.3509886e-38
-0.019932197 -0.088024676 0.015619544 2.3509886e-38
-0.018101653 -0.088024676 0.015619544 2.3509886e-38
-0.016326906 -0.088707477 0.012589006 2.3509886e-38
-0.014491046 -0.088707477 0.012589006 2.3509886e-38
-0.012698995 -0.089369655 0.0096499007 2.3509886e-38
-0.010911303 -0.090283155 0.0055953544 2.3509886e-38
-0.0090631861 -0.090283155 0.0055953544 2.3509886e-38
-0.0072437879 -0.090954214 0.0026169103 2.3509886e-38
-0.0054140817 -0.091629088 -0.00037846155 2.3509886e-38
-0.0035739765 -0.092307791 -0.0033908803 2.3509886e-38
-0.001710102 -0.092307791 -0.0033908803 2.3509886e-38
0.00014313683 -0.093218774 -0.007434221 2.3509886e-38
0.0020141006 -0.093218774 -0.007434221 2.3509886e-38
0.0038850643 -0.093218774 -0.007434221 2.3509883e-38
0.005756028 -0.093218774 -0.007434221 2.3509883e-38
0.0076533295 -0.094572589 -0.013443084 2.3509883e-38
0.0095348284 -0.094572589 -0.013443084 2.3509883e-38
0.011447929 -0.095475003 -0.017448397 2.3509883e-38
0.01333645 -0.095475003 -0.017448397 2.3509883e-38
0.015224972 -0.095475003 -0.017448397 2.3509886e-38
0.017152876 -0.096149758 -0.020443292 2.3509886e-38
0.019046647 -0.096149758 -0.020443292 2.3509886e-38
0.021006074 -0.097037792 -0.024384828 2.3509886e-38
0.022906756 -0.097037792 -0.024384828 2.3509886e-38
0.024868608 -0.097721294 -0.027418466 2.3509886e-38
0.026838889 -0.098382086 -0.030351372 2.3509886e-38
0.028845055 -0.099286526 -0.034365743 2.3509886e-38
0.030763239 -0.099286526 -0.034365743 2.3509886e-38
0.032765392 -0.099982664 -0.037455529 2.3509886e-38
0.034803174 -0.10087189 -0.04140231 2.3509527e-38
0.036733694 -0.10087189 -0.04140231 2.3509527e-38
0.038793162 -0.10176755 -0.045377702 2.3509527e-38
0.040730655 -0.10176755 -0.045377702 2.3509886e-38
0.042668141 -0.10176755 -0.045377702 2.3509527e-38
0.044605635 -0.10176755 -0.045377702 2.3509527e-38
0.046662688 -0.1024504 -0.048408478 2.3509527e-38
0.048771389 -0.10335754 -0.052434772 2.3509168e-38
0.050721258 -0.10335754 -0.052434772 2.2863809e-38
0.052491106 -0.1024504 -0.048408478 2.1204293e-38
0.054433905 -0.1024504 -0.048408478 4.977862e-39
0.056376711 -0.1024504 -0.048408478 1.1981943e-39
-0.051706791 -0.084865585 0.037594825 2.0828997e-38
-0.049914777 -0.084865585 0.037594825 2.1198143e-38
-0.048424289 -0.086235672 0.031560689 1.0101905e-39
-0.046621695 -0.086235672 0.031560689 1.7466709e-39
-0.044819109 -0.086235672 0.031560689 2.166237e-38
-0.042881228 -0.085548624 0.034586579 2.3508809e-38
-0.041083939 -0.085548624 0.034586579 2.3508809e-38
-0.039286658 -0.085548624 0.034586579 2.3509527e-38
-0.03748937 -0.085548624 0.034586579 2.3509527e-38
-0.035806149 -0.086235672 0.031560689 2.3509527e-38
-0.034109183 -0.086902916 0.028622059 2.3509527e-38
-0.032301433 -0.086902916 0.028622059 2.3509527e-38
-0.030592995 -0.087598026 0.025560645 2.3509527e-38
-0.028779881 -0.087598026 0.025560645 2.3509527e-38
-0.026966767 -0.087598026 0.025560645 2.3509527e-38
-0.025153657 -0.087598026 0.025560645 2.3509886e-38
-0.023516679 -0.089171067 0.018632678 2.3509886e-38
-0.021691417 -0.089171067 0.018632678 2.3509886e-38
-0.019932197 -0.089855224 0.015619544 2.3509886e-38
-0.018101653 -0.089855224 0.015619544 2.3509886e-38
-0.016326906 -0.09054333 0.012589006 2.3509886e-38
-0.014491046 -0.09054333 0.012589006 2.3509886e-38
-0.012655193 -0.09054333 0.012589006 2.3509886e-38
-0.010857986 -0.091210663 0.0096499007 2.3509886e-38
-0.0090169776 -0.091210663 0.0096499007 2.3509886e-38
-0.0072150659 -0.092131287 0.0055953544 2.3509886e-38
-0.0053904485 -0.092807561 0.0026169103 2.3509886e-38
-0.0035554897 -0.09348768 -0.00037846155 2.3509886e-38
-0.001727825 -0.095089734 -0.007434221 2.3509886e-38
0.00014313683 -0.095089734 -0.007434221 2.3509886e-38
0.0020141006 -0.095089734 -0.007434221 2.3509886e-38
0.0038850643 -0.095089734 -0.007434221 2.3509886e-38
0.005756028 -0.095089734 -0.007434221 2.3509886e-38
0.0076398756 -0.095757127 -0.010373564 2.3509886e-38
0.0095159914 -0.095757127 -0.010373564 2.3509886e-38
0.011416327 -0.096454084 -0.013443084 2.3509886e-38
0.01333645 -0.097363517 -0.017448397 2.3509886e-38
0.015224972 -0.097363517 -0.017448397 2.3509886e-38
0.017152876 -0.098043531 -0.020443292 2.3509886e-38
0.019046647 -0.098043531 -0.020443292 2.3509886e-38
0.021006074 -0.09893848 -0.024384828 2.3509886e-38
0.022906756 -0.09893848 -0.024384828 2.3509886e-38
0.024868608 -0.099627286 -0.027418466 2.3509886e-38
0.026838889 -0.10029322 -0.030351372 2.3509886e-38
0.028845055 -0.10120471 -0.034365743 2.3509886e-38
0.030763239 -0.10120471 -0.034365743 2.3509886e-38
0.032765392 -0.10190627 -0.037455529 2.3509886e-38
0.034803174 -0.10280241 -0.04140231 2.3509527e-38
0.036733694 -0.10280241 -0.04140231 2.3509527e-38
0.038793162 -0.10370506 -0.045377702 2.3509527e-38
0.040730655 -0.10370506 -0.045377702 2.3509886e-38
0.042668141 -0.10370506 -0.045377702 2.3509886e-38
0.044605635 -0.10370506 -0.045377702 2.3509527e-38
0.046662688 -0.1043932 -0.048408478 2.3509527e-38
0.048771389 -0.10530742 -0.052434772 2.3509168e-38
0.050721258 -0.10530742 -0.052434772 2.3509168e-38
0.052491106 -0.1043932 -0.048408478 2.2310642e-38
0.054433905 -0.1043932 -0.048408478 8.6656872e-39
0.056376711 -0.1043932 -0.048408478 6.4538062e-40
-0.051706791 -0.086657599 0.037594825 2.055241e-38
-0.049914777 -0.086657599 0.037594825 2.1751316e-38
-0.048122764 -0.086657599 0.037594825 1.0101905e-39
-0.04633075 -0.086657599 0.037594825 1.102026e-39
-0.044678509 -0.087345913 0.034586579 1.732953e-38
-0.04274673 -0.086657599 0.037594825 2.3509161e-38
-0.040954717 -0.086657599 0.037594825 2.3508441e-38
-0.039286658 -0.087345913 0.034586579 2.3509883e-38
-0.03748937 -0.087345913 0.034586579 2.3509527e-38
-0.035692081 -0.087345913 0.034586579 2.3509886e-38
-0.034109183 -0.088710666 0.028622059 2.3509886e-38
-0.032301433 -0.088710666 0.028622059 2.3509886e-38
-0.030592995 -0.089411139 0.025560645 2.3509886e-38
-0.028779881 -0.089411139 0.025560645 2.3509886e-38
-0.026966767 -0.089411139 0.025560645 2.3509886e-38
-0.025153657 -0.089411139 0.025560645 2.3509886e-38
-0.023516679 -0.090996325 0.018632678 2.3509886e-38
-0.021691417 -0.090996325 0.018632678 2.3509886e-38
-0.019866155 -0.090996325 0.018632678 2.3509886e-38
-0.018040897 -0.090996325 0.018632678 2.3509886e-38
-0.016271109 -0.091685757 0.015619544 2.3509886e-38
-0.014491046 -0.092379183 0.012589006 2.3509886e-38
-0.012655193 -0.092379183 0.012589006 2.3509886e-38
-0.010857986 -0.093051672 0.0096499007 2.3509886e-38
-0.0090169776 -0.093051672 0.0096499007 2.3509886e-38
-0.0071759671 -0.093051672 0.0096499007 2.3509886e-38
-0.0053669494 -0.093979403 0.0055953544 2.3509886e-38
-0.0035554897 -0.095346272 -0.00037846155 2.3509886e-38
-0.001710102 -0.09603554 -0.0033908803 2.3509886e-38
0.00014313683 -0.096960694 -0.007434221 2.3509886e-38
0.0020141006 -0.096960694 -0.007434221 2.3509886e-38
0.0038850643 -0.096960694 -0.007434221 2.3509886e-38
0.005756028 -0.096960694 -0.007434221 2.3509886e-38
0.0076398756 -0.097633243 -0.010373564 2.3509886e-38
0.0095159914 -0.097633243 -0.010373564 2.3509886e-38
0.011392108 -0.097633243 -0.010373564 2.3509886e-38
0.013297825 -0.098335579 -0.013443084 2.3509886e-38
0.015224972 -0.099252045 -0.017448397 2.3509886e-38
0.017113492 -0.099252045 -0.017448397 2.3509886e-38
0.019046647 -0.099937305 -0.020443292 2.3509886e-38
0.021006074 -0.10083917 -0.024384828 2.3509886e-38
0.022906756 -0.10083917 -0.024384828 2.3509886e-38
0.024868608 -0.10153329 -0.027418466 2.3509886e-38
0.026838889 -0.10220437 -0.030351372 2.3509886e-38
0.028845055 -0.1031229 -0.034365743 2.3509886e-38
0.030763239 -0.1031229 -0.034365743 2.3509886e-38
0.032872651 -0.10473295 -0.04140231 2.3509886e-38
0.034803174 -0.10473295 -0.04140231 2.3509886e-38
0.036733694 -0.10473295 -0.04140231 2.3509886e-38
0.038793162 -0.10564254 -0.045377702 2.3509886e-38
0.040730655 -0.10564254 -0.045377702 2.3509886e-38
0.042668141 -0.10564254 -0.045377702 2.3509883e-38
0.044719882 -0.10633601 -0.048408478 2.3509886e-38
0.046662688 -0.10633601 -0.048408478 2.341805e-38
0.048771389 -0.10725726 -0.052434772 2.341805e-38
0.050721258 -0.10725726 -0.052434772 2.3417691e-38
0.052491106 -0.10633601 -0.048408478 2.3233303e-38
0.054433905 -0.10633601 -0.048408478 1.4013747e-38
0.056376711 -0.10633601 -0.048408478 1.4447387e-42
-0.053664953 -0.089143202 0.034586579 2.2072861e-39
-0.051867664 -0.089143202 0.034586579 1.9723012e-38
-0.049914777 -0.088449612 0.037594825 2.0645688e-38
-0.048122764 -0.088449612 0.037594825 1.0101905e-39
-0.04633075 -0.088449612 0.037594825 1.2860557e-39
-0.044538736 -0.088449612 0.037594825 1.1982178e-38
-0.04274673 -0.088449612 0.037594825 2.3509511e-38
-0.040954717 -0.088449612 0.037594825 2.3509873e-38
-0.039162703 -0.088449612 0.037594825 2.3509876e-38
-0.037370697 -0.088449612 0.037594825 2.3509879e-38
-0.035578683 -0.088449612 0.037594825 2.3509879e-38
-0.034003556 -0.089840859 0.031560689 2.350988e-38
-0.032301433 -0.0905184 0.028622059 2.3509883e-38
-0.03049369 -0.0905184 0.028622059 2.3509883e-38
-0.028685948 -0.0905184 0.028622059 2.3509886e-38
-0.026966767 -0.091224253 0.025560645 2.3509886e-38
-0.025153657 -0.091224253 0.025560645 2.3509886e-38
-0.023516679 -0.092821583 0.018632678 2.3509886e-38
-0.021691417 -0.092821583 0.018632678 2.3509886e-38
-0.019866155 -0.092821583 0.018632678 2.3509886e-38
-0.018040897 -0.092821583 0.018632678 2.3509886e-38
-0.016215639 -0.092821583 0.018632678 2.3509886e-38
-0.014440568 -0.093516305 0.015619544 2.3509886e-38
-0.012610028 -0.093516305 0.015619544 2.3509886e-38
-0.010819336 -0.094215035 0.012589006 2.3509886e-38
-0.0090169776 -0.094892681 0.0096499007 2.3509886e-38
-0.0071759671 -0.094892681 0.0096499007 2.3509886e-38
-0.0053669494 -0.09582752 0.0055953544 2.3509886e-38
-0.0035371091 -0.09651424 0.0026169103 2.3509886e-38
-0.0016968977 -0.097204864 -0.00037846155 2.3509886e-38
0.00015377067 -0.097899407 -0.0033908803 2.3509886e-38
0.0020141006 -0.098831654 -0.007434221 2.3509886e-38
0.0038850643 -0.098831654 -0.007434221 2.3509886e-38
0.005756028 -0.098831654 -0.007434221 2.3509886e-38
0.0076269899 -0.098831654 -0.007434221 2.3509886e-38
0.0095159914 -0.099509358 -0.010373564 2.3509886e-38
0.011392108 -0.099509358 -0.010373564 2.3509886e-38
0.013297825 -0.10021709 -0.013443084 2.3509886e-38
0.015179324 -0.10021709 -0.013443084 2.3509886e-38
0.017113492 -0.10114056 -0.017448397 2.3509886e-38
0.019046647 -0.10183108 -0.020443292 2.3509886e-38
0.020940421 -0.10183108 -0.020443292 2.3509886e-38
0.022906756 -0.10273984 -0.024384828 2.3509886e-38
0.024868608 -0.10343929 -0.027418466 2.3509886e-38
0.026838889 -0.1041155 -0.030351372 2.3509886e-38
0.028845055 -0.10504107 -0.034365743 2.3509886e-38
0.030763239 -0.10504107 -0.034365743 2.3509886e-38
0.032765392 -0.10575347 -0.037455529 2.3509886e-38
0.034803174 -0.10666345 -0.04140231 2.3509886e-38
0.036733694 -0.10666345 -0.04140231 2.3509883e-38
0.038793162 -0.10758002 -0.045377702 2.3509883e-38
0.040730655 -0.10758002 -0.045377702 2.350988e-38
0.042668141 -0.10758002 -0.045377702 2.350988e-38
0.044719882 -0.10827883 -0.048408478 2.3418045e-38
0.046662688 -0.10827883 -0.048408478 2.341805e-38
0.048605494 -0.10827883 -0.048408478 2.341805e-38
0.050721258 -0.10920714 -0.052434772 2.341805e-38
0.052491106 -0.10827883 -0.048408478 2.3234379e-38
0.054433905 -0.10827883 -0.048408478 1.8808996e-38
0.056376711 -0.10827883 -0.048408478 1.8655206e-40
-0.053664953 -0.09094049 0.034586579 1.931065e-39
-0.051867664 -0.09094049 0.034586579 1.8248247e-38
-0.049914777 -0.090241626 0.037594825 1.7787269e-38
-0.048122764 -0.090241626 0.037594825 1.102026e-39
-0.04633075 -0.090241626 0.037594825 1.4715203e-39
-0.044538736 -0.090241626 0.037594825 6.4507948e-39
-0.04274673 -0.090241626 0.037594825 2.2216966e-38
-0.040954717 -0.090241626 0.037594825 2.3509866e-38
-0.039162703 -0.090241626 0.037594825 2.3509866e-38
-0.037370697 -0.090241626 0.037594825 2.3509869e-38
-0.035578683 -0.090241626 0.037594825 2.3509873e-38
-0.0338948 -0.09094049 0.034586579 2.3509876e-38
-0.032200962 -0.091643453 0.031560689 2.3509879e-38
-0.03049369 -0.092326149 0.028622059 2.350988e-38
-0.028685948 -0.092326149 0.028622059 2.3509883e-38
-0.026966767 -0.093037367 0.025560645 2.3509883e-38
-0.025153657 -0.093037367 0.025560645 2.3509886e-38
-0.023440516 -0.093950883 0.021628408 2.3509886e-38
-0.021620506 -0.093950883 0.021628408 2.3509886e-38
-0.019800501 -0.093950883 0.021628408 2.3509886e-38
-0.017980495 -0.093950883 0.021628408 2.3509886e-38
-0.01616049 -0.093950883 0.021628408 2.3509886e-38
-0.014390381 -0.094646841 0.018632678 2.3509886e-38
-0.012565123 -0.094646841 0.018632678 2.3509886e-38
-0.010819336 -0.096050888 0.012589006 2.3509886e-38
-0.0089834798 -0.096050888 0.012589006 2.3509886e-38
-0.0071759671 -0.096733689 0.0096499007 2.3509886e-38
-0.0053349584 -0.096733689 0.0096499007 2.3509886e-38
-0.003518831 -0.097675636 0.0055953544 2.3509886e-38
-0.0016968977 -0.099063456 -0.00037846155 2.3509886e-38
0.00015377067 -0.099763289 -0.0033908803 2.3509886e-38
0.0020176452 -0.099763289 -0.0033908803 2.3509886e-38
0.0038850643 -0.10070263 -0.007434221 2.3509886e-38
0.005756028 -0.10070263 -0.007434221 2.3509886e-38
0.0076269899 -0.10070263 -0.007434221 2.3509886e-38
0.0095159914 -0.10138547 -0.010373564 2.3509886e-38
0.011392108 -0.10138547 -0.010373564 2.3509886e-38
0.013297825 -0.10209858 -0.013443084 2.3509886e-38
0.015179324 -0.10209858 -0.013443084 2.3509886e-38
0.017113492 -0.10302909 -0.017448397 2.3509886e-38
0.019002015 -0.10302909 -0.017448397 2.3509886e-38
0.020940421 -0.10372485 -0.020443292 2.3509886e-38
0.022906756 -0.10464053 -0.024384828 2.3509886e-38
0.02480744 -0.10464053 -0.024384828 2.3509886e-38
0.026774611 -0.10534529 -0.027418466 2.3509886e-38
0.028845055 -0.10695927 -0.034365743 2.3509886e-38
0.030763239 -0.10695927 -0.034365743 2.3509886e-38
0.032765392 -0.10767709 -0.037455529 2.3509886e-38
0.034688994 -0.10767709 -0.037455529 2.3509883e-38
0.036612593 -0.10767709 -0.037455529 2.350988e-38
0.038793162 -0.10951753 -0.045377702 2.3509879e-38
0.040730655 -0.10951753 -0.045377702 2.3509876e-38
0.042668141 -0.10951753 -0.045377702 2.341804e-38
0.044719882 -0.11022164 -0.048408478 2.341804e-38
0.046662688 -0.11022164 -0.048408478 2.3418045e-38
0.048605494 -0.11022164 -0.048408478 2.3234376e-38
0.0505483 -0.11022164 -0.048408478 2.3142544e-38
0.052491106 -0.11022164 -0.048408478 2.3142544e-38
0.054433905 -0.11022164 -0.048408478 2.2128756e-38
0.056376711 -0.11022164 -0.048408478 1.5705627e-39
0.058319516 -0.11022164 -0.048408478 1.8797999e-40
-0.053832069 -0.093446046 0.031560689 3.8678977e-39
-0.052029476 -0.093446046 0.031560689 1.5851888e-38
-0.050070375 -0.092737779 0.034586579 1.3731387e-38
-0.048122764 -0.09203364 0.037594825 9.1835496e-40
-0.04633075 -0.09203364 0.037594825 9.1835496e-40
-0.044538736 -0.09203364 0.037594825 1.7495379e-39
-0.04274673 -0.09203364 0.037594825 1.6961813e-38
-0.040954717 -0.09203364 0.037594825 2.3232192e-38
-0.039162703 -0.09203364 0.037594825 2.3509863e-38
-0.037370697 -0.09203364 0.037594825 2.3509863e-38
-0.035578683 -0.09203364 0.037594825 2.3509869e-38
-0.0338948 -0.092737779 0.034586579 2.3509873e-38
-0.032200962 -0.093446046 0.031560689 2.3509876e-38
-0.03049369 -0.094133899 0.028622059 2.350988e-38
-0.028685948 -0.094133899 0.028622059 2.3509883e-38
-0.026966767 -0.094850481 0.025560645 2.3509886e-38
-0.025153657 -0.094850481 0.025560645 2.3509886e-38
-0.023440516 -0.095770895 0.021628408 2.3509886e-38
-0.021620506 -0.095770895 0.021628408 2.3509886e-38
-0.019800501 -0.095770895 0.021628408 2.3509886e-38
-0.017980495 -0.095770895 0.021628408 2.3509886e-38
-0.01616049 -0.095770895 0.021628408 2.3509886e-38
-0.014390381 -0.096472099 0.018632678 2.3509886e-38
-0.012565123 -0.096472099 0.018632678 2.3509886e-38
-0.010819336 -0.097886756 0.012589006 2.3509886e-38
-0.0089834798 -0.097886756 0.012589006 2.3509886e-38
-0.0071759671 -0.098574698 0.0096499007 2.3509886e-38
-0.0053349584 -0.098574698 0.0096499007 2.3509886e-38
-0.003518831 -0.099523753 0.0055953544 2.3509886e-38
-0.0016837679 -0.10022092 0.0026169103 2.3509886e-38
0.00016169436 -0.10092205 -0.00037846155 2.3509886e-38
0.0020176452 -0.10162716 -0.0033908803 2.3509886e-38
0.0038850643 -0.10257359 -0.007434221 2.3509886e-38
0.005756028 -0.10257359 -0.007434221 2.3509886e-38
0.0076269899 -0.10257359 -0.007434221 2.3509886e-38
0.0094979536 -0.10257359 -0.007434221 2.3509886e-38
0.011392108 -0.1032616 -0.010373564 2.3509886e-38
0.013297825 -0.10398008 -0.013443084 2.3509886e-38
0.015179324 -0.10398008 -0.013443084 2.3509886e-38
0.017113492 -0.1049176 -0.017448397 2.3509886e-38
0.019002015 -0.1049176 -0.017448397 2.3509886e-38
0.020940421 -0.10561861 -0.020443292 2.3509886e-38
0.022906756 -0.1065412 -0.024384828 2.3509886e-38
0.02480744 -0.1065412 -0.024384828 2.3509886e-38
0.026774611 -0.1072513 -0.027418466 2.3509886e-38
0.028750034 -0.1079378 -0.030351372 2.3509886e-38
0.030661179 -0.1079378 -0.030351372 2.3509886e-38
0.03268142 -0.10887744 -0.034365743 2.3509886e-38
0.034599602 -0.10887744 -0.034365743 2.3509883e-38
0.036612593 -0.10960068 -0.037455529 2.350988e-38
0.038664214 -0.11052449 -0.04140231 2.3509879e-38
0.040594734 -0.11052449 -0.04140231 2.3509876e-38
0.042668141 -0.11145501 -0.045377702 2.341804e-38
0.044605635 -0.11145501 -0.045377702 2.341804e-38
0.046662688 -0.11216442 -0.048408478 2.3234372e-38
0.048605494 -0.11216442 -0.048408478 2.3234376e-38
0.0505483 -0.11216442 -0.048408478 2.3050707e-38
0.052491106 -0.11216442 -0.048408478 2.2867037e-38
0.054433905 -0.11216442 -0.048408478 2.2958873e-38
0.056376711 -0.11216442 -0.048408478 3.8761723e-39
0.058319516 -0.11216442 -0.048408478 1.5716333e-39
-0.053994372 -0.095941633 0.028622059 9.3070867e-39
-0.052186623 -0.095941633 0.028622059 1.4838104e-38
-0.050070375 -0.094535068 0.034586579 1.1611252e-38
-0.048273087 -0.094535068 0.034586579 7.3468397e-40
-0.046475798 -0.094535068 0.034586579 6.4284847e-40
-0.044678509 -0.094535068 0.034586579 5.5101298e-40
-0.04274673 -0.093825653 0.037594825 1.0876901e-38
-0.040954717 -0.093825653 0.037594825 2.2863409e-38
-0.039162703 -0.093825653 0.037594825 2.350986e-38
-0.037370697 -0.093825653 0.037594825 2.3509863e-38
-0.035578683 -0.093825653 0.037594825 2.3509869e-38
-0.0338948 -0.094535068 0.034586579 2.350987e-38
-0.032097511 -0.094535068 0.034586579 2.3509879e-38
-0.030398371 -0.09524864 0.031560689 2.3509883e-38
-0.028685948 -0.095941633 0.028622059 2.341805e-38
-0.026966767 -0.096663594 0.025560645 2.341805e-38
-0.025153657 -0.096663594 0.025560645 2.3509886e-38
-0.023440516 -0.097590908 0.021628408 2.3509886e-38
-0.021620506 -0.097590908 0.021628408 2.3509886e-38
-0.019800501 -0.097590908 0.021628408 2.3509886e-38
-0.017980495 -0.097590908 0.021628408 2.3509886e-38
-0.016215639 -0.098297372 0.018632678 2.3509886e-38
-0.014390381 -0.098297372 0.018632678 2.3509886e-38
-0.012565123 -0.098297372 0.018632678 2.3509886e-38
-0.010819336 -0.099722609 0.012589006 2.3509886e-38
-0.0090169776 -0.10041572 0.0096499007 2.3509886e-38
-0.0071759671 -0.10041572 0.0096499007 2.3509886e-38
-0.0053349584 -0.10041572 0.0096499007 2.3509886e-38
-0.003518831 -0.10137187 0.0055953544 2.3509886e-38
-0.0016837679 -0.10207425 0.0026169103 2.3509886e-38
0.00016169436 -0.10278064 -0.00037846155 2.3509886e-38
0.0020176452 -0.10349102 -0.0033908803 2.3509886e-38
0.0038850643 -0.10444455 -0.007434221 2.3509886e-38
0.005756028 -0.10444455 -0.007434221 2.3509886e-38
0.0076269899 -0.10444455 -0.007434221 2.3509886e-38
0.0094979536 -0.10444455 -0.007434221 2.3509886e-38
0.011392108 -0.10513772 -0.010373564 2.3509886e-38
0.013268225 -0.10513772 -0.010373564 2.3509886e-38
0.015179324 -0.10586159 -0.013443084 2.3509886e-38
0.017113492 -0.10680611 -0.017448397 2.3509886e-38
0.019002015 -0.10680611 -0.017448397 2.3509886e-38
0.020940421 -0.1075124 -0.020443292 2.3509886e-38
0.022906756 -0.1084419 -0.024384828 2.3509886e-38
0.02480744 -0.1084419 -0.024384828 2.3509886e-38
0.026774611 -0.10915731 -0.027418466 2.3509886e-38
0.028750034 -0.10984896 -0.030351372 2.3509886e-38
0.030661179 -0.10984896 -0.030351372 2.3509886e-38
0.03268142 -0.11079563 -0.034365743 2.3509886e-38
0.034599602 -0.11079563 -0.034365743 2.3509883e-38
0.036517784 -0.11079563 -0.034365743 2.350988e-38
0.038664214 -0.11245503 -0.04140231 2.3509879e-38
0.040594734 -0.11245503 -0.04140231 2.3509876e-38
0.042668141 -0.11339252 -0.045377702 2.341804e-38
0.044605635 -0.11339252 -0.045377702 2.341804e-38
0.046543121 -0.11339252 -0.045377702 2.3234372e-38
0.048605494 -0.11410724 -0.048408478 2.3234376e-38
0.0505483 -0.11410724 -0.048408478 2.3142544e-38
0.052491106 -0.11410724 -0.048408478 2.2683007e-38
0.054433905 -0.11410724 -0.048408478 2.2867037e-38
0.056376711 -0.11410724 -0.048408478 5.9048391e-39
0.058319516 -0.11410724 -0.048408478 2.3095599e-39
-0.055462234 -0.096332356 0.034586579 2.7637109e-39
-0.053994372 -0.097749382 0.028622059 1.4654798e-38
-0.052186623 -0.097749382 0.028622059 1.5115416e-38
-0.050226882 -0.097051233 0.031560689 1.1611977e-38
-0.048273087 -0.096332356 0.034586579 8.2651947e-40
-0.046475798 -0.096332356 0.034586579 9.1835496e-40
-0.044538736 -0.095617667 0.037594825 5.5101298e-40
-0.04274673 -0.095617667 0.037594825 7.374549e-39
-0.040954717 -0.095617667 0.037594825 2.3508781e-38
-0.039162703 -0.095617667 0.037594825 2.3509863e-38
-0.037370697 -0.095617667 0.037594825 2.3509866e-38
-0.035578683 -0.095617667 0.037594825 2.3509869e-38
-0.033786669 -0.095617667 0.037594825 2.3509873e-38
-0.032097511 -0.096332356 0.034586579 2.350988e-38
-0.030398371 -0.097051233 0.031560689 2.3509886e-38
-0.028595781 -0.097051233 0.031560689 2.341805e-38
-0.026878202 -0.097749382 0.028622059 2.341805e-38
-0.025153657 -0.098476708 0.025560645 2.3509886e-38
-0.023340547 -0.098476708 0.025560645 2.3509886e-38
-0.021527434 -0.098476708 0.025560645 2.3509886e-38
-0.019800501 -0.099410906 0.021628408 2.3509886e-38
-0.017980495 -0.099410906 0.021628408 2.3509886e-38
-0.01616049 -0.099410906 0.021628408 2.3509886e-38
-0.014390381 -0.10012263 0.018632678 2.3509886e-38
-0.012565123 -0.10012263 0.018632678 2.3509886e-38
-0.010819336 -0.10155846 0.012589006 2.3509886e-38
-0.0090169776 -0.10225673 0.0096499007 2.3509886e-38
-0.0071759671 -0.10225673 0.0096499007 2.3509886e-38
-0.0053669494 -0.10322 0.0055953544 2.3509886e-38
-0.003518831 -0.10322 0.0055953544 2.3509886e-38
-0.0016837679 -0.1039276 0.0026169103 2.3509886e-38
0.00016957149 -0.1039276 0.0026169103 2.3509886e-38
0.0020176452 -0.10535492 -0.0033908803 2.3509886e-38
0.0038815197 -0.10535492 -0.0033908803 2.3509886e-38
0.005756028 -0.10631551 -0.007434221 2.3509886e-38
0.0076269899 -0.10631551 -0.007434221 2.3509886e-38
0.0094979536 -0.10631551 -0.007434221 2.3509886e-38
0.011392108 -0.10701384 -0.010373564 2.3509886e-38
0.013268225 -0.10701384 -0.010373564 2.3509886e-38
0.015179324 -0.10774307 -0.013443084 2.3509886e-38
0.017113492 -0.10869466 -0.017448397 2.3509886e-38
0.019046647 -0.10940616 -0.020443292 2.3509886e-38
0.020940421 -0.10940616 -0.020443292 2.3509886e-38
0.022906756 -0.11034258 -0.024384828 2.3509886e-38
0.02480744 -0.11034258 -0.024384828 2.3509886e-38
0.026774611 -0.11106332 -0.027418466 2.3509886e-38
0.028750034 -0.11176009 -0.030351372 2.3509886e-38
0.030661179 -0.11176009 -0.030351372 2.3509886e-38
0.032572322 -0.11176009 -0.030351372 2.3509886e-38
0.034599602 -0.1127138 -0.034365743 2.3509527e-38
0.036517784 -0.1127138 -0.034365743 2.3509883e-38
0.038536191 -0.11344786 -0.037455529 2.350988e-38
0.040594734 -0.11438553 -0.04140231 2.3509879e-38
0.042525254 -0.11438553 -0.04140231 2.3509879e-38
0.044605635 -0.11533 -0.045377702 2.3418043e-38
0.046543121 -0.11533 -0.045377702 2.3234374e-38
0.048605494 -0.11605005 -0.048408478 2.3142544e-38
0.0505483 -0.11605005 -0.048408478 2.3142544e-38
0.052491106 -0.11605005 -0.048408478 2.2499336e-38
0.054433905 -0.11605005 -0.048408478 2.2775202e-38
0.056376711 -0.11605005 -0.048408478 7.0111895e-39
0.058319516 -0.11605005 -0.048408478 2.2180901e-39
-0.055462234 -0.098129645 0.034586579 9.95497e-39
-0.053664953 -0.098129645 0.034586579 1.7236281e-38
-0.051867664 -0.098129645 0.034586579 1.5945186e-38
-0.050226882 -0.098853827 0.031560689 1.0321606e-38
-0.048273087 -0.098129645 0.034586579 6.4285128e-40
-0.046475798 -0.098129645 0.034586579 1.3793345e-39
-0.044538736 -0.09740968 0.037594825 5.5101298e-40
-0.04274673 -0.09740968 0.037594825 1.2892843e-39
-0.040826246 -0.096693933 0.040585428 2.3508788e-38
-0.039039485 -0.096693933 0.040585428 2.3509869e-38
-0.037370697 -0.09740968 0.037594825 2.350987e-38
-0.035578683 -0.09740968 0.037594825 2.3509873e-38
-0.033786669 -0.09740968 0.037594825 2.3509879e-38
-0.031994656 -0.09740968 0.037594825 2.3509886e-38
-0.030300224 -0.098129645 0.034586579 2.341805e-38
-0.028595781 -0.098853827 0.031560689 2.341805e-38
-0.026878202 -0.099557132 0.028622059 2.341805e-38
-0.025070461 -0.099557132 0.028622059 2.3509886e-38
-0.023340547 -0.10028981 0.025560645 2.3509886e-38
-0.021527434 -0.10028981 0.025560645 2.3509886e-38
-0.01971432 -0.10028981 0.025560645 2.3509886e-38
-0.017980495 -0.10123092 0.021628408 2.3509886e-38
-0.01616049 -0.10123092 0.021628408 2.3509886e-38
-0.014390381 -0.10194789 0.018632678 2.3509886e-38
-0.012565123 -0.10194789 0.018632678 2.3509886e-38
-0.010819336 -0.10339431 0.012589006 2.3509886e-38
-0.0090169776 -0.10409774 0.0096499007 2.3509886e-38
-0.0071759671 -0.10409774 0.0096499007 2.3509886e-38
-0.0053669494 -0.1050681 0.0055953544 2.3509886e-38
-0.003518831 -0.1050681 0.0055953544 2.3509886e-38
-0.0016707126 -0.1050681 0.0055953544 2.3509886e-38
0.00016957149 -0.10578094 0.0026169103 2.3509886e-38
0.0020176452 -0.10721879 -0.0033908803 2.3509886e-38
0.0038815197 -0.10721879 -0.0033908803 2.3509886e-38
0.005756028 -0.10818647 -0.007434221 2.3509886e-38
0.0076269899 -0.10818647 -0.007434221 2.3509886e-38
0.0094979536 -0.10818647 -0.007434221 2.3509886e-38
0.011392108 -0.10888995 -0.010373564 2.3509886e-38
0.013268225 -0.10888995 -0.010373564 2.3509886e-38
0.015144342 -0.10888995 -0.010373564 2.3509886e-38
0.017060824 -0.10962458 -0.013443084 2.3509886e-38
0.019002015 -0.11058317 -0.017448397 2.3509886e-38
0.020890536 -0.11058317 -0.017448397 2.3509886e-38
0.022834193 -0.11129995 -0.020443292 2.3509886e-38
0.02480744 -0.11224325 -0.024384828 2.3509886e-38
0.026708124 -0.11224325 -0.024384828 2.3509886e-38
0.028680613 -0.11296929 -0.027418466 2.3509886e-38
0.030586615 -0.11296929 -0.027418466 2.3509886e-38
0.032572322 -0.11367123 -0.030351372 2.3509886e-38
0.03448347 -0.11367123 -0.030351372 2.3509527e-38
0.036517784 -0.114632 -0.034365743 2.3509527e-38
0.038536191 -0.11537148 -0.037455529 2.3509527e-38
0.040459797 -0.11537148 -0.037455529 2.3509883e-38
0.042525254 -0.11631607 -0.04140231 2.3509883e-38
0.044455774 -0.11631607 -0.04140231 2.3418047e-38
0.046543121 -0.11726747 -0.045377702 2.3234379e-38
0.048605494 -0.11799283 -0.048408478 2.3142544e-38
0.0505483 -0.11799283 -0.048408478 2.2589736e-38
0.052491106 -0.11799283 -0.048408478 2.2867037e-38
0.054433905 -0.11799283 -0.048408478 2.2867037e-38
0.056376711 -0.11799283 -0.048408478 7.7484e-39
0.060262322 -0.11799283 -0.048408478 5.5371328e-39
-0.055462234 -0.099926919 0.034586579 1.5394512e-38
-0.053664953 -0.099926919 0.034586579 1.7513228e-38
-0.051867664 -0.099926919 0.034586579 1.4009079e-38
-0.050226882 -0.10065642 0.031560689 5.4352402e-39
-0.048273087 -0.099926919 0.034586579 6.4285548e-40
-0.04633075 -0.099201679 0.037594825 8.2652647e-40
-0.044399783 -0.098480701 0.040585428 5.5101298e-40
-0.042613015 -0.098480701 0.040585428 2.1186904e-39
-0.040826246 -0.098480701 0.040585428 2.3509873e-38
-0.039039485 -0.098480701 0.040585428 2.3509873e-38
-0.037370697 -0.099201679 0.037594825 2.3509876e-38
-0.035578683 -0.099201679 0.037594825 2.3509879e-38
-0.033786669 -0.099201679 0.037594825 2.3509883e-38
-0.031994656 -0.099201679 0.037594825 2.3509886e-38
-0.030300224 -0.099926919 0.034586579 2.341805e-38
-0.028502936 -0.099926919 0.034586579 2.3417691e-38
-0.026793187 -0.10065642 0.031560689 2.3417691e-38
-0.025070461 -0.10136487 0.028622059 2.3509886e-38
-0.023262711 -0.10136487 0.028622059 2.3509886e-38
-0.021454969 -0.10136487 0.028622059 2.3509886e-38
-0.01971432 -0.10210292 0.025560645 2.3509886e-38
-0.017980495 -0.10305093 0.021628408 2.3509886e-38
-0.01616049 -0.10305093 0.021628408 2.3509886e-38
-0.014390381 -0.10377313 0.018632678 2.3509886e-38
-0.012610028 -0.10449956 0.015619544 2.3509886e-38
-0.010819336 -0.10523017 0.012589006 2.3509886e-38
-0.0090169776 -0.10593875 0.0096499007 2.3509886e-38
-0.0071759671 -0.10593875 0.0096499007 2.3509886e-38
-0.0053669494 -0.10691623 0.0055953544 2.3509886e-38
-0.003518831 -0.10691623 0.0055953544 2.3509886e-38
-0.0016707126 -0.10691623 0.0055953544 2.3509886e-38
0.00017740577 -0.10691623 0.0055953544 2.3509886e-38
0.0020202864 -0.1083564 -0.00037846155 2.3509886e-38
0.0038815197 -0.10908265 -0.0033908803 2.3509886e-38
0.005756028 -0.11005743 -0.007434221 2.3509886e-38
0.0076269899 -0.11005743 -0.007434221 2.3509886e-38
0.0094979536 -0.11005743 -0.007434221 2.3509886e-38
0.011392108 -0.11076607 -0.010373564 2.3509886e-38
0.013268225 -0.11076607 -0.010373564 2.3509886e-38
0.015144342 -0.11076607 -0.010373564 2.3509886e-38
0.017060824 -0.11150609 -0.013443084 2.3509886e-38
0.019002015 -0.11247168 -0.017448397 2.3509886e-38
0.020890536 -0.11247168 -0.017448397 2.3509886e-38
0.022834193 -0.11319371 -0.020443292 2.3509886e-38
0.024727965 -0.11319371 -0.020443292 2.3509886e-38
0.026621738 -0.11319371 -0.020443292 2.3509886e-38
0.028608806 -0.11414395 -0.024384828 2.3509886e-38
0.030586615 -0.1148753 -0.027418466 2.3509886e-38
0.032492615 -0.1148753 -0.027418466 2.3509886e-38
0.03448347 -0.11558239 -0.030351372 2.3509168e-38
0.036394611 -0.11558239 -0.030351372 2.3509168e-38
0.038435973 -0.11655019 -0.034365743 2.3509527e-38
0.040459797 -0.11729507 -0.037455529 2.3509886e-38
0.042383395 -0.11729507 -0.037455529 2.341805e-38
0.044455774 -0.11824657 -0.04140231 2.341805e-38
0.046386294 -0.11824657 -0.04140231 2.3234379e-38
0.048480615 -0.11920498 -0.045377702 2.3234379e-38
0.0505483 -0.11993565 -0.048408478 2.3050708e-38
0.052491106 -0.11993565 -0.048408478 2.2958873e-38
0.054433905 -0.11993565 -0.048408478 2.2775202e-38
0.056376711 -0.11993565 -0.048408478 9.9610979e-39
0.058319516 -0.11993565 -0.048408478 3.507401e-39
-0.055462234 -0.10172421 0.034586579 1.7515009e-38
-0.053664953 -0.10172421 0.034586579 1.9727002e-38
-0.051867664 -0.10172421 0.034586579 1.2165884e-38
-0.050226882 -0.10245901 0.031560689 1.3789926e-39
-0.048273087 -0.10172421 0.034586579 5.5101998e-40
-0.04633075 -0.10099369 0.037594825 5.5101578e-40
-0.044399783 -0.10026747 0.040585428 5.5101298e-40
-0.042613015 -0.10026747 0.040585428 1.1956593e-39
-0.040954717 -0.10099369 0.037594825 2.3047103e-38
-0.039162703 -0.10099369 0.037594825 2.350952e-38
-0.037370697 -0.10099369 0.037594825 2.3509521e-38
-0.035578683 -0.10099369 0.037594825 2.3509883e-38
-0.033786669 -0.10099369 0.037594825 2.3509886e-38
-0.031994656 -0.10099369 0.037594825 2.3509527e-38
-0.030202644 -0.10099369 0.037594825 2.341805e-38
-0.028502936 -0.10172421 0.034586579 2.3234379e-38
-0.026705647 -0.10172421 0.034586579 2.3417691e-38
-0.024908362 -0.10172421 0.034586579 2.3509886e-38
-0.023188004 -0.10245901 0.031560689 2.3509886e-38
-0.021454969 -0.10317262 0.028622059 2.3509886e-38
-0.019647224 -0.10317262 0.028622059 2.3509886e-38
-0.017901206 -0.10391603 0.025560645 2.3509886e-38
-0.01616049 -0.10487093 0.021628408 2.3509886e-38
-0.014390381 -0.10559841 0.018632678 2.3509886e-38
-0.012610028 -0.10633011 0.015619544 2.3509886e-38
-0.010819336 -0.10706602 0.012589006 2.3509886e-38
-0.0090169776 -0.10777976 0.0096499007 2.3509886e-38
-0.0071759671 -0.10777976 0.0096499007 2.3509886e-38
-0.0053669494 -0.10876434 0.0055953544 2.3509886e-38
-0.003518831 -0.10876434 0.0055953544 2.3509886e-38
-0.0016707126 -0.10876434 0.0055953544 2.3509886e-38
0.00017740577 -0.10876434 0.0055953544 2.3509886e-38
0.0020229127 -0.10948761 0.0026169103 2.3509886e-38
0.0038788784 -0.11021499 -0.00037846155 2.3509886e-38
0.0057453942 -0.11094652 -0.0033908803 2.3509886e-38
0.0076269899 -0.11192839 -0.007434221 2.3509886e-38
0.0094979536 -0.11192839 -0.007434221 2.3509886e-38
0.011392108 -0.11264218 -0.010373564 2.3509886e-38
0.013268225 -0.11264218 -0.010373564 2.3509886e-38
0.015144342 -0.11264218 -0.010373564 2.3509886e-38
0.017060824 -0.11338757 -0.013443084 2.3509886e-38
0.019002015 -0.1143602 -0.017448397 2.3509886e-38
0.020890536 -0.1143602 -0.017448397 2.3509886e-38
0.022834193 -0.11508749 -0.020443292 2.3509886e-38
0.024727965 -0.11508749 -0.020443292 2.3509886e-38
0.026621738 -0.11508749 -0.020443292 2.3509886e-38
0.028608806 -0.11604463 -0.024384828 2.3509886e-38
0.030509491 -0.11604463 -0.024384828 2.3509886e-38
0.032492615 -0.11678131 -0.027418466 2.3509886e-38
0.034398623 -0.11678131 -0.027418466 2.3509168e-38
0.036394611 -0.11749353 -0.030351372 2.3509168e-38
0.038435973 -0.11846836 -0.034365743 2.3509527e-38
0.040354155 -0.11846836 -0.034365743 2.3509886e-38
0.042383395 -0.11921866 -0.037455529 2.341805e-38
0.044306993 -0.11921866 -0.037455529 2.341805e-38
0.046230592 -0.11921866 -0.037455529 2.3234379e-38
0.048480615 -0.12114246 -0.045377702 2.3234379e-38
0.050418109 -0.12114246 -0.045377702 2.3142544e-38
0.052355595 -0.12114246 -0.045377702 2.2867037e-38
0.054293089 -0.12114246 -0.045377702 2.2774484e-38
0.056376711 -0.12187846 -0.048408478 1.4293576e-38
0.058319516 -0.12187846 -0.048408478 5.1662063e-39
0.060470574 -0.12285618 -0.052434772 6.0888758e-39
-0.055462234 -0.10352151 0.034586579 1.9635864e-38
-0.053664953 -0.10352151 0.034586579 1.9911746e-38
-0.051867664 -0.10352151 0.034586579 7.557176e-39
-0.050226882 -0.10426159 0.031560689 3.6734899e-40
-0.048273087 -0.10352151 0.034586579 9.1836617e-40
-0.046475798 -0.10352151 0.034586579 6.4285268e-40
-0.044538736 -0.10278571 0.037594825 5.5101298e-40
-0.04274673 -0.10278571 0.037594825 1.3796974e-39
-0.040954717 -0.10278571 0.037594825 2.3508807e-38
-0.039162703 -0.10278571 0.037594825 2.3509165e-38
-0.037370697 -0.10278571 0.037594825 2.3509524e-38
-0.035578683 -0.10278571 0.037594825 2.3509527e-38
-0.033786669 -0.10278571 0.037594825 2.3509886e-38
-0.031994656 -0.10278571 0.037594825 2.3509527e-38
-0.030202644 -0.10278571 0.037594825 2.341805e-38
-0.028502936 -0.10352151 0.034586579 2.3234379e-38
-0.026705647 -0.10352151 0.034586579 2.3234379e-38
-0.024908362 -0.10352151 0.034586579 2.3509886e-38
-0.023188004 -0.10426159 0.031560689 2.3509886e-38
-0.021454969 -0.10498036 0.028622059 2.3509886e-38
-0.019647224 -0.10498036 0.028622059 2.3509886e-38
-0.017901206 -0.10572915 0.025560645 2.3509886e-38
-0.01616049 -0.10669093 0.021628408 2.3509886e-38
-0.014390381 -0.10742365 0.018632678 2.3509886e-38
-0.012610028 -0.10816063 0.015619544 2.3509886e-38
-0.010819336 -0.10890187 0.012589006 2.3509886e-38
-0.0090169776 -0.10962076 0.0096499007 2.3509886e-38
-0.0071759671 -0.10962076 0.0096499007 2.3509886e-38
-0.0053349584 -0.10962076 0.0096499007 2.3509886e-38
-0.0034939498 -0.10962076 0.0096499007 2.3509886e-38
-0.0016529392 -0.10962076 0.0096499007 2.3509886e-38
0.00017740577 -0.11061247 0.0055953544 2.3509886e-38
0.0020229127 -0.11134095 0.0026169103 2.3509886e-38
0.0038788784 -0.11207359 -0.00037846155 2.3509886e-38
0.0057453942 -0.11281042 -0.0033908803 2.3509886e-38
0.0076092668 -0.11281042 -0.0033908803 2.3509886e-38
0.0094979536 -0.11379938 -0.007434221 2.3509886e-38
0.011392108 -0.1145183 -0.010373564 2.3509886e-38
0.013268225 -0.1145183 -0.010373564 2.3509886e-38
0.015144342 -0.1145183 -0.010373564 2.3509886e-38
0.017060824 -0.11526908 -0.013443084 2.3509886e-38
0.019002015 -0.11624874 -0.017448397 2.3509886e-38
0.020890536 -0.11624874 -0.017448397 2.3509886e-38
0.022834193 -0.11698125 -0.020443292 2.3509886e-38
0.024727965 -0.11698125 -0.020443292 2.3509886e-38
0.026621738 -0.11698125 -0.020443292 2.3509886e-38
0.028608806 -0.11794533 -0.024384828 2.3509886e-38
0.030509491 -0.11794533 -0.024384828 2.3509886e-38
0.032492615 -0.11868732 -0.027418466 2.3509886e-38
0.034398623 -0.11868732 -0.027418466 2.3509168e-38
0.036394611 -0.11940466 -0.030351372 2.3509168e-38
0.038435973 -0.12038656 -0.034365743 2.3509527e-38
0.040354155 -0.12038656 -0.034365743 2.3509886e-38
0.042272337 -0.12038656 -0.034365743 2.341805e-38
0.044190519 -0.12038656 -0.034365743 2.3418047e-38
0.046230592 -0.12114228 -0.037455529 2.341805e-38
0.048316814 -0.12210761 -0.04140231 2.3234379e-38
0.050418109 -0.12307997 -0.045377702 2.3234379e-38
0.052355595 -0.12307997 -0.045377702 2.2958155e-38
0.054293089 -0.12307997 -0.045377702 2.3142544e-38
0.056376711 -0.12382124 -0.048408478 1.9271422e-38
0.058520712 -0.12480606 -0.052434772 8.2079432e-39
0.060470574 -0.12480606 -0.052434772 5.8115729e-39
-0.055462234 -0.1053188 0.034586579 1.9543664e-38
-0.053664953 -0.1053188 0.034586579 2.0189401e-38
-0.051867664 -0.1053188 0.034586579 3.4094432e-39
-0.050226882 -0.10606419 0.031560689 4.5953902e-40
-0.048424289 -0.10606419 0.031560689 4.5917888e-40
-0.046475798 -0.1053188 0.034586579 6.4284987e-40
-0.044538736 -0.10457774 0.037594825 5.5101298e-40
-0.04274673 -0.10457774 0.037594825 1.4718931e-39
-0.040954717 -0.10457774 0.037594825 2.3508809e-38
-0.039162703 -0.10457774 0.037594825 2.3509168e-38
-0.037370697 -0.10457774 0.037594825 2.3509527e-38
-0.035578683 -0.10457774 0.037594825 2.3509527e-38
-0.033786669 -0.10457774 0.037594825 2.3509886e-38
-0.031994656 -0.10457774 0.037594825 2.3509886e-38
-0.030202644 -0.10457774 0.037594825 2.341805e-38
-0.028502936 -0.1053188 0.034586579 2.3234379e-38
-0.026705647 -0.1053188 0.034586579 2.3234379e-38
-0.024990598 -0.10606419 0.031560689 2.3509886e-38
-0.023262711 -0.10678811 0.028622059 2.3509886e-38
-0.021454969 -0.10678811 0.028622059 2.3509886e-38
-0.019647224 -0.10678811 0.028622059 2.3509886e-38
-0.017901206 -0.10754226 0.025560645 2.3509886e-38
-0.01616049 -0.10851096 0.021628408 2.3509886e-38
-0.014390381 -0.10924892 0.018632678 2.3509886e-38
-0.012610028 -0.10999118 0.015619544 2.3509886e-38
-0.010819336 -0.11073773 0.012589006 2.3509886e-38
-0.0090169776 -0.11146177 0.0096499007 2.3509886e-38
-0.0071759671 -0.11146177 0.0096499007 2.3509886e-38
-0.0053349584 -0.11146177 0.0096499007 2.3509886e-38
-0.0034939498 -0.11146177 0.0096499007 2.3509886e-38
-0.0016529392 -0.11146177 0.0096499007 2.3509886e-38
0.00017740577 -0.11246057 0.0055953544 2.3509886e-38
0.0020229127 -0.1131943 0.0026169103 2.3509886e-38
0.0038788784 -0.11393218 -0.00037846155 2.3509886e-38
0.0057374705 -0.11393218 -0.00037846155 2.3509886e-38
0.0076092668 -0.11467429 -0.0033908803 2.3509886e-38
0.0094979536 -0.11567034 -0.007434221 2.3509886e-38
0.011392108 -0.11639442 -0.010373564 2.3509886e-38
0.013268225 -0.11639442 -0.010373564 2.3509886e-38
0.015144342 -0.11639442 -0.010373564 2.3509886e-38
0.017060824 -0.11715056 -0.013443084 2.3509886e-38
0.019002015 -0.11813726 -0.017448397 2.3509886e-38
0.020890536 -0.11813726 -0.017448397 2.3509886e-38
0.022834193 -0.11887501 -0.020443292 2.3509886e-38
0.024727965 -0.11887501 -0.020443292 2.3509886e-38
0.026621738 -0.11887501 -0.020443292 2.3509886e-38
0.02851551 -0.11887501 -0.020443292 2.3509886e-38
0.030509491 -0.119846 -0.024384828 2.3509886e-38
0.032492615 -0.12059332 -0.027418466 2.3509886e-38
0.034398623 -0.12059332 -0.027418466 2.3509527e-38
0.036394611 -0.12131582 -0.030351372 2.3509527e-38
0.038435973 -0.12230472 -0.034365743 2.3509886e-38
0.040354155 -0.12230472 -0.034365743 2.3509883e-38
0.042272337 -0.12230472 -0.034365743 2.350988e-38
0.044190519 -0.12230472 -0.034365743 2.3418043e-38
0.046230592 -0.12306587 -0.037455529 2.3418047e-38
