# .PCD v0.7 - Point Cloud Data file format
VERSION 0.7
FIELDS x y z rgb
SIZE 4 4 4 4
TYPE F F F F
COUNT 1 1 1 1
WIDTH 934
HEIGHT 1
VIEWPOINT 0 0 0 1 0 0 0
POINTS 934
DATA ascii
-0.031298902 -0.10583721 -0.011470351 2.3509886e-38
-0.029329736 -0.10583721 -0.011470351 2.3509886e-38
-0.02736057 -0.10583721 -0.011470351 2.3509886e-38
-0.025391415 -0.10583721 -0.011470351 2.3509886e-38
-0.023422252 -0.10583721 -0.011470351 2.3509886e-38
-0.021323923 -0.10494001 -0.0074881651 2.3509886e-38
-0.019361742 -0.10494001 -0.0074881651 2.3509886e-38
-0.017399564 -0.10494001 -0.0074881651 2.3509886e-38
-0.015437383 -0.10494001 -0.0074881651 2.3509886e-38
-0.013475206 -0.10494001 -0.0074881651 2.3509886e-38
-0.011607286 -0.10583721 -0.011470351 2.3509886e-38
-0.0096381269 -0.10583721 -0.011470351 2.3509886e-38
-0.0075886697 -0.10494001 -0.0074881651 2.3509886e-38
-0.0056264885 -0.10494001 -0.0074881651 2.3509886e-38
-0.003664311 -0.10494001 -0.0074881651 2.3509886e-38
-0.0017021336 -0.10494001 -0.0074881651 2.3509886e-38
0.00026004761 -0.10494001 -0.0074881651 2.3509886e-38
0.0022686906 -0.10402142 -0.0034110881 2.3509886e-38
0.004223723 -0.10402142 -0.0034110881 2.3509886e-38
0.0062020011 -0.10335754 -0.00046447292 2.3509886e-38
0.0081518646 -0.10335754 -0.00046447292 2.3509886e-38
0.010119379 -0.1024504 0.0035618208 2.3509886e-38
0.012062183 -0.1024504 0.0035618208 2.3509886e-38
0.014004987 -0.1024504 0.0035618208 2.3509886e-38
0.015947793 -0.1024504 0.0035618208 2.3509886e-38
0.017890597 -0.1024504 0.0035618208 2.3509886e-38
0.019820116 -0.10176755 0.0065925978 2.3509886e-38
0.021757606 -0.10176755 0.0065925978 2.3509886e-38
0.023695098 -0.10176755 0.0065925978 2.3509886e-38
0.02563259 -0.10176755 0.0065925978 2.3509886e-38
0.02757008 -0.10176755 0.0065925978 2.3509886e-38
0.02950757 -0.10176755 0.0065925978 2.3509886e-38
0.031445064 -0.10176755 0.0065925978 2.3509886e-38
0.033316337 -0.10087189 0.010567989 2.3509886e-38
0.035246857 -0.10087189 0.010567989 2.3509886e-38
0.037097797 -0.099982664 0.01451477 2.3509886e-38
0.039021395 -0.099982664 0.01451477 2.3509886e-38
0.040944997 -0.099982664 0.01451477 2.3509886e-38
0.042868599 -0.099982664 0.01451477 2.3509886e-38
0.04470823 -0.099286526 0.017604556 2.341805e-38
0.046626411 -0.099286526 0.017604556 2.3234379e-38
0.04842142 -0.098382086 0.021618929 2.3234379e-38
0.050332565 -0.098382086 0.021618929 2.3326213e-38
0.05224371 -0.098382086 0.021618929 2.332621e-38
0.054049436 -0.097721294 0.024551835 2.3509883e-38
0.05595544 -0.097721294 0.024551835 2.3418043e-38
0.05786144 -0.097721294 0.024551835 2.350952e-38
0.059767444 -0.097721294 0.024551835 2.7622395e-40
0.061673444 -0.097721294 0.024551835 3.6841818e-40
0.063267589 -0.096149758 0.031527009 1.2538243e-38
0.065161362 -0.096149758 0.031527009 1.4566191e-38
0.067055136 -0.096149758 0.031527009 4.516867e-39
-0.072660357 -0.11369558 -0.037407551 0
-0.07064572 -0.11369558 -0.037407551 2.1481579e-38
-0.06805487 -0.11189754 -0.029488597 2.3325494e-38
-0.066054121 -0.11189754 -0.029488597 2.3509886e-38
-0.064053357 -0.11189754 -0.029488597 2.3509886e-38
-0.062052604 -0.11189754 -0.029488597 2.3509886e-38
-0.05984896 -0.11119686 -0.026402745 2.3509886e-38
-0.057600107 -0.11029746 -0.02244154 2.3509886e-38
-0.055358987 -0.10937552 -0.018381272 2.3509527e-38
-0.053377714 -0.10937552 -0.018381272 2.3509527e-38
-0.051396441 -0.10937552 -0.018381272 2.3509527e-38
-0.049415153 -0.10937552 -0.018381272 2.3509886e-38
-0.047433879 -0.10937552 -0.018381272 2.3509886e-38
-0.045452598 -0.10937552 -0.018381272 2.3509886e-38
-0.043471318 -0.10937552 -0.018381272 2.3509886e-38
-0.041490044 -0.10937552 -0.018381272 2.3509886e-38
-0.03932045 -0.10848872 -0.014475618 2.3509886e-38
-0.037346017 -0.10848872 -0.014475618 2.3509886e-38
-0.035371583 -0.10848872 -0.014475618 2.3509886e-38
-0.033268061 -0.10780637 -0.011470351 2.3509886e-38
-0.031298902 -0.10780637 -0.011470351 2.3509886e-38
-0.029329736 -0.10780637 -0.011470351 2.3509886e-38
-0.02736057 -0.10780637 -0.011470351 2.3509886e-38
-0.025391415 -0.10780637 -0.011470351 2.3509886e-38
-0.023422252 -0.10780637 -0.011470351 2.3509886e-38
-0.021323923 -0.1069022 -0.0074881651 2.3509886e-38
-0.019361742 -0.1069022 -0.0074881651 2.3509886e-38
-0.017399564 -0.1069022 -0.0074881651 2.3509886e-38
-0.015437383 -0.1069022 -0.0074881651 2.3509886e-38
-0.013475206 -0.1069022 -0.0074881651 2.3509886e-38
-0.011607286 -0.10780637 -0.011470351 2.3509886e-38
-0.0096381269 -0.10780637 -0.011470351 2.3509886e-38
-0.0075886697 -0.1069022 -0.0074881651 2.3509886e-38
-0.0056264885 -0.1069022 -0.0074881651 2.3509886e-38
-0.003664311 -0.1069022 -0.0074881651 2.3509886e-38
-0.0017021336 -0.1069022 -0.0074881651 2.3509886e-38
0.00026004761 -0.1069022 -0.0074881651 2.3509886e-38
0.0022686906 -0.10597645 -0.0034110881 2.3509886e-38
0.004223723 -0.10597645 -0.0034110881 2.3509886e-38
0.0062020011 -0.10530742 -0.00046447292 2.3509886e-38
0.0081518646 -0.10530742 -0.00046447292 2.3509886e-38
0.010119379 -0.1043932 0.0035618208 2.3509886e-38
0.012062183 -0.1043932 0.0035618208 2.3509886e-38
0.014004987 -0.1043932 0.0035618208 2.3509886e-38
0.015947793 -0.1043932 0.0035618208 2.3509886e-38
0.017882627 -0.10370506 0.0065925978 2.3509886e-38
0.019820116 -0.10370506 0.0065925978 2.3509886e-38
0.021757606 -0.10370506 0.0065925978 2.3509886e-38
0.023695098 -0.10370506 0.0065925978 2.3509886e-38
0.02563259 -0.10370506 0.0065925978 2.3509886e-38
0.02757008 -0.10370506 0.0065925978 2.3509886e-38
0.02950757 -0.10370506 0.0065925978 2.3509886e-38
0.031445064 -0.10370506 0.0065925978 2.3509886e-38
0.033316337 -0.10280241 0.010567989 2.3509886e-38
0.035174198 -0.10190627 0.01451477 2.3509886e-38
0.037097797 -0.10190627 0.01451477 2.3509886e-38
0.039021395 -0.10190627 0.01451477 2.3509886e-38
0.040871862 -0.10120471 0.017604556 2.3509886e-38
0.042790048 -0.10120471 0.017604556 2.3509886e-38
0.04470823 -0.10120471 0.017604556 2.3509883e-38
0.046510275 -0.10029322 0.021618929 2.3418047e-38
0.04842142 -0.10029322 0.021618929 2.3234374e-38
0.050332565 -0.10029322 0.021618929 2.332621e-38
0.052143432 -0.099627286 0.024551835 2.332621e-38
0.054049436 -0.099627286 0.024551835 2.3418047e-38
0.05595544 -0.099627286 0.024551835 2.332621e-38
0.05786144 -0.099627286 0.024551835 2.3326213e-38
0.059767444 -0.099627286 0.024551835 9.2914496e-41
0.061673444 -0.099627286 0.024551835 0
0.06344381 -0.09893848 0.027585473 1.1801041e-38
0.065344498 -0.09893848 0.027585473 1.2907391e-38
0.067245178 -0.09893848 0.027585473 2.4892848e-39
0.069145858 -0.09893848 0.027585473 1.7510009e-39
-0.072660357 -0.11571021 -0.037407551 2.7658689e-40
-0.07064572 -0.11571021 -0.037407551 2.2311342e-38
-0.067830339 -0.11319222 -0.026402745 2.3509886e-38
-0.065834984 -0.11319222 -0.026402745 2.3509886e-38
-0.063839644 -0.11319222 -0.026402745 2.3509886e-38
-0.0618443 -0.11319222 -0.026402745 2.3509886e-38
-0.059588503 -0.11228584 -0.02244154 2.3509886e-38
-0.057340275 -0.11135681 -0.018381272 2.3509886e-38
-0.055358987 -0.11135681 -0.018381272 2.3509886e-38
-0.053377714 -0.11135681 -0.018381272 2.3509886e-38
-0.051396441 -0.11135681 -0.018381272 2.3509886e-38
-0.049415153 -0.11135681 -0.018381272 2.3509886e-38
-0.047433879 -0.11135681 -0.018381272 2.3509886e-38
-0.045452598 -0.11135681 -0.018381272 2.3509886e-38
-0.043471318 -0.11135681 -0.018381272 2.3509886e-38
-0.041490044 -0.11135681 -0.018381272 2.3509886e-38
-0.03932045 -0.11046316 -0.014475618 2.3509886e-38
-0.037346017 -0.11046316 -0.014475618 2.3509886e-38
-0.035237219 -0.10977553 -0.011470351 2.3509886e-38
-0.033268061 -0.10977553 -0.011470351 2.3509886e-38
-0.031298902 -0.10977553 -0.011470351 2.3509886e-38
-0.029329736 -0.10977553 -0.011470351 2.3509886e-38
-0.027210455 -0.10886435 -0.0074881651 2.3509886e-38
-0.025248282 -0.10886435 -0.0074881651 2.3509886e-38
-0.023422252 -0.10977553 -0.011470351 2.3509886e-38
-0.021323923 -0.10886435 -0.0074881651 2.3509886e-38
-0.019361742 -0.10886435 -0.0074881651 2.3509886e-38
-0.017399564 -0.10886435 -0.0074881651 2.3509886e-38
-0.015437383 -0.10886435 -0.0074881651 2.3509886e-38
-0.013475206 -0.10886435 -0.0074881651 2.3509886e-38
-0.011513028 -0.10886435 -0.0074881651 2.3509886e-38
-0.0095508508 -0.10886435 -0.0074881651 2.3509886e-38
-0.0075886697 -0.10886435 -0.0074881651 2.3509886e-38
-0.0056264885 -0.10886435 -0.0074881651 2.3509886e-38
-0.003664311 -0.10886435 -0.0074881651 2.3509886e-38
-0.0016413704 -0.10793148 -0.0034110881 2.3509886e-38
0.00031365827 -0.10793148 -0.0034110881 2.3509886e-38
0.0022686906 -0.10793148 -0.0034110881 2.3509886e-38
0.0042521358 -0.10725726 -0.00046447292 2.3509886e-38
0.0062020011 -0.10725726 -0.00046447292 2.3509886e-38
0.0081518646 -0.10725726 -0.00046447292 2.3509886e-38
0.010119379 -0.10633601 0.0035618208 2.3509886e-38
0.012062183 -0.10633601 0.0035618208 2.3509886e-38
0.014004987 -0.10633601 0.0035618208 2.3509886e-38
0.015947793 -0.10633601 0.0035618208 2.3509886e-38
0.017882627 -0.10564254 0.0065925978 2.3509886e-38
0.019820116 -0.10564254 0.0065925978 2.3509886e-38
0.021757606 -0.10564254 0.0065925978 2.3509886e-38
0.023695098 -0.10564254 0.0065925978 2.3509886e-38
0.025594253 -0.10473295 0.010567989 2.3509886e-38
0.027524773 -0.10473295 0.010567989 2.3509886e-38
0.029455293 -0.10473295 0.010567989 2.3509886e-38
0.031385817 -0.10473295 0.010567989 2.3509886e-38
0.033250593 -0.10382988 0.01451477 2.3509886e-38
0.035117313 -0.1031229 0.017604556 2.3509886e-38
0.037035495 -0.1031229 0.017604556 2.3509886e-38
0.038953677 -0.1031229 0.017604556 2.3509886e-38
0.040871862 -0.1031229 0.017604556 2.3509886e-38
0.042790048 -0.1031229 0.017604556 2.3509886e-38
0.04470823 -0.1031229 0.017604556 2.3509883e-38
0.046510275 -0.10220437 0.021618929 2.3418047e-38
0.04842142 -0.10220437 0.021618929 2.3418045e-38
0.050237432 -0.10153329 0.024551835 2.332621e-38
0.052143432 -0.10153329 0.024551835 2.332621e-38
0.054049436 -0.10153329 0.024551835 2.3418047e-38
0.05595544 -0.10153329 0.024551835 2.332621e-38
0.05786144 -0.10153329 0.024551835 2.341769e-38
0.059642445 -0.10083917 0.027585473 1.8439126e-40
0.061543129 -0.10083917 0.027585473 4.6098095e-40
0.06344381 -0.10083917 0.027585473 1.2907391e-38
0.065344498 -0.10083917 0.027585473 1.2445697e-38
0.067245178 -0.10083917 0.027585473 1.6588081e-39
0.069145858 -0.10083917 0.027585473 9.2124304e-40
-0.071821019 -0.11518754 -0.026402745 4.6097815e-40
-0.069825679 -0.11518754 -0.026402745 2.2956712e-38
-0.067830339 -0.11518754 -0.026402745 2.3509886e-38
-0.065834984 -0.11518754 -0.026402745 2.3509886e-38
-0.063839644 -0.11518754 -0.026402745 2.3509886e-38
-0.0618443 -0.11518754 -0.026402745 2.3509886e-38
-0.059588503 -0.11427425 -0.02244154 2.3509886e-38
-0.057340275 -0.1133381 -0.018381272 2.3509886e-38
-0.055358987 -0.1133381 -0.018381272 2.3509886e-38
-0.053377714 -0.1133381 -0.018381272 2.3509886e-38
-0.051396441 -0.1133381 -0.018381272 2.3509886e-38
-0.049415153 -0.1133381 -0.018381272 2.3509886e-38
-0.047433879 -0.1133381 -0.018381272 2.3509886e-38
-0.045452598 -0.1133381 -0.018381272 2.3509886e-38
-0.043471318 -0.1133381 -0.018381272 2.3509886e-38
-0.041490044 -0.1133381 -0.018381272 2.3509886e-38
-0.03932045 -0.11243759 -0.014475618 2.3509886e-38
-0.037346017 -0.11243759 -0.014475618 2.3509886e-38
-0.035237219 -0.11174469 -0.011470351 2.3509886e-38
-0.033268061 -0.11174469 -0.011470351 2.3509886e-38
-0.031298902 -0.11174469 -0.011470351 2.3509886e-38
-0.029329736 -0.11174469 -0.011470351 2.3509886e-38
-0.027210455 -0.11082654 -0.0074881651 2.3509886e-38
-0.025248282 -0.11082654 -0.0074881651 2.3509886e-38
-0.023422252 -0.11174469 -0.011470351 2.3509886e-38
-0.021323923 -0.11082654 -0.0074881651 2.3509886e-38
-0.019361742 -0.11082654 -0.0074881651 2.3509886e-38
-0.017399564 -0.11082654 -0.0074881651 2.3509886e-38
-0.015437383 -0.11082654 -0.0074881651 2.3509886e-38
-0.013475206 -0.11082654 -0.0074881651 2.3509886e-38
-0.011513028 -0.11082654 -0.0074881651 2.3509886e-38
-0.0095508508 -0.11082654 -0.0074881651 2.3509886e-38
-0.0075886697 -0.11082654 -0.0074881651 2.3509886e-38
-0.0056264885 -0.11082654 -0.0074881651 2.3509886e-38
-0.003664311 -0.11082654 -0.0074881651 2.3509886e-38
-0.0016413704 -0.10988651 -0.0034110881 2.3509886e-38
0.00031365827 -0.10988651 -0.0034110881 2.3509886e-38
0.0023022704 -0.10920714 -0.00046447292 2.3509886e-38
0.0042521358 -0.10920714 -0.00046447292 2.3509886e-38
0.0062020011 -0.10920714 -0.00046447292 2.3509886e-38
0.0081765726 -0.10827883 0.0035618208 2.3509886e-38
0.010119379 -0.10827883 0.0035618208 2.3509886e-38
0.012062183 -0.10827883 0.0035618208 2.3509886e-38
0.014004987 -0.10827883 0.0035618208 2.3509886e-38
0.015945135 -0.10758002 0.0065925978 2.3509886e-38
0.017882627 -0.10758002 0.0065925978 2.3509886e-38
0.019820116 -0.10758002 0.0065925978 2.3509886e-38
0.021757606 -0.10758002 0.0065925978 2.3509886e-38
0.023663733 -0.10666345 0.010567989 2.3509886e-38
0.025594253 -0.10666345 0.010567989 2.3509886e-38
0.027524773 -0.10666345 0.010567989 2.3509886e-38
0.029403394 -0.10575347 0.01451477 2.3509886e-38
0.031326994 -0.10575347 0.01451477 2.3509886e-38
0.033199131 -0.10504107 0.017604556 2.3509886e-38
0.035117313 -0.10504107 0.017604556 2.3509886e-38
0.037035495 -0.10504107 0.017604556 2.3509886e-38
0.038953677 -0.10504107 0.017604556 2.3509886e-38
0.040871862 -0.10504107 0.017604556 2.3509886e-38
0.042687986 -0.1041155 0.021618929 2.3509886e-38
0.044599131 -0.1041155 0.021618929 2.3509883e-38
0.046510275 -0.1041155 0.021618929 2.3418047e-38
0.048238348 -0.10273984 0.027585473 2.3418045e-38
0.050139029 -0.10273984 0.027585473 2.332621e-38
0.052039713 -0.10273984 0.027585473 2.332621e-38
0.053940397 -0.10273984 0.027585473 2.3418047e-38
0.055841081 -0.10273984 0.027585473 2.332621e-38
0.05786144 -0.10343929 0.024551835 2.341769e-38
0.059642445 -0.10273984 0.027585473 1.8439126e-40
0.061543129 -0.10273984 0.027585473 2.7658969e-40
0.063579448 -0.10343929 0.024551835 1.2815195e-38
0.065485448 -0.10343929 0.024551835 1.1339349e-38
0.067391455 -0.10343929 0.024551835 1.4744168e-39
-0.072056383 -0.11789979 -0.029488597 3.6878252e-40
-0.069825679 -0.1171829 -0.026402745 2.3325494e-38
-0.067830339 -0.1171829 -0.026402745 2.3509886e-38
-0.065834984 -0.1171829 -0.026402745 2.341769e-38
-0.063839644 -0.1171829 -0.026402745 2.3509886e-38
-0.0618443 -0.1171829 -0.026402745 2.3509886e-38
-0.059588503 -0.11626263 -0.02244154 2.3509883e-38
-0.057340275 -0.11531936 -0.018381272 2.3509883e-38
-0.055358987 -0.11531936 -0.018381272 2.3509883e-38
-0.053377714 -0.11531936 -0.018381272 2.3509883e-38
-0.051396441 -0.11531936 -0.018381272 2.3509886e-38
-0.049415153 -0.11531936 -0.018381272 2.3509886e-38
-0.047433879 -0.11531936 -0.018381272 2.3509886e-38
-0.045452598 -0.11531936 -0.018381272 2.3509886e-38
-0.043269303 -0.11441202 -0.014475618 2.3509886e-38
-0.041294876 -0.11441202 -0.014475618 2.3509886e-38
-0.03932045 -0.11441202 -0.014475618 2.3509886e-38
-0.037346017 -0.11441202 -0.014475618 2.3509886e-38
-0.035237219 -0.11371385 -0.011470351 2.3509886e-38
-0.033268061 -0.11371385 -0.011470351 2.3509886e-38
-0.031298902 -0.11371385 -0.011470351 2.3509886e-38
-0.029329736 -0.11371385 -0.011470351 2.3509886e-38
-0.027210455 -0.11278872 -0.0074881651 2.3509886e-38
-0.025248282 -0.11278872 -0.0074881651 2.3509886e-38
-0.0232861 -0.11278872 -0.0074881651 2.3509886e-38
-0.021323923 -0.11278872 -0.0074881651 2.3509886e-38
-0.019361742 -0.11278872 -0.0074881651 2.3509886e-38
-0.017399564 -0.11278872 -0.0074881651 2.3509886e-38
-0.015437383 -0.11278872 -0.0074881651 2.3509886e-38
-0.013475206 -0.11278872 -0.0074881651 2.3509886e-38
-0.011513028 -0.11278872 -0.0074881651 2.3509886e-38
-0.0095508508 -0.11278872 -0.0074881651 2.3509886e-38
-0.0075886697 -0.11278872 -0.0074881651 2.3509886e-38
-0.0056264885 -0.11278872 -0.0074881651 2.3509886e-38
-0.003596399 -0.11184154 -0.0034110881 2.3509886e-38
-0.0015974566 -0.11115701 -0.00046447292 2.3509886e-38
0.00035240874 -0.11115701 -0.00046447292 2.3509886e-38
0.0023022704 -0.11115701 -0.00046447292 2.3509886e-38
0.0042909645 -0.11022164 0.0035618208 2.3509886e-38
0.0062337685 -0.11022164 0.0035618208 2.3509886e-38
0.0081765726 -0.11022164 0.0035618208 2.3509886e-38
0.010119379 -0.11022164 0.0035618208 2.3509886e-38
0.012062183 -0.11022164 0.0035618208 2.3509886e-38
0.014007645 -0.10951753 0.0065925978 2.3509886e-38
0.015945135 -0.10951753 0.0065925978 2.3509886e-38
0.017882627 -0.10951753 0.0065925978 2.3509886e-38
0.019820116 -0.10951753 0.0065925978 2.3509886e-38
0.021757606 -0.10951753 0.0065925978 2.3509886e-38
0.023663733 -0.10859399 0.010567989 2.3509886e-38
0.025594253 -0.10859399 0.010567989 2.3509886e-38
0.027524773 -0.10859399 0.010567989 2.3509886e-38
0.029403394 -0.10767709 0.01451477 2.3509886e-38
0.031326994 -0.10767709 0.01451477 2.3509886e-38
0.033199131 -0.10695927 0.017604556 2.3509886e-38
0.035117313 -0.10695927 0.017604556 2.3509886e-38
0.036954552 -0.10602666 0.021618929 2.3509886e-38
0.038865697 -0.10602666 0.021618929 2.3509886e-38
0.040776841 -0.10602666 0.021618929 2.3509886e-38
0.042687986 -0.10602666 0.021618929 2.3509886e-38
0.044599131 -0.10602666 0.021618929 2.3509883e-38
0.046425428 -0.10534529 0.024551835 2.3418047e-38
0.048238348 -0.10464053 0.027585473 2.3418045e-38
0.050139029 -0.10464053 0.027585473 2.332621e-38
0.052039713 -0.10464053 0.027585473 2.332621e-38
0.053940397 -0.10464053 0.027585473 2.3418047e-38
0.055841081 -0.10464053 0.027585473 2.332621e-38
0.057741765 -0.10464053 0.027585473 2.341769e-38
0.059642445 -0.10464053 0.027585473 1.8439406e-40
0.061543129 -0.10464053 0.027585473 5.6051939e-45
0.063710578 -0.10602666 0.021618929 1.2353861e-38
0.065621719 -0.10602666 0.021618929 1.1154601e-38
0.067532867 -0.10602666 0.021618929 3.5023633e-39
-0.072056383 -0.11990054 -0.029488597 1.8439126e-40
-0.070055619 -0.11990054 -0.029488597 2.3509886e-38
-0.067830339 -0.11917825 -0.026402745 2.3509886e-38
-0.065834984 -0.11917825 -0.026402745 2.3325494e-38
-0.063839644 -0.11917825 -0.026402745 2.3509886e-38
-0.0618443 -0.11917825 -0.026402745 2.3509886e-38
-0.059588503 -0.11825104 -0.02244154 2.3509883e-38
-0.057340275 -0.11730064 -0.018381272 2.3509883e-38
-0.055358987 -0.11730064 -0.018381272 2.3509883e-38
-0.053377714 -0.11730064 -0.018381272 2.3509883e-38
-0.051396441 -0.11730064 -0.018381272 2.3509883e-38
-0.049415153 -0.11730064 -0.018381272 2.3509883e-38
-0.047433879 -0.11730064 -0.018381272 2.3509886e-38
-0.045243736 -0.11638646 -0.014475618 2.3509886e-38
-0.043269303 -0.11638646 -0.014475618 2.3509886e-38
-0.041294876 -0.11638646 -0.014475618 2.3509886e-38
-0.03932045 -0.11638646 -0.014475618 2.3509886e-38
-0.037206378 -0.115683 -0.011470351 2.3509886e-38
-0.035237219 -0.115683 -0.011470351 2.3509886e-38
-0.033268061 -0.115683 -0.011470351 2.3509886e-38
-0.031298902 -0.115683 -0.011470351 2.3509886e-38
-0.029329736 -0.115683 -0.011470351 2.3509886e-38
-0.027210455 -0.11475091 -0.0074881651 2.3509886e-38
-0.025248282 -0.11475091 -0.0074881651 2.3509886e-38
-0.0232861 -0.11475091 -0.0074881651 2.3509886e-38
-0.021323923 -0.11475091 -0.0074881651 2.3509886e-38
-0.019361742 -0.11475091 -0.0074881651 2.3509886e-38
-0.017399564 -0.11475091 -0.0074881651 2.3509886e-38
-0.015326586 -0.11379658 -0.0034110881 2.3509886e-38
-0.013371553 -0.11379658 -0.0034110881 2.3509886e-38
-0.011513028 -0.11475091 -0.0074881651 2.3509886e-38
-0.0095508508 -0.11475091 -0.0074881651 2.3509886e-38
-0.0075064637 -0.11379658 -0.0034110881 2.3509886e-38
-0.0055514313 -0.11379658 -0.0034110881 2.3509886e-38
-0.003596399 -0.11379658 -0.0034110881 2.3509886e-38
-0.0015974566 -0.11310686 -0.00046447292 2.3509886e-38
0.00035240874 -0.11310686 -0.00046447292 2.3509886e-38
0.0023022704 -0.11310686 -0.00046447292 2.3509886e-38
0.0042909645 -0.11216442 0.0035618208 2.3509886e-38
0.0062337685 -0.11216442 0.0035618208 2.3509886e-38
0.0081765726 -0.11216442 0.0035618208 2.3509886e-38
0.010119379 -0.11216442 0.0035618208 2.3509886e-38
0.012062183 -0.11216442 0.0035618208 2.3509886e-38
0.014007645 -0.11145501 0.0065925978 2.3509886e-38
0.015945135 -0.11145501 0.0065925978 2.3509886e-38
0.017882627 -0.11145501 0.0065925978 2.3509886e-38
0.019820116 -0.11145501 0.0065925978 2.3509886e-38
0.021757606 -0.11145501 0.0065925978 2.3509886e-38
0.023663733 -0.11052449 0.010567989 2.3509886e-38
0.025594253 -0.11052449 0.010567989 2.3509886e-38
0.027479794 -0.10960068 0.01451477 2.3509886e-38
0.029362764 -0.10887744 0.017604556 2.3509886e-38
0.031280946 -0.10887744 0.017604556 2.3509886e-38
0.033199131 -0.10887744 0.017604556 2.3509886e-38
0.035043411 -0.1079378 0.021618929 2.3509886e-38
0.036954552 -0.1079378 0.021618929 2.3509886e-38
0.038865697 -0.1079378 0.021618929 2.3509886e-38
0.040776841 -0.1079378 0.021618929 2.3509886e-38
0.042687986 -0.1079378 0.021618929 2.3509886e-38
0.044599131 -0.1079378 0.021618929 2.3509883e-38
0.046425428 -0.1072513 0.024551835 2.3418047e-38
0.048238348 -0.1065412 0.027585473 2.3418045e-38
0.050139029 -0.1065412 0.027585473 2.332621e-38
0.052039713 -0.1065412 0.027585473 2.332621e-38
0.053940397 -0.1065412 0.027585473 2.3418047e-38
0.055841081 -0.1065412 0.027585473 2.3326213e-38
0.057741765 -0.1065412 0.027585473 2.3417691e-38
0.059642445 -0.1065412 0.027585473 1.8439406e-40
0.061543129 -0.1065412 0.027585473 7.3721191e-40
0.063710578 -0.1079378 0.021618929 1.2630448e-38
0.065621719 -0.1079378 0.021618929 1.2168753e-38
0.068257391 -0.11145501 0.0065925978 6.9136016e-39
-0.072056383 -0.12190129 -0.029488597 0
-0.070055619 -0.12190129 -0.029488597 2.3509886e-38
-0.067542106 -0.12023942 -0.02244154 2.3509886e-38
-0.06555371 -0.12023942 -0.02244154 2.341769e-38
-0.063565314 -0.12023942 -0.02244154 2.3509883e-38
-0.061576899 -0.12023942 -0.02244154 2.3509883e-38
-0.059588503 -0.12023942 -0.02244154 2.3509883e-38
-0.057340275 -0.11928193 -0.018381272 2.3509883e-38
-0.055358987 -0.11928193 -0.018381272 2.350988e-38
-0.053377714 -0.11928193 -0.018381272 2.350988e-38
-0.051396441 -0.11928193 -0.018381272 2.350988e-38
-0.049415153 -0.11928193 -0.018381272 2.3509883e-38
-0.047433879 -0.11928193 -0.018381272 2.3509886e-38
-0.045243736 -0.11836089 -0.014475618 2.3509886e-38
-0.043113869 -0.11765216 -0.011470351 2.3509886e-38
-0.041144703 -0.11765216 -0.011470351 2.3509886e-38
-0.038983535 -0.11671309 -0.0074881651 2.3509886e-38
-0.03702135 -0.11671309 -0.0074881651 2.3509886e-38
-0.03505918 -0.11671309 -0.0074881651 2.3509886e-38
-0.033096995 -0.11671309 -0.0074881651 2.3509886e-38
-0.031134818 -0.11671309 -0.0074881651 2.3509886e-38
-0.02917264 -0.11671309 -0.0074881651 2.3509886e-38
-0.027210455 -0.11671309 -0.0074881651 2.3509886e-38
-0.025248282 -0.11671309 -0.0074881651 2.3509886e-38
-0.0232861 -0.11671309 -0.0074881651 2.3509886e-38
-0.021323923 -0.11671309 -0.0074881651 2.3509886e-38
-0.019361742 -0.11671309 -0.0074881651 2.3509886e-38
-0.017399564 -0.11671309 -0.0074881651 2.3509886e-38
-0.015326586 -0.11575161 -0.0034110881 2.3509886e-38
-0.013371553 -0.11575161 -0.0034110881 2.3509886e-38
-0.011513028 -0.11671309 -0.0074881651 2.3509886e-38
-0.0095508508 -0.11671309 -0.0074881651 2.3509886e-38
-0.0075064637 -0.11575161 -0.0034110881 2.3509886e-38
-0.0055514313 -0.11575161 -0.0034110881 2.3509886e-38
-0.003596399 -0.11575161 -0.0034110881 2.3509886e-38
-0.0015974566 -0.11505674 -0.00046447292 2.3509886e-38
0.00035240874 -0.11505674 -0.00046447292 2.3509886e-38
0.0023022704 -0.11505674 -0.00046447292 2.3509886e-38
0.0042909645 -0.11410724 0.0035618208 2.3509886e-38
0.0062337685 -0.11410724 0.0035618208 2.3509886e-38
0.0081765726 -0.11410724 0.0035618208 2.3509886e-38
0.010119379 -0.11410724 0.0035618208 2.3509886e-38
0.012062183 -0.11410724 0.0035618208 2.3509886e-38
0.014007645 -0.11339252 0.0065925978 2.3509886e-38
0.015945135 -0.11339252 0.0065925978 2.3509886e-38
0.017882627 -0.11339252 0.0065925978 2.3509886e-38
0.019820116 -0.11339252 0.0065925978 2.3509886e-38
0.021757606 -0.11339252 0.0065925978 2.3509886e-38
0.023663733 -0.11245503 0.010567989 2.3509886e-38
0.025594253 -0.11245503 0.010567989 2.3509886e-38
0.027479794 -0.11152427 0.01451477 2.3509886e-38
0.029362764 -0.11079563 0.017604556 2.3509886e-38
0.031280946 -0.11079563 0.017604556 2.3509886e-38
0.033199131 -0.11079563 0.017604556 2.3509886e-38
0.035043411 -0.10984896 0.021618929 2.3509886e-38
0.036954552 -0.10984896 0.021618929 2.3509886e-38
0.038865697 -0.10984896 0.021618929 2.3509886e-38
0.040776841 -0.10984896 0.021618929 2.3509886e-38
0.042687986 -0.10984896 0.021618929 2.3509886e-38
0.044599131 -0.10984896 0.021618929 2.3509883e-38
0.046510275 -0.10984896 0.021618929 2.3418047e-38
0.048238348 -0.1084419 0.027585473 2.3418045e-38
0.050139029 -0.1084419 0.027585473 2.3417687e-38
0.052039713 -0.1084419 0.027585473 2.3417687e-38
0.053940397 -0.1084419 0.027585473 2.3509886e-38
0.05595544 -0.10915731 0.024551835 2.341769e-38
0.05786144 -0.10915731 0.024551835 2.3417691e-38
0.059767444 -0.10915731 0.024551835 1.8439406e-40
0.061673444 -0.10915731 0.024551835 2.7587363e-40
0.063710578 -0.10984896 0.021618929 1.152374e-38
0.065808244 -0.11079563 0.017604556 1.1892166e-38
0.068257391 -0.11339252 0.0065925978 8.2965361e-39
0.072132364 -0.11339252 0.0065925978 5.1608085e-39
-0.074370056 -0.12485488 -0.033499274 0
-0.071518898 -0.12222783 -0.02244154 0
-0.069530502 -0.12222783 -0.02244154 2.3509886e-38
-0.067542106 -0.12222783 -0.02244154 2.3509886e-38
-0.06555371 -0.12222783 -0.02244154 2.3509886e-38
-0.063565314 -0.12222783 -0.02244154 2.3509883e-38
-0.061576899 -0.12222783 -0.02244154 2.3509883e-38
-0.059588503 -0.12222783 -0.02244154 2.3509883e-38
-0.057600107 -0.12222783 -0.02244154 2.3509883e-38
-0.055358987 -0.12126322 -0.018381272 2.350988e-38
-0.053377714 -0.12126322 -0.018381272 2.350988e-38
-0.051396441 -0.12126322 -0.018381272 2.350988e-38
-0.049415153 -0.12126322 -0.018381272 2.350988e-38
-0.04721817 -0.12033533 -0.014475618 2.3509886e-38
-0.045243736 -0.12033533 -0.014475618 2.3509886e-38
-0.043113869 -0.11962132 -0.011470351 2.3509886e-38
-0.041144703 -0.11962132 -0.011470351 2.3509886e-38
-0.038983535 -0.11867525 -0.0074881651 2.3509886e-38
-0.03702135 -0.11867525 -0.0074881651 2.3509886e-38
-0.03505918 -0.11867525 -0.0074881651 2.3509886e-38
-0.033096995 -0.11867525 -0.0074881651 2.3509886e-38
-0.031134818 -0.11867525 -0.0074881651 2.3509886e-38
-0.02917264 -0.11867525 -0.0074881651 2.3509886e-38
-0.027210455 -0.11867525 -0.0074881651 2.3509886e-38
-0.025248282 -0.11867525 -0.0074881651 2.3509886e-38
-0.0232861 -0.11867525 -0.0074881651 2.3509886e-38
-0.021323923 -0.11867525 -0.0074881651 2.3509886e-38
-0.019361742 -0.11867525 -0.0074881651 2.3509886e-38
-0.017281614 -0.11770664 -0.0034110881 2.3509886e-38
-0.015326586 -0.11770664 -0.0034110881 2.3509886e-38
-0.013371553 -0.11770664 -0.0034110881 2.3509886e-38
-0.011513028 -0.11867525 -0.0074881651 2.3509886e-38
-0.0095508508 -0.11867525 -0.0074881651 2.3509886e-38
-0.0075886697 -0.11867525 -0.0074881651 2.3509886e-38
-0.0056264885 -0.11867525 -0.0074881651 2.3509886e-38
-0.003664311 -0.11867525 -0.0074881651 2.3509886e-38
-0.0015974566 -0.11700659 -0.00046447292 2.3509886e-38
0.00035240874 -0.11700659 -0.00046447292 2.3509886e-38
0.0023481585 -0.11605005 0.0035618208 2.3509886e-38
0.0042909645 -0.11605005 0.0035618208 2.3509886e-38
0.0062337685 -0.11605005 0.0035618208 2.3509886e-38
0.0081765726 -0.11605005 0.0035618208 2.3509886e-38
0.010132663 -0.11533 0.0065925978 2.3509886e-38
0.012070153 -0.11533 0.0065925978 2.3509886e-38
0.014007645 -0.11533 0.0065925978 2.3509886e-38
0.015945135 -0.11533 0.0065925978 2.3509886e-38
0.017882627 -0.11533 0.0065925978 2.3509886e-38
0.019820116 -0.11533 0.0065925978 2.3509886e-38
0.021757606 -0.11533 0.0065925978 2.3509886e-38
0.023695098 -0.11533 0.0065925978 2.3509886e-38
0.025594253 -0.11438553 0.010567989 2.3509886e-38
0.027479794 -0.11344786 0.01451477 2.3509886e-38
0.029362764 -0.1127138 0.017604556 2.3509886e-38
0.031280946 -0.1127138 0.017604556 2.3509886e-38
0.033199131 -0.1127138 0.017604556 2.3509886e-38
0.035117313 -0.1127138 0.017604556 2.3509886e-38
0.036954552 -0.11176009 0.021618929 2.3509886e-38
0.038865697 -0.11176009 0.021618929 2.3509886e-38
0.040776841 -0.11176009 0.021618929 2.3509886e-38
0.042687986 -0.11176009 0.021618929 2.3509886e-38
0.044599131 -0.11176009 0.021618929 2.3509886e-38
0.046510275 -0.11176009 0.021618929 2.3418047e-38
0.04842142 -0.11176009 0.021618929 2.3418045e-38
0.050332565 -0.11176009 0.021618929 2.3417687e-38
0.052039713 -0.11034258 0.027585473 2.3417687e-38
0.053940397 -0.11034258 0.027585473 2.3509886e-38
0.05595544 -0.11106332 0.024551835 2.341769e-38
0.05786144 -0.11106332 0.024551835 2.3417691e-38
0.059767444 -0.11106332 0.024551835 1.8439406e-40
0.061673444 -0.11106332 0.024551835 9.1841101e-41
0.063710578 -0.11176009 0.021618929 1.069398e-38
0.066319898 -0.11533 0.0065925978 1.1800327e-38
0.06840352 -0.11605005 0.0035618208 9.310688e-39
-0.074370056 -0.12686269 -0.033499274 0
-0.072362274 -0.12686269 -0.033499274 1.9361054e-39
-0.069530502 -0.12421621 -0.02244154 2.3509883e-38
-0.067542106 -0.12421621 -0.02244154 2.231134e-38
-0.06555371 -0.12421621 -0.02244154 2.3509883e-38
-0.063565314 -0.12421621 -0.02244154 2.3509883e-38
-0.061576899 -0.12421621 -0.02244154 2.3509883e-38
-0.059588503 -0.12421621 -0.02244154 2.3509883e-38
-0.057340275 -0.12324448 -0.018381272 2.3509883e-38
-0.055358987 -0.12324448 -0.018381272 2.350988e-38
-0.053141456 -0.12230973 -0.014475618 2.350988e-38
-0.051167022 -0.12230973 -0.014475618 2.350988e-38
-0.049192604 -0.12230973 -0.014475618 2.350988e-38
-0.04721817 -0.12230973 -0.014475618 2.3509886e-38
-0.045243736 -0.12230973 -0.014475618 2.3509886e-38
-0.043113869 -0.12159048 -0.011470351 2.3509886e-38
-0.040945712 -0.12063743 -0.0074881651 2.3509886e-38
-0.038983535 -0.12063743 -0.0074881651 2.3509886e-38
-0.03702135 -0.12063743 -0.0074881651 2.3509886e-38
-0.03505918 -0.12063743 -0.0074881651 2.3509886e-38
-0.033096995 -0.12063743 -0.0074881651 2.3509886e-38
-0.031134818 -0.12063743 -0.0074881651 2.3509886e-38
-0.02917264 -0.12063743 -0.0074881651 2.3509886e-38
-0.027210455 -0.12063743 -0.0074881651 2.3509886e-38
-0.025248282 -0.12063743 -0.0074881651 2.3509886e-38
-0.0232861 -0.12063743 -0.0074881651 2.3509886e-38
-0.021191675 -0.11966167 -0.0034110881 2.3509886e-38
-0.019236647 -0.11966167 -0.0034110881 2.3509886e-38
-0.017281614 -0.11966167 -0.0034110881 2.3509886e-38
-0.015326586 -0.11966167 -0.0034110881 2.3509886e-38
-0.013371553 -0.11966167 -0.0034110881 2.3509886e-38
-0.011513028 -0.12063743 -0.0074881651 2.3509886e-38
-0.0095508508 -0.12063743 -0.0074881651 2.3509886e-38
-0.0075886697 -0.12063743 -0.0074881651 2.3509886e-38
-0.0056264885 -0.12063743 -0.0074881651 2.3509886e-38
-0.003596399 -0.11966167 -0.0034110881 2.3509886e-38
-0.0015974566 -0.11895646 -0.00046447292 2.3509886e-38
0.00035240874 -0.11895646 -0.00046447292 2.3509886e-38
0.0023481585 -0.11799283 0.0035618208 2.3509886e-38
0.0042909645 -0.11799283 0.0035618208 2.3509886e-38
0.0062337685 -0.11799283 0.0035618208 2.3509886e-38
0.008195173 -0.11726747 0.0065925978 2.3509886e-38
0.010132663 -0.11726747 0.0065925978 2.3509886e-38
0.012070153 -0.11726747 0.0065925978 2.3509886e-38
0.014007645 -0.11726747 0.0065925978 2.3509886e-38
0.015945135 -0.11726747 0.0065925978 2.3509886e-38
0.017882627 -0.11726747 0.0065925978 2.3509886e-38
0.019820116 -0.11726747 0.0065925978 2.3509886e-38
0.021757606 -0.11726747 0.0065925978 2.3509886e-38
0.023663733 -0.11631607 0.010567989 2.3509886e-38
0.025594253 -0.11631607 0.010567989 2.3509886e-38
0.027479794 -0.11537148 0.01451477 2.3509886e-38
0.029362764 -0.114632 0.017604556 2.3509886e-38
0.031280946 -0.114632 0.017604556 2.3509886e-38
0.033199131 -0.114632 0.017604556 2.3509886e-38
0.035117313 -0.114632 0.017604556 2.3509886e-38
0.037035495 -0.114632 0.017604556 2.3509886e-38
0.038865697 -0.11367123 0.021618929 2.3509886e-38
0.040776841 -0.11367123 0.021618929 2.3509886e-38
0.042687986 -0.11367123 0.021618929 2.3509886e-38
0.044599131 -0.11367123 0.021618929 2.3509886e-38
0.046510275 -0.11367123 0.021618929 2.3325492e-38
0.04842142 -0.11367123 0.021618929 2.3509883e-38
0.050332565 -0.11367123 0.021618929 2.3509883e-38
0.052039713 -0.11224325 0.027585473 2.3233296e-38
0.053940397 -0.11224325 0.027585473 2.3509883e-38
0.055841081 -0.11224325 0.027585473 2.3509883e-38
0.057741765 -0.11224325 0.027585473 2.3416971e-38
0.059767444 -0.11296929 0.024551835 9.1835496e-41
0.061673444 -0.11296929 0.024551835 1.836752e-40
0.063710578 -0.11367123 0.021618929 8.7578688e-39
0.066319898 -0.11726747 0.0065925978 1.3089984e-38
0.06840352 -0.11799283 0.0035618208 1.0139727e-38
-0.072056383 -0.12790357 -0.029488597 2.3970836e-39
-0.069530502 -0.12620462 -0.02244154 2.3509883e-38
-0.067542106 -0.12620462 -0.02244154 2.3509883e-38
-0.06555371 -0.12620462 -0.02244154 2.3509883e-38
-0.063565314 -0.12620462 -0.02244154 2.3509883e-38
-0.061576899 -0.12620462 -0.02244154 2.3509883e-38
-0.059321549 -0.12522577 -0.018381272 2.3509883e-38
-0.057340275 -0.12522577 -0.018381272 2.3509883e-38
-0.055358987 -0.12522577 -0.018381272 2.3509883e-38
-0.053141456 -0.12428416 -0.014475618 2.350988e-38
-0.051167022 -0.12428416 -0.014475618 2.3509883e-38
-0.049192604 -0.12428416 -0.014475618 2.3509883e-38
-0.047052186 -0.12355967 -0.011470351 2.3509886e-38
-0.045083027 -0.12355967 -0.011470351 2.3509886e-38
-0.043113869 -0.12355967 -0.011470351 2.3509886e-38
-0.040945712 -0.12259962 -0.0074881651 2.3509886e-38
-0.038983535 -0.12259962 -0.0074881651 2.3509886e-38
-0.03702135 -0.12259962 -0.0074881651 2.3509886e-38
-0.03505918 -0.12259962 -0.0074881651 2.3509886e-38
-0.033096995 -0.12259962 -0.0074881651 2.3509886e-38
-0.03096683 -0.12161671 -0.0034110881 2.3509886e-38
-0.029011797 -0.12161671 -0.0034110881 2.3509886e-38
-0.027056765 -0.12161671 -0.0034110881 2.3509886e-38
-0.025101736 -0.12161671 -0.0034110881 2.3509886e-38
-0.023146708 -0.12161671 -0.0034110881 2.3509886e-38
-0.021191675 -0.12161671 -0.0034110881 2.3509886e-38
-0.019236647 -0.12161671 -0.0034110881 2.3509886e-38
-0.017281614 -0.12161671 -0.0034110881 2.3509886e-38
-0.015246507 -0.12090631 -0.00046447292 2.3509886e-38
-0.013296641 -0.12090631 -0.00046447292 2.3509886e-38
-0.011416521 -0.12161671 -0.0034110881 2.3509886e-38
-0.0094614923 -0.12161671 -0.0034110881 2.3509886e-38
-0.0075064637 -0.12161671 -0.0034110881 2.3509886e-38
-0.0055514313 -0.12161671 -0.0034110881 2.3509886e-38
-0.003596399 -0.12161671 -0.0034110881 2.3509886e-38
-0.0015374534 -0.11993565 0.0035618208 2.3509886e-38
0.00040535256 -0.11993565 0.0035618208 2.3509886e-38
0.0023481585 -0.11993565 0.0035618208 2.3509886e-38
0.0043201894 -0.11920498 0.0065925978 2.3509886e-38
0.0062576812 -0.11920498 0.0065925978 2.3509886e-38
0.008195173 -0.11920498 0.0065925978 2.3509886e-38
0.010132663 -0.11920498 0.0065925978 2.3509886e-38
0.012070153 -0.11920498 0.0065925978 2.3509886e-38
0.014007645 -0.11920498 0.0065925978 2.3509886e-38
0.015945135 -0.11920498 0.0065925978 2.3509886e-38
0.017882627 -0.11920498 0.0065925978 2.3509886e-38
0.019820116 -0.11920498 0.0065925978 2.3509886e-38
0.021757606 -0.11920498 0.0065925978 2.3509886e-38
0.023663733 -0.11824657 0.010567989 2.3509886e-38
0.025594253 -0.11824657 0.010567989 2.3509886e-38
0.027479794 -0.11729507 0.01451477 2.3509886e-38
0.029362764 -0.11655019 0.017604556 2.3509886e-38
0.031280946 -0.11655019 0.017604556 2.3509886e-38
0.033199131 -0.11655019 0.017604556 2.3509886e-38
0.035117313 -0.11655019 0.017604556 2.3509886e-38
0.037035495 -0.11655019 0.017604556 2.3509886e-38
0.038865697 -0.11558239 0.021618929 2.3509886e-38
0.040776841 -0.11558239 0.021618929 2.3509886e-38
0.042687986 -0.11558239 0.021618929 2.3509886e-38
0.044599131 -0.11558239 0.021618929 2.3509886e-38
0.046510275 -0.11558239 0.021618929 2.3325492e-38
0.04842142 -0.11558239 0.021618929 2.3509883e-38
0.050332565 -0.11558239 0.021618929 2.3509883e-38
0.052039713 -0.11414395 0.027585473 2.3325492e-38
0.053940397 -0.11414395 0.027585473 2.3509883e-38
0.055841081 -0.11414395 0.027585473 2.3509883e-38
0.057741765 -0.11414395 0.027585473 2.3509167e-38
0.059767444 -0.1148753 0.024551835 9.1835496e-41
0.062444914 -0.11920498 0.0065925978 9.1835496e-41
0.064382404 -0.11920498 0.0065925978 6.4529752e-39
0.066460714 -0.11993565 0.0035618208 1.2444971e-38
0.06840352 -0.11993565 0.0035618208 1.0601058e-38
-0.072056383 -0.12990431 -0.029488597 6.3618516e-39
-0.069530502 -0.12819304 -0.02244154 2.350988e-38
-0.067542106 -0.12819304 -0.02244154 2.3325847e-38
-0.06555371 -0.12819304 -0.02244154 2.3049261e-38
-0.063565314 -0.12819304 -0.02244154 2.3509883e-38
-0.061576899 -0.12819304 -0.02244154 2.3509883e-38
-0.059321549 -0.12720706 -0.018381272 2.3509883e-38
-0.057340275 -0.12720706 -0.018381272 2.3509883e-38
-0.055358987 -0.12720706 -0.018381272 2.3509883e-38
-0.053141456 -0.1262586 -0.014475618 2.3509883e-38
-0.051167022 -0.1262586 -0.014475618 2.3509886e-38
-0.049192604 -0.1262586 -0.014475618 2.3509886e-38
-0.047052186 -0.12552883 -0.011470351 2.3509886e-38
-0.045083027 -0.12552883 -0.011470351 2.3509886e-38
-0.043113869 -0.12552883 -0.011470351 2.3509886e-38
-0.040945712 -0.1245618 -0.0074881651 2.3509886e-38
-0.038983535 -0.1245618 -0.0074881651 2.3509886e-38
-0.03702135 -0.1245618 -0.0074881651 2.3509886e-38
-0.03505918 -0.1245618 -0.0074881651 2.3509886e-38
-0.033096995 -0.1245618 -0.0074881651 2.3509886e-38
-0.03096683 -0.12357174 -0.0034110881 2.3509886e-38
-0.029011797 -0.12357174 -0.0034110881 2.3509886e-38
-0.027056765 -0.12357174 -0.0034110881 2.3509886e-38
-0.025101736 -0.12357174 -0.0034110881 2.3509886e-38
-0.023045961 -0.12285618 -0.00046447292 2.3509886e-38
-0.021096099 -0.12285618 -0.00046447292 2.3509886e-38
-0.019146234 -0.12285618 -0.00046447292 2.3509886e-38
-0.017196368 -0.12285618 -0.00046447292 2.3509886e-38
-0.015137084 -0.12187846 0.0035618208 2.3509886e-38
-0.013194282 -0.12187846 0.0035618208 2.3509886e-38
-0.011346776 -0.12285618 -0.00046447292 2.3509886e-38
-0.0094614923 -0.12357174 -0.0034110881 2.3509886e-38
-0.0075064637 -0.12357174 -0.0034110881 2.3509886e-38
-0.0054971837 -0.12285618 -0.00046447292 2.3509886e-38
-0.003547322 -0.12285618 -0.00046447292 2.3509886e-38
-0.0015374534 -0.12187846 0.0035618208 2.3509886e-38
0.00040535256 -0.12187846 0.0035618208 2.3509886e-38
0.0023481585 -0.12187846 0.0035618208 2.3509886e-38
0.0043201894 -0.12114246 0.0065925978 2.3509886e-38
0.0062576812 -0.12114246 0.0065925978 2.3509886e-38
0.008195173 -0.12114246 0.0065925978 2.3509886e-38
0.010132663 -0.12114246 0.0065925978 2.3509886e-38
0.012070153 -0.12114246 0.0065925978 2.3509886e-38
0.014007645 -0.12114246 0.0065925978 2.3509886e-38
0.015945135 -0.12114246 0.0065925978 2.3509886e-38
0.017882627 -0.12114246 0.0065925978 2.3509886e-38
0.019820116 -0.12114246 0.0065925978 2.3509886e-38
0.021733211 -0.12017711 0.010567989 2.3509886e-38
0.023663733 -0.12017711 0.010567989 2.3509886e-38
0.025556192 -0.11921866 0.01451477 2.3509886e-38
0.027444581 -0.11846836 0.017604556 2.3509886e-38
0.029362764 -0.11846836 0.017604556 2.3509886e-38
0.031280946 -0.11846836 0.017604556 2.3509886e-38
0.033199131 -0.11846836 0.017604556 2.3509886e-38
0.035117313 -0.11846836 0.017604556 2.3509886e-38
0.037035495 -0.11846836 0.017604556 2.3509886e-38
0.038865697 -0.11749353 0.021618929 2.3509886e-38
0.040776841 -0.11749353 0.021618929 2.3509886e-38
0.042687986 -0.11749353 0.021618929 2.3509886e-38
0.044599131 -0.11749353 0.021618929 2.3509886e-38
0.046510275 -0.11749353 0.021618929 2.341769e-38
0.04842142 -0.11749353 0.021618929 2.3509886e-38
0.050332565 -0.11749353 0.021618929 2.3509527e-38
0.052039713 -0.11604463 0.027585473 2.3509167e-38
0.053940397 -0.11604463 0.027585473 2.3509883e-38
0.055841081 -0.11604463 0.027585473 2.3509883e-38
0.057741765 -0.11604463 0.027585473 2.3509883e-38
0.059642445 -0.11604463 0.027585473 9.1835496e-41
0.061673444 -0.11678131 0.024551835 2.7550649e-40
0.063579448 -0.11678131 0.024551835 4.3317527e-39
0.065621719 -0.11749353 0.021618929 1.2352772e-38
-0.076057881 -0.13190506 -0.029488597 1.0141868e-38
-0.074057132 -0.13190506 -0.029488597 1.1340414e-38
-0.072056383 -0.13190506 -0.029488597 1.2815544e-38
-0.069530502 -0.13018142 -0.02244154 2.350988e-38
-0.067542106 -0.13018142 -0.02244154 2.350988e-38
-0.06555371 -0.13018142 -0.02244154 2.3418043e-38
-0.063565314 -0.13018142 -0.02244154 2.3509883e-38
-0.061302822 -0.12918831 -0.018381272 2.3509883e-38
-0.059321549 -0.12918831 -0.018381272 2.3509883e-38
-0.057090323 -0.12823303 -0.014475618 2.3509883e-38
-0.05511589 -0.12823303 -0.014475618 2.3509886e-38
-0.052959677 -0.12749799 -0.011470351 2.3509886e-38
-0.050990503 -0.12749799 -0.011470351 2.3509886e-38
-0.049021345 -0.12749799 -0.011470351 2.3509886e-38
-0.047052186 -0.12749799 -0.011470351 2.3509886e-38
-0.045083027 -0.12749799 -0.011470351 2.3509886e-38
-0.043113869 -0.12749799 -0.011470351 2.3509886e-38
-0.040945712 -0.12652399 -0.0074881651 2.3509886e-38
-0.038983535 -0.12652399 -0.0074881651 2.3509886e-38
-0.03702135 -0.12652399 -0.0074881651 2.3509886e-38
-0.03505918 -0.12652399 -0.0074881651 2.3509886e-38
-0.033096995 -0.12652399 -0.0074881651 2.3509886e-38
-0.03096683 -0.12552677 -0.0034110881 2.3509886e-38
-0.029011797 -0.12552677 -0.0034110881 2.3509886e-38
-0.027056765 -0.12552677 -0.0034110881 2.3509886e-38
-0.025101736 -0.12552677 -0.0034110881 2.3509886e-38
-0.023045961 -0.12480606 -0.00046447292 2.3509886e-38
-0.021096099 -0.12480606 -0.00046447292 2.3509886e-38
-0.019146234 -0.12480606 -0.00046447292 2.3509886e-38
-0.01707989 -0.12382124 0.0035618208 2.3509886e-38
-0.015137084 -0.12382124 0.0035618208 2.3509886e-38
-0.013194282 -0.12382124 0.0035618208 2.3509886e-38
-0.011346776 -0.12480606 -0.00046447292 2.3509886e-38
-0.0094614923 -0.12552677 -0.0034110881 2.3509886e-38
-0.0075064637 -0.12552677 -0.0034110881 2.3509886e-38
-0.0054971837 -0.12480606 -0.00046447292 2.3509886e-38
-0.003547322 -0.12480606 -0.00046447292 2.3509886e-38
-0.0015374534 -0.12382124 0.0035618208 2.3509886e-38
0.00040535256 -0.12382124 0.0035618208 2.3509886e-38
0.0023481585 -0.12382124 0.0035618208 2.3509886e-38
0.0043201894 -0.12307997 0.0065925978 2.3509886e-38
0.0062576812 -0.12307997 0.0065925978 2.3509886e-38
0.008195173 -0.12307997 0.0065925978 2.3509886e-38
0.010132663 -0.12307997 0.0065925978 2.3509886e-38
0.012070153 -0.12307997 0.0065925978 2.3509886e-38
0.014007645 -0.12307997 0.0065925978 2.3509886e-38
0.015945135 -0.12307997 0.0065925978 2.3509886e-38
0.017882627 -0.12307997 0.0065925978 2.3509886e-38
0.019820116 -0.12307997 0.0065925978 2.3509886e-38
0.021733211 -0.12210761 0.010567989 2.3509886e-38
0.023663733 -0.12210761 0.010567989 2.3509886e-38
0.025556192 -0.12114228 0.01451477 2.3509886e-38
0.027444581 -0.12038656 0.017604556 2.3509886e-38
0.029362764 -0.12038656 0.017604556 2.3509886e-38
0.031280946 -0.12038656 0.017604556 2.3509886e-38
0.033199131 -0.12038656 0.017604556 2.3509886e-38
0.035117313 -0.12038656 0.017604556 2.3509886e-38
0.037035495 -0.12038656 0.017604556 2.3509886e-38
0.038865697 -0.11940466 0.021618929 2.3509886e-38
0.040776841 -0.11940466 0.021618929 2.3509886e-38
0.042790048 -0.12038656 0.017604556 2.3509886e-38
0.044599131 -0.11940466 0.021618929 2.3509886e-38
0.046510275 -0.11940466 0.021618929 2.341769e-38
0.04842142 -0.11940466 0.021618929 2.3509886e-38
0.050332565 -0.11940466 0.021618929 2.3509527e-38
0.052039713 -0.11794533 0.027585473 2.3509527e-38
0.053940397 -0.11794533 0.027585473 2.3509883e-38
0.055841081 -0.11794533 0.027585473 2.3509883e-38
0.057741765 -0.11794533 0.027585473 2.3509523e-38
0.059767444 -0.11868732 0.024551835 1.8402972e-40
0.061673444 -0.11868732 0.024551835 3.6734198e-40
0.063710578 -0.11940466 0.021618929 2.4881946e-39
-0.076057881 -0.13390581 -0.029488597 1.0142224e-38
-0.074057132 -0.13390581 -0.029488597 1.2170172e-38
-0.072056383 -0.13390581 -0.029488597 1.475165e-38
-0.069530502 -0.13216983 -0.02244154 2.3509879e-38
-0.067542106 -0.13216983 -0.02244154 2.3509879e-38
-0.06555371 -0.13216983 -0.02244154 2.350988e-38
-0.063565314 -0.13216983 -0.02244154 2.3509883e-38
-0.061302822 -0.1311696 -0.018381272 2.3509883e-38
-0.059321549 -0.1311696 -0.018381272 2.3509886e-38
-0.057090323 -0.13020746 -0.014475618 2.3509886e-38
-0.05511589 -0.13020746 -0.014475618 2.3509886e-38
-0.052959677 -0.12946714 -0.011470351 2.3509886e-38
-0.050990503 -0.12946714 -0.011470351 2.3509886e-38
-0.049021345 -0.12946714 -0.011470351 2.3509886e-38
-0.04721817 -0.13020746 -0.014475618 2.3509886e-38
-0.045243736 -0.13020746 -0.014475618 2.3509886e-38
-0.043113869 -0.12946714 -0.011470351 2.3509886e-38
-0.040945712 -0.12848614 -0.0074881651 2.3509886e-38
-0.038983535 -0.12848614 -0.0074881651 2.3509886e-38
-0.03702135 -0.12848614 -0.0074881651 2.3509886e-38
-0.03505918 -0.12848614 -0.0074881651 2.3509886e-38
-0.033096995 -0.12848614 -0.0074881651 2.3509886e-38
-0.03096683 -0.1274818 -0.0034110881 2.3509886e-38
-0.029011797 -0.1274818 -0.0034110881 2.3509886e-38
-0.027056765 -0.1274818 -0.0034110881 2.3509886e-38
-0.024995826 -0.12675591 -0.00046447292 2.3509886e-38
-0.023045961 -0.12675591 -0.00046447292 2.3509886e-38
-0.021096099 -0.12675591 -0.00046447292 2.3509886e-38
-0.019146234 -0.12675591 -0.00046447292 2.3509886e-38
-0.01707989 -0.12576406 0.0035618208 2.3509886e-38
-0.015137084 -0.12576406 0.0035618208 2.3509886e-38
-0.013194282 -0.12576406 0.0035618208 2.3509886e-38
-0.011346776 -0.12675591 -0.00046447292 2.3509886e-38
-0.0093969144 -0.12675591 -0.00046447292 2.3509886e-38
-0.007447049 -0.12675591 -0.00046447292 2.3509886e-38
-0.0054971837 -0.12675591 -0.00046447292 2.3509886e-38
-0.003547322 -0.12675591 -0.00046447292 2.3509886e-38
-0.0015374534 -0.12576406 0.0035618208 2.3509886e-38
0.00040535256 -0.12576406 0.0035618208 2.3509886e-38
0.0023481585 -0.12576406 0.0035618208 2.3509886e-38
0.0043201894 -0.12501745 0.0065925978 2.3509886e-38
0.0062576812 -0.12501745 0.0065925978 2.3509886e-38
0.008195173 -0.12501745 0.0065925978 2.3509886e-38
0.010132663 -0.12501745 0.0065925978 2.3509886e-38
0.012070153 -0.12501745 0.0065925978 2.3509886e-38
0.014007645 -0.12501745 0.0065925978 2.3509886e-38
0.015945135 -0.12501745 0.0065925978 2.3509886e-38
0.017882627 -0.12501745 0.0065925978 2.3509886e-38
0.019820116 -0.12501745 0.0065925978 2.3509886e-38
0.021733211 -0.12403814 0.010567989 2.3509886e-38
0.023663733 -0.12403814 0.010567989 2.3509886e-38
0.025556192 -0.12306587 0.01451477 2.3509886e-38
0.027479794 -0.12306587 0.01451477 2.3509886e-38
0.029362764 -0.12230472 0.017604556 2.3509886e-38
0.031280946 -0.12230472 0.017604556 2.3509886e-38
0.033199131 -0.12230472 0.017604556 2.3509886e-38
0.035117313 -0.12230472 0.017604556 2.3509886e-38
0.037035495 -0.12230472 0.017604556 2.3509886e-38
0.038865697 -0.12131582 0.021618929 2.3509886e-38
0.040776841 -0.12131582 0.021618929 2.3509886e-38
0.042687986 -0.12131582 0.021618929 2.3509886e-38
0.044599131 -0.12131582 0.021618929 2.3509886e-38
0.046510275 -0.12131582 0.021618929 2.3509527e-38
0.04842142 -0.12131582 0.021618929 2.3509527e-38
0.050332565 -0.12131582 0.021618929 2.3509167e-38
0.052039713 -0.119846 0.027585473 2.3509527e-38
0.053940397 -0.119846 0.027585473 2.3509883e-38
0.055841081 -0.119846 0.027585473 2.3509523e-38
0.057741765 -0.119846 0.027585473 2.3508801e-38
0.059642445 -0.119846 0.027585473 3.6770072e-40
0.061799433 -0.12131582 0.021618929 2.7550649e-40
0.063710578 -0.12131582 0.021618929 9.2086609e-40
-0.076377839 -0.1369016 -0.033499274 9.4968519e-39
-0.074370056 -0.1369016 -0.033499274 1.0142224e-38
-0.071821019 -0.13514097 -0.026402745 1.4014441e-38
-0.069530502 -0.13415821 -0.02244154 2.2864865e-38
-0.067542106 -0.13415821 -0.02244154 2.3509879e-38
-0.06555371 -0.13415821 -0.02244154 2.3141455e-38
-0.063565314 -0.13415821 -0.02244154 2.3509883e-38
-0.061302822 -0.13315089 -0.018381272 2.3509883e-38
-0.059321549 -0.13315089 -0.018381272 2.3509886e-38
-0.057090323 -0.1321819 -0.014475618 2.3509886e-38
-0.05511589 -0.1321819 -0.014475618 2.3509886e-38
-0.052959677 -0.1314363 -0.011470351 2.3509886e-38
-0.050990503 -0.1314363 -0.011470351 2.3509527e-38
-0.049021345 -0.1314363 -0.011470351 2.3509527e-38
