# .PCD v0.7 - Point Cloud Data file format
VERSION 0.7
FIELDS x y z rgb
SIZE 4 4 4 4
TYPE F F F F
COUNT 1 1 1 1
WIDTH 936
HEIGHT 1
VIEWPOINT 0 0 0 1 0 0 0
POINTS 936
DATA ascii
-0.016450088 -0.1001391 -0.043482333 2.3509886e-38
-0.014170345 -0.098444805 -0.035529047 2.157378e-38
-0.011917859 -0.096745893 -0.027554063 1.8715716e-38
-0.0097172149 -0.095234126 -0.020457534 2.1480868e-38
-0.0076211654 -0.094390273 -0.016496329 2.3509886e-38
-0.0054442137 -0.092693284 -0.0085304063 2.3509886e-38
-0.0034039207 -0.092053071 -0.0055251401 2.2864869e-38
-0.0013544634 -0.091204748 -0.0015429538 2.3418043e-38
0.00073702261 -0.089708492 0.0054807384 2.3418043e-38
0.0028044321 -0.088205129 0.012537809 2.2773034e-38
0.0048599914 -0.086517468 0.020459982 2.3418045e-38
0.0067835934 -0.086517468 0.020459982 2.341769e-38
0.0087424032 -0.085859254 0.023549767 2.3417691e-38
0.010699302 -0.085004061 0.02756414 2.3324778e-38
0.012633584 -0.084379271 0.030497046 2.3509167e-38
0.014558204 -0.083733007 0.033530682 2.2954907e-38
0.016489293 -0.082255349 0.040467113 3.6734198e-40
0.018377814 -0.082255349 0.040467113 1.1038196e-39
0.020266335 -0.082255349 0.040467113 1.8529138e-38
0.022154856 -0.082255349 0.040467113 2.3509859e-38
0.025888003 -0.080122024 0.05048129 9.9549504e-39
0.027758967 -0.080122024 0.05048129 3.8711262e-39
0.029629931 -0.080122024 0.05048129 5.2551509e-39
-0.027616534 -0.10732444 -0.067458183 2.3048907e-38
-0.025380258 -0.1064613 -0.063439637 2.3509886e-38
-0.02315909 -0.10560407 -0.059448391 2.3509886e-38
-0.020952899 -0.10475256 -0.055483967 2.304891e-38
-0.018623177 -0.10303779 -0.047500283 2.3509886e-38
-0.016320657 -0.10131776 -0.039492041 2.3509886e-38
-0.013925646 -0.098753676 -0.027554063 2.3233302e-38
-0.011801831 -0.097892255 -0.023543386 2.0190846e-38
-0.0096095614 -0.096378669 -0.016496329 1.6226078e-38
-0.0076211654 -0.096378669 -0.016496329 2.2311345e-38
-0.0054442137 -0.094667718 -0.0085304063 2.3509886e-38
-0.0034039207 -0.094022244 -0.0055251401 2.3418045e-38
-0.0013544634 -0.093166932 -0.0015429538 2.3418043e-38
0.00073702261 -0.091658354 0.0054807384 2.3234367e-38
0.0028044321 -0.090142623 0.012537809 2.2220938e-38
0.0048599914 -0.088441074 0.020459982 2.3234374e-38
0.0068242215 -0.087777436 0.023549767 2.341805e-38
0.0087424032 -0.087777436 0.023549767 2.3509886e-38
0.010699302 -0.08691521 0.02756414 2.3509527e-38
0.012657521 -0.085633695 0.033530682 2.314074e-38
0.014558204 -0.085633695 0.033530682 2.2032949e-38
0.016489293 -0.084143862 0.040467113 3.6734198e-40
0.018377814 -0.084143862 0.040467113 1.1041783e-39
0.020266335 -0.084143862 0.040467113 1.1706299e-38
0.022154856 -0.084143862 0.040467113 2.3509495e-38
0.024043377 -0.084143862 0.040467113 2.3321142e-38
0.025931899 -0.084143862 0.040467113 1.34573e-38
0.027758967 -0.081992984 0.05048129 1.8421035e-39
0.029629931 -0.081992984 0.05048129 4.3331946e-39
0.031500895 -0.081992984 0.05048129 3.5037997e-39
0.033371858 -0.081992984 0.05048129 3.5048787e-39
-0.029694293 -0.10940216 -0.067458183 2.3509886e-38
-0.027616534 -0.10940216 -0.067458183 2.3325494e-38
-0.025380258 -0.108532 -0.063439637 2.3509886e-38
-0.02315909 -0.10766776 -0.059448391 2.3509886e-38
-0.02081136 -0.10595666 -0.051546246 2.3509886e-38
-0.018485803 -0.10421051 -0.043482333 2.3141106e-38
-0.016192112 -0.10248834 -0.035529047 2.2956715e-38
-0.013925646 -0.10076147 -0.027554063 2.3233302e-38
-0.011801831 -0.099893004 -0.023543386 2.3509886e-38
-0.0096095614 -0.098367065 -0.016496329 2.2771967e-38
-0.0076211654 -0.098367065 -0.016496329 1.8992663e-38
-0.0054442137 -0.096642151 -0.0085304063 1.8071062e-38
-0.0034039207 -0.095991403 -0.0055251401 2.0283752e-38
-0.0012722574 -0.094246268 0.0025341231 2.1851435e-38
0.00073702261 -0.093608215 0.0054807384 2.2682272e-38
0.0028706528 -0.091219291 0.0165132 2.3234369e-38
0.0048599914 -0.090364665 0.020459982 2.3234372e-38
0.0068242215 -0.089695618 0.023549767 2.332621e-38
0.0087881573 -0.088826358 0.02756414 2.341805e-38
0.010699302 -0.088826358 0.02756414 2.3509886e-38
0.012657521 -0.087534383 0.033530682 2.2679762e-38
0.014558204 -0.087534383 0.033530682 2.0650734e-38
0.016489293 -0.086032391 0.040467113 3.6734198e-40
0.018377814 -0.086032391 0.040467113 1.1963726e-39
0.020266335 -0.086032391 0.040467113 5.8972553e-39
0.022154856 -0.086032391 0.040467113 2.1383589e-38
0.024043377 -0.086032391 0.040467113 2.3508772e-38
0.025931899 -0.086032391 0.040467113 1.8619173e-38
0.027758967 -0.083863959 0.05048129 2.3023586e-39
0.029629931 -0.083863959 0.05048129 3.3183238e-39
0.031500895 -0.083863959 0.05048129 3.7803866e-39
-0.031952929 -0.11236309 -0.071504027 1.4105931e-38
-0.029694293 -0.11147992 -0.067458183 2.3509886e-38
-0.027616534 -0.11147992 -0.067458183 2.3509886e-38
-0.025380258 -0.11060272 -0.063439637 2.3141103e-38
-0.023009647 -0.10886608 -0.055483967 2.3233302e-38
-0.020665932 -0.1071233 -0.047500283 2.3509886e-38
-0.018349376 -0.10537519 -0.039492041 2.3509886e-38
-0.016060203 -0.10362239 -0.031462342 2.3417691e-38
-0.013925646 -0.10276926 -0.027554063 2.3233302e-38
-0.011801831 -0.10189377 -0.023543386 2.3509886e-38
-0.0097172149 -0.10122015 -0.020457534 2.341805e-38
-0.0075179376 -0.09946914 -0.01243606 2.2773765e-38
-0.0053730793 -0.097960562 -0.0055251401 2.0100086e-38
-0.0033166446 -0.097091287 -0.0015429538 1.6965788e-38
-0.0012128428 -0.095558092 0.0054807384 1.7611512e-38
0.00081114843 -0.094679192 0.0095070321 2.2590792e-38
0.0028706528 -0.093149811 0.0165132 2.3142531e-38
0.0049060397 -0.091613799 0.023549767 2.2222012e-38
0.0068242215 -0.091613799 0.023549767 2.3142537e-38
0.0087881573 -0.090737507 0.02756414 2.3049624e-38
0.010727584 -0.090097278 0.030497046 2.3233296e-38
0.01268862 -0.088574663 0.037472218 2.1849999e-38
0.014582392 -0.088574663 0.037472218 1.8622427e-38
0.016489293 -0.087920904 0.040467113 3.6734198e-40
0.018377814 -0.087920904 0.040467113 1.1041783e-39
0.020266335 -0.087920904 0.040467113 2.6696866e-39
0.022154856 -0.087920904 0.040467113 1.7970907e-38
0.024043377 -0.087920904 0.040467113 2.3505886e-38
0.025914343 -0.087046593 0.044472426 2.2858732e-38
0.027795842 -0.087046593 0.044472426 4.0533539e-39
0.029677341 -0.087046593 0.044472426 2.5807588e-39
0.031558838 -0.087046593 0.044472426 4.8867355e-39
-0.031952929 -0.11444794 -0.071504027 1.6410822e-38
-0.029694293 -0.11355768 -0.067458183 2.341769e-38
-0.027616534 -0.11355768 -0.067458183 2.341769e-38
-0.025380258 -0.11267342 -0.063439637 2.3509886e-38
-0.023009647 -0.11092283 -0.055483967 2.3509886e-38
-0.020665932 -0.10916607 -0.047500283 2.3509886e-38
-0.018349376 -0.10740392 -0.039492041 2.3509886e-38
-0.016060203 -0.10563703 -0.031462342 2.3509886e-38
-0.013925646 -0.10477705 -0.027554063 2.3509886e-38
-0.011801831 -0.10389452 -0.023543386 2.3325856e-38
-0.0097172149 -0.1032155 -0.020457534 2.2496821e-38
-0.0075179376 -0.10145043 -0.01243606 2.3142544e-38
-0.0053730793 -0.09992972 -0.0055251401 2.3050347e-38
-0.0033166446 -0.099053472 -0.0015429538 2.3142538e-38
-0.0010705478 -0.095955089 0.012537809 2.2129817e-38
0.00086694211 -0.095955089 0.012537809 1.7520033e-38
0.0029363893 -0.094211861 0.020459982 1.7704424e-38
0.0049060397 -0.093531981 0.023549767 2.3142534e-38
0.0068770126 -0.09264864 0.02756414 2.3234372e-38
0.0088215806 -0.092003286 0.030497046 2.3234374e-38
0.010756839 -0.091335744 0.033530682 2.3417687e-38
0.01268862 -0.090468436 0.037472218 2.0835847e-38
0.014582392 -0.090468436 0.037472218 1.5672167e-38
0.016489293 -0.089809433 0.040467113 3.6734198e-40
0.018377814 -0.089809433 0.040467113 5.5101298e-40
0.020266335 -0.089809433 0.040467113 9.1835496e-40
0.022154856 -0.089809433 0.040467113 1.4650423e-38
0.024043377 -0.089809433 0.040467113 2.3501561e-38
0.025914343 -0.088928089 0.044472426 2.350554e-38
0.027795842 -0.088928089 0.044472426 6.1734933e-39
0.029677341 -0.088928089 0.044472426 3.5941904e-39
0.031558838 -0.088928089 0.044472426 6.8228438e-39
-0.031952929 -0.11653279 -0.071504027 1.8623517e-38
-0.029694293 -0.11563541 -0.067458183 2.3509886e-38
-0.027616534 -0.11563541 -0.067458183 2.3141103e-38
-0.025222797 -0.11385889 -0.059448391 2.3509886e-38
-0.022861216 -0.11210622 -0.051546246 2.3509886e-38
-0.020665932 -0.11120884 -0.047500283 2.2956715e-38
-0.018349376 -0.10943262 -0.039492041 2.2403541e-38
-0.016060203 -0.10765167 -0.031462342 2.3141106e-38
-0.013925646 -0.10678484 -0.027554063 2.3509886e-38
-0.011801831 -0.10589527 -0.023543386 2.341805e-38
-0.0097172149 -0.10521083 -0.020457534 2.3234379e-38
-0.0076211654 -0.10433225 -0.016496329 2.3142544e-38
-0.0053730793 -0.10189888 -0.0055251401 2.2774479e-38
-0.003227286 -0.10011137 0.0025341231 2.3142538e-38
-0.0010705478 -0.097892582 0.012537809 2.3142534e-38
0.00086694211 -0.097892582 0.012537809 1.9918198e-38
0.0029363893 -0.096135467 0.020459982 1.7797698e-38
0.0049658678 -0.094559789 0.02756414 2.0562491e-38
0.0069155805 -0.093909279 0.030497046 2.258972e-38
0.0088215806 -0.093909279 0.030497046 2.2866307e-38
0.010756839 -0.093236431 0.033530682 2.2680478e-38
0.01268862 -0.09236221 0.037472218 1.8438759e-38
0.014582392 -0.09236221 0.037472218 1.1892146e-38
0.016476166 -0.09236221 0.037472218 2.7586522e-40
0.018377814 -0.091697961 0.040467113 3.6770072e-40
0.020266335 -0.091697961 0.040467113 9.1835496e-40
0.022154856 -0.091697961 0.040467113 8.4729512e-39
0.024043377 -0.091697961 0.040467113 2.2577443e-38
0.025914343 -0.090809584 0.044472426 2.2211557e-38
0.027795842 -0.090809584 0.044472426 6.8177823e-39
0.029677341 -0.090809584 0.044472426 3.6863861e-39
0.031558838 -0.090809584 0.044472426 5.7164962e-39
-0.031952929 -0.11861761 -0.071504027 1.9729865e-38
-0.029694293 -0.11771317 -0.067458183 2.3325494e-38
-0.02745096 -0.11681484 -0.063439637 2.3509886e-38
-0.025222797 -0.11592259 -0.059448391 2.3509886e-38
-0.022861216 -0.11415605 -0.051546246 2.3509886e-38
-0.020665932 -0.11325158 -0.047500283 2.3509886e-38
-0.018349376 -0.11146136 -0.039492041 2.3509886e-38
-0.016192112 -0.11057542 -0.035529047 2.3509886e-38
-0.013925646 -0.10879262 -0.027554063 2.3509886e-38
-0.011712559 -0.10720618 -0.020457534 2.304927e-38
-0.0096095614 -0.10632066 -0.016496329 2.3234379e-38
-0.0075179376 -0.10541297 -0.01243606 2.2958154e-38
-0.0053730793 -0.10386805 -0.0055251401 2.3234379e-38
-0.003227286 -0.1020664 0.0025341231 2.3234374e-38
-0.0010705478 -0.099830076 0.012537809 2.30507e-38
0.00094012916 -0.098941371 0.0165132 2.3142534e-38
0.0029878579 -0.097368345 0.023549767 2.1668839e-38
0.0049658678 -0.096470937 0.02756414 1.8164686e-38
0.0069554709 -0.095137119 0.033530682 1.9178482e-38
0.008856155 -0.095137119 0.033530682 2.0560339e-38
0.010794848 -0.094255984 0.037472218 2.0559979e-38
0.01268862 -0.094255984 0.037472218 1.5488499e-38
0.014582392 -0.094255984 0.037472218 8.665299e-39
0.016476166 -0.094255984 0.037472218 3.6770072e-40
0.018369937 -0.094255984 0.037472218 3.6734198e-40
0.020263709 -0.094255984 0.037472218 1.3786086e-39
0.022154856 -0.093586475 0.040467113 3.863548e-39
0.024043377 -0.093586475 0.040467113 2.2485616e-38
0.025914343 -0.092691094 0.044472426 2.0921544e-38
0.027795842 -0.092691094 0.044472426 7.3720364e-39
0.029677341 -0.092691094 0.044472426 3.6874623e-39
0.031558838 -0.092691094 0.044472426 3.3204874e-39
-0.031952929 -0.12070246 -0.071504027 2.2496453e-38
-0.029694293 -0.11979093 -0.067458183 2.2773039e-38
-0.02745096 -0.11888553 -0.063439637 2.341805e-38
-0.025222797 -0.11798631 -0.059448391 2.341805e-38
-0.022861216 -0.11620592 -0.051546246 2.3509886e-38
-0.020521514 -0.11438908 -0.043482333 2.3509886e-38
-0.018349376 -0.11349006 -0.039492041 2.3509886e-38
-0.016060203 -0.11168094 -0.031462342 2.3509886e-38
-0.013925646 -0.1108004 -0.027554063 2.3509886e-38
-0.011712559 -0.10920154 -0.020457534 2.3509886e-38
-0.0096095614 -0.10830905 -0.016496329 2.341805e-38
-0.0075179376 -0.10739426 -0.01243606 2.341805e-38
-0.0053730793 -0.10583721 -0.0055251401 2.341805e-38
-0.003227286 -0.10402142 0.0025341231 2.3418047e-38
-0.00099039078 -0.10087189 0.0165132 2.3418047e-38
0.00094012916 -0.10087189 0.0165132 2.3418047e-38
0.0030547194 -0.098382086 0.02756414 2.350988e-38
0.0050095767 -0.097721294 0.030497046 2.350988e-38
0.0069554709 -0.097037792 0.033530682 2.0559979e-38
0.0089010745 -0.096149758 0.037472218 1.9452912e-38
0.010794848 -0.096149758 0.037472218 1.8899738e-38
0.01268862 -0.096149758 0.037472218 7.4664013e-39
0.014582392 -0.096149758 0.037472218 3.0413684e-39
0.016476166 -0.096149758 0.037472218 1.1974558e-39
0.018369937 -0.096149758 0.037472218 5.5208917e-40
0.020263709 -0.096149758 0.037472218 6.4284847e-40
0.022157483 -0.096149758 0.037472218 1.3775324e-39
0.024051255 -0.096149758 0.037472218 1.8062405e-38
0.025931899 -0.095475003 0.040467113 1.8618823e-38
0.027820421 -0.095475003 0.040467113 1.2075818e-38
0.029708942 -0.095475003 0.040467113 4.5182991e-39
-0.034037773 -0.12278731 -0.071504027 1.9639108e-38
-0.031772036 -0.12186868 -0.067458183 2.341805e-38
-0.029694293 -0.12186868 -0.067458183 2.341805e-38
-0.02745096 -0.12095623 -0.063439637 2.341805e-38
-0.025066409 -0.11914985 -0.055483967 2.341805e-38
-0.022708688 -0.11733709 -0.047500283 2.3509886e-38
-0.020521514 -0.11642478 -0.043482333 2.3509886e-38
-0.018349376 -0.11551876 -0.039492041 2.3509886e-38
-0.016060203 -0.11369558 -0.031462342 2.3509886e-38
-0.013925646 -0.11280818 -0.027554063 2.3509886e-38
-0.011712559 -0.11119686 -0.020457534 2.3509886e-38
-0.0096095614 -0.11029746 -0.016496329 2.3509886e-38
-0.0075179376 -0.10937552 -0.01243606 2.3509886e-38
-0.0051823147 -0.10597645 0.0025341231 2.3509886e-38
-0.0031627081 -0.10530742 0.0054807384 2.3509886e-38
-0.00099039078 -0.10280241 0.0165132 2.3509886e-38
0.0010696724 -0.10120471 0.023549767 2.3509886e-38
0.0031035729 -0.099627286 0.030497046 2.3509883e-38
0.0050547905 -0.09893848 0.033530682 2.3509883e-38
0.0070073046 -0.098043531 0.037472218 2.3509523e-38
0.0089010745 -0.098043531 0.037472218 2.314074e-38
0.010794848 -0.098043531 0.037472218 2.2125506e-38
0.01268862 -0.098043531 0.037472218 5.8068799e-39
0.014582392 -0.098043531 0.037472218 1.4736853e-39
0.016476166 -0.098043531 0.037472218 6.4392467e-40
0.020263709 -0.098043531 0.037472218 5.5101298e-40
0.022157483 -0.098043531 0.037472218 2.482794e-39
0.024051255 -0.098043531 0.037472218 1.5942993e-38
0.025931899 -0.097363517 0.040467113 1.9726617e-38
0.027820421 -0.097363517 0.040467113 1.9084484e-38
0.029708942 -0.097363517 0.040467113 9.5901378e-39
-0.033849794 -0.12394641 -0.067458183 2.0376673e-38
-0.031772036 -0.12394641 -0.067458183 2.3326213e-38
-0.029521663 -0.12302695 -0.063439637 2.2773039e-38
-0.027286503 -0.12211372 -0.059448391 2.341805e-38
-0.025066409 -0.1212066 -0.055483967 2.341805e-38
-0.022708688 -0.11937986 -0.047500283 2.3509886e-38
-0.020521514 -0.11846052 -0.043482333 2.3509886e-38
-0.018349376 -0.1175475 -0.039492041 2.3509886e-38
-0.016060203 -0.11571021 -0.031462342 2.3509886e-38
-0.013925646 -0.11481597 -0.027554063 2.3509886e-38
-0.011597961 -0.11228584 -0.016496329 2.3509886e-38
-0.0094992183 -0.11135681 -0.01243606 2.3509886e-38
-0.0072409995 -0.10886435 -0.0015429538 2.3509886e-38
-0.0051125698 -0.10725726 0.0054807384 2.3509886e-38
-0.0031627081 -0.10725726 0.0054807384 2.3509886e-38
-0.00099039078 -0.10473295 0.0165132 2.3509886e-38
0.0011435784 -0.10220437 0.02756414 2.3509886e-38
0.0031541027 -0.10083917 0.033530682 2.3509883e-38
0.0051135309 -0.099937305 0.037472218 2.3509883e-38
0.0070073046 -0.099937305 0.037472218 2.3509883e-38
0.0089352056 -0.099252045 0.040467113 2.3509883e-38
0.010823729 -0.099252045 0.040467113 2.3509521e-38
0.01271225 -0.099252045 0.040467113 2.8566198e-39
0.014582392 -0.099937305 0.037472218 2.7550649e-40
0.016476166 -0.099937305 0.037472218 4.5953621e-40
0.022157483 -0.099937305 0.037472218 1.8374274e-39
0.024051255 -0.099937305 0.037472218 1.280906e-38
0.025931899 -0.099252045 0.040467113 2.1938593e-38
0.027820421 -0.099252045 0.040467113 2.277123e-38
-0.038005296 -0.12602417 -0.067458183 3.5873241e-43
-0.035927538 -0.12602417 -0.067458183 2.3985255e-39
-0.033849794 -0.12602417 -0.067458183 2.1943999e-38
-0.031592373 -0.12509765 -0.063439637 2.341805e-38
-0.029521663 -0.12509765 -0.063439637 2.3326213e-38
-0.027286503 -0.12417741 -0.059448391 2.341805e-38
-0.025066409 -0.12326337 -0.055483967 2.341805e-38
-0.022708688 -0.1214226 -0.047500283 2.3509886e-38
-0.020521514 -0.12049623 -0.043482333 2.3509886e-38
-0.018349376 -0.1195762 -0.039492041 2.3509886e-38
-0.016060203 -0.11772485 -0.031462342 2.3509886e-38
-0.013925646 -0.11682375 -0.027554063 2.3509886e-38
-0.011597961 -0.11427425 -0.016496329 2.3509886e-38
-0.0094992183 -0.1133381 -0.01243606 2.3509886e-38
-0.007137347 -0.10988651 0.0025341231 2.3509886e-38
-0.0051125698 -0.10920714 0.0054807384 2.3509886e-38
-0.0031627081 -0.10920714 0.0054807384 2.3509886e-38
-0.00099039078 -0.10666345 0.0165132 2.3509886e-38
0.0012534223 -0.10273984 0.033530682 2.3509886e-38
0.0031541027 -0.10273984 0.033530682 2.3509883e-38
0.0051135309 -0.10183108 0.037472218 2.3509883e-38
0.0070073046 -0.10183108 0.037472218 2.2587566e-38
0.0089352056 -0.10114056 0.040467113 2.3509883e-38
0.010823729 -0.10114056 0.040467113 2.3509521e-38
0.01271225 -0.10114056 0.040467113 6.4392467e-40
0.014582392 -0.10183108 0.037472218 2.7550649e-40
0.016476166 -0.10183108 0.037472218 6.4392467e-40
0.020263709 -0.10183108 0.037472218 5.5101298e-40
0.022157483 -0.10183108 0.037472218 1.3775324e-39
0.024051255 -0.10183108 0.037472218 8.2911187e-39
0.025931899 -0.10114056 0.040467113 2.156981e-38
0.027820421 -0.10114056 0.040467113 2.2955622e-38
-0.035927538 -0.12810193 -0.067458183 6.0863507e-39
-0.033849794 -0.12810193 -0.067458183 2.2865955e-38
-0.031592373 -0.12716834 -0.063439637 2.341805e-38
-0.029521663 -0.12716834 -0.063439637 2.341805e-38
-0.027286503 -0.12624113 -0.059448391 2.341805e-38
-0.025066409 -0.12532012 -0.055483967 2.341805e-38
-0.022708688 -0.12346537 -0.047500283 2.3509886e-38
-0.020521514 -0.12253194 -0.043482333 2.3509886e-38
-0.018349376 -0.12160493 -0.039492041 2.3509886e-38
-0.016060203 -0.11973949 -0.031462342 2.3509886e-38
-0.013925646 -0.11883153 -0.027554063 2.3509886e-38
-0.011597961 -0.11626263 -0.016496329 2.3509886e-38
-0.0094992183 -0.11531936 -0.01243606 2.3509886e-38
-0.007137347 -0.11184154 0.0025341231 2.3509886e-38
-0.0051125698 -0.11115701 0.0054807384 2.3509886e-38
-0.0031627081 -0.11115701 0.0054807384 2.3509886e-38
-0.00099039078 -0.10859399 0.0165132 2.3509886e-38
0.0012534223 -0.10464053 0.033530682 2.3509886e-38
0.0031541027 -0.10464053 0.033530682 2.3509883e-38
0.0051135309 -0.10372485 0.037472218 2.3509883e-38
0.0070073046 -0.10372485 0.037472218 2.3232936e-38
0.0089010745 -0.10372485 0.037472218 2.3509883e-38
0.010794848 -0.10372485 0.037472218 2.3508441e-38
0.01268862 -0.10372485 0.037472218 2.7550649e-40
0.014582392 -0.10372485 0.037472218 3.6734198e-40
0.016476166 -0.10372485 0.037472218 7.361203e-40
0.022160938 -0.10464053 0.033530682 1.0101905e-39
0.02406162 -0.10464053 0.033530682 2.2072861e-39
0.025931899 -0.10302909 0.040467113 1.4932444e-38
0.027820421 -0.10302909 0.040467113 2.3323685e-38
-0.035927538 -0.13017969 -0.067458183 9.8663715e-39
-0.033849794 -0.13017969 -0.067458183 2.2681564e-38
-0.031592373 -0.12923907 -0.063439637 2.2496453e-38
-0.02935021 -0.12830482 -0.059448391 2.3234018e-38
-0.027123157 -0.12737687 -0.055483967 2.341805e-38
-0.025066409 -0.12737687 -0.055483967 2.341805e-38
-0.022708688 -0.12550814 -0.047500283 2.3509886e-38
-0.020521514 -0.12456764 -0.043482333 2.3509886e-38
-0.018213879 -0.12270601 -0.035529047 2.3509886e-38
-0.015933432 -0.12083931 -0.027554063 2.3509886e-38
-0.013925646 -0.12083931 -0.027554063 2.3509886e-38
-0.011597961 -0.11825104 -0.016496329 2.3509886e-38
-0.0094992183 -0.11730064 -0.01243606 2.3509886e-38
-0.0072409995 -0.11475091 -0.0015429538 2.3509886e-38
-0.0051125698 -0.11310686 0.0054807384 2.3509886e-38
-0.0030080415 -0.11145501 0.012537809 2.3509886e-38
-0.00091081113 -0.10960068 0.020459982 2.3509886e-38
0.0012534223 -0.1065412 0.033530682 2.3509886e-38
0.0031541027 -0.1065412 0.033530682 2.3509883e-38
0.0051135309 -0.10561861 0.037472218 2.3509883e-38
0.0070073046 -0.10561861 0.037472218 2.3509883e-38
0.0089010745 -0.10561861 0.037472218 2.3509883e-38
0.010794848 -0.10561861 0.037472218 2.1756724e-38
0.01268862 -0.10561861 0.037472218 2.7550649e-40
0.014582392 -0.10561861 0.037472218 6.4392467e-40
0.022175856 -0.11052449 0.0165132 7.3468397e-40
0.0240696 -0.1072513 0.030497046 9.1835496e-40
0.025975602 -0.1072513 0.030497046 8.2021628e-39
0.027881604 -0.1072513 0.030497046 2.3508797e-38
-0.035927538 -0.13225742 -0.067458183 1.3830784e-38
-0.033849794 -0.13225742 -0.067458183 2.3234379e-38
-0.031592373 -0.13130976 -0.063439637 2.341805e-38
-0.02935021 -0.13036855 -0.059448391 2.341805e-38
-0.027123157 -0.12943362 -0.055483967 2.341805e-38
-0.025066409 -0.12943362 -0.055483967 2.341805e-38
-0.022708688 -0.12755089 -0.047500283 2.3509886e-38
-0.02037809 -0.12566237 -0.039492041 2.3509886e-38
-0.018213879 -0.1247278 -0.035529047 2.3509886e-38
-0.015933432 -0.1228471 -0.027554063 2.3509886e-38
-0.013925646 -0.1228471 -0.027554063 2.3509886e-38
-0.011597961 -0.12023942 -0.016496329 2.3509886e-38
-0.0092031769 -0.11671309 -0.0015429538 2.3509886e-38
-0.0072409995 -0.11671309 -0.0015429538 2.3509886e-38
-0.0051125698 -0.11505674 0.0054807384 2.3509886e-38
-0.0030080415 -0.11339252 0.012537809 2.3509886e-38
-0.00084850937 -0.11079563 0.023549767 2.3509886e-38
0.0012534223 -0.1084419 0.033530682 2.3509886e-38
0.0031541027 -0.1084419 0.033530682 2.3509883e-38
0.0050547905 -0.1084419 0.033530682 2.3509883e-38
0.0070466846 -0.10680611 0.040467113 2.3509883e-38
0.0089352056 -0.10680611 0.040467113 2.2771958e-38
0.010794848 -0.1075124 0.037472218 1.9820616e-38
0.014582392 -0.1075124 0.037472218 3.6734198e-40
0.018304359 -0.11339252 0.012537809 6.4392467e-40
0.022175856 -0.11245503 0.0165132 8.2651947e-40
0.024106376 -0.11245503 0.0165132 1.2867731e-39
0.026036898 -0.11245503 0.0165132 5.0675114e-39
0.027967418 -0.11245503 0.0165132 2.3509157e-38
-0.038005296 -0.13433518 -0.067458183 1.0419545e-38
-0.035733778 -0.13338046 -0.063439637 1.6412261e-38
-0.033663075 -0.13338046 -0.063439637 2.3234379e-38
-0.031592373 -0.13338046 -0.063439637 2.3141822e-38
-0.02935021 -0.13243224 -0.059448391 2.3049626e-38
-0.026794206 -0.12959366 -0.047500283 2.341805e-38
-0.024751451 -0.12959366 -0.047500283 2.341805e-38
-0.022406805 -0.12769108 -0.039492041 2.3509886e-38
-0.020235647 -0.12674956 -0.035529047 2.3509886e-38
-0.017941214 -0.12485488 -0.027554063 2.3509886e-38
-0.015933432 -0.12485488 -0.027554063 2.3509886e-38
-0.013802584 -0.12390204 -0.023543386 2.3509886e-38
-0.011801831 -0.12390204 -0.023543386 2.3509886e-38
-0.0090923794 -0.11770664 0.0025341231 2.3509886e-38
-0.007137347 -0.11770664 0.0025341231 2.3509886e-38
-0.0051125698 -0.11700659 0.0054807384 2.3509886e-38
-0.0030080415 -0.11533 0.012537809 2.3509886e-38
-0.00084850937 -0.1127138 0.023549767 2.3509886e-38
0.0012534223 -0.11034258 0.033530682 2.3509886e-38
0.0031541027 -0.11034258 0.033530682 2.3509883e-38
0.0050547905 -0.11034258 0.033530682 2.3509883e-38
0.0070466846 -0.10869466 0.040467113 2.3232936e-38
0.0089352056 -0.10869466 0.040467113 2.2679762e-38
0.010794848 -0.10940616 0.037472218 1.9175246e-38
0.01268862 -0.10940616 0.037472218 8.2831593e-40
0.014386071 -0.11700659 0.0054807384 2.7550649e-40
0.016335934 -0.11700659 0.0054807384 2.7550649e-40
0.018304359 -0.11533 0.012537809 8.2831593e-40
0.020241851 -0.11533 0.012537809 3.6734198e-40
0.022175856 -0.11438553 0.0165132 7.350427e-40
0.024106376 -0.11438553 0.0165132 6.4284847e-40
0.026036898 -0.11438553 0.0165132 1.9335789e-39
-0.038005296 -0.13641293 -0.067458183 1.032735e-38
-0.035927538 -0.13641293 -0.067458183 1.8071783e-38
-0.033663075 -0.13545118 -0.063439637 2.2681564e-38
-0.031413916 -0.13449596 -0.059448391 2.341805e-38
-0.02917992 -0.13354714 -0.055483967 2.3234018e-38
-0.026794206 -0.1316364 -0.047500283 2.341805e-38
-0.024751451 -0.1316364 -0.047500283 2.341805e-38
-0.022406805 -0.12971978 -0.039492041 2.3509886e-38
-0.020235647 -0.12877132 -0.035529047 2.3509886e-38
-0.017941214 -0.12686269 -0.027554063 2.3509886e-38
-0.015803337 -0.12590279 -0.023543386 2.3509886e-38
-0.013802584 -0.12590279 -0.023543386 2.3509886e-38
-0.011047408 -0.11966167 0.0025341231 2.3509886e-38
-0.0090123005 -0.11895646 0.0054807384 2.3509886e-38
-0.0070624352 -0.11895646 0.0054807384 2.3509886e-38
-0.0050172694 -0.11799283 0.0095070321 2.3509886e-38
-0.0030080415 -0.11726747 0.012537809 2.3509886e-38
-0.00091081113 -0.11537148 0.020459982 2.3509886e-38
0.0011975728 -0.11296929 0.030497046 2.3509886e-38
0.0031541027 -0.11224325 0.033530682 2.3509883e-38
0.0050547905 -0.11224325 0.033530682 2.3509883e-38
0.0070073046 -0.11129995 0.037472218 2.3509883e-38
0.0089010745 -0.11129995 0.037472218 1.9452915e-38
0.010794848 -0.11129995 0.037472218 1.4473269e-38
0.014386071 -0.11895646 0.0054807384 9.2051156e-40
0.016335934 -0.11895646 0.0054807384 2.7550649e-40
0.018296389 -0.11799283 0.0095070321 2.7550649e-40
0.020241851 -0.11726747 0.012537809 3.6770072e-40
0.022179341 -0.11726747 0.012537809 3.6734198e-40
0.024106376 -0.11631607 0.0165132 5.5101298e-40
0.026036898 -0.11631607 0.0165132 1.0116254e-39
0.027967418 -0.11631607 0.0165132 2.2032223e-38
0.031626344 -0.11129995 0.037472218 1.7791224e-38
0.033520117 -0.11129995 0.037472218 1.0508493e-38
-0.038005296 -0.13849069 -0.067458183 1.3554197e-38
-0.035733778 -0.13752188 -0.063439637 1.9085935e-38
-0.033663075 -0.13752188 -0.063439637 2.3234379e-38
-0.031413916 -0.13655965 -0.059448391 2.2957431e-38
-0.02917992 -0.13560389 -0.055483967 2.341805e-38
-0.026794206 -0.13367917 -0.047500283 2.341805e-38
-0.024751451 -0.13367917 -0.047500283 2.341805e-38
-0.022406805 -0.13174851 -0.039492041 2.3509886e-38
-0.020235647 -0.13079311 -0.035529047 2.3509886e-38
-0.017941214 -0.12887047 -0.027554063 2.3509886e-38
-0.015803337 -0.12790357 -0.023543386 2.3509886e-38
-0.013802584 -0.12790357 -0.023543386 2.3509886e-38
-0.011047408 -0.12161671 0.0025341231 2.3509886e-38
-0.0090123005 -0.12090631 0.0054807384 2.3509886e-38
-0.0070624352 -0.12090631 0.0054807384 2.3509886e-38
-0.0050172694 -0.11993565 0.0095070321 2.3509886e-38
-0.0029209107 -0.11824657 0.0165132 2.3509886e-38
-0.00084850937 -0.11655019 0.023549767 2.3509886e-38
0.0011975728 -0.1148753 0.030497046 2.3509886e-38
0.0031541027 -0.11414395 0.033530682 2.3509883e-38
0.0050547905 -0.11414395 0.033530682 2.3509883e-38
0.0070073046 -0.11319371 0.037472218 2.3509523e-38
0.0089010745 -0.11319371 0.037472218 1.7332415e-38
0.010794848 -0.11319371 0.037472218 1.087764e-38
0.01268862 -0.11319371 0.037472218 2.7550649e-40
0.014386071 -0.12090631 0.0054807384 6.4392467e-40
0.016335934 -0.12090631 0.0054807384 2.7550649e-40
0.018296389 -0.11993565 0.0095070321 2.7550649e-40
0.020239193 -0.11993565 0.0095070321 4.5989495e-40
0.022179341 -0.11920498 0.012537809 2.7550649e-40
0.024095997 -0.11729507 0.020459982 3.6734198e-40
0.025962304 -0.11414395 0.033530682 5.5101298e-40
0.027862988 -0.11414395 0.033530682 1.9266354e-38
0.029763671 -0.11414395 0.033530682 2.2584678e-38
0.031626344 -0.11319371 0.037472218 2.0740766e-38
0.033520117 -0.11319371 0.037472218 1.3273639e-38
-0.038005296 -0.14056842 -0.067458183 1.5859087e-38
-0.035733778 -0.13959257 -0.063439637 1.8532761e-38
-0.033663075 -0.13959257 -0.063439637 2.3234379e-38
-0.031413916 -0.13862337 -0.059448391 2.2680844e-38
-0.02917992 -0.13766064 -0.055483967 2.341805e-38
-0.026794206 -0.13572191 -0.047500283 2.341805e-38
-0.024751451 -0.13572191 -0.047500283 2.341805e-38
-0.022406805 -0.13377722 -0.039492041 2.3509886e-38
-0.019949 -0.13087825 -0.027554063 2.3509886e-38
-0.017698586 -0.12915494 -0.020457534 2.3509886e-38
-0.015443053 -0.12720706 -0.01243606 2.3509886e-38
-0.013341937 -0.1262586 -0.0085304063 2.3509886e-38
-0.011165358 -0.1245618 -0.0015429538 2.3509886e-38
-0.0090923794 -0.12357174 0.0025341231 2.3509886e-38
-0.0070624352 -0.12285618 0.0054807384 2.3509886e-38
-0.0049455278 -0.12114246 0.012537809 2.3509886e-38
-0.0028344132 -0.11921866 0.020459982 2.3509886e-38
-0.00084850937 -0.11846836 0.023549767 2.3509886e-38
0.0011975728 -0.11678131 0.030497046 2.3509886e-38
0.0031541027 -0.11604463 0.033530682 2.3509883e-38
0.0050547905 -0.11604463 0.033530682 2.3509883e-38
0.0070073046 -0.11508749 0.037472218 2.3509883e-38
0.0089010745 -0.11508749 0.037472218 1.4474351e-38
0.010794848 -0.11508749 0.037472218 6.1756625e-39
0.01268862 -0.11508749 0.037472218 2.7550649e-40
0.014386071 -0.12285618 0.0054807384 3.6734198e-40
0.016335934 -0.12285618 0.0054807384 5.5173044e-40
0.018296389 -0.12187846 0.0095070321 2.7550649e-40
0.020239193 -0.12187846 0.0095070321 4.5989495e-40
0.022179341 -0.12114246 0.012537809 9.2194229e-41
0.024095997 -0.11921866 0.020459982 2.7550649e-40
0.025962304 -0.11604463 0.033530682 3.6734198e-40
0.027862988 -0.11604463 0.033530682 1.2811942e-38
0.029763671 -0.11604463 0.033530682 2.1662003e-38
0.031626344 -0.11508749 0.037472218 2.3229329e-38
0.033520117 -0.11508749 0.037472218 1.8066374e-38
-0.038005296 -0.14264618 -0.067458183 1.7334218e-38
-0.035733778 -0.1416633 -0.063439637 1.8256174e-38
-0.033663075 -0.1416633 -0.063439637 2.3142542e-38
-0.031413916 -0.14068706 -0.059448391 2.341805e-38
-0.02917992 -0.13971741 -0.055483967 2.341805e-38
-0.026960913 -0.13875429 -0.051546246 2.341805e-38
-0.024751451 -0.13776468 -0.047500283 2.341805e-38
-0.022406805 -0.13580595 -0.039492041 2.3509886e-38
-0.019804843 -0.13190506 -0.023543386 2.3509886e-38
-0.017698586 -0.13115029 -0.020457534 2.3509886e-38
-0.015443053 -0.12918831 -0.01243606 2.3509886e-38
-0.013341937 -0.12823303 -0.0085304063 2.3509886e-38
-0.011165358 -0.12652399 -0.0015429538 2.3509886e-38
-0.0090923794 -0.12552677 0.0025341231 2.3509886e-38
-0.0070624352 -0.12480606 0.0054807384 2.3509886e-38
-0.0049455278 -0.12307997 0.012537809 2.3509886e-38
-0.0028344132 -0.12114228 0.020459982 2.3509886e-38
-0.00084850937 -0.12038656 0.023549767 2.3509886e-38
0.0011975728 -0.11868732 0.030497046 2.3509886e-38
0.0031541027 -0.11794533 0.033530682 2.3509883e-38
0.0050547905 -0.11794533 0.033530682 2.3509883e-38
0.0070073046 -0.11698125 0.037472218 2.3509883e-38
0.0089010745 -0.11698125 0.037472218 1.1616286e-38
0.010794848 -0.11698125 0.037472218 2.4878373e-39
0.01268862 -0.11698125 0.037472218 6.4392467e-40
0.014367988 -0.12552677 0.0025341231 2.7550649e-40
0.016335934 -0.12480606 0.0054807384 4.5953621e-40
0.018296389 -0.12382124 0.0095070321 2.7550649e-40
0.020239193 -0.12382124 0.0095070321 3.6841818e-40
0.022179341 -0.12307997 0.012537809 4.6132988e-40
0.02408787 -0.12038656 0.023549767 9.2194229e-41
0.025988458 -0.11940466 0.02756414 9.2050736e-40
0.027881604 -0.11868732 0.030497046 4.975313e-39
0.029787607 -0.11868732 0.030497046 1.9632979e-38
0.033599611 -0.11868732 0.030497046 2.2491041e-38
-0.039875183 -0.14373399 -0.063439637 7.4692852e-39
-0.037804488 -0.14373399 -0.063439637 1.9454717e-38
-0.035733778 -0.14373399 -0.063439637 2.0837651e-38
-0.033663075 -0.14373399 -0.063439637 2.2958151e-38
-0.031413916 -0.14275078 -0.059448391 2.341805e-38
-0.02935021 -0.14275078 -0.059448391 2.3234018e-38
-0.026960913 -0.14080413 -0.051546246 2.341805e-38
-0.02459294 -0.13881765 -0.043482333 2.341805e-38
-0.02195679 -0.13489382 -0.027554063 2.3509886e-38
-0.019693926 -0.13314565 -0.020457534 2.3509886e-38
-0.017563153 -0.13216983 -0.016496329 2.3509886e-38
-0.015443053 -0.1311696 -0.01243606 2.3509886e-38
-0.013341937 -0.13020746 -0.0085304063 2.3509886e-38
-0.011165358 -0.12848614 -0.0015429538 2.3509886e-38
-0.0090923794 -0.1274818 0.0025341231 2.3509886e-38
-0.0070624352 -0.12675591 0.0054807384 2.3509886e-38
-0.0049455278 -0.12501745 0.012537809 2.3509886e-38
-0.0028344132 -0.12306587 0.020459982 2.3509886e-38
-0.00084850937 -0.12230472 0.023549767 2.3509886e-38
0.0011975728 -0.12059332 0.030497046 2.3509886e-38
0.0031541027 -0.119846 0.033530682 2.3509883e-38
0.0051135309 -0.11887501 0.037472218 2.3509883e-38
0.0070073046 -0.11887501 0.037472218 2.3509883e-38
0.0089352056 -0.11813726 0.040467113 8.1128525e-39
0.010823729 -0.11813726 0.040467113 4.5953621e-40
0.01271225 -0.11813726 0.040467113 1.0127072e-39
0.014367988 -0.1274818 0.0025341231 2.7550649e-40
0.016323019 -0.1274818 0.0025341231 2.7550649e-40
0.018278049 -0.1274818 0.0025341231 2.7550649e-40
0.020235663 -0.12675591 0.0054807384 3.6841818e-40
0.022179341 -0.12501745 0.012537809 2.7765888e-40
0.02408787 -0.12230472 0.023549767 3.5873241e-43
0.025988458 -0.12131582 0.02756414 7.361189e-40
0.027899602 -0.12131582 0.02756414 7.3468397e-40
0.029810747 -0.12131582 0.02756414 1.4838803e-38
0.03172189 -0.12131582 0.02756414 2.3506635e-38
-0.039875183 -0.14580469 -0.063439637 7.5614808e-39
-0.037804488 -0.14580469 -0.063439637 2.0837651e-38
-0.035733778 -0.14580469 -0.063439637 2.3234379e-38
-0.033663075 -0.14580469 -0.063439637 2.277376e-38
-0.031413916 -0.14481448 -0.059448391 2.341805e-38
-0.02935021 -0.14481448 -0.059448391 2.3141822e-38
-0.026960913 -0.14285399 -0.051546246 2.341805e-38
-0.02459294 -0.14085336 -0.043482333 2.341805e-38
-0.021805596 -0.13590656 -0.023543386 2.3509886e-38
-0.019551549 -0.13415821 -0.016496329 2.3509886e-38
-0.01742433 -0.13315089 -0.01243606 2.3509886e-38
-0.015316367 -0.1321819 -0.0085304063 2.3509886e-38
-0.013249725 -0.1314363 -0.0055251401 2.3509886e-38
-0.011165358 -0.13044833 -0.0015429538 2.3509886e-38
-0.0090923794 -0.12943684 0.0025341231 2.3509886e-38
-0.0070624352 -0.12870578 0.0054807384 2.3509886e-38
-0.0048514344 -0.12596865 0.0165132 2.3509886e-38
-0.0027666949 -0.12422292 0.023549767 2.3509886e-38
-0.00076756626 -0.12322696 0.02756414 2.3509886e-38
0.0011975728 -0.1224993 0.030497046 2.3509886e-38
0.0031541027 -0.12174667 0.033530682 2.3509883e-38
0.0051135309 -0.1207688 0.037472218 2.3509883e-38
0.0070073046 -0.1207688 0.037472218 2.3232936e-38
0.0089352056 -0.12002577 0.040467113 4.240636e-39
0.010823729 -0.12002577 0.040467113 2.7550649e-40
0.01271225 -0.12002577 0.040467113 5.5173044e-40
0.014342969 -0.13044833 -0.0015429538 2.7550649e-40
0.016305149 -0.13044833 -0.0015429538 2.7550649e-40
0.018278049 -0.12943684 0.0025341231 2.7550649e-40
0.020235663 -0.12870578 0.0054807384 3.6841818e-40
0.022179341 -0.12695493 0.012537809 7.1746481e-43
0.02408787 -0.12422292 0.023549767 3.6985311e-40
0.025988458 -0.12322696 0.02756414 2.7550649e-40
0.027899602 -0.12322696 0.02756414 9.1871369e-40
-0.039875183 -0.14787538 -0.063439637 8.2068502e-39
-0.037804488 -0.14787538 -0.063439637 2.1575217e-38
-0.035733778 -0.14787538 -0.063439637 2.3234379e-38
-0.033477623 -0.1468782 -0.059448391 2.2589368e-38
-0.031413916 -0.1468782 -0.059448391 2.341805e-38
-0.02917992 -0.14588766 -0.055483967 2.3326213e-38
-0.026960913 -0.14490382 -0.051546246 2.341805e-38
-0.02459294 -0.14288907 -0.043482333 2.341805e-38
-0.02168927 -0.13713633 -0.020457534 2.3509886e-38
-0.019551549 -0.13614662 -0.016496329 2.3509886e-38
-0.01742433 -0.13513215 -0.01243606 2.3509886e-38
-0.015316367 -0.13415633 -0.0085304063 2.3509886e-38
-0.013249725 -0.13340546 -0.0055251401 2.3509886e-38
-0.011165358 -0.13241051 -0.0015429538 2.3509886e-38
-0.0090923794 -0.13139187 0.0025341231 2.3509886e-38
-0.0070624352 -0.13065563 0.0054807384 2.3509886e-38
-0.0047580115 -0.12691309 0.020459982 2.3509886e-38
-0.0027666949 -0.12614109 0.023549767 2.3509886e-38
-0.00076756626 -0.12513812 0.02756414 2.3509886e-38
0.0011975728 -0.12440531 0.030497046 2.3509886e-38
0.0031541027 -0.12364738 0.033530682 2.3509883e-38
0.0051135309 -0.12266256 0.037472218 2.3509883e-38
0.0070073046 -0.12266256 0.037472218 2.2771958e-38
0.0089352056 -0.12191428 0.040467113 1.2903759e-39
0.010823729 -0.12191428 0.040467113 2.7550649e-40
0.012294844 -0.13513215 -0.01243606 2.7550649e-40
0.014318531 -0.13340546 -0.0055251401 5.5173044e-40
0.016305149 -0.13241051 -0.0015429538 2.7550649e-40
0.018278049 -0.13139187 0.0025341231 5.5173044e-40
0.02023308 -0.13139187 0.0025341231 9.1835496e-41
0.022181999 -0.12964968 0.0095070321 7.1746481e-43
0.024095997 -0.12691309 0.020459982 8.3082846e-40
0.025988458 -0.12513812 0.02756414 2.7550649e-40
0.027899602 -0.12513812 0.02756414 1.5640747e-39
0.029810747 -0.12513812 0.02756414 3.4980221e-39
-0.039875183 -0.14994611 -0.063439637 1.0512097e-38
-0.037804488 -0.14994611 -0.063439637 2.240533e-38
-0.035733778 -0.14994611 -0.063439637 2.3234374e-38
-0.033477623 -0.14894189 -0.059448391 2.2681917e-38
-0.031413916 -0.14894189 -0.059448391 2.3418047e-38
-0.02917992 -0.14794444 -0.055483967 2.341805e-38
-0.026960913 -0.14695369 -0.051546246 2.341805e-38
-0.02459294 -0.14492477 -0.043482333 2.341805e-38
-0.02168927 -0.13913165 -0.020457534 2.3509527e-38
-0.019551549 -0.138135 -0.016496329 2.3509527e-38
-0.01742433 -0.13711344 -0.01243606 2.3509886e-38
-0.015316367 -0.13613077 -0.0085304063 2.3509886e-38
-0.013249725 -0.13537462 -0.0055251401 2.3509883e-38
-0.011047408 -0.13334687 0.0025341231 2.3509883e-38
-0.0090123005 -0.13260551 0.0054807384 2.3509886e-38
-0.0069600753 -0.13159247 0.0095070321 2.3509886e-38
-0.0047580115 -0.12883668 0.020459982 2.3509886e-38
-0.0027666949 -0.12805928 0.023549767 2.3509886e-38
-0.00076756626 -0.12704925 0.02756414 2.3509886e-38
0.0011975728 -0.12631132 0.030497046 2.3509883e-38
0.0031541027 -0.12554805 0.033530682 2.3509883e-38
0.0050547905 -0.12554805 0.033530682 2.350988e-38
0.0070073046 -0.12455635 0.037472218 2.2956349e-38
0.0089352056 -0.12380283 0.040467113 9.1835496e-41
0.010823729 -0.12380283 0.040467113 4.6061241e-40
0.012294844 -0.13711344 -0.01243606 9.1835496e-41
0.014318531 -0.13537462 -0.0055251401 1.0127072e-39
0.016305149 -0.1343727 -0.0015429538 9.1835496e-41
0.018278049 -0.13334687 0.0025341231 6.4392747e-40
0.02023308 -0.13334687 0.0025341231 9.1835496e-41
0.022181999 -0.13159247 0.0095070321 7.1746481e-43
0.024095997 -0.12883668 0.020459982 6.464372e-40
0.026006054 -0.12805928 0.023549767 2.7550649e-40
0.027899602 -0.12704925 0.02756414 1.0105492e-39
0.029810747 -0.12704925 0.02756414 9.1835496e-40
0.033520117 -0.12455635 0.037472218 2.3508787e-38
0.035374507 -0.12380283 0.040467113 1.5301212e-38
0.037263028 -0.12380283 0.040467113 8.1117581e-39
-0.026960913 -0.14900355 -0.051546246 2.3417691e-38
-0.024435524 -0.14594953 -0.039492041 2.3417333e-38
-0.02168927 -0.14112701 -0.020457534 2.3416615e-38
-0.019551549 -0.14012341 -0.016496329 2.332478e-38
-0.01742433 -0.13909473 -0.01243606 2.3232944e-38
-0.015316367 -0.1381052 -0.0085304063 2.3325494e-38
-0.013249725 -0.13734378 -0.0055251401 2.3509874e-38
-0.011047408 -0.1353019 0.0025341231 2.3509874e-38
-0.0090123005 -0.13455538 0.0054807384 2.3233296e-38
-0.0069600753 -0.13353528 0.0095070321 2.3509886e-38
-0.0047580115 -0.13076027 0.020459982 2.341769e-38
-0.0027666949 -0.12997745 0.023549767 2.3509886e-38
-0.00076756626 -0.12896039 0.02756414 2.3509883e-38
0.0011975728 -0.12821732 0.030497046 2.3325847e-38
0.0031541027 -0.12744872 0.033530682 2.350988e-38
0.0051135309 -0.12645011 0.037472218 2.3509879e-38
0.0070466846 -0.12569134 0.040467113 1.926924e-38
0.0089808553 -0.12467657 0.044472426 3.5873241e-43
0.010862354 -0.12467657 0.044472426 1.8474719e-40
0.012294844 -0.13909473 -0.01243606 3.6913565e-40
0.014276121 -0.13909473 -0.01243606 9.1835496e-41
0.016287694 -0.13734378 -0.0055251401 0
0.018267328 -0.13633488 -0.0015429538 9.1835496e-41
0.02023308 -0.1353019 0.0025341231 4.6133128e-40
0.022185529 -0.13455538 0.0054807384 1.8510592e-40
0.024116833 -0.13276742 0.012537809 3.5873241e-43
0.026006054 -0.12997745 0.023549767 1.1963964e-39
0.027899602 -0.12896039 0.02756414 1.1956803e-39
0.029787607 -0.12821732 0.030497046 9.1835917e-40
0.031693608 -0.12821732 0.030497046 2.0924794e-38
0.033520117 -0.12645011 0.037472218 2.3415133e-38
0.035374507 -0.12569134 0.040467113 1.9635472e-38
0.037263028 -0.12569134 0.040467113 1.023118e-38
-0.024279181 -0.14696725 -0.035529047 2.3232944e-38
-0.021539945 -0.14211179 -0.016496329 2.3324421e-38
-0.019405611 -0.14107598 -0.01243606 2.332478e-38
-0.01742433 -0.14107598 -0.01243606 2.3325138e-38
-0.015218884 -0.13931294 -0.0055251401 2.341769e-38
-0.013127536 -0.13829704 -0.0015429538 2.3509879e-38
-0.010962162 -0.13650523 0.0054807384 2.3509876e-38
-0.0089028776 -0.13547809 0.0095070321 2.3233296e-38
-0.0069600753 -0.13547809 0.0095070321 2.3509886e-38
-0.0047580115 -0.13268389 0.020459982 2.3509886e-38
-0.0027666949 -0.13189565 0.023549767 2.3509883e-38
-0.00076756626 -0.13087155 0.02756414 2.3509883e-38
0.0011975728 -0.13012333 0.030497046 2.350988e-38
0.0031541027 -0.12934943 0.033530682 2.3509879e-38
0.0051135309 -0.1283439 0.037472218 2.2219499e-38
0.0070466846 -0.12757985 0.040467113 1.79785e-38
0.0089808553 -0.12655805 0.044472426 3.5873241e-43
0.010862354 -0.12655805 0.044472426 3.5873241e-43
0.012231555 -0.14312236 -0.020457534 2.7694142e-40
0.014251206 -0.14211179 -0.016496329 9.219563e-41
0.0162574 -0.14107598 -0.01243606 2.7658689e-40
0.018238679 -0.14107598 -0.01243606 2.8025969e-45
0.020226015 -0.13931294 -0.0055251401 3.5873241e-43
0.022188112 -0.13725694 0.0025341231 1.8510592e-40
0.024124803 -0.13547809 0.0095070321 3.5873241e-43
0.026019597 -0.13268389 0.020459982 6.4322542e-40
0.027899602 -0.13087155 0.02756414 2.7552611e-40
0.029787607 -0.13012333 0.030497046 8.2653068e-40
0.031693608 -0.13012333 0.030497046 1.4840964e-38
0.033520117 -0.1283439 0.037472218 2.3139614e-38
0.035374507 -0.12757985 0.040467113 2.1295701e-38
0.037263028 -0.12757985 0.040467113 1.5024634e-38
0.039151549 -0.12757985 0.040467113 8.2943725e-39
-0.024279181 -0.14898901 -0.035529047 2.3233662e-38
-0.021539945 -0.1441002 -0.016496329 2.3233662e-38
-0.019405611 -0.14305727 -0.01243606 2.3233662e-38
-0.017290797 -0.14205404 -0.0085304063 2.3325138e-38
-0.015218884 -0.1412821 -0.0055251401 2.3417691e-38
-0.01300244 -0.13921197 0.0025341231 2.3509886e-38
-0.010845684 -0.13742088 0.0095070321 2.3509886e-38
-0.0089028776 -0.13742088 0.0095070321 2.3417691e-38
-0.0069600753 -0.13742088 0.0095070321 2.3509886e-38
-0.0047580115 -0.13460748 0.020459982 2.3509886e-38
-0.0027666949 -0.13381381 0.023549767 2.3417687e-38
-0.00076756626 -0.13278268 0.02756414 2.3417687e-38
0.0011975728 -0.13202934 0.030497046 2.350988e-38
0.0031541027 -0.1312501 0.033530682 2.3509879e-38
0.0050547905 -0.1312501 0.033530682 1.9914608e-38
0.0070466846 -0.1294684 0.040467113 1.6226783e-38
0.0089808553 -0.12843956 0.044472426 9.2552961e-41
0.010862354 -0.12843956 0.044472426 3.5873241e-43
0.012231555 -0.14511769 -0.020457534 3.5873241e-43
0.014226897 -0.14511769 -0.020457534 1.8439126e-40
0.016239602 -0.1441002 -0.016496329 4.6097815e-40
0.018238679 -0.14305727 -0.01243606 2.8025969e-45
0.020226015 -0.1412821 -0.0055251401 0
0.022188112 -0.13921197 0.0025341231 7.1746481e-43
0.024124803 -0.13742088 0.0095070321 5.535241e-40
0.026019597 -0.13460748 0.020459982 2.7551349e-40
0.027899602 -0.13278268 0.02756414 2.755219e-40
0.029787607 -0.13202934 0.030497046 9.1837318e-40
0.031693608 -0.13202934 0.030497046 7.0043385e-39
0.033520117 -0.13023765 0.037472218 2.0834719e-38
0.035413891 -0.13023765 0.037472218 2.2586436e-38
0.037307661 -0.13023765 0.037472218 1.9357834e-38
0.039267085 -0.1312501 0.033530682 7.3720603e-39
-0.021539945 -0.14608859 -0.016496329 2.3418045e-38
-0.019405611 -0.14503856 -0.01243606 2.3326208e-38
-0.017290797 -0.14402847 -0.0085304063 2.3234018e-38
-0.015218884 -0.14325126 -0.0055251401 2.3233662e-38
-0.01300244 -0.141167 0.0025341231 2.3232944e-38
-0.010845684 -0.13936369 0.0095070321 2.3232944e-38
-0.0089028776 -0.13936369 0.0095070321 2.3509527e-38
-0.0069600753 -0.13936369 0.0095070321 2.3509886e-38
-0.0046848767 -0.13573201 0.023549767 2.3509886e-38
-0.002678711 -0.13469382 0.02756414 2.3509883e-38
-0.00076756626 -0.13469382 0.02756414 2.3325492e-38
0.0011975728 -0.13393532 0.030497046 2.3233652e-38
0.0031541027 -0.13315077 0.033530682 2.3509879e-38
0.0050547905 -0.13315077 0.033530682 1.79785e-38
0.0071783699 -0.12876706 0.05048129 1.3368718e-38
0.0090493374 -0.12876706 0.05048129 7.3791676e-40
0.010920297 -0.12876706 0.05048129 3.5873241e-43
0.012207206 -0.14791109 -0.023543386 3.5873241e-43
0.014207959 -0.14791109 -0.023543386 0
0.016239602 -0.14608859 -0.016496329 2.7658689e-40
0.018228 -0.14608859 -0.016496329 2.8025969e-45
0.020226015 -0.14325126 -0.0055251401 0
0.022188112 -0.141167 0.0025341231 3.5873241e-43
0.024124803 -0.13936369 0.0095070321 5.535241e-40
0.026019597 -0.13653107 0.020459982 9.1838299e-41
0.027899602 -0.13469382 0.02756414 2.755191e-40
0.029787607 -0.13393532 0.030497046 8.2690062e-40
0.031693608 -0.13393532 0.030497046 1.5644418e-39
0.033520117 -0.13213144 0.037472218 1.5948706e-38
0.035413891 -0.13213144 0.037472218 2.3047767e-38
0.037366405 -0.13315077 0.033530682 2.2308094e-38
0.039267085 -0.13315077 0.033530682 7.5564515e-39
-0.02168927 -0.14910837 -0.020457534 2.3418035e-38
-0.019551549 -0.148077 -0.016496329 2.3418038e-38
-0.017290797 -0.1460029 -0.0085304063 2.332621e-38
-0.015089717 -0.14418359 -0.0015429538 2.3050349e-38
-0.01300244 -0.14312203 0.0025341231 2.314075e-38
-0.010845684 -0.1413065 0.0095070321 2.314075e-38
-0.0088205114 -0.14051737 0.012537809 2.3509527e-38
-0.0067819543 -0.1394823 0.0165132 2.2956715e-38
-0.0046848767 -0.13765021 0.023549767 2.3325494e-38
-0.002678711 -0.13660498 0.02756414 2.3509883e-38
-0.00070842728 -0.13584132 0.030497046 2.3509883e-38
0.0012534223 -0.13505147 0.033530682 2.3049261e-38
0.0032197572 -0.1340252 0.037472218 2.3509879e-38
0.0051135309 -0.1340252 0.037472218 1.6595565e-38
0.0071783699 -0.13063805 0.05048129 8.2979584e-39
0.0090493374 -0.13063805 0.05048129 4.6132988e-40
0.010920297 -0.13063805 0.05048129 3.5873241e-43
0.014207959 -0.14991184 -0.023543386 0
0.016239602 -0.148077 -0.016496329 9.219563e-41
0.018228 -0.148077 -0.016496329 2.8025969e-45
0.020226015 -0.14522041 -0.0055251401 1.8439126e-40
0.022188112 -0.14312203 0.0025341231 3.5873241e-43
0.024124803 -0.1413065 0.0095070321 1.8474719e-40
0.026019597 -0.13845469 0.020459982 9.1835496e-41
0.027899602 -0.13660498 0.02756414 5.5138292e-40
0.029810747 -0.13660498 0.02756414 4.591985e-40
0.031693608 -0.13584132 0.030497046 5.5101298e-40
0.033565037 -0.13505147 0.033530682 1.0509161e-38
0.035465721 -0.13505147 0.033530682 2.3508742e-38
0.037366405 -0.13505147 0.033530682 2.3507362e-38
-0.017290797 -0.14797734 -0.0085304063 2.3234374e-38
-0.015089717 -0.14614578 -0.0015429538 2.3234379e-38
-0.01300244 -0.14507706 0.0025341231 2.323402e-38
-0.010845684 -0.14324932 0.0095070321 2.323402e-38
-0.0088205114 -0.14245488 0.012537809 2.341805e-38
-0.0067819543 -0.14141284 0.0165132 2.2680128e-38
-0.0045898557 -0.13851611 0.02756414 2.3325494e-38
-0.0025479458 -0.13695215 0.033530682 2.3509883e-38
-0.00064726174 -0.13695215 0.033530682 2.3509883e-38
0.0013259836 -0.13591899 0.037472218 2.3418043e-38
0.0032696426 -0.13513394 0.040467113 2.3509879e-38
0.0051581636 -0.13513394 0.040467113 1.4198479e-38
0.0070466846 -0.13513394 0.040467113 2.9506119e-39
0.0089352056 -0.13513394 0.040467113 3.5873241e-43
0.020223381 -0.14797734 -0.0085304063 9.219563e-41
0.022195177 -0.1471896 -0.0055251401 2.7694142e-40
0.024143143 -0.14507706 0.0025341231 9.2552961e-41
0.026019597 -0.14037828 0.020459982 9.1835496e-41
0.027924236 -0.13956837 0.023549767 5.5138292e-40
0.029810747 -0.13851611 0.02756414 3.673588e-40
0.031693608 -0.13774733 0.030497046 6.4284987e-40
0.033565037 -0.13695215 0.033530682 6.1756134e-39
0.035465721 -0.13695215 0.033530682 2.3508745e-38
0.037366405 -0.13695215 0.033530682 2.240029e-38
-0.017290797 -0.14995177 -0.0085304063 2.3234376e-38
-0.015089717 -0.14810793 -0.0015429538 2.3234379e-38
-0.012912028 -0.14625455 0.0054807384 2.3142544e-38
-0.010758001 -0.14439236 0.012537809 2.323402e-38
-0.0088205114 -0.14439236 0.012537809 2.3325856e-38
-0.0067819543 -0.14334334 0.0165132 2.304891e-38
-0.0045898557 -0.14042725 0.02756414 2.3509886e-38
-0.0024615601 -0.13781275 0.037472218 2.3048905e-38
-0.0005677864 -0.13781275 0.037472218 2.3417687e-38
0.0013259836 -0.13781275 0.037472218 2.350988e-38
0.0032696426 -0.13702248 0.040467113 2.3509879e-38
