# .PCD v0.7 - Point Cloud Data file format
VERSION 0.7
FIELDS x y z rgb
SIZE 4 4 4 4
TYPE F F F F
COUNT 1 1 1 1
WIDTH 928
HEIGHT 1
VIEWPOINT 0 0 0 1 0 0 0
POINTS 928
DATA ascii
0.050958555 -0.080477536 0.0296879 2.3413028e-38
0.052693728 -0.079834178 0.032683272 7.0940398e-39
0.054547071 -0.079834178 0.032683272 8.4790875e-39
0.056267243 -0.079194456 0.035661716 1.742278e-38
0.058115363 -0.079194456 0.035661716 1.2995628e-38
0.05996348 -0.079194456 0.035661716 3.5005711e-39
-0.065424658 -0.098367065 -0.044345479 9.1270002e-39
-0.063176431 -0.097487867 -0.040285211 2.1481216e-38
-0.061195143 -0.097487867 -0.040285211 2.2125509e-38
-0.059213869 -0.097487867 -0.040285211 2.0926966e-38
-0.057232596 -0.097487867 -0.040285211 2.2585771e-38
-0.055251308 -0.097487867 -0.040285211 2.2217352e-38
-0.053270034 -0.097487867 -0.040285211 2.258721e-38
-0.051288754 -0.097487867 -0.040285211 2.2680125e-38
-0.049105458 -0.096642151 -0.036379557 2.3233299e-38
-0.047131032 -0.096642151 -0.036379557 2.3509886e-38
-0.045011692 -0.095991403 -0.033374291 2.3509886e-38
-0.042857505 -0.095129102 -0.029392105 2.3509886e-38
-0.040895335 -0.095129102 -0.029392105 2.3509886e-38
-0.038758017 -0.094246268 -0.025315028 2.3141103e-38
-0.036802985 -0.094246268 -0.025315028 2.3509886e-38
-0.034731708 -0.093608215 -0.022368412 2.3509886e-38
-0.032781847 -0.093608215 -0.022368412 2.3509886e-38
-0.030831981 -0.093608215 -0.022368412 2.3509886e-38
-0.028744459 -0.092736378 -0.018342119 2.3509886e-38
-0.026801653 -0.092736378 -0.018342119 2.3509886e-38
-0.024858847 -0.092736378 -0.018342119 2.3509886e-38
-0.022828363 -0.092080101 -0.015311343 2.3509886e-38
-0.020890873 -0.092080101 -0.015311343 2.3509527e-38
-0.018953383 -0.092080101 -0.015311343 2.3509527e-38
-0.017015889 -0.092080101 -0.015311343 2.3509527e-38
-0.015078403 -0.092080101 -0.015311343 2.3509527e-38
-0.013060752 -0.091219291 -0.011335951 2.3509167e-38
-0.011130232 -0.091219291 -0.011335951 2.3509527e-38
-0.0091997087 -0.091219291 -0.011335951 2.3509527e-38
-0.0072103702 -0.090364665 -0.0073891701 2.3509527e-38
-0.0052867681 -0.090364665 -0.0073891701 2.3509527e-38
-0.0033631697 -0.090364665 -0.0073891701 2.3509527e-38
-0.0014097728 -0.089695618 -0.0042993845 2.3509527e-38
0.00050840899 -0.089695618 -0.0042993845 2.3509527e-38
0.002451228 -0.088826358 -0.00028501172 2.3509167e-38
0.0043623727 -0.088826358 -0.00028501172 2.3509167e-38
0.0062735174 -0.088826358 -0.00028501172 2.3416971e-38
0.0081872325 -0.088191271 0.0026478944 2.3416971e-38
0.010090576 -0.087534383 0.0056815324 2.3416971e-38
0.011991259 -0.087534383 0.0056815324 2.341769e-38
0.013874665 -0.086680889 0.0096230684 2.3509168e-38
0.015768439 -0.086680889 0.0096230684 2.3417691e-38
0.01766221 -0.086680889 0.0096230684 2.3509527e-38
0.019555982 -0.086680889 0.0096230684 2.3509886e-38
0.021449756 -0.086680889 0.0096230684 2.3509527e-38
0.023343528 -0.086680889 0.0096230684 2.3509886e-38
0.025192667 -0.086032391 0.012617963 2.3509886e-38
0.027081188 -0.086032391 0.012617963 2.3509883e-38
0.02889597 -0.085165098 0.016623277 2.3509883e-38
0.030777469 -0.085165098 0.016623277 2.3509883e-38
0.032591693 -0.084500432 0.019692797 2.3509883e-38
0.034467813 -0.084500432 0.019692797 2.3509883e-38
0.036343928 -0.084500432 0.019692797 2.3509886e-38
0.038220048 -0.084500432 0.019692797 2.3509886e-38
0.040096164 -0.084500432 0.019692797 2.3325856e-38
0.04188209 -0.083863959 0.022632141 2.3417691e-38
0.043621901 -0.082988426 0.026675481 2.3509168e-38
0.045485776 -0.082988426 0.026675481 2.3509879e-38
0.047241371 -0.082336128 0.0296879 2.3509499e-38
0.049099963 -0.082336128 0.0296879 2.3509869e-38
0.050958555 -0.082336128 0.0296879 2.3507016e-38
0.052817151 -0.082336128 0.0296879 4.1437853e-39
0.054675743 -0.082336128 0.0296879 6.0823542e-39
0.056400411 -0.08168751 0.032683272 1.6408981e-38
0.05825375 -0.08168751 0.032683272 1.5023935e-38
0.06010709 -0.08168751 0.032683272 3.3158253e-39
-0.067413054 -0.10035546 -0.044345479 3.7803697e-39
-0.065424658 -0.10035546 -0.044345479 1.12475e-38
-0.063176431 -0.09946914 -0.040285211 2.350988e-38
-0.061195143 -0.09946914 -0.040285211 2.3231857e-38
-0.059213869 -0.09946914 -0.040285211 2.3508804e-38
-0.057232596 -0.09946914 -0.040285211 2.3509168e-38
-0.055251308 -0.09946914 -0.040285211 2.3509527e-38
-0.053270034 -0.09946914 -0.040285211 2.3509527e-38
-0.051079892 -0.098616585 -0.036379557 2.2126951e-38
-0.049105458 -0.098616585 -0.036379557 2.0006452e-38
-0.046980858 -0.097960562 -0.033374291 1.9084495e-38
-0.045011692 -0.097960562 -0.033374291 1.982206e-38
-0.042857505 -0.097091287 -0.029392105 2.1481582e-38
-0.040713049 -0.096201301 -0.025315028 2.3141103e-38
-0.038758017 -0.096201301 -0.025315028 2.3509886e-38
-0.036802985 -0.096201301 -0.025315028 2.3509886e-38
-0.034731708 -0.095558092 -0.022368412 2.3509886e-38
-0.032781847 -0.095558092 -0.022368412 2.3509886e-38
-0.030831981 -0.095558092 -0.022368412 2.3509886e-38
-0.028744459 -0.094679192 -0.018342119 2.3509886e-38
-0.026801653 -0.094679192 -0.018342119 2.3509886e-38
-0.024858847 -0.094679192 -0.018342119 2.3509886e-38
-0.022828363 -0.094017595 -0.015311343 2.3509886e-38
-0.020890873 -0.094017595 -0.015311343 2.3509527e-38
-0.018953383 -0.094017595 -0.015311343 2.323258e-38
-0.017015889 -0.094017595 -0.015311343 2.2863797e-38
-0.015078403 -0.094017595 -0.015311343 2.2863797e-38
-0.013060752 -0.093149811 -0.011335951 2.3324775e-38
-0.011130232 -0.093149811 -0.011335951 2.3509527e-38
-0.0091997087 -0.093149811 -0.011335951 2.3509527e-38
-0.0072691888 -0.093149811 -0.011335951 2.3509527e-38
-0.0052867681 -0.092288271 -0.0073891701 2.3509527e-38
-0.0033631697 -0.092288271 -0.0073891701 2.3509527e-38
-0.0014097728 -0.091613799 -0.0042993845 2.3509527e-38
0.00050840899 -0.091613799 -0.0042993845 2.3509527e-38
0.002451228 -0.090737507 -0.00028501172 2.3509527e-38
0.0043623727 -0.090737507 -0.00028501172 2.3509527e-38
0.0062735174 -0.090737507 -0.00028501172 2.3509527e-38
0.0081872325 -0.090097278 0.0026478944 2.3509527e-38
0.010090576 -0.089435071 0.0056815324 2.3417687e-38
0.011991259 -0.089435071 0.0056815324 2.332621e-38
0.013874665 -0.088574663 0.0096230684 2.341769e-38
0.015768439 -0.088574663 0.0096230684 2.341805e-38
0.01766221 -0.088574663 0.0096230684 2.3509886e-38
0.019527102 -0.087920904 0.012617963 2.341805e-38
0.021415625 -0.087920904 0.012617963 2.3509886e-38
0.023304146 -0.087920904 0.012617963 2.3509886e-38
0.025192667 -0.087920904 0.012617963 2.3509886e-38
0.027014473 -0.087046593 0.016623277 2.3509883e-38
0.02889597 -0.087046593 0.016623277 2.3509883e-38
0.030777469 -0.087046593 0.016623277 2.3509883e-38
0.032591693 -0.086376548 0.019692797 2.3509883e-38
0.034467813 -0.086376548 0.019692797 2.3509886e-38
0.036343928 -0.086376548 0.019692797 2.3509886e-38
0.038220048 -0.086376548 0.019692797 2.3509527e-38
0.040011127 -0.085734919 0.022632141 2.3509527e-38
0.041758027 -0.084852293 0.026675481 2.3325138e-38
0.043621901 -0.084852293 0.026675481 2.3509168e-38
0.045485776 -0.084852293 0.026675481 2.3509879e-38
0.047241371 -0.08419472 0.0296879 2.3509139e-38
0.049099963 -0.08419472 0.0296879 2.3509511e-38
0.050958555 -0.08419472 0.0296879 2.3507374e-38
0.052817151 -0.08419472 0.0296879 2.2076771e-39
0.054675743 -0.08419472 0.0296879 3.8696591e-39
0.056400411 -0.083540857 0.032683272 1.5026045e-38
0.05825375 -0.083540857 0.032683272 1.548491e-38
0.06010709 -0.083540857 0.032683272 3.223987e-39
-0.067413054 -0.10234386 -0.044345479 5.2555026e-39
-0.065424658 -0.10234386 -0.044345479 1.3368001e-38
-0.063176431 -0.10145043 -0.040285211 2.350988e-38
-0.061195143 -0.10145043 -0.040285211 2.295527e-38
-0.059213869 -0.10145043 -0.040285211 2.3509524e-38
-0.057232596 -0.10145043 -0.040285211 2.3508808e-38
-0.055251308 -0.10145043 -0.040285211 2.3509167e-38
-0.053054325 -0.100591 -0.036379557 2.3509527e-38
-0.051079892 -0.100591 -0.036379557 2.3509886e-38
-0.049105458 -0.100591 -0.036379557 2.3233299e-38
-0.046980858 -0.09992972 -0.033374291 2.3509886e-38
-0.04481969 -0.099053472 -0.029392105 2.3509886e-38
-0.042857505 -0.099053472 -0.029392105 2.3509886e-38
-0.040713049 -0.098156333 -0.025315028 2.3509886e-38
-0.038758017 -0.098156333 -0.025315028 2.3509886e-38
-0.036802985 -0.098156333 -0.025315028 2.3509886e-38
-0.034731708 -0.097507954 -0.022368412 2.3509886e-38
-0.032781847 -0.097507954 -0.022368412 2.3509886e-38
-0.030831981 -0.097507954 -0.022368412 2.3509886e-38
-0.028744459 -0.09662199 -0.018342119 2.3509886e-38
-0.026801653 -0.09662199 -0.018342119 2.3509886e-38
-0.024858847 -0.09662199 -0.018342119 2.3509886e-38
-0.022828363 -0.095955089 -0.015311343 2.3509886e-38
-0.020890873 -0.095955089 -0.015311343 2.3416971e-38
-0.019030437 -0.09662199 -0.018342119 2.2771602e-38
-0.017015889 -0.095955089 -0.015311343 2.2218428e-38
-0.015078403 -0.095955089 -0.015311343 2.2310624e-38
-0.013060752 -0.095080331 -0.011335951 2.2955993e-38
-0.011130232 -0.095080331 -0.011335951 2.3416971e-38
-0.0091997087 -0.095080331 -0.011335951 2.3416971e-38
-0.0072103702 -0.094211861 -0.0073891701 2.3140384e-38
-0.0052867681 -0.094211861 -0.0073891701 2.323258e-38
-0.0033279583 -0.093531981 -0.0042993845 2.323258e-38
-0.0014097728 -0.093531981 -0.0042993845 2.3324775e-38
0.00050840899 -0.093531981 -0.0042993845 2.3416971e-38
0.002451228 -0.09264864 -0.00028501172 2.3509167e-38
0.0043623727 -0.09264864 -0.00028501172 2.3509527e-38
0.0062735174 -0.09264864 -0.00028501172 2.3509527e-38
0.0081872325 -0.092003286 0.0026478944 2.3509883e-38
0.010090576 -0.091335744 0.0056815324 2.3418045e-38
0.011991259 -0.091335744 0.0056815324 2.3418045e-38
0.013874665 -0.090468436 0.0096230684 2.3418047e-38
0.015768439 -0.090468436 0.0096230684 2.341805e-38
0.01766221 -0.090468436 0.0096230684 2.341805e-38
0.019527102 -0.089809433 0.012617963 2.341805e-38
0.021415625 -0.089809433 0.012617963 2.341805e-38
0.023304146 -0.089809433 0.012617963 2.341805e-38
0.025132975 -0.088928089 0.016623277 2.3509886e-38
0.027014473 -0.088928089 0.016623277 2.3509883e-38
0.02889597 -0.088928089 0.016623277 2.350988e-38
0.030715579 -0.088252664 0.019692797 2.3509883e-38
0.032591693 -0.088252664 0.019692797 2.3509886e-38
0.034398235 -0.087605879 0.022632141 2.3509886e-38
0.036269203 -0.087605879 0.022632141 2.3509527e-38
0.038140163 -0.087605879 0.022632141 2.3509527e-38
0.040011127 -0.087605879 0.022632141 2.3509527e-38
0.041758027 -0.086716175 0.026675481 2.3509527e-38
0.043621901 -0.086716175 0.026675481 2.3509167e-38
0.045485776 -0.086716175 0.026675481 2.3509879e-38
0.047241371 -0.086053312 0.0296879 2.3508428e-38
0.049099963 -0.086053312 0.0296879 2.3509517e-38
0.050958555 -0.086053312 0.0296879 2.3507733e-38
0.052817151 -0.086053312 0.0296879 8.2653068e-40
0.054675743 -0.086053312 0.0296879 1.6566263e-39
0.056400411 -0.085394189 0.032683272 1.4288125e-38
0.05825375 -0.085394189 0.032683272 1.5577822e-38
0.06010709 -0.085394189 0.032683272 3.9615464e-39
-0.067413054 -0.10433225 -0.044345479 7.7447846e-39
-0.065424658 -0.10433225 -0.044345479 1.7332413e-38
-0.063176431 -0.10343169 -0.040285211 2.350988e-38
-0.061195143 -0.10343169 -0.040285211 2.3509524e-38
-0.059213869 -0.10343169 -0.040285211 2.3509165e-38
-0.057232596 -0.10343169 -0.040285211 2.3508809e-38
-0.055028759 -0.10256544 -0.036379557 2.3509168e-38
-0.053054325 -0.10256544 -0.036379557 2.3509527e-38
-0.050919183 -0.10189888 -0.033374291 2.341769e-38
-0.048950024 -0.10189888 -0.033374291 2.3325494e-38
-0.046980858 -0.10189888 -0.033374291 2.3233299e-38
-0.04481969 -0.10101564 -0.029392105 2.3325494e-38
-0.042857505 -0.10101564 -0.029392105 2.3325494e-38
-0.040713049 -0.10011137 -0.025315028 2.3233299e-38
-0.038758017 -0.10011137 -0.025315028 2.3233299e-38
-0.036802985 -0.10011137 -0.025315028 2.3509886e-38
-0.034731708 -0.099457815 -0.022368412 2.3509886e-38
-0.032781847 -0.099457815 -0.022368412 2.3509886e-38
-0.030831981 -0.099457815 -0.022368412 2.3509886e-38
-0.028744459 -0.098564804 -0.018342119 2.3509886e-38
-0.026801653 -0.098564804 -0.018342119 2.3509886e-38
-0.024858847 -0.098564804 -0.018342119 2.3509886e-38
-0.022828363 -0.097892582 -0.015311343 2.3509886e-38
-0.020890873 -0.097892582 -0.015311343 2.3416971e-38
-0.019030437 -0.098564804 -0.018342119 2.3048189e-38
-0.017015889 -0.097892582 -0.015311343 2.2771602e-38
-0.015078403 -0.097892582 -0.015311343 2.2955993e-38
-0.013060752 -0.097010851 -0.011335951 2.323258e-38
-0.011130232 -0.097010851 -0.011335951 2.3416971e-38
-0.0091997087 -0.097010851 -0.011335951 2.323258e-38
-0.0072103702 -0.096135467 -0.0073891701 2.2955993e-38
-0.0052867681 -0.096135467 -0.0073891701 2.2955993e-38
-0.0033279583 -0.095450163 -0.0042993845 2.3048189e-38
-0.0014097728 -0.095450163 -0.0042993845 2.3140384e-38
0.00050840899 -0.095450163 -0.0042993845 2.323258e-38
0.002451228 -0.094559789 -0.00028501172 2.3324775e-38
0.0043623727 -0.094559789 -0.00028501172 2.3416971e-38
0.0062735174 -0.094559789 -0.00028501172 2.3509167e-38
0.0081872325 -0.093909279 0.0026478944 2.3509883e-38
0.010090576 -0.093236431 0.0056815324 2.3418043e-38
0.011991259 -0.093236431 0.0056815324 2.3234372e-38
0.013874665 -0.09236221 0.0096230684 2.3234376e-38
0.015768439 -0.09236221 0.0096230684 2.3234379e-38
0.01766221 -0.09236221 0.0096230684 2.3142544e-38
0.019527102 -0.091697961 0.012617963 2.3142544e-38
0.021415625 -0.091697961 0.012617963 2.3325856e-38
0.023304146 -0.091697961 0.012617963 2.3234018e-38
0.025132975 -0.090809584 0.016623277 2.341805e-38
0.027014473 -0.090809584 0.016623277 2.3418047e-38
0.028839462 -0.090128779 0.019692797 2.3418045e-38
0.030715579 -0.090128779 0.019692797 2.3418047e-38
0.032527275 -0.089476839 0.022632141 2.341805e-38
0.034398235 -0.089476839 0.022632141 2.341805e-38
0.036269203 -0.089476839 0.022632141 2.341805e-38
0.038140163 -0.089476839 0.022632141 2.3417691e-38
0.040011127 -0.089476839 0.022632141 2.3417691e-38
0.041758027 -0.088580042 0.026675481 2.3509527e-38
0.043621901 -0.088580042 0.026675481 2.350952e-38
0.045485776 -0.088580042 0.026675481 2.3509156e-38
0.047241371 -0.087911904 0.0296879 2.350916e-38
0.049099963 -0.087911904 0.0296879 2.3507726e-38
0.050958555 -0.087911904 0.0296879 2.3508092e-38
0.052817151 -0.087911904 0.0296879 6.4285128e-40
0.054675743 -0.087911904 0.0296879 6.4284847e-40
0.056534335 -0.087911904 0.0296879 1.4287776e-38
0.058532894 -0.088580042 0.026675481 1.4840967e-38
0.060396768 -0.088580042 0.026675481 3.8704214e-39
-0.065424658 -0.10632066 -0.044345479 1.9452912e-38
-0.063176431 -0.10541297 -0.040285211 2.3509883e-38
-0.061195143 -0.10541297 -0.040285211 2.3509527e-38
-0.059213869 -0.10541297 -0.040285211 2.2954554e-38
-0.057232596 -0.10541297 -0.040285211 2.3509168e-38
-0.055028759 -0.10453986 -0.036379557 2.3508807e-38
-0.053054325 -0.10453986 -0.036379557 2.3324775e-38
-0.050919183 -0.10386805 -0.033374291 2.3509886e-38
-0.048950024 -0.10386805 -0.033374291 2.3509886e-38
-0.046781868 -0.10297783 -0.029392105 2.3509886e-38
-0.04481969 -0.10297783 -0.029392105 2.3325494e-38
-0.042857505 -0.10297783 -0.029392105 2.3233299e-38
-0.040713049 -0.1020664 -0.025315028 2.3509886e-38
-0.038758017 -0.1020664 -0.025315028 2.3509886e-38
-0.036802985 -0.1020664 -0.025315028 2.3509886e-38
-0.034731708 -0.10140768 -0.022368412 2.3509886e-38
-0.032781847 -0.10140768 -0.022368412 2.3509886e-38
-0.030831981 -0.10140768 -0.022368412 2.3509886e-38
-0.028744459 -0.1005076 -0.018342119 2.3509886e-38
-0.026801653 -0.1005076 -0.018342119 2.3509886e-38
-0.024765853 -0.099830076 -0.015311343 2.3509886e-38
-0.022828363 -0.099830076 -0.015311343 2.3509886e-38
-0.020890873 -0.099830076 -0.015311343 2.3509527e-38
-0.019030437 -0.1005076 -0.018342119 2.3509527e-38
-0.017015889 -0.099830076 -0.015311343 2.3509527e-38
-0.015078403 -0.099830076 -0.015311343 2.3509527e-38
-0.013060752 -0.098941371 -0.011335951 2.3509527e-38
-0.011130232 -0.098941371 -0.011335951 2.3509527e-38
-0.0091997087 -0.098941371 -0.011335951 2.3509167e-38
-0.0072691888 -0.098941371 -0.011335951 2.323258e-38
-0.0052867681 -0.098059073 -0.0073891701 2.3509527e-38
-0.0033279583 -0.097368345 -0.0042993845 2.3509527e-38
-0.0014097728 -0.097368345 -0.0042993845 2.3509527e-38
0.00050840899 -0.097368345 -0.0042993845 2.3509527e-38
0.002451228 -0.096470937 -0.00028501172 2.3509527e-38
0.0043623727 -0.096470937 -0.00028501172 2.3509527e-38
0.0062735174 -0.096470937 -0.00028501172 2.3509527e-38
0.0081872325 -0.095815286 0.0026478944 2.3509883e-38
0.010090576 -0.095137119 0.0056815324 2.3418045e-38
0.011991259 -0.095137119 0.0056815324 2.3234374e-38
0.013874665 -0.094255984 0.0096230684 2.3418047e-38
0.015768439 -0.094255984 0.0096230684 2.3234379e-38
0.01766221 -0.094255984 0.0096230684 2.3325856e-38
0.019527102 -0.093586475 0.012617963 2.3233662e-38
0.021415625 -0.093586475 0.012617963 2.3233662e-38
0.023304146 -0.093586475 0.012617963 2.3141822e-38
0.025132975 -0.092691094 0.016623277 2.341805e-38
0.027014473 -0.092691094 0.016623277 2.3418047e-38
0.028839462 -0.092004895 0.019692797 2.3418047e-38
0.030656312 -0.091347814 0.022632141 2.3418047e-38
0.032527275 -0.091347814 0.022632141 2.341805e-38
0.034398235 -0.091347814 0.022632141 2.341805e-38
0.036269203 -0.091347814 0.022632141 2.341805e-38
0.038140163 -0.091347814 0.022632141 2.3417691e-38
0.040011127 -0.091347814 0.022632141 2.3048914e-38
0.041758027 -0.090443924 0.026675481 2.3509527e-38
0.043621901 -0.090443924 0.026675481 2.3418043e-38
0.045485776 -0.090443924 0.026675481 2.3509874e-38
0.04734965 -0.090443924 0.026675481 2.3509524e-38
0.049213521 -0.090443924 0.026675481 2.3508448e-38
0.051077396 -0.090443924 0.026675481 2.3508809e-38
0.052817151 -0.089770496 0.0296879 6.4284847e-40
0.054675743 -0.089770496 0.0296879 5.5101298e-40
0.056669019 -0.090443924 0.026675481 1.419667e-38
0.058532894 -0.090443924 0.026675481 1.3458753e-38
0.060396768 -0.090443924 0.026675481 3.2254051e-39
-0.065424658 -0.10830905 -0.044345479 2.1388667e-38
-0.063176431 -0.10739426 -0.040285211 2.3509527e-38
-0.061195143 -0.10739426 -0.040285211 2.3140387e-38
-0.058977611 -0.10651429 -0.036379557 2.3323699e-38
-0.057003178 -0.10651429 -0.036379557 2.3509168e-38
-0.0548575 -0.10583721 -0.033374291 2.3232583e-38
-0.052888341 -0.10583721 -0.033374291 2.3509886e-38
-0.050919183 -0.10583721 -0.033374291 2.3509886e-38
-0.048744045 -0.10494001 -0.029392105 2.3509886e-38
-0.046781868 -0.10494001 -0.029392105 2.3509886e-38
-0.04481969 -0.10494001 -0.029392105 2.3509886e-38
-0.042857505 -0.10494001 -0.029392105 2.3509886e-38
-0.040713049 -0.10402142 -0.025315028 2.3509886e-38
-0.038758017 -0.10402142 -0.025315028 2.3509886e-38
-0.03668157 -0.10335754 -0.022368412 2.3509886e-38
-0.034731708 -0.10335754 -0.022368412 2.3509886e-38
-0.032781847 -0.10335754 -0.022368412 2.3509886e-38
-0.030831981 -0.10335754 -0.022368412 2.3509886e-38
-0.028744459 -0.1024504 -0.018342119 2.3509886e-38
-0.026801653 -0.1024504 -0.018342119 2.3509886e-38
-0.024765853 -0.10176755 -0.015311343 2.3509886e-38
-0.022828363 -0.10176755 -0.015311343 2.3509886e-38
-0.020890873 -0.10176755 -0.015311343 2.3509886e-38
-0.019030437 -0.1024504 -0.018342119 2.3509886e-38
-0.017015889 -0.10176755 -0.015311343 2.3509886e-38
-0.015078403 -0.10176755 -0.015311343 2.3509886e-38
-0.013140909 -0.10176755 -0.015311343 2.3509886e-38
-0.011203419 -0.10176755 -0.015311343 2.3509886e-38
-0.0091997087 -0.10087189 -0.011335951 2.3509886e-38
-0.0072103702 -0.099982664 -0.0073891701 2.3509886e-38
-0.0052867681 -0.099982664 -0.0073891701 2.3509886e-38
-0.0033279583 -0.099286526 -0.0042993845 2.3509886e-38
-0.0014097728 -0.099286526 -0.0042993845 2.3509886e-38
0.00050840899 -0.099286526 -0.0042993845 2.3509886e-38
0.002451228 -0.098382086 -0.00028501172 2.3509886e-38
0.0043623727 -0.098382086 -0.00028501172 2.3509886e-38
0.0062735174 -0.098382086 -0.00028501172 2.3509886e-38
0.0081872325 -0.097721294 0.0026478944 2.3509886e-38
0.010090576 -0.097037792 0.0056815324 2.3509883e-38
0.011991259 -0.097037792 0.0056815324 2.3418047e-38
0.013874665 -0.096149758 0.0096230684 2.3509886e-38
0.015768439 -0.096149758 0.0096230684 2.341805e-38
0.01766221 -0.096149758 0.0096230684 2.3509886e-38
0.019527102 -0.095475003 0.012617963 2.3509886e-38
0.021415625 -0.095475003 0.012617963 2.3509886e-38
0.023304146 -0.095475003 0.012617963 2.3509886e-38
0.025132975 -0.094572589 0.016623277 2.3509886e-38
0.027014473 -0.094572589 0.016623277 2.2680125e-38
0.028839462 -0.093881011 0.019692797 2.1758169e-38
0.030656312 -0.093218774 0.022632141 2.129719e-38
0.032527275 -0.093218774 0.022632141 2.1112799e-38
0.034398235 -0.093218774 0.022632141 2.129719e-38
0.036269203 -0.093218774 0.022632141 2.2034758e-38
0.038140163 -0.093218774 0.022632141 2.2864519e-38
0.039894156 -0.092307791 0.026675481 2.3509527e-38
0.041758027 -0.092307791 0.026675481 2.3509886e-38
0.043621901 -0.092307791 0.026675481 2.3509883e-38
0.045485776 -0.092307791 0.026675481 2.350988e-38
0.04734965 -0.092307791 0.026675481 2.3509883e-38
0.049213521 -0.092307791 0.026675481 2.3509523e-38
0.051077396 -0.092307791 0.026675481 2.3417327e-38
0.052817151 -0.091629088 0.0296879 9.1835496e-41
0.054675743 -0.091629088 0.0296879 9.1835496e-41
0.056669019 -0.092307791 0.026675481 1.2630434e-38
0.05872076 -0.093218774 0.022632141 1.3275808e-38
0.060591724 -0.093218774 0.022632141 2.9495441e-39
0.062462687 -0.093218774 0.022632141 2.9499084e-39
-0.065424658 -0.11029746 -0.044345479 2.2771605e-38
-0.063176431 -0.10937552 -0.040285211 2.3509527e-38
-0.061195143 -0.10937552 -0.040285211 2.3509527e-38
-0.058977611 -0.10848872 -0.036379557 2.3416974e-38
-0.057003178 -0.10848872 -0.036379557 2.3509527e-38
-0.0548575 -0.10780637 -0.033374291 2.3416974e-38
-0.052888341 -0.10780637 -0.033374291 2.3509886e-38
-0.050919183 -0.10780637 -0.033374291 2.3509886e-38
-0.048744045 -0.1069022 -0.029392105 2.3509886e-38
-0.046781868 -0.1069022 -0.029392105 2.3509886e-38
-0.04481969 -0.1069022 -0.029392105 2.3509886e-38
-0.042857505 -0.1069022 -0.029392105 2.3509886e-38
-0.040713049 -0.10597645 -0.025315028 2.3509886e-38
-0.038758017 -0.10597645 -0.025315028 2.3509886e-38
-0.03668157 -0.10530742 -0.022368412 2.3509886e-38
-0.034731708 -0.10530742 -0.022368412 2.3509886e-38
-0.032781847 -0.10530742 -0.022368412 2.3509886e-38
-0.030687261 -0.1043932 -0.018342119 2.3509886e-38
-0.028744459 -0.1043932 -0.018342119 2.3509886e-38
-0.026801653 -0.1043932 -0.018342119 2.3509886e-38
-0.024765853 -0.10370506 -0.015311343 2.3509886e-38
-0.022828363 -0.10370506 -0.015311343 2.3509886e-38
-0.020890873 -0.10370506 -0.015311343 2.3509886e-38
-0.019030437 -0.1043932 -0.018342119 2.3509886e-38
-0.017087631 -0.1043932 -0.018342119 2.3509886e-38
-0.015078403 -0.10370506 -0.015311343 2.3509886e-38
-0.013060752 -0.10280241 -0.011335951 2.3509886e-38
-0.011130232 -0.10280241 -0.011335951 2.3509886e-38
-0.0091997087 -0.10280241 -0.011335951 2.3509886e-38
-0.0072103702 -0.10190627 -0.0073891701 2.3509886e-38
-0.0052461401 -0.10120471 -0.0042993845 2.3509886e-38
-0.0033279583 -0.10120471 -0.0042993845 2.3509886e-38
-0.0014097728 -0.10120471 -0.0042993845 2.3509886e-38
0.00050840899 -0.10120471 -0.0042993845 2.3509886e-38
0.002451228 -0.10029322 -0.00028501172 2.3509886e-38
0.0043623727 -0.10029322 -0.00028501172 2.3509886e-38
0.0062735174 -0.10029322 -0.00028501172 2.3509886e-38
0.0081872325 -0.099627286 0.0026478944 2.3509886e-38
0.010090576 -0.09893848 0.0056815324 2.3509886e-38
0.011991259 -0.09893848 0.0056815324 2.3509886e-38
0.013874665 -0.098043531 0.0096230684 2.3509886e-38
0.015768439 -0.098043531 0.0096230684 2.3509886e-38
0.01766221 -0.098043531 0.0096230684 2.3509886e-38
0.019527102 -0.097363517 0.012617963 2.3509886e-38
0.021415625 -0.097363517 0.012617963 2.3509886e-38
0.023304146 -0.097363517 0.012617963 2.3509886e-38
0.025132975 -0.096454084 0.016623277 2.3509886e-38
0.027014473 -0.096454084 0.016623277 2.3325494e-38
0.028839462 -0.095757127 0.019692797 2.3141103e-38
0.030656312 -0.095089734 0.022632141 2.3141103e-38
0.032527275 -0.095089734 0.022632141 2.3141103e-38
0.034398235 -0.095089734 0.022632141 2.2956712e-38
0.036269203 -0.095089734 0.022632141 2.3048907e-38
0.038140163 -0.095089734 0.022632141 2.341769e-38
0.039894156 -0.094171658 0.026675481 2.341769e-38
0.041758027 -0.094171658 0.026675481 2.3509886e-38
0.043621901 -0.094171658 0.026675481 2.3325492e-38
0.045485776 -0.094171658 0.026675481 2.3325492e-38
0.04734965 -0.094171658 0.026675481 2.3509883e-38
0.049213521 -0.094171658 0.026675481 2.3048905e-38
0.051077396 -0.094171658 0.026675481 2.2957065e-38
0.05294127 -0.094171658 0.026675481 3.5873241e-43
0.054805145 -0.094171658 0.026675481 1.8438846e-40
0.056669019 -0.094171658 0.026675481 1.3276168e-38
0.058532894 -0.094171658 0.026675481 1.2815193e-38
0.060591724 -0.095089734 0.022632141 2.8580673e-39
0.062462687 -0.095089734 0.022632141 1.6591682e-39
-0.065424658 -0.11228584 -0.044345479 2.3509527e-38
-0.063176431 -0.11135681 -0.040285211 2.3509527e-38
-0.061195143 -0.11135681 -0.040285211 2.3509527e-38
-0.058977611 -0.11046316 -0.036379557 2.3324778e-38
-0.057003178 -0.11046316 -0.036379557 2.3509527e-38
-0.0548575 -0.10977553 -0.033374291 2.3324778e-38
-0.052888341 -0.10977553 -0.033374291 2.3509886e-38
-0.05070623 -0.10886435 -0.029392105 2.3509886e-38
-0.048744045 -0.10886435 -0.029392105 2.3509886e-38
-0.046781868 -0.10886435 -0.029392105 2.3509886e-38
-0.04481969 -0.10886435 -0.029392105 2.3509886e-38
-0.042857505 -0.10886435 -0.029392105 2.3509886e-38
-0.040713049 -0.10793148 -0.025315028 2.3509886e-38
-0.038758017 -0.10793148 -0.025315028 2.3509886e-38
-0.03668157 -0.10725726 -0.022368412 2.3509886e-38
-0.034731708 -0.10725726 -0.022368412 2.3509886e-38
-0.032630067 -0.10633601 -0.018342119 2.3509886e-38
-0.030687261 -0.10633601 -0.018342119 2.3509886e-38
-0.028744459 -0.10633601 -0.018342119 2.3509886e-38
-0.026703347 -0.10564254 -0.015311343 2.3509886e-38
-0.024765853 -0.10564254 -0.015311343 2.3509886e-38
-0.022828363 -0.10564254 -0.015311343 2.3509886e-38
-0.020890873 -0.10564254 -0.015311343 2.3509886e-38
-0.018953383 -0.10564254 -0.015311343 2.3509886e-38
-0.017015889 -0.10564254 -0.015311343 2.3509886e-38
-0.015078403 -0.10564254 -0.015311343 2.3509886e-38
-0.013060752 -0.10473295 -0.011335951 2.3509886e-38
-0.011130232 -0.10473295 -0.011335951 2.3509886e-38
-0.0091997087 -0.10473295 -0.011335951 2.3509886e-38
-0.0072103702 -0.10382988 -0.0073891701 2.3509886e-38
-0.0052461401 -0.1031229 -0.0042993845 2.3509886e-38
-0.0033279583 -0.1031229 -0.0042993845 2.3509886e-38
-0.0013710596 -0.10220437 -0.00028501172 2.3509886e-38
0.00054008327 -0.10220437 -0.00028501172 2.3509886e-38
0.002451228 -0.10220437 -0.00028501172 2.3509886e-38
0.0043623727 -0.10220437 -0.00028501172 2.3509886e-38
0.0062812306 -0.10153329 0.0026478944 2.3509886e-38
0.0081872325 -0.10153329 0.0026478944 2.3509886e-38
0.010090576 -0.10083917 0.0056815324 2.3509886e-38
0.011991259 -0.10083917 0.0056815324 2.3509886e-38
0.013874665 -0.099937305 0.0096230684 2.3509886e-38
0.015768439 -0.099937305 0.0096230684 2.3509886e-38
0.01766221 -0.099937305 0.0096230684 2.3509886e-38
0.019527102 -0.099252045 0.012617963 2.3509886e-38
0.021415625 -0.099252045 0.012617963 2.3509886e-38
0.023304146 -0.099252045 0.012617963 2.3509886e-38
0.025132975 -0.098335579 0.016623277 2.3509886e-38
0.027014473 -0.098335579 0.016623277 2.341769e-38
0.028839462 -0.097633243 0.019692797 2.3509886e-38
0.030656312 -0.096960694 0.022632141 2.3509886e-38
0.032527275 -0.096960694 0.022632141 2.3509886e-38
0.034398235 -0.096960694 0.022632141 2.3509886e-38
0.036269203 -0.096960694 0.022632141 2.3509886e-38
0.038140163 -0.096960694 0.022632141 2.3509886e-38
0.039894156 -0.09603554 0.026675481 2.3509886e-38
0.041758027 -0.09603554 0.026675481 2.3509886e-38
0.043621901 -0.09603554 0.026675481 2.3325492e-38
0.045485776 -0.09603554 0.026675481 2.3233296e-38
0.04734965 -0.09603554 0.026675481 2.3417687e-38
0.049213521 -0.09603554 0.026675481 2.2956709e-38
0.051077396 -0.09603554 0.026675481 2.2772674e-38
0.05294127 -0.09603554 0.026675481 3.5873241e-43
0.054805145 -0.09603554 0.026675481 0
0.056669019 -0.09603554 0.026675481 1.3460559e-38
0.058532894 -0.09603554 0.026675481 1.244641e-38
0.060396768 -0.09603554 0.026675481 3.7800236e-39
0.062260639 -0.09603554 0.026675481 5.5282065e-40
-0.065424658 -0.11427425 -0.044345479 2.3509527e-38
-0.063176431 -0.1133381 -0.040285211 2.3048191e-38
-0.061195143 -0.1133381 -0.040285211 2.3509527e-38
-0.058977611 -0.11243759 -0.036379557 2.3324778e-38
-0.056826659 -0.11174469 -0.033374291 2.332478e-38
-0.0548575 -0.11174469 -0.033374291 2.3509527e-38
-0.0526684 -0.11082654 -0.029392105 2.3509886e-38
-0.05070623 -0.11082654 -0.029392105 2.3509886e-38
-0.048744045 -0.11082654 -0.029392105 2.3509886e-38
-0.046781868 -0.11082654 -0.029392105 2.3509886e-38
-0.04481969 -0.11082654 -0.029392105 2.3509886e-38
-0.042857505 -0.11082654 -0.029392105 2.3509886e-38
-0.040713049 -0.10988651 -0.025315028 2.3509886e-38
-0.038758017 -0.10988651 -0.025315028 2.3509886e-38
-0.03668157 -0.10920714 -0.022368412 2.3509886e-38
-0.034731708 -0.10920714 -0.022368412 2.3509886e-38
-0.032630067 -0.10827883 -0.018342119 2.3509886e-38
-0.030687261 -0.10827883 -0.018342119 2.3509886e-38
-0.028640836 -0.10758002 -0.015311343 2.3509886e-38
-0.026703347 -0.10758002 -0.015311343 2.3509886e-38
-0.024765853 -0.10758002 -0.015311343 2.3509886e-38
-0.022713356 -0.10666345 -0.011335951 2.3509886e-38
-0.020782836 -0.10666345 -0.011335951 2.3509886e-38
-0.018953383 -0.10758002 -0.015311343 2.3509886e-38
-0.017015889 -0.10758002 -0.015311343 2.3509886e-38
-0.015078403 -0.10758002 -0.015311343 2.3509886e-38
-0.013060752 -0.10666345 -0.011335951 2.3509886e-38
-0.011130232 -0.10666345 -0.011335951 2.3509886e-38
-0.0091997087 -0.10666345 -0.011335951 2.3509886e-38
-0.0072103702 -0.10575347 -0.0073891701 2.3509886e-38
-0.0052461401 -0.10504107 -0.0042993845 2.3509886e-38
-0.0033279583 -0.10504107 -0.0042993845 2.3509886e-38
-0.0013710596 -0.1041155 -0.00028501172 2.3509886e-38
0.00054008327 -0.1041155 -0.00028501172 2.3509886e-38
0.002451228 -0.1041155 -0.00028501172 2.3509886e-38
0.0043623727 -0.1041155 -0.00028501172 2.3509886e-38
0.0062812306 -0.10343929 0.0026478944 2.3509886e-38
0.0081872325 -0.10343929 0.0026478944 2.3509886e-38
0.010090576 -0.10273984 0.0056815324 2.3509886e-38
0.011991259 -0.10273984 0.0056815324 2.3509886e-38
0.013874665 -0.10183108 0.0096230684 2.3509886e-38
0.015768439 -0.10183108 0.0096230684 2.3509886e-38
0.01766221 -0.10183108 0.0096230684 2.3509886e-38
0.019527102 -0.10114056 0.012617963 2.3509886e-38
0.021415625 -0.10114056 0.012617963 2.3509886e-38
0.023304146 -0.10114056 0.012617963 2.3509886e-38
0.025132975 -0.10021709 0.016623277 2.3509886e-38
0.027014473 -0.10021709 0.016623277 2.341769e-38
0.028839462 -0.099509358 0.019692797 2.3325494e-38
0.030656312 -0.098831654 0.022632141 2.341769e-38
0.032527275 -0.098831654 0.022632141 2.341769e-38
0.034398235 -0.098831654 0.022632141 2.3509886e-38
0.036269203 -0.098831654 0.022632141 2.3509886e-38
0.038140163 -0.098831654 0.022632141 2.3509886e-38
0.039894156 -0.097899407 0.026675481 2.3509886e-38
0.041758027 -0.097899407 0.026675481 2.3509886e-38
0.043621901 -0.097899407 0.026675481 2.3509883e-38
0.045485776 -0.097899407 0.026675481 2.3509883e-38
0.047241371 -0.097204864 0.0296879 2.3509883e-38
0.049099963 -0.097204864 0.0296879 2.3233296e-38
0.051077396 -0.097899407 0.026675481 2.3141456e-38
0.05294127 -0.097899407 0.026675481 3.5873241e-43
0.054805145 -0.097899407 0.026675481 0
0.056669019 -0.097899407 0.026675481 1.2722994e-38
0.05872076 -0.098831654 0.022632141 1.3091779e-38
0.060591724 -0.098831654 0.022632141 6.9146722e-39
-0.064900912 -0.11441202 -0.036379557 2.3509527e-38
-0.062926479 -0.11441202 -0.036379557 2.28638e-38
-0.060952045 -0.11441202 -0.036379557 2.3509527e-38
-0.058977611 -0.11441202 -0.036379557 2.3509527e-38
-0.056826659 -0.11371385 -0.033374291 2.3509527e-38
-0.0548575 -0.11371385 -0.033374291 2.3509527e-38
-0.0526684 -0.11278872 -0.029392105 2.3509886e-38
-0.05070623 -0.11278872 -0.029392105 2.3509886e-38
-0.048744045 -0.11278872 -0.029392105 2.3509886e-38
-0.046781868 -0.11278872 -0.029392105 2.3509886e-38
-0.04481969 -0.11278872 -0.029392105 2.3509886e-38
-0.042857505 -0.11278872 -0.029392105 2.3509886e-38
-0.040713049 -0.11184154 -0.025315028 2.3509886e-38
-0.038758017 -0.11184154 -0.025315028 2.3509886e-38
-0.03668157 -0.11115701 -0.022368412 2.3509886e-38
-0.034731708 -0.11115701 -0.022368412 2.3509886e-38
-0.032630067 -0.11022164 -0.018342119 2.3509886e-38
-0.030578326 -0.10951753 -0.015311343 2.3509886e-38
-0.028640836 -0.10951753 -0.015311343 2.3509886e-38
-0.026703347 -0.10951753 -0.015311343 2.3509886e-38
-0.024643876 -0.10859399 -0.011335951 2.3509886e-38
-0.022713356 -0.10859399 -0.011335951 2.3509886e-38
-0.020782836 -0.10859399 -0.011335951 2.3509886e-38
-0.018953383 -0.10951753 -0.015311343 2.3509886e-38
-0.017015889 -0.10951753 -0.015311343 2.3509886e-38
-0.014991272 -0.10859399 -0.011335951 2.3509886e-38
-0.013060752 -0.10859399 -0.011335951 2.3509886e-38
-0.011130232 -0.10859399 -0.011335951 2.3509886e-38
-0.0091997087 -0.10859399 -0.011335951 2.3509886e-38
-0.0072103702 -0.10767709 -0.0073891701 2.3509886e-38
-0.005193349 -0.10602666 -0.00028501172 2.3509886e-38
-0.0032822043 -0.10602666 -0.00028501172 2.3509886e-38
-0.0013710596 -0.10602666 -0.00028501172 2.3509886e-38
0.00054008327 -0.10602666 -0.00028501172 2.3509886e-38
0.0024692267 -0.10534529 0.0026478944 2.3509886e-38
0.0043752287 -0.10534529 0.0026478944 2.3509886e-38
0.0062892102 -0.10464053 0.0056815324 2.3509886e-38
0.0081898924 -0.10464053 0.0056815324 2.3509886e-38
0.010090576 -0.10464053 0.0056815324 2.3509886e-38
0.011980893 -0.10372485 0.0096230684 2.3509886e-38
0.013874665 -0.10372485 0.0096230684 2.3509886e-38
0.015768439 -0.10372485 0.0096230684 2.3509886e-38
0.01766221 -0.10372485 0.0096230684 2.3509886e-38
0.019527102 -0.10302909 0.012617963 2.3509886e-38
0.021415625 -0.10302909 0.012617963 2.3509886e-38
0.023304146 -0.10302909 0.012617963 2.3509886e-38
0.025132975 -0.10209858 0.016623277 2.3509886e-38
0.027014473 -0.10209858 0.016623277 2.3509886e-38
0.028839462 -0.10138547 0.019692797 2.3509886e-38
0.030656312 -0.10070263 0.022632141 2.3325494e-38
0.032527275 -0.10070263 0.022632141 2.3325494e-38
0.034398235 -0.10070263 0.022632141 2.3509886e-38
0.036269203 -0.10070263 0.022632141 2.3509886e-38
0.038140163 -0.10070263 0.022632141 2.3509886e-38
0.039894156 -0.099763289 0.026675481 2.3509886e-38
0.041758027 -0.099763289 0.026675481 2.3509886e-38
0.043621901 -0.099763289 0.026675481 2.3509886e-38
0.045382779 -0.099063456 0.0296879 2.3509886e-38
0.047241371 -0.099063456 0.0296879 2.3509883e-38
0.049099963 -0.099063456 0.0296879 2.3509883e-38
0.051077396 -0.099763289 0.026675481 2.3418043e-38
0.052817151 -0.099063456 0.0296879 1.8474719e-40
0.054675743 -0.099063456 0.0296879 3.5873241e-43
0.056534335 -0.099063456 0.0296879 1.0510299e-38
0.059325203 -0.10372485 0.0096230684 1.4013736e-38
0.061218977 -0.10372485 0.0096230684 1.0786889e-38
-0.064900912 -0.11638646 -0.036379557 2.3509527e-38
-0.062926479 -0.11638646 -0.036379557 2.2955996e-38
-0.060952045 -0.11638646 -0.036379557 2.3509527e-38
-0.058977611 -0.11638646 -0.036379557 2.3416974e-38
-0.056826659 -0.115683 -0.033374291 2.3509527e-38
-0.054630585 -0.11475091 -0.029392105 2.3509527e-38
-0.0526684 -0.11475091 -0.029392105 2.3509886e-38
-0.05070623 -0.11475091 -0.029392105 2.3509886e-38
-0.048744045 -0.11475091 -0.029392105 2.3509886e-38
-0.046781868 -0.11475091 -0.029392105 2.3509886e-38
-0.04481969 -0.11475091 -0.029392105 2.3509886e-38
-0.042857505 -0.11475091 -0.029392105 2.3509886e-38
-0.040713049 -0.11379658 -0.025315028 2.3509886e-38
-0.038758017 -0.11379658 -0.025315028 2.3509886e-38
-0.03668157 -0.11310686 -0.022368412 2.3509886e-38
-0.034572877 -0.11216442 -0.018342119 2.3509886e-38
-0.032630067 -0.11216442 -0.018342119 2.3509886e-38
-0.030578326 -0.11145501 -0.015311343 2.3509886e-38
-0.028640836 -0.11145501 -0.015311343 2.3509886e-38
-0.026703347 -0.11145501 -0.015311343 2.3509886e-38
-0.024643876 -0.11052449 -0.011335951 2.3509886e-38
-0.022713356 -0.11052449 -0.011335951 2.3509886e-38
-0.020782836 -0.11052449 -0.011335951 2.3509886e-38
-0.018953383 -0.11145501 -0.015311343 2.3509886e-38
-0.017015889 -0.11145501 -0.015311343 2.3509886e-38
-0.014991272 -0.11052449 -0.011335951 2.3509886e-38
-0.013060752 -0.11052449 -0.011335951 2.3509886e-38
-0.011130232 -0.11052449 -0.011335951 2.3509886e-38
-0.0091339722 -0.10960068 -0.0073891701 2.3509886e-38
-0.0071643218 -0.10887744 -0.0042993845 2.3509886e-38
-0.005193349 -0.1079378 -0.00028501172 2.3509886e-38
-0.0032822043 -0.1079378 -0.00028501172 2.3509886e-38
-0.0013710596 -0.1079378 -0.00028501172 2.3509886e-38
0.00056322291 -0.1072513 0.0026478944 2.3509886e-38
0.0024692267 -0.1072513 0.0026478944 2.3509886e-38
0.0043752287 -0.1072513 0.0026478944 2.3509886e-38
0.0062892102 -0.1065412 0.0056815324 2.3509886e-38
0.0081898924 -0.1065412 0.0056815324 2.3509886e-38
0.010090576 -0.1065412 0.0056815324 2.3509886e-38
0.011980893 -0.10561861 0.0096230684 2.3509886e-38
0.013874665 -0.10561861 0.0096230684 2.3509886e-38
0.015768439 -0.10561861 0.0096230684 2.3509886e-38
0.01766221 -0.10561861 0.0096230684 2.3509886e-38
0.019527102 -0.1049176 0.012617963 2.3509886e-38
0.021415625 -0.1049176 0.012617963 2.3509886e-38
0.023304146 -0.1049176 0.012617963 2.3509886e-38
0.025132975 -0.10398008 0.016623277 2.3509886e-38
0.027014473 -0.10398008 0.016623277 2.3509886e-38
0.028839462 -0.1032616 0.019692797 2.3509886e-38
0.030656312 -0.10257359 0.022632141 2.3509886e-38
0.032527275 -0.10257359 0.022632141 2.3509886e-38
0.034302533 -0.10162716 0.026675481 2.3509886e-38
0.036166407 -0.10162716 0.026675481 2.3509886e-38
0.038030282 -0.10162716 0.026675481 2.3325494e-38
0.039894156 -0.10162716 0.026675481 2.3325494e-38
0.041758027 -0.10162716 0.026675481 2.3509886e-38
0.043524187 -0.10092205 0.0296879 2.3325494e-38
0.045382779 -0.10092205 0.0296879 2.341769e-38
0.047241371 -0.10092205 0.0296879 2.3509883e-38
0.049099963 -0.10092205 0.0296879 2.3509883e-38
0.050958555 -0.10092205 0.0296879 2.3418043e-38
0.052817151 -0.10092205 0.0296879 1.8474719e-40
0.054675743 -0.10092205 0.0296879 3.5873241e-43
0.057297532 -0.1049176 0.012617963 6.3618516e-39
0.059325203 -0.10561861 0.0096230684 1.3737146e-38
0.061218977 -0.10561861 0.0096230684 1.3276171e-38
-0.065157704 -0.11928193 -0.040285211 2.3509886e-38
-0.063176431 -0.11928193 -0.040285211 2.3048907e-38
-0.060952045 -0.11836089 -0.036379557 2.3509886e-38
-0.058977611 -0.11836089 -0.036379557 2.3141103e-38
-0.056826659 -0.11765216 -0.033374291 2.3509886e-38
-0.054630585 -0.11671309 -0.029392105 2.3233299e-38
-0.0526684 -0.11671309 -0.029392105 2.3509886e-38
-0.05070623 -0.11671309 -0.029392105 2.3509886e-38
-0.048744045 -0.11671309 -0.029392105 2.3509886e-38
-0.046781868 -0.11671309 -0.029392105 2.3509886e-38
-0.044623107 -0.11575161 -0.025315028 2.3509886e-38
-0.042668074 -0.11575161 -0.025315028 2.3509886e-38
-0.040581301 -0.11505674 -0.022368412 2.3509886e-38
-0.038631439 -0.11505674 -0.022368412 2.3509886e-38
-0.036515675 -0.11410724 -0.018342119 2.3509886e-38
-0.03445331 -0.11339252 -0.015311343 2.3509886e-38
-0.032515816 -0.11339252 -0.015311343 2.3509886e-38
-0.030578326 -0.11339252 -0.015311343 2.3509886e-38
-0.028640836 -0.11339252 -0.015311343 2.3509886e-38
-0.026703347 -0.11339252 -0.015311343 2.3509886e-38
-0.024643876 -0.11245503 -0.011335951 2.3509886e-38
-0.022713356 -0.11245503 -0.011335951 2.3509886e-38
-0.020782836 -0.11245503 -0.011335951 2.3509886e-38
-0.018953383 -0.11339252 -0.015311343 2.3509886e-38
-0.016921796 -0.11245503 -0.011335951 2.3509886e-38
-0.014991272 -0.11245503 -0.011335951 2.3509886e-38
-0.012981173 -0.11152427 -0.0073891701 2.3509886e-38
-0.011057571 -0.11152427 -0.0073891701 2.3509886e-38
-0.0091339722 -0.11152427 -0.0073891701 2.3509886e-38
-0.0071643218 -0.11079563 -0.0042993845 2.3509886e-38
-0.0052461401 -0.11079563 -0.0042993845 2.3509886e-38
-0.0032822043 -0.10984896 -0.00028501172 2.3509886e-38
-0.0013710596 -0.10984896 -0.00028501172 2.3509886e-38
0.00056322291 -0.10915731 0.0026478944 2.3509886e-38
0.0024692267 -0.10915731 0.0026478944 2.3509886e-38
0.0043885261 -0.1084419 0.0056815324 2.3509886e-38
0.0062892102 -0.1084419 0.0056815324 2.3509886e-38
0.0081933476 -0.1075124 0.0096230684 2.3509886e-38
0.010087121 -0.1075124 0.0096230684 2.3509886e-38
0.011980893 -0.1075124 0.0096230684 2.3509886e-38
0.013874665 -0.1075124 0.0096230684 2.3509886e-38
0.015768439 -0.1075124 0.0096230684 2.3509886e-38
0.01766221 -0.1075124 0.0096230684 2.3509886e-38
0.019527102 -0.10680611 0.012617963 2.3509886e-38
0.021415625 -0.10680611 0.012617963 2.3509886e-38
0.023304146 -0.10680611 0.012617963 2.3509886e-38
0.025132975 -0.10586159 0.016623277 2.3233299e-38
0.027014473 -0.10586159 0.016623277 2.3509886e-38
0.028839462 -0.10513772 0.019692797 2.3509886e-38
0.030656312 -0.10444455 0.022632141 2.3509886e-38
0.032527275 -0.10444455 0.022632141 2.341769e-38
0.034302533 -0.10349102 0.026675481 2.3509886e-38
0.036166407 -0.10349102 0.026675481 2.3509886e-38
0.038030282 -0.10349102 0.026675481 2.3141103e-38
0.039894156 -0.10349102 0.026675481 2.3416974e-38
0.041758027 -0.10349102 0.026675481 2.3509527e-38
0.043524187 -0.10278064 0.0296879 2.3416971e-38
0.045382779 -0.10278064 0.0296879 2.3509167e-38
0.047241371 -0.10278064 0.0296879 2.3509883e-38
0.049099963 -0.10278064 0.0296879 2.350952e-38
0.050958555 -0.10278064 0.0296879 2.3417324e-38
0.05294127 -0.10349102 0.026675481 9.1835496e-41
0.054805145 -0.10349102 0.026675481 9.1835496e-41
0.057297532 -0.10680611 0.012617963 1.9357425e-39
0.059325203 -0.1075124 0.0096230684 1.3183612e-38
0.061409023 -0.1084419 0.0056815324 1.4935329e-38
0.063309707 -0.1084419 0.0056815324 7.0983446e-39
-0.065157704 -0.12126322 -0.040285211 2.3509886e-38
-0.062926479 -0.12033533 -0.036379557 2.3509886e-38
-0.060952045 -0.12033533 -0.036379557 2.3509886e-38
-0.058795832 -0.11962132 -0.033374291 2.3325494e-38
-0.056826659 -0.11962132 -0.033374291 2.3509886e-38
-0.0548575 -0.11962132 -0.033374291 2.341769e-38
-0.0526684 -0.11867525 -0.029392105 2.3509886e-38
-0.05070623 -0.11867525 -0.029392105 2.3509886e-38
-0.048744045 -0.11867525 -0.029392105 2.3509886e-38
-0.046781868 -0.11867525 -0.029392105 2.3509886e-38
-0.044623107 -0.11770664 -0.025315028 2.3509886e-38
-0.042668074 -0.11770664 -0.025315028 2.3509886e-38
-0.040581301 -0.11700659 -0.022368412 2.3509886e-38
-0.038631439 -0.11700659 -0.022368412 2.3509886e-38
-0.036515675 -0.11605005 -0.018342119 2.3509886e-38
-0.03445331 -0.11533 -0.015311343 2.3509886e-38
-0.032515816 -0.11533 -0.015311343 2.3509886e-38
-0.030578326 -0.11533 -0.015311343 2.3509886e-38
-0.028640836 -0.11533 -0.015311343 2.3509886e-38
-0.026703347 -0.11533 -0.015311343 2.3509886e-38
-0.024643876 -0.11438553 -0.011335951 2.3509886e-38
-0.022713356 -0.11438553 -0.011335951 2.3509886e-38
-0.020782836 -0.11438553 -0.011335951 2.3509886e-38
-0.018852316 -0.11438553 -0.011335951 2.3509886e-38
-0.016921796 -0.11438553 -0.011335951 2.3509886e-38
-0.014904775 -0.11344786 -0.0073891701 2.3509886e-38
-0.012981173 -0.11344786 -0.0073891701 2.3509886e-38
-0.011000689 -0.1127138 -0.0042993845 2.3509886e-38
-0.0090825036 -0.1127138 -0.0042993845 2.3509886e-38
-0.0071643218 -0.1127138 -0.0042993845 2.3509886e-38
-0.005193349 -0.11176009 -0.00028501172 2.3509886e-38
-0.0032822043 -0.11176009 -0.00028501172 2.3509886e-38
-0.0013710596 -0.11176009 -0.00028501172 2.3509886e-38
0.00056322291 -0.11106332 0.0026478944 2.3509886e-38
0.002487842 -0.11034258 0.0056815324 2.3509886e-38
0.0043885261 -0.11034258 0.0056815324 2.3509886e-38
0.0062892102 -0.11034258 0.0056815324 2.3509886e-38
0.0081933476 -0.10940616 0.0096230684 2.3509886e-38
0.010087121 -0.10940616 0.0096230684 2.3509886e-38
0.011980893 -0.10940616 0.0096230684 2.3509886e-38
0.013874665 -0.10940616 0.0096230684 2.3509886e-38
0.015768439 -0.10940616 0.0096230684 2.3509886e-38
0.017638581 -0.10869466 0.012617963 2.3509886e-38
0.019527102 -0.10869466 0.012617963 2.3509886e-38
0.021369975 -0.10774307 0.016623277 2.3509886e-38
0.023251474 -0.10774307 0.016623277 2.3509886e-38
0.025087228 -0.10701384 0.019692797 2.3509886e-38
0.026963344 -0.10701384 0.019692797 2.3509886e-38
0.028839462 -0.10701384 0.019692797 2.3509886e-38
0.030656312 -0.10631551 0.022632141 2.3141103e-38
0.032527275 -0.10631551 0.022632141 2.3141103e-38
0.034398235 -0.10631551 0.022632141 2.3509886e-38
0.036166407 -0.10535492 0.026675481 2.3509886e-38
0.038030282 -0.10535492 0.026675481 2.3509886e-38
0.039894156 -0.10535492 0.026675481 2.3509527e-38
0.041758027 -0.10535492 0.026675481 2.3509527e-38
0.043524187 -0.10463922 0.0296879 2.3509527e-38
0.045382779 -0.10463922 0.0296879 2.3509883e-38
0.047241371 -0.10463922 0.0296879 2.3509883e-38
0.049099963 -0.10463922 0.0296879 2.350952e-38
0.051077396 -0.10535492 0.026675481 2.3325129e-38
0.05294127 -0.10535492 0.026675481 9.1835496e-41
0.054805145 -0.10535492 0.026675481 1.8402972e-40
0.057431433 -0.10940616 0.0096230684 9.1835496e-41
0.059508342 -0.11034258 0.0056815324 1.3275808e-38
0.061409023 -0.11034258 0.0056815324 1.6226068e-38
0.063309707 -0.11034258 0.0056815324 8.4812791e-39
-0.067138977 -0.12324448 -0.040285211 2.3509886e-38
-0.065157704 -0.12324448 -0.040285211 2.341769e-38
-0.062926479 -0.12230973 -0.036379557 2.3509886e-38
-0.060764991 -0.12159048 -0.033374291 2.2864516e-38
-0.058795832 -0.12159048 -0.033374291 2.3509886e-38
-0.056826659 -0.12159048 -0.033374291 2.3509883e-38
-0.0548575 -0.12159048 -0.033374291 2.3509883e-38
-0.0526684 -0.12063743 -0.029392105 2.3509886e-38
-0.05070623 -0.12063743 -0.029392105 2.3509886e-38
-0.048744045 -0.12063743 -0.029392105 2.3509886e-38
-0.046578132 -0.11966167 -0.025315028 2.3509886e-38
-0.044623107 -0.11966167 -0.025315028 2.3509886e-38
-0.04253117 -0.11895646 -0.022368412 2.3509886e-38
-0.040581301 -0.11895646 -0.022368412 2.3509886e-38
-0.038458481 -0.11799283 -0.018342119 2.3509886e-38
-0.036390804 -0.11726747 -0.015311343 2.3509886e-38
-0.03445331 -0.11726747 -0.015311343 2.3509886e-38
-0.032515816 -0.11726747 -0.015311343 2.3509886e-38
-0.030435439 -0.11631607 -0.011335951 2.3509886e-38
-0.028504916 -0.11631607 -0.011335951 2.3509886e-38
-0.026574396 -0.11631607 -0.011335951 2.3509886e-38
-0.024643876 -0.11631607 -0.011335951 2.3509886e-38
-0.022599176 -0.11537148 -0.0073891701 2.3509886e-38
-0.020675577 -0.11537148 -0.0073891701 2.3509886e-38
-0.018852316 -0.11631607 -0.011335951 2.3509886e-38
-0.016921796 -0.11631607 -0.011335951 2.3509886e-38
-0.014904775 -0.11537148 -0.0073891701 2.3509886e-38
-0.012981173 -0.11537148 -0.0073891701 2.3509886e-38
-0.011000689 -0.114632 -0.0042993845 2.3509886e-38
-0.0090825036 -0.114632 -0.0042993845 2.3509886e-38
-0.0071044937 -0.11367123 -0.00028501172 2.3509886e-38
-0.005193349 -0.11367123 -0.00028501172 2.3509886e-38
-0.0032822043 -0.11367123 -0.00028501172 2.3509886e-38
-0.0013427772 -0.11296929 0.0026478944 2.3509886e-38
0.00056322291 -0.11296929 0.0026478944 2.3509886e-38
0.002487842 -0.11224325 0.0056815324 2.3509886e-38
0.0043885261 -0.11224325 0.0056815324 2.3509886e-38
0.0062892102 -0.11224325 0.0056815324 2.3509886e-38
0.0081933476 -0.11129995 0.0096230684 2.3509886e-38
0.010087121 -0.11129995 0.0096230684 2.3509886e-38
0.011980893 -0.11129995 0.0096230684 2.3509886e-38
0.013861537 -0.11058317 0.012617963 2.3509886e-38
0.01575006 -0.11058317 0.012617963 2.3509886e-38
0.017638581 -0.11058317 0.012617963 2.3509886e-38
0.019488476 -0.10962458 0.016623277 2.3509886e-38
0.021334995 -0.10888995 0.019692797 2.3509886e-38
0.02321111 -0.10888995 0.019692797 2.3509886e-38
0.025043422 -0.10818647 0.022632141 2.3509886e-38
0.026914384 -0.10818647 0.022632141 2.3509886e-38
0.028785348 -0.10818647 0.022632141 2.3509886e-38
0.030656312 -0.10818647 0.022632141 2.3509886e-38
0.032527275 -0.10818647 0.022632141 2.3509886e-38
0.034398235 -0.10818647 0.022632141 2.3509886e-38
0.036269203 -0.10818647 0.022632141 2.3509886e-38
0.038030282 -0.10721879 0.026675481 2.3509886e-38
0.039894156 -0.10721879 0.026675481 2.3232583e-38
