# .PCD v0.7 - Point Cloud Data file format
VERSION 0.7
FIELDS x y z rgb
SIZE 4 4 4 4
TYPE F F F F
COUNT 1 1 1 1
WIDTH 936
HEIGHT 1
VIEWPOINT 0 0 0 1 0 0 0
POINTS 936
DATA ascii
-0.013789404 -0.11624874 -0.0067911409 2.3509886e-38
-0.011900883 -0.11624874 -0.0067911409 2.3509886e-38
-0.0099877827 -0.11526908 -0.002785828 2.3509886e-38
-0.0081062838 -0.11526908 -0.002785828 2.3509886e-38
-0.006224785 -0.11526908 -0.002785828 2.3509886e-38
-0.0043405946 -0.1145183 0.00028369203 2.3509886e-38
-0.0024670549 -0.11379938 0.0032230355 2.3509886e-38
-0.00059609115 -0.11379938 0.0032230355 2.3509886e-38
0.0012748707 -0.11379938 0.0032230355 2.3509886e-38
0.0031458344 -0.11379938 0.0032230355 2.3509886e-38
0.0050167982 -0.11379938 0.0032230355 2.3509886e-38
0.0068487693 -0.11281042 0.0072663762 2.3509886e-38
0.0087126438 -0.11281042 0.0072663762 2.3509886e-38
0.010536904 -0.11207359 0.010278795 2.3509886e-38
0.012395496 -0.11207359 0.010278795 2.3509886e-38
0.014254088 -0.11207359 0.010278795 2.3509886e-38
0.016057536 -0.11134095 0.013274167 2.3509886e-38
0.017910875 -0.11134095 0.013274167 2.3509886e-38
0.019698938 -0.11061247 0.016252611 2.3509886e-38
0.021547057 -0.11061247 0.016252611 2.3509886e-38
0.023395175 -0.11061247 0.016252611 2.3509886e-38
0.025243293 -0.11061247 0.016252611 2.3509886e-38
0.026974112 -0.10962076 0.020307157 2.3509886e-38
0.028815122 -0.10962076 0.020307157 2.3509886e-38
0.030656131 -0.10962076 0.020307157 2.3509886e-38
0.032396652 -0.10890187 0.023246262 2.3509886e-38
0.034232505 -0.10890187 0.023246262 2.3509886e-38
0.035954125 -0.10816063 0.026276801 2.3509886e-38
0.037784666 -0.10816063 0.026276801 2.3509886e-38
0.039615206 -0.10816063 0.026276801 2.3509886e-38
0.041445747 -0.10816063 0.026276801 2.3509886e-38
0.043141574 -0.10742365 0.029289935 2.3233299e-38
0.044966832 -0.10742365 0.029289935 2.3509886e-38
0.046647646 -0.10669093 0.032285664 2.3325494e-38
0.048467658 -0.10669093 0.032285664 2.3509886e-38
0.050287664 -0.10669093 0.032285664 2.3325494e-38
0.052107669 -0.10669093 0.032285664 2.3325494e-38
0.05409313 -0.10742365 0.029289935 3.4105194e-39
0.056090087 -0.10816063 0.026276801 3.6734198e-40
0.058098637 -0.10890187 0.023246262 6.4284847e-40
0.060112275 -0.10962076 0.020307157 7.3468397e-40
0.061953284 -0.10962076 0.020307157 1.2719757e-38
-0.074314915 -0.12576406 -0.037751224 9.3128292e-39
-0.072372101 -0.12576406 -0.037751224 7.5611122e-39
-0.070245974 -0.12501745 -0.034720447 1.1895029e-38
-0.06830848 -0.12501745 -0.034720447 2.0929121e-38
-0.066370986 -0.12501745 -0.034720447 2.2865232e-38
-0.064213939 -0.12403814 -0.030745056 2.3509886e-38
-0.062283412 -0.12403814 -0.030745056 2.3509886e-38
-0.060352892 -0.12403814 -0.030745056 2.3509886e-38
-0.058422372 -0.12403814 -0.030745056 2.3509886e-38
-0.056301549 -0.12306587 -0.026798274 2.3509886e-38
-0.054377951 -0.12306587 -0.026798274 2.3509886e-38
-0.052454345 -0.12306587 -0.026798274 2.3509886e-38
-0.050530754 -0.12306587 -0.026798274 2.3509886e-38
-0.048607148 -0.12306587 -0.026798274 2.3509886e-38
-0.046561651 -0.12230472 -0.023708489 2.3509886e-38
-0.044643477 -0.12230472 -0.023708489 2.3509886e-38
-0.042580999 -0.12131582 -0.019694116 2.3509886e-38
-0.040669858 -0.12131582 -0.019694116 2.3509886e-38
-0.03875871 -0.12131582 -0.019694116 2.3509886e-38
-0.036664493 -0.119846 -0.013727572 2.3509886e-38
-0.034763813 -0.119846 -0.013727572 2.3509886e-38
-0.032863125 -0.119846 -0.013727572 2.3509886e-38
-0.030962447 -0.119846 -0.013727572 2.3509886e-38
-0.028968463 -0.11887501 -0.0097860359 2.3509886e-38
-0.027074693 -0.11887501 -0.0097860359 2.3509886e-38
-0.025180919 -0.11887501 -0.0097860359 2.3509886e-38
-0.023287149 -0.11887501 -0.0097860359 2.3509886e-38
-0.021393375 -0.11887501 -0.0097860359 2.3509886e-38
-0.019454969 -0.11813726 -0.0067911409 2.3509886e-38
-0.017566448 -0.11813726 -0.0067911409 2.3509886e-38
-0.015677927 -0.11813726 -0.0067911409 2.3509886e-38
-0.013789404 -0.11813726 -0.0067911409 2.3509886e-38
-0.011900883 -0.11813726 -0.0067911409 2.3509886e-38
-0.0099877827 -0.11715056 -0.002785828 2.3509886e-38
-0.0081062838 -0.11715056 -0.002785828 2.3509886e-38
-0.006224785 -0.11715056 -0.002785828 2.3509886e-38
-0.0043405946 -0.11639442 0.00028369203 2.3509886e-38
-0.0024670549 -0.11567034 0.0032230355 2.3509886e-38
-0.00059609115 -0.11567034 0.0032230355 2.3509886e-38
0.0012748707 -0.11567034 0.0032230355 2.3509886e-38
0.0031458344 -0.11567034 0.0032230355 2.3509886e-38
0.0050167982 -0.11567034 0.0032230355 2.3509886e-38
0.0068487693 -0.11467429 0.0072663762 2.3509886e-38
0.0087126438 -0.11467429 0.0072663762 2.3509886e-38
0.010536904 -0.11393218 0.010278795 2.3509886e-38
0.012395496 -0.11393218 0.010278795 2.3509886e-38
0.014254088 -0.11393218 0.010278795 2.3509886e-38
0.01611268 -0.11393218 0.010278795 2.3509886e-38
0.017910875 -0.1131943 0.013274167 2.3509886e-38
0.019698938 -0.11246057 0.016252611 2.3509886e-38
0.021547057 -0.11246057 0.016252611 2.3509886e-38
0.023395175 -0.11246057 0.016252611 2.3509886e-38
0.025243293 -0.11246057 0.016252611 2.3509886e-38
0.026974112 -0.11146177 0.020307157 2.3509886e-38
0.028815122 -0.11146177 0.020307157 2.3509886e-38
0.030656131 -0.11146177 0.020307157 2.3509886e-38
0.032396652 -0.11073773 0.023246262 2.3509886e-38
0.034232505 -0.11073773 0.023246262 2.3509886e-38
0.035954125 -0.10999118 0.026276801 2.3509886e-38
0.037784666 -0.10999118 0.026276801 2.3509886e-38
0.039615206 -0.10999118 0.026276801 2.3509886e-38
0.041316316 -0.10924892 0.029289935 2.3509886e-38
0.043141574 -0.10924892 0.029289935 2.341769e-38
0.044966832 -0.10924892 0.029289935 2.341769e-38
0.046647646 -0.10851096 0.032285664 2.3233299e-38
0.048467658 -0.10851096 0.032285664 2.3509886e-38
0.050287664 -0.10851096 0.032285664 2.3509886e-38
0.052267872 -0.10924892 0.029289935 2.3509886e-38
0.05409313 -0.10924892 0.029289935 2.3041719e-39
0.056090087 -0.10999118 0.026276801 2.7550649e-40
0.058098637 -0.11073773 0.023246262 7.3576017e-40
0.060112275 -0.11146177 0.020307157 5.5101298e-40
0.061953284 -0.11146177 0.020307157 1.2904504e-38
0.064053766 -0.11246057 0.016252611 1.4194524e-38
0.06590189 -0.11246057 0.016252611 5.9891132e-39
0.067750007 -0.11246057 0.016252611 6.1735045e-39
-0.074120946 -0.12695493 -0.034720447 1.005147e-38
-0.072183453 -0.12695493 -0.034720447 9.3139054e-39
-0.070245974 -0.12695493 -0.034720447 1.5582852e-38
-0.06830848 -0.12695493 -0.034720447 2.3234374e-38
-0.066370986 -0.12695493 -0.034720447 2.3142537e-38
-0.064433493 -0.12695493 -0.034720447 2.3418047e-38
-0.062283412 -0.12596865 -0.030745056 2.3509886e-38
-0.060352892 -0.12596865 -0.030745056 2.3509886e-38
-0.058422372 -0.12596865 -0.030745056 2.3509886e-38
-0.056491852 -0.12596865 -0.030745056 2.3509886e-38
-0.054377951 -0.12498946 -0.026798274 2.3509886e-38
-0.052454345 -0.12498946 -0.026798274 2.3509886e-38
-0.050530754 -0.12498946 -0.026798274 2.3509886e-38
-0.048607148 -0.12498946 -0.026798274 2.3509886e-38
-0.046561651 -0.12422292 -0.023708489 2.3509886e-38
-0.044643477 -0.12422292 -0.023708489 2.3509886e-38
-0.042580999 -0.12322696 -0.019694116 2.3509886e-38
-0.040569581 -0.1224993 -0.01676121 2.3509886e-38
-0.038663581 -0.1224993 -0.01676121 2.3509886e-38
-0.036664493 -0.12174667 -0.013727572 2.3509886e-38
-0.034649782 -0.1207688 -0.0097860359 2.3509886e-38
-0.032756008 -0.1207688 -0.0097860359 2.3509886e-38
-0.030962447 -0.12174667 -0.013727572 2.3509886e-38
-0.028968463 -0.1207688 -0.0097860359 2.3509886e-38
-0.027074693 -0.1207688 -0.0097860359 2.3509886e-38
-0.025180919 -0.1207688 -0.0097860359 2.3509886e-38
-0.023287149 -0.1207688 -0.0097860359 2.3509886e-38
-0.02134349 -0.12002577 -0.0067911409 2.3509886e-38
-0.019454969 -0.12002577 -0.0067911409 2.3509886e-38
-0.017566448 -0.12002577 -0.0067911409 2.3509886e-38
-0.015677927 -0.12002577 -0.0067911409 2.3509886e-38
-0.013789404 -0.12002577 -0.0067911409 2.3509886e-38
-0.011900883 -0.12002577 -0.0067911409 2.3509886e-38
-0.0099877827 -0.11903207 -0.002785828 2.3509886e-38
-0.0081062838 -0.11903207 -0.002785828 2.3509886e-38
-0.006224785 -0.11903207 -0.002785828 2.3509886e-38
-0.0043405946 -0.11827053 0.00028369203 2.3509886e-38
-0.0024670549 -0.1175413 0.0032230355 2.3509886e-38
-0.00059609115 -0.1175413 0.0032230355 2.3509886e-38
0.0012748707 -0.1175413 0.0032230355 2.3509886e-38
0.0031210221 -0.11653815 0.0072663762 2.3509886e-38
0.0049848957 -0.11653815 0.0072663762 2.3509886e-38
0.0068487693 -0.11653815 0.0072663762 2.3509886e-38
0.0087126438 -0.11653815 0.0072663762 2.3509886e-38
0.010576517 -0.11653815 0.0072663762 2.3509886e-38
0.012440391 -0.11653815 0.0072663762 2.3509886e-38
0.014254088 -0.11579077 0.010278795 2.3509886e-38
0.01611268 -0.11579077 0.010278795 2.3509886e-38
0.017910875 -0.11504765 0.013274167 2.3509886e-38
0.019698938 -0.1143087 0.016252611 2.3509886e-38
0.021547057 -0.1143087 0.016252611 2.3509886e-38
0.023395175 -0.1143087 0.016252611 2.3509886e-38
0.025243293 -0.1143087 0.016252611 2.3509886e-38
0.026974112 -0.11330278 0.020307157 2.3509886e-38
0.028815122 -0.11330278 0.020307157 2.3509886e-38
0.030656131 -0.11330278 0.020307157 2.3509886e-38
0.032497138 -0.11330278 0.020307157 2.3509886e-38
0.034232505 -0.11257361 0.023246262 2.3509886e-38
0.036068365 -0.11257361 0.023246262 2.3509886e-38
0.037784666 -0.11182173 0.026276801 2.3509886e-38
0.039615206 -0.11182173 0.026276801 2.3509886e-38
0.041316316 -0.11107419 0.029289935 2.3509886e-38
0.043141574 -0.11107419 0.029289935 2.3509886e-38
0.04482764 -0.11033095 0.032285664 2.3325494e-38
0.046647646 -0.11033095 0.032285664 2.3325494e-38
0.048467658 -0.11033095 0.032285664 2.3509886e-38
0.050287664 -0.11033095 0.032285664 2.3509886e-38
0.052267872 -0.11107419 0.029289935 2.3509886e-38
0.05409313 -0.11107419 0.029289935 1.2903759e-39
0.056090087 -0.11182173 0.026276801 2.7550649e-40
0.058098637 -0.11257361 0.023246262 6.4356594e-40
0.060112275 -0.11330278 0.020307157 9.1907243e-40
0.061953284 -0.11330278 0.020307157 1.3642069e-38
0.064053766 -0.1143087 0.016252611 1.364135e-38
0.06590189 -0.1143087 0.016252611 5.8969176e-39
0.067750007 -0.1143087 0.016252611 5.6203307e-39
-0.072183453 -0.12889244 -0.034720447 8.7607316e-39
-0.070245974 -0.12889244 -0.034720447 1.7520035e-38
-0.06830848 -0.12889244 -0.034720447 2.3142537e-38
-0.066370986 -0.12889244 -0.034720447 2.2681917e-38
-0.064433493 -0.12889244 -0.034720447 2.3418047e-38
-0.062283412 -0.12789918 -0.030745056 2.3509886e-38
-0.060352892 -0.12789918 -0.030745056 2.3509886e-38
-0.058422372 -0.12789918 -0.030745056 2.3509886e-38
-0.056491852 -0.12789918 -0.030745056 2.3509886e-38
-0.054377951 -0.12691309 -0.026798274 2.3509886e-38
-0.052454345 -0.12691309 -0.026798274 2.3509886e-38
-0.050530754 -0.12691309 -0.026798274 2.3509886e-38
-0.048607148 -0.12691309 -0.026798274 2.3509886e-38
-0.046561651 -0.12614109 -0.023708489 2.3509886e-38
-0.044492148 -0.12513812 -0.019694116 2.3509886e-38
-0.042475581 -0.12440531 -0.01676121 2.3509886e-38
-0.040569581 -0.12440531 -0.01676121 2.3509886e-38
-0.038663581 -0.12440531 -0.01676121 2.3509886e-38
-0.036664493 -0.12364738 -0.013727572 2.3509886e-38
-0.034649782 -0.12266256 -0.0097860359 2.3509886e-38
-0.032756008 -0.12266256 -0.0097860359 2.3509886e-38
-0.030962447 -0.12364738 -0.013727572 2.3509886e-38
-0.028968463 -0.12266256 -0.0097860359 2.3509886e-38
-0.027074693 -0.12266256 -0.0097860359 2.3509886e-38
-0.025180919 -0.12266256 -0.0097860359 2.3509886e-38
-0.023287149 -0.12266256 -0.0097860359 2.3509886e-38
-0.02134349 -0.12191428 -0.0067911409 2.3509886e-38
-0.019454969 -0.12191428 -0.0067911409 2.3509886e-38
-0.017566448 -0.12191428 -0.0067911409 2.3509886e-38
-0.015677927 -0.12191428 -0.0067911409 2.3509886e-38
-0.013789404 -0.12191428 -0.0067911409 2.3509886e-38
-0.011869282 -0.12091358 -0.002785828 2.3509886e-38
-0.0099877827 -0.12091358 -0.002785828 2.3509886e-38
-0.00809283 -0.12014665 0.00028369203 2.3509886e-38
-0.0062167123 -0.12014665 0.00028369203 2.3509886e-38
-0.0043380186 -0.11941226 0.0032230355 2.3509886e-38
-0.0024670549 -0.11941226 0.0032230355 2.3509886e-38
-0.00059609115 -0.11941226 0.0032230355 2.3509886e-38
0.0012748707 -0.11941226 0.0032230355 2.3509886e-38
0.0031210221 -0.11840202 0.0072663762 2.3509886e-38
0.0049848957 -0.11840202 0.0072663762 2.3509886e-38
0.0068487693 -0.11840202 0.0072663762 2.3509886e-38
0.0087126438 -0.11840202 0.0072663762 2.3509886e-38
0.010576517 -0.11840202 0.0072663762 2.3509886e-38
0.012440391 -0.11840202 0.0072663762 2.3509886e-38
0.014254088 -0.11764936 0.010278795 2.3509886e-38
0.01611268 -0.11764936 0.010278795 2.3509886e-38
0.017910875 -0.11690097 0.013274167 2.3509886e-38
0.019698938 -0.1161568 0.016252611 2.3509886e-38
0.021547057 -0.1161568 0.016252611 2.3509886e-38
0.023395175 -0.1161568 0.016252611 2.3509886e-38
0.025133103 -0.11514379 0.020307157 2.3509886e-38
0.026974112 -0.11514379 0.020307157 2.3509886e-38
0.028815122 -0.11514379 0.020307157 2.3509886e-38
0.030656131 -0.11514379 0.020307157 2.3509886e-38
0.032497138 -0.11514379 0.020307157 2.3509886e-38
0.034232505 -0.11440946 0.023246262 2.3509886e-38
0.035954125 -0.11365227 0.026276801 2.3509886e-38
0.037784666 -0.11365227 0.026276801 2.3509886e-38
0.039491057 -0.11289944 0.029289935 2.3509886e-38
0.041316316 -0.11289944 0.029289935 2.3509886e-38
0.043141574 -0.11289944 0.029289935 2.3509886e-38
0.04482764 -0.11215095 0.032285664 2.3325494e-38
0.046647646 -0.11215095 0.032285664 2.3509886e-38
0.048467658 -0.11215095 0.032285664 2.3509886e-38
0.050287664 -0.11215095 0.032285664 2.341769e-38
0.052267872 -0.11289944 0.029289935 2.3509886e-38
0.05409313 -0.11289944 0.029289935 2.7622395e-40
0.056262776 -0.11440946 0.023246262 3.6734198e-40
0.058271267 -0.11514379 0.020307157 3.6734198e-40
0.060112275 -0.11514379 0.020307157 1.1956579e-39
0.061953284 -0.11514379 0.020307157 1.3734264e-38
0.063794293 -0.11514379 0.020307157 1.299598e-38
0.065635301 -0.11514379 0.020307157 6.8188725e-39
0.06747631 -0.11514379 0.020307157 6.3578943e-39
0.069317318 -0.11514379 0.020307157 7.0954594e-39
-0.070245974 -0.13082992 -0.034720447 1.8718579e-38
-0.06830848 -0.13082992 -0.034720447 2.277483e-38
-0.066370986 -0.13082992 -0.034720447 2.3234374e-38
-0.064433493 -0.13082992 -0.034720447 2.3418047e-38
-0.062283412 -0.12982969 -0.030745056 2.3509886e-38
-0.060352892 -0.12982969 -0.030745056 2.3509886e-38
-0.058422372 -0.12982969 -0.030745056 2.3509886e-38
-0.056491852 -0.12982969 -0.030745056 2.3509886e-38
-0.054377951 -0.12883668 -0.026798274 2.3509886e-38
-0.052454345 -0.12883668 -0.026798274 2.3509886e-38
-0.050398022 -0.12805928 -0.023708489 2.3509886e-38
-0.04847984 -0.12805928 -0.023708489 2.3509886e-38
-0.046403289 -0.12704925 -0.019694116 2.3509886e-38
-0.044492148 -0.12704925 -0.019694116 2.3509886e-38
-0.042475581 -0.12631132 -0.01676121 2.3509886e-38
-0.040569581 -0.12631132 -0.01676121 2.3509886e-38
-0.038565174 -0.12554805 -0.013727572 2.3509886e-38
-0.036664493 -0.12554805 -0.013727572 2.3509886e-38
-0.034763813 -0.12554805 -0.013727572 2.3509886e-38
-0.032863125 -0.12554805 -0.013727572 2.3509886e-38
-0.030962447 -0.12554805 -0.013727572 2.3509886e-38
-0.028968463 -0.12455635 -0.0097860359 2.3509886e-38
-0.027074693 -0.12455635 -0.0097860359 2.3509886e-38
-0.025180919 -0.12455635 -0.0097860359 2.3509886e-38
-0.023287149 -0.12455635 -0.0097860359 2.3509886e-38
-0.02134349 -0.12380283 -0.0067911409 2.3509886e-38
-0.019454969 -0.12380283 -0.0067911409 2.3509886e-38
-0.017566448 -0.12380283 -0.0067911409 2.3509886e-38
-0.015677927 -0.12380283 -0.0067911409 2.3509886e-38
-0.013789404 -0.12380283 -0.0067911409 2.3509886e-38
-0.011869282 -0.12279506 -0.002785828 2.3509886e-38
-0.0099877827 -0.12279506 -0.002785828 2.3509886e-38
-0.00809283 -0.12202276 0.00028369203 2.3509886e-38
-0.0062089823 -0.12128322 0.0032230355 2.3509886e-38
-0.0043380186 -0.12128322 0.0032230355 2.3509886e-38
-0.0024670549 -0.12128322 0.0032230355 2.3509886e-38
-0.00060672499 -0.12026589 0.0072663762 2.3509886e-38
0.0012571476 -0.12026589 0.0072663762 2.3509886e-38
0.0031210221 -0.12026589 0.0072663762 2.3509886e-38
0.0049848957 -0.12026589 0.0072663762 2.3509886e-38
0.0068487693 -0.12026589 0.0072663762 2.3509886e-38
0.0087126438 -0.12026589 0.0072663762 2.3509886e-38
0.010576517 -0.12026589 0.0072663762 2.3509886e-38
0.012440391 -0.12026589 0.0072663762 2.3509886e-38
0.014254088 -0.11950795 0.010278795 2.3509886e-38
0.016057536 -0.11875431 0.013274167 2.3509886e-38
0.01785082 -0.11800493 0.016252611 2.3509886e-38
0.019698938 -0.11800493 0.016252611 2.3509886e-38
0.021547057 -0.11800493 0.016252611 2.3509886e-38
0.023395175 -0.11800493 0.016252611 2.3509886e-38
0.025133103 -0.1169848 0.020307157 2.3509886e-38
0.026974112 -0.1169848 0.020307157 2.3509886e-38
0.028815122 -0.1169848 0.020307157 2.3509886e-38
0.030656131 -0.1169848 0.020307157 2.3509886e-38
0.032497138 -0.1169848 0.020307157 2.3509886e-38
0.034232505 -0.11624531 0.023246262 2.3509886e-38
0.035954125 -0.11548282 0.026276801 2.3509886e-38
0.037784666 -0.11548282 0.026276801 2.3509886e-38
0.039491057 -0.11472471 0.029289935 2.3509886e-38
0.041316316 -0.11472471 0.029289935 2.3233299e-38
0.043141574 -0.11472471 0.029289935 2.3509886e-38
0.04482764 -0.11397095 0.032285664 2.341769e-38
0.046647646 -0.11397095 0.032285664 2.3509886e-38
0.048467658 -0.11397095 0.032285664 2.3509886e-38
0.050287664 -0.11397095 0.032285664 2.3325494e-38
0.052267872 -0.11472471 0.029289935 2.3509886e-38
0.054259546 -0.11548282 0.026276801 9.1835496e-41
0.056262776 -0.11624531 0.023246262 8.2831873e-40
0.058271267 -0.1169848 0.020307157 3.6734198e-40
0.060112275 -0.1169848 0.020307157 8.279544e-40
0.061953284 -0.1169848 0.020307157 1.3088894e-38
0.063794293 -0.1169848 0.020307157 1.2259489e-38
0.065635301 -0.1169848 0.020307157 7.7411819e-39
0.067277908 -0.11624531 0.023246262 7.6489863e-39
0.068487726 -0.11397095 0.032285664 8.2950745e-39
0.070307732 -0.11397095 0.032285664 7.4653167e-39
-0.068486489 -0.13353528 -0.037751224 2.2591519e-38
-0.066370986 -0.13276742 -0.034720447 2.3142538e-38
-0.064433493 -0.13276742 -0.034720447 2.3418047e-38
-0.062283412 -0.13176022 -0.030745056 2.3509886e-38
-0.060352892 -0.13176022 -0.030745056 2.3509886e-38
-0.058422372 -0.13176022 -0.030745056 2.3509886e-38
-0.056301549 -0.13076027 -0.026798274 2.3509886e-38
-0.054377951 -0.13076027 -0.026798274 2.3509886e-38
-0.052454345 -0.13076027 -0.026798274 2.3509886e-38
-0.050398022 -0.12997745 -0.023708489 2.3509886e-38
-0.04847984 -0.12997745 -0.023708489 2.3509886e-38
-0.046403289 -0.12896039 -0.019694116 2.3509886e-38
-0.044492148 -0.12896039 -0.019694116 2.3509886e-38
-0.042475581 -0.12821732 -0.01676121 2.3509886e-38
-0.040569581 -0.12821732 -0.01676121 2.3509886e-38
-0.038565174 -0.12744872 -0.013727572 2.3509886e-38
-0.036664493 -0.12744872 -0.013727572 2.3509886e-38
-0.034763813 -0.12744872 -0.013727572 2.3509886e-38
-0.032863125 -0.12744872 -0.013727572 2.3509886e-38
-0.030962447 -0.12744872 -0.013727572 2.3509886e-38
-0.028968463 -0.12645011 -0.0097860359 2.3509886e-38
-0.027074693 -0.12645011 -0.0097860359 2.3509886e-38
-0.025180919 -0.12645011 -0.0097860359 2.3509886e-38
-0.023287149 -0.12645011 -0.0097860359 2.3509886e-38
-0.02134349 -0.12569134 -0.0067911409 2.3509886e-38
-0.019454969 -0.12569134 -0.0067911409 2.3509886e-38
-0.017566448 -0.12569134 -0.0067911409 2.3509886e-38
-0.015632277 -0.12467657 -0.002785828 2.3509886e-38
-0.013750779 -0.12467657 -0.002785828 2.3509886e-38
-0.011869282 -0.12467657 -0.002785828 2.3509886e-38
-0.0099689458 -0.12389888 0.00028369203 2.3509886e-38
-0.0080799442 -0.12315418 0.0032230355 2.3509886e-38
-0.0062089823 -0.12315418 0.0032230355 2.3509886e-38
-0.0043380186 -0.12315418 0.0032230355 2.3509886e-38
-0.0024670549 -0.12315418 0.0032230355 2.3509886e-38
-0.00060672499 -0.12212978 0.0072663762 2.3509886e-38
0.0012571476 -0.12212978 0.0072663762 2.3509886e-38
0.0031210221 -0.12212978 0.0072663762 2.3509886e-38
0.0049848957 -0.12212978 0.0072663762 2.3509886e-38
0.0068487693 -0.12212978 0.0072663762 2.3509886e-38
0.0087126438 -0.12212978 0.0072663762 2.3509886e-38
0.010576517 -0.12212978 0.0072663762 2.3509886e-38
0.012440391 -0.12212978 0.0072663762 2.3509886e-38
0.014254088 -0.12136655 0.010278795 2.3509886e-38
0.016057536 -0.12060766 0.013274167 2.3509886e-38
0.01785082 -0.11985306 0.016252611 2.3509886e-38
0.019698938 -0.11985306 0.016252611 2.3509886e-38
0.021547057 -0.11985306 0.016252611 2.3509886e-38
0.023395175 -0.11985306 0.016252611 2.3509886e-38
0.025133103 -0.11882581 0.020307157 2.3509886e-38
0.026974112 -0.11882581 0.020307157 2.3509886e-38
0.028815122 -0.11882581 0.020307157 2.3509886e-38
0.030656131 -0.11882581 0.020307157 2.3509886e-38
0.032497138 -0.11882581 0.020307157 2.3509886e-38
0.034232505 -0.11808117 0.023246262 2.3509886e-38
0.035954125 -0.11731337 0.026276801 2.3509886e-38
0.037784666 -0.11731337 0.026276801 2.3509886e-38
0.039491057 -0.11654995 0.029289935 2.3509886e-38
0.041316316 -0.11654995 0.029289935 2.3509886e-38
0.043141574 -0.11654995 0.029289935 2.341769e-38
0.04482764 -0.11579098 0.032285664 2.3509886e-38
0.046647646 -0.11579098 0.032285664 2.3509886e-38
0.048467658 -0.11579098 0.032285664 2.341769e-38
0.050287664 -0.11579098 0.032285664 2.3509886e-38
0.052267872 -0.11654995 0.029289935 2.3509886e-38
0.054259546 -0.11731337 0.026276801 9.1835496e-41
0.056262776 -0.11808117 0.023246262 6.4357435e-40
0.058271267 -0.11882581 0.020307157 4.5953902e-40
0.060112275 -0.11882581 0.020307157 8.2831593e-40
0.061953284 -0.11882581 0.020307157 1.0692884e-38
0.063794293 -0.11882581 0.020307157 1.253715e-38
0.065635301 -0.11882581 0.020307157 8.2032306e-39
0.067277908 -0.11808117 0.023246262 7.1890759e-39
0.068487726 -0.11579098 0.032285664 7.4656656e-39
0.070307732 -0.11579098 0.032285664 6.820299e-39
0.072127745 -0.11579098 0.032285664 6.8210235e-39
0.07394775 -0.11579098 0.032285664 7.3745602e-39
-0.06830848 -0.1347049 -0.034720447 2.2958864e-38
-0.066370986 -0.1347049 -0.034720447 2.3142541e-38
-0.064213939 -0.13369073 -0.030745056 2.341805e-38
-0.062283412 -0.13369073 -0.030745056 2.3509886e-38
-0.060148753 -0.13268389 -0.026798274 2.3509886e-38
-0.058225147 -0.13268389 -0.026798274 2.3509886e-38
-0.056152575 -0.13189565 -0.023708489 2.3509886e-38
-0.054234393 -0.13189565 -0.023708489 2.3509886e-38
-0.052316204 -0.13189565 -0.023708489 2.3509886e-38
-0.050398022 -0.13189565 -0.023708489 2.3509886e-38
-0.04831443 -0.13087155 -0.019694116 2.3509886e-38
-0.046403289 -0.13087155 -0.019694116 2.3509886e-38
-0.044492148 -0.13087155 -0.019694116 2.3509886e-38
-0.042475581 -0.13012333 -0.01676121 2.3509886e-38
-0.040569581 -0.13012333 -0.01676121 2.3509886e-38
-0.038565174 -0.12934943 -0.013727572 2.3509886e-38
-0.036543556 -0.1283439 -0.0097860359 2.3509886e-38
-0.034649782 -0.1283439 -0.0097860359 2.3509886e-38
-0.032756008 -0.1283439 -0.0097860359 2.3509886e-38
-0.030962447 -0.12934943 -0.013727572 2.3509886e-38
-0.028968463 -0.1283439 -0.0097860359 2.3509886e-38
-0.027074693 -0.1283439 -0.0097860359 2.3509886e-38
-0.025180919 -0.1283439 -0.0097860359 2.3509886e-38
-0.023287149 -0.1283439 -0.0097860359 2.3509886e-38
-0.02134349 -0.12757985 -0.0067911409 2.3509886e-38
-0.019454969 -0.12757985 -0.0067911409 2.3509886e-38
-0.017566448 -0.12757985 -0.0067911409 2.3509886e-38
-0.015632277 -0.12655805 -0.002785828 2.3509886e-38
-0.013750779 -0.12655805 -0.002785828 2.3509886e-38
-0.011869282 -0.12655805 -0.002785828 2.3509886e-38
-0.0099689458 -0.12577499 0.00028369203 2.3509886e-38
-0.0080799442 -0.12502514 0.0032230355 2.3509886e-38
-0.0062089823 -0.12502514 0.0032230355 2.3509886e-38
-0.0043380186 -0.12502514 0.0032230355 2.3509886e-38
-0.0024670549 -0.12502514 0.0032230355 2.3509886e-38
-0.00060672499 -0.12399365 0.0072663762 2.3509886e-38
0.0012571476 -0.12399365 0.0072663762 2.3509886e-38
0.0031210221 -0.12399365 0.0072663762 2.3509886e-38
0.0049848957 -0.12399365 0.0072663762 2.3509886e-38
0.0068487693 -0.12399365 0.0072663762 2.3509886e-38
0.0087126438 -0.12399365 0.0072663762 2.3509886e-38
0.010576517 -0.12399365 0.0072663762 2.3509886e-38
0.012440391 -0.12399365 0.0072663762 2.3509886e-38
0.014254088 -0.12322514 0.010278795 2.3509886e-38
0.01611268 -0.12322514 0.010278795 2.3509886e-38
0.01785082 -0.12170117 0.016252611 2.3509886e-38
0.019698938 -0.12170117 0.016252611 2.3509886e-38
0.021451086 -0.12066682 0.020307157 2.3509886e-38
0.023292094 -0.12066682 0.020307157 2.3509886e-38
0.025133103 -0.12066682 0.020307157 2.3509886e-38
0.026974112 -0.12066682 0.020307157 2.3509886e-38
0.028815122 -0.12066682 0.020307157 2.3509886e-38
0.030656131 -0.12066682 0.020307157 2.3509886e-38
0.032497138 -0.12066682 0.020307157 2.3509886e-38
0.034232505 -0.11991702 0.023246262 2.3509886e-38
0.036068365 -0.11991702 0.023246262 2.3509886e-38
0.037784666 -0.11914389 0.026276801 2.3509886e-38
0.039491057 -0.11837523 0.029289935 2.3509886e-38
0.041316316 -0.11837523 0.029289935 2.3509886e-38
0.043141574 -0.11837523 0.029289935 2.341769e-38
0.04482764 -0.11761098 0.032285664 2.3509886e-38
0.046647646 -0.11761098 0.032285664 2.3509886e-38
0.048467658 -0.11761098 0.032285664 2.341769e-38
0.050287664 -0.11761098 0.032285664 2.3509886e-38
0.052267872 -0.11837523 0.029289935 2.3509886e-38
0.054259546 -0.11914389 0.026276801 2.8025969e-45
0.056430258 -0.12066682 0.020307157 9.1841101e-41
0.058271267 -0.12066682 0.020307157 2.7550929e-40
0.060112275 -0.12066682 0.020307157 2.7550649e-40
0.061953284 -0.12066682 0.020307157 8.0199268e-39
0.063794293 -0.12066682 0.020307157 1.207617e-38
0.065442055 -0.11991702 0.023246262 8.7574806e-39
0.067073338 -0.11914389 0.026276801 6.9128449e-39
0.068695202 -0.11837523 0.029289935 7.2816275e-39
0.070307732 -0.11761098 0.032285664 7.374549e-39
0.072127745 -0.11761098 0.032285664 7.1898032e-39
0.07394775 -0.11761098 0.032285664 7.6511443e-39
0.075767756 -0.11761098 0.032285664 6.5458785e-39
-0.06830848 -0.13664238 -0.034720447 2.30507e-38
-0.066370986 -0.13664238 -0.034720447 2.3234376e-38
-0.064213939 -0.13562126 -0.030745056 2.341805e-38
-0.062072352 -0.13460748 -0.026798274 2.3509886e-38
-0.060148753 -0.13460748 -0.026798274 2.3509886e-38
-0.058070756 -0.13381381 -0.023708489 2.3509886e-38
-0.056152575 -0.13381381 -0.023708489 2.3509886e-38
-0.054047868 -0.13278268 -0.019694116 2.3509886e-38
-0.052136727 -0.13278268 -0.019694116 2.3509886e-38
-0.050225578 -0.13278268 -0.019694116 2.3509886e-38
-0.04831443 -0.13278268 -0.019694116 2.3509886e-38
-0.046287589 -0.13202934 -0.01676121 2.3509886e-38
-0.044381589 -0.13202934 -0.01676121 2.3509886e-38
-0.042475581 -0.13202934 -0.01676121 2.3509886e-38
-0.040569581 -0.13202934 -0.01676121 2.3509886e-38
-0.038437329 -0.13023765 -0.0097860359 2.3509886e-38
-0.036543556 -0.13023765 -0.0097860359 2.3509886e-38
-0.034649782 -0.13023765 -0.0097860359 2.3509886e-38
-0.032756008 -0.13023765 -0.0097860359 2.3509886e-38
-0.030862236 -0.13023765 -0.0097860359 2.3509886e-38
-0.028968463 -0.13023765 -0.0097860359 2.3509886e-38
-0.027074693 -0.13023765 -0.0097860359 2.3509886e-38
-0.025180919 -0.13023765 -0.0097860359 2.3509886e-38
-0.023287149 -0.13023765 -0.0097860359 2.3509886e-38
-0.02134349 -0.1294684 -0.0067911409 2.3509886e-38
-0.019454969 -0.1294684 -0.0067911409 2.3509886e-38
-0.017513776 -0.12843956 -0.002785828 2.3509886e-38
-0.015632277 -0.12843956 -0.002785828 2.3509886e-38
-0.013721179 -0.12765111 0.00028369203 2.3509886e-38
-0.011845062 -0.12765111 0.00028369203 2.3509886e-38
-0.0099689458 -0.12765111 0.00028369203 2.3509886e-38
-0.0080799442 -0.1268961 0.0032230355 2.3509886e-38
-0.0062089823 -0.1268961 0.0032230355 2.3509886e-38
-0.0043380186 -0.1268961 0.0032230355 2.3509886e-38
-0.0024670549 -0.1268961 0.0032230355 2.3509886e-38
-0.00060672499 -0.12585752 0.0072663762 2.3509886e-38
0.0012571476 -0.12585752 0.0072663762 2.3509886e-38
0.0031210221 -0.12585752 0.0072663762 2.3509886e-38
0.0049848957 -0.12585752 0.0072663762 2.3509886e-38
0.0068487693 -0.12585752 0.0072663762 2.3509886e-38
0.0087126438 -0.12585752 0.0072663762 2.3509886e-38
0.010576517 -0.12585752 0.0072663762 2.3509886e-38
0.012395496 -0.12508373 0.010278795 2.3509886e-38
0.014254088 -0.12508373 0.010278795 2.3509886e-38
0.016057536 -0.12431435 0.013274167 2.3509886e-38
0.017769067 -0.12250783 0.020307157 2.3509886e-38
0.019610077 -0.12250783 0.020307157 2.3509886e-38
0.021451086 -0.12250783 0.020307157 2.3509886e-38
0.023292094 -0.12250783 0.020307157 2.3509886e-38
0.025133103 -0.12250783 0.020307157 2.3509886e-38
0.026974112 -0.12250783 0.020307157 2.3509886e-38
0.028815122 -0.12250783 0.020307157 2.3509886e-38
0.030656131 -0.12250783 0.020307157 2.3509886e-38
0.032497138 -0.12250783 0.020307157 2.3509886e-38
0.034232505 -0.12175287 0.023246262 2.3509886e-38
0.036068365 -0.12175287 0.023246262 2.3509886e-38
0.037784666 -0.12097444 0.026276801 2.3509886e-38
0.039491057 -0.12020047 0.029289935 2.3509886e-38
0.041316316 -0.12020047 0.029289935 2.3509886e-38
0.043007635 -0.11943097 0.032285664 2.341769e-38
0.04482764 -0.11943097 0.032285664 2.3509886e-38
0.046647646 -0.11943097 0.032285664 2.3509886e-38
0.048467658 -0.11943097 0.032285664 2.341769e-38
0.050287664 -0.11943097 0.032285664 2.3509886e-38
0.052267872 -0.12020047 0.029289935 2.3509886e-38
0.054259546 -0.12097444 0.026276801 2.8025969e-45
0.056430258 -0.12250783 0.020307157 9.1841101e-41
0.058271267 -0.12250783 0.020307157 9.1838299e-41
0.060357533 -0.1235493 0.016252611 2.7550649e-40
0.06220565 -0.1235493 0.016252611 4.8852754e-39
0.063794293 -0.12250783 0.020307157 1.1891779e-38
0.065442055 -0.12175287 0.023246262 1.0509198e-38
0.067073338 -0.12097444 0.026276801 7.1894318e-39
0.068695202 -0.12020047 0.029289935 7.3734672e-39
0.070307732 -0.11943097 0.032285664 7.5589402e-39
0.072127745 -0.11943097 0.032285664 7.4663901e-39
0.07394775 -0.11943097 0.032285664 8.0199268e-39
0.07546784 -0.11842094 0.036217902 7.8366173e-39
0.077280954 -0.11842094 0.036217902 8.666378e-39
-0.070245974 -0.13857989 -0.034720447 2.2681917e-38
-0.06830848 -0.13857989 -0.034720447 2.332621e-38
-0.066144459 -0.1375518 -0.030745056 2.3418047e-38
-0.064213939 -0.1375518 -0.030745056 2.3509886e-38
-0.062072352 -0.13653107 -0.026798274 2.3509886e-38
-0.059988938 -0.13573201 -0.023708489 2.3509886e-38
-0.057870157 -0.13469382 -0.019694116 2.3509886e-38
-0.055959009 -0.13469382 -0.019694116 2.3509886e-38
-0.054047868 -0.13469382 -0.019694116 2.3509886e-38
-0.052136727 -0.13469382 -0.019694116 2.3509886e-38
-0.050099589 -0.13393532 -0.01676121 2.3509886e-38
-0.048193589 -0.13393532 -0.01676121 2.3509886e-38
-0.046287589 -0.13393532 -0.01676121 2.3509886e-38
-0.044381589 -0.13393532 -0.01676121 2.3509886e-38
-0.042475581 -0.13393532 -0.01676121 2.3509886e-38
-0.040569581 -0.13393532 -0.01676121 2.3509886e-38
-0.038437329 -0.13213144 -0.0097860359 2.3509886e-38
-0.036543556 -0.13213144 -0.0097860359 2.3509886e-38
-0.034649782 -0.13213144 -0.0097860359 2.3509886e-38
-0.032756008 -0.13213144 -0.0097860359 2.3509886e-38
-0.030862236 -0.13213144 -0.0097860359 2.3509886e-38
-0.028968463 -0.13213144 -0.0097860359 2.3509886e-38
-0.027074693 -0.13213144 -0.0097860359 2.3509886e-38
-0.025120532 -0.13135691 -0.0067911409 2.3509886e-38
-0.023232011 -0.13135691 -0.0067911409 2.3509886e-38
-0.02134349 -0.13135691 -0.0067911409 2.3509886e-38
-0.019454969 -0.13135691 -0.0067911409 2.3509886e-38
-0.017513776 -0.13032107 -0.002785828 2.3509886e-38
-0.015597297 -0.12952723 0.00028369203 2.3509886e-38
-0.013721179 -0.12952723 0.00028369203 2.3509886e-38
-0.011845062 -0.12952723 0.00028369203 2.3509886e-38
-0.0099689458 -0.12952723 0.00028369203 2.3509886e-38
-0.0080799442 -0.12876706 0.0032230355 2.3509886e-38
-0.0062089823 -0.12876706 0.0032230355 2.3509886e-38
-0.0043380186 -0.12876706 0.0032230355 2.3509886e-38
-0.0024670549 -0.12876706 0.0032230355 2.3509886e-38
-0.00060672499 -0.12772138 0.0072663762 2.3509886e-38
0.0012571476 -0.12772138 0.0072663762 2.3509886e-38
0.0031210221 -0.12772138 0.0072663762 2.3509886e-38
0.0049848957 -0.12772138 0.0072663762 2.3509886e-38
0.0068487693 -0.12772138 0.0072663762 2.3509886e-38
0.0087126438 -0.12772138 0.0072663762 2.3509886e-38
0.010536904 -0.12694232 0.010278795 2.3509886e-38
0.012395496 -0.12694232 0.010278795 2.3509886e-38
0.014204195 -0.12616767 0.013274167 2.3509886e-38
0.016002702 -0.1253974 0.016252611 2.3509886e-38
0.017769067 -0.12434883 0.020307157 2.3509886e-38
0.019610077 -0.12434883 0.020307157 2.3509886e-38
0.021451086 -0.12434883 0.020307157 2.3509886e-38
0.023292094 -0.12434883 0.020307157 2.3509886e-38
0.025133103 -0.12434883 0.020307157 2.3509886e-38
0.026974112 -0.12434883 0.020307157 2.3509886e-38
0.028815122 -0.12434883 0.020307157 2.3509886e-38
0.030656131 -0.12434883 0.020307157 2.3509886e-38
0.032497138 -0.12434883 0.020307157 2.3509886e-38
0.034232505 -0.12358873 0.023246262 2.3509886e-38
0.035954125 -0.12280498 0.026276801 2.3509886e-38
0.037784666 -0.12280498 0.026276801 2.3509886e-38
0.039491057 -0.12202574 0.029289935 2.3509886e-38
0.041187629 -0.121251 0.032285664 2.3509886e-38
0.043007635 -0.121251 0.032285664 2.341769e-38
0.04482764 -0.121251 0.032285664 2.3509886e-38
0.046647646 -0.121251 0.032285664 2.3509886e-38
0.048467658 -0.121251 0.032285664 2.341769e-38
0.050287664 -0.121251 0.032285664 2.3509886e-38
0.052267872 -0.12202574 0.029289935 2.3509886e-38
0.054259546 -0.12280498 0.026276801 2.8025969e-45
0.056430258 -0.12434883 0.020307157 9.1841101e-41
0.058271267 -0.12434883 0.020307157 9.1841101e-41
0.060357533 -0.1253974 0.016252611 2.7550649e-40
0.06220565 -0.1253974 0.016252611 2.1194093e-39
0.063794293 -0.12434883 0.020307157 1.1246409e-38
0.065442055 -0.12358873 0.023246262 1.2076523e-38
0.067073338 -0.12280498 0.026276801 7.6500541e-39
0.068695202 -0.12202574 0.029289935 7.0968803e-39
0.070307732 -0.121251 0.032285664 7.0054105e-39
0.072127745 -0.121251 0.032285664 7.2819988e-39
0.07394775 -0.121251 0.032285664 8.2043208e-39
0.07546784 -0.12023406 0.036217902 8.8507693e-39
0.077280954 -0.12023406 0.036217902 9.3117474e-39
0.079094067 -0.12023406 0.036217902 8.1135644e-39
-0.070245974 -0.14051737 -0.034720447 2.3418045e-38
-0.06830848 -0.14051737 -0.034720447 2.3509883e-38
-0.066144459 -0.1394823 -0.030745056 2.3509883e-38
-0.06399595 -0.13845469 -0.026798274 2.3509886e-38
-0.062072352 -0.13845469 -0.026798274 2.3509886e-38
-0.059988938 -0.13765021 -0.023708489 2.3509886e-38
-0.057870157 -0.13660498 -0.019694116 2.3509886e-38
-0.055959009 -0.13660498 -0.019694116 2.3509886e-38
-0.054047868 -0.13660498 -0.019694116 2.3509886e-38
-0.052136727 -0.13660498 -0.019694116 2.3509886e-38
-0.050099589 -0.13584132 -0.01676121 2.3509886e-38
-0.048193589 -0.13584132 -0.01676121 2.3509886e-38
-0.046287589 -0.13584132 -0.01676121 2.3509886e-38
-0.044381589 -0.13584132 -0.01676121 2.3509886e-38
-0.042475581 -0.13584132 -0.01676121 2.3509886e-38
-0.040569581 -0.13584132 -0.01676121 2.3509886e-38
-0.038437329 -0.1340252 -0.0097860359 2.3509886e-38
-0.036543556 -0.1340252 -0.0097860359 2.3509886e-38
-0.034649782 -0.1340252 -0.0097860359 2.3509886e-38
-0.032756008 -0.1340252 -0.0097860359 2.3509886e-38
-0.030862236 -0.1340252 -0.0097860359 2.3509886e-38
-0.028968463 -0.1340252 -0.0097860359 2.3509886e-38
-0.027009057 -0.13324542 -0.0067911409 2.3509886e-38
-0.025120532 -0.13324542 -0.0067911409 2.3509886e-38
-0.023232011 -0.13324542 -0.0067911409 2.3509886e-38
-0.02134349 -0.13324542 -0.0067911409 2.3509886e-38
-0.019454969 -0.13324542 -0.0067911409 2.3509886e-38
-0.017513776 -0.13220255 -0.002785828 2.3509886e-38
-0.015597297 -0.13140334 0.00028369203 2.3509886e-38
-0.013721179 -0.13140334 0.00028369203 2.3509886e-38
-0.011845062 -0.13140334 0.00028369203 2.3509886e-38
-0.0099689458 -0.13140334 0.00028369203 2.3509886e-38
-0.0080799442 -0.13063805 0.0032230355 2.3509886e-38
-0.0062089823 -0.13063805 0.0032230355 2.3509886e-38
-0.0043380186 -0.13063805 0.0032230355 2.3509886e-38
-0.0024670549 -0.13063805 0.0032230355 2.3509886e-38
-0.00060672499 -0.12958528 0.0072663762 2.3509886e-38
0.0012571476 -0.12958528 0.0072663762 2.3509886e-38
0.0031210221 -0.12958528 0.0072663762 2.3509886e-38
0.0049848957 -0.12958528 0.0072663762 2.3509886e-38
0.0068487693 -0.12958528 0.0072663762 2.3509886e-38
0.0086783124 -0.12880091 0.010278795 2.3509886e-38
0.010536904 -0.12880091 0.010278795 2.3509886e-38
0.012350855 -0.12802102 0.013274167 2.3509886e-38
0.014204195 -0.12802102 0.013274167 2.3509886e-38
0.016002702 -0.12724553 0.016252611 2.3509886e-38
0.017769067 -0.12618984 0.020307157 2.3509886e-38
0.019610077 -0.12618984 0.020307157 2.3509886e-38
0.021451086 -0.12618984 0.020307157 2.3509886e-38
0.023292094 -0.12618984 0.020307157 2.3509886e-38
0.025133103 -0.12618984 0.020307157 2.3509886e-38
0.026974112 -0.12618984 0.020307157 2.3509886e-38
0.028815122 -0.12618984 0.020307157 2.3509886e-38
0.030656131 -0.12618984 0.020307157 2.3509886e-38
0.032497138 -0.12618984 0.020307157 2.3509886e-38
0.034232505 -0.12542458 0.023246262 2.3509886e-38
0.035954125 -0.12463553 0.026276801 2.3509886e-38
0.037665799 -0.12385099 0.029289935 2.3509886e-38
0.039491057 -0.12385099 0.029289935 2.3509886e-38
0.041187629 -0.123071 0.032285664 2.3509886e-38
0.043007635 -0.123071 0.032285664 2.341769e-38
0.04482764 -0.123071 0.032285664 2.3509886e-38
0.046647646 -0.123071 0.032285664 2.3509886e-38
0.048467658 -0.123071 0.032285664 2.341769e-38
0.050287664 -0.123071 0.032285664 2.3509886e-38
0.052107669 -0.123071 0.032285664 2.3509886e-38
0.054259546 -0.12463553 0.026276801 2.8025969e-45
0.056430258 -0.12618984 0.020307157 9.1841101e-41
0.058509417 -0.12724553 0.016252611 9.1841101e-41
0.060357533 -0.12724553 0.016252611 2.7550649e-40
0.06220565 -0.12724553 0.016252611 3.6770072e-40
0.063794293 -0.12618984 0.020307157 9.4946925e-39
0.065442055 -0.12542458 0.023246262 1.2445306e-38
0.067073338 -0.12463553 0.026276801 8.0199156e-39
0.068695202 -0.12385099 0.029289935 6.360397e-39
0.070307732 -0.123071 0.032285664 6.3600425e-39
0.072127745 -0.123071 0.032285664 6.9132191e-39
0.07394775 -0.123071 0.032285664 7.5589514e-39
0.07546784 -0.12204717 0.036217902 8.2972395e-39
0.077280954 -0.12204717 0.036217902 8.2972395e-39
-0.072183453 -0.14245488 -0.034720447 9.0355249e-39
-0.070245974 -0.14245488 -0.034720447 2.350988e-38
-0.06830848 -0.14245488 -0.034720447 2.3509883e-38
-0.066144459 -0.14141284 -0.030745056 2.3417687e-38
-0.06399595 -0.14037828 -0.026798274 2.3509886e-38
-0.062072352 -0.14037828 -0.026798274 2.3509886e-38
-0.059988938 -0.13956837 -0.023708489 2.3509886e-38
-0.057870157 -0.13851611 -0.019694116 2.3509886e-38
-0.055959009 -0.13851611 -0.019694116 2.3509886e-38
-0.054047868 -0.13851611 -0.019694116 2.3509886e-38
-0.052005596 -0.13774733 -0.01676121 2.3509886e-38
-0.050099589 -0.13774733 -0.01676121 2.3509886e-38
-0.048193589 -0.13774733 -0.01676121 2.3509886e-38
-0.046287589 -0.13774733 -0.01676121 2.3509886e-38
-0.044381589 -0.13774733 -0.01676121 2.3509886e-38
-0.042475581 -0.13774733 -0.01676121 2.3509886e-38
-0.040465862 -0.13695215 -0.013727572 2.3509886e-38
-0.038437329 -0.13591899 -0.0097860359 2.3509886e-38
-0.036543556 -0.13591899 -0.0097860359 2.3509886e-38
-0.034563139 -0.13513394 -0.0067911409 2.3509886e-38
-0.032674618 -0.13513394 -0.0067911409 2.3509886e-38
-0.030862236 -0.13591899 -0.0097860359 2.3509886e-38
-0.028968463 -0.13591899 -0.0097860359 2.3509886e-38
-0.027009057 -0.13513394 -0.0067911409 2.3509886e-38
-0.025120532 -0.13513394 -0.0067911409 2.3509886e-38
-0.023232011 -0.13513394 -0.0067911409 2.3509886e-38
-0.02134349 -0.13513394 -0.0067911409 2.3509886e-38
-0.019395279 -0.13408406 -0.002785828 2.3509886e-38
-0.017513776 -0.13408406 -0.002785828 2.3509886e-38
-0.015597297 -0.13327946 0.00028369203 2.3509886e-38
-0.013721179 -0.13327946 0.00028369203 2.3509886e-38
-0.011845062 -0.13327946 0.00028369203 2.3509886e-38
-0.0099689458 -0.13327946 0.00028369203 2.3509886e-38
-0.0080799442 -0.13250901 0.0032230355 2.3509886e-38
-0.0062089823 -0.13250901 0.0032230355 2.3509886e-38
-0.0043380186 -0.13250901 0.0032230355 2.3509886e-38
-0.0024705995 -0.13144915 0.0072663762 2.3509886e-38
-0.00060672499 -0.13144915 0.0072663762 2.3509886e-38
0.0012571476 -0.13144915 0.0072663762 2.3509886e-38
0.0031210221 -0.13144915 0.0072663762 2.3509886e-38
0.0049611274 -0.13065951 0.010278795 2.3509886e-38
0.0068197194 -0.13065951 0.010278795 2.3509886e-38
0.0086783124 -0.13065951 0.010278795 2.3509886e-38
0.010536904 -0.13065951 0.010278795 2.3509886e-38
0.012350855 -0.12987436 0.013274167 2.3509886e-38
0.014154585 -0.12909363 0.016252611 2.3509886e-38
0.015928058 -0.12803085 0.020307157 2.3509886e-38
0.017769067 -0.12803085 0.020307157 2.3509886e-38
0.019610077 -0.12803085 0.020307157 2.3509886e-38
0.021451086 -0.12803085 0.020307157 2.3509886e-38
0.023292094 -0.12803085 0.020307157 2.3509886e-38
0.025133103 -0.12803085 0.020307157 2.3509886e-38
0.026974112 -0.12803085 0.020307157 2.3509886e-38
0.028815122 -0.12803085 0.020307157 2.3509886e-38
0.030560797 -0.12726043 0.023246262 2.3509886e-38
0.032396652 -0.12726043 0.023246262 2.3509886e-38
0.034123577 -0.12646608 0.026276801 2.3509886e-38
0.035954125 -0.12646608 0.026276801 2.3509886e-38
0.037665799 -0.12567626 0.029289935 2.3509886e-38
0.039367624 -0.124891 0.032285664 2.3509886e-38
0.041187629 -0.124891 0.032285664 2.3509886e-38
0.043007635 -0.124891 0.032285664 2.341769e-38
0.04482764 -0.124891 0.032285664 2.3509886e-38
0.046647646 -0.124891 0.032285664 2.3509886e-38
0.048467658 -0.124891 0.032285664 2.341769e-38
0.050287664 -0.124891 0.032285664 2.3509886e-38
0.052107669 -0.124891 0.032285664 2.3509886e-38
0.054259546 -0.12646608 0.026276801 2.8025969e-45
0.0566613 -0.12909363 0.016252611 9.1841101e-41
0.058509417 -0.12909363 0.016252611 9.1841101e-41
0.060537696 -0.12987436 0.013274167 3.6734198e-40
0.062391043 -0.12987436 0.013274167 2.7550649e-40
0.063794293 -0.12803085 0.020307157 7.1898032e-39
0.065635301 -0.12803085 0.020307157 1.2168722e-38
0.06747631 -0.12803085 0.020307157 9.4028528e-39
0.068695202 -0.12567626 0.029289935 6.4525927e-39
0.070307732 -0.124891 0.032285664 6.3600425e-39
0.072127745 -0.124891 0.032285664 7.1894501e-39
-0.072183453 -0.14439236 -0.034720447 8.7582191e-39
-0.070005499 -0.14334334 -0.030745056 2.350988e-38
-0.068074979 -0.14334334 -0.030745056 2.3508444e-38
-0.066144459 -0.14334334 -0.030745056 2.3417327e-38
-0.06399595 -0.14230187 -0.026798274 2.3509886e-38
-0.062072352 -0.14230187 -0.026798274 2.3509886e-38
-0.059988938 -0.14148657 -0.023708489 2.3509886e-38
-0.057870157 -0.14042725 -0.019694116 2.3509886e-38
-0.055959009 -0.14042725 -0.019694116 2.3509886e-38
-0.054047868 -0.14042725 -0.019694116 2.3509886e-38
-0.052005596 -0.13965334 -0.01676121 2.3509886e-38
-0.050099589 -0.13965334 -0.01676121 2.3509886e-38
-0.048193589 -0.13965334 -0.01676121 2.3509886e-38
-0.046287589 -0.13965334 -0.01676121 2.3509886e-38
-0.044381589 -0.13965334 -0.01676121 2.3509886e-38
-0.042475581 -0.13965334 -0.01676121 2.3509886e-38
-0.040465862 -0.13885282 -0.013727572 2.3509886e-38
-0.038437329 -0.13781275 -0.0097860359 2.3509886e-38
-0.03645166 -0.13702248 -0.0067911409 2.3509886e-38
-0.034563139 -0.13702248 -0.0067911409 2.3509886e-38
-0.032674618 -0.13702248 -0.0067911409 2.3509886e-38
-0.030862236 -0.13781275 -0.0097860359 2.3509886e-38
-0.028968463 -0.13781275 -0.0097860359 2.3509886e-38
-0.027009057 -0.13702248 -0.0067911409 2.3509886e-38
-0.025120532 -0.13702248 -0.0067911409 2.3509886e-38
-0.023232011 -0.13702248 -0.0067911409 2.3509886e-38
-0.02134349 -0.13702248 -0.0067911409 2.3509886e-38
-0.019395279 -0.13596557 -0.002785828 2.3509886e-38
-0.017513776 -0.13596557 -0.002785828 2.3509886e-38
-0.015597297 -0.13515557 0.00028369203 2.3509886e-38
-0.013721179 -0.13515557 0.00028369203 2.3509886e-38
-0.011845062 -0.13515557 0.00028369203 2.3509886e-38
-0.0099509079 -0.13437997 0.0032230355 2.3509886e-38
-0.0080799442 -0.13437997 0.0032230355 2.3509886e-38
-0.0062089823 -0.13437997 0.0032230355 2.3509886e-38
-0.0043380186 -0.13437997 0.0032230355 2.3509886e-38
-0.0024705995 -0.13331302 0.0072663762 2.3509886e-38
-0.00060672499 -0.13331302 0.0072663762 2.3509886e-38
0.0012571476 -0.13331302 0.0072663762 2.3509886e-38
0.0031210221 -0.13331302 0.0072663762 2.3509886e-38
0.0049611274 -0.1325181 0.010278795 2.3509886e-38
0.0068197194 -0.1325181 0.010278795 2.3509886e-38
0.0086783124 -0.1325181 0.010278795 2.3509886e-38
0.010536904 -0.1325181 0.010278795 2.3509886e-38
0.012350855 -0.13172771 0.013274167 2.3509886e-38
0.014154585 -0.13094176 0.016252611 2.3509886e-38
0.015928058 -0.12987186 0.020307157 2.3509886e-38
0.017769067 -0.12987186 0.020307157 2.3509886e-38
0.019610077 -0.12987186 0.020307157 2.3509886e-38
0.021451086 -0.12987186 0.020307157 2.3509886e-38
0.023292094 -0.12987186 0.020307157 2.3509886e-38
0.025133103 -0.12987186 0.020307157 2.3509886e-38
0.026974112 -0.12987186 0.020307157 2.3509886e-38
0.028815122 -0.12987186 0.020307157 2.3509886e-38
0.030560797 -0.12909628 0.023246262 2.3509886e-38
0.032396652 -0.12909628 0.023246262 2.3509886e-38
0.034123577 -0.1282966 0.026276801 2.3509886e-38
0.035840534 -0.1275015 0.029289935 2.3509886e-38
0.037665799 -0.1275015 0.029289935 2.3509886e-38
0.039367624 -0.126711 0.032285664 2.3509886e-38
0.041187629 -0.126711 0.032285664 2.3509886e-38
0.043007635 -0.126711 0.032285664 2.341769e-38
0.044644937 -0.1256734 0.036217902 2.3509886e-38
0.046458051 -0.1256734 0.036217902 2.3509886e-38
0.048271164 -0.1256734 0.036217902 2.341769e-38
0.050084271 -0.1256734 0.036217902 2.3509886e-38
0.052107669 -0.126711 0.032285664 2.3509886e-38
0.05409313 -0.1275015 0.029289935 2.8025969e-45
0.056831017 -0.13172771 0.013274167 3.6806926e-40
0.058860302 -0.1325181 0.010278795 2.7587363e-40
0.060718887 -0.1325181 0.010278795 9.1835496e-41
0.062577479 -0.1325181 0.010278795 6.4500227e-40
0.064244382 -0.13172771 0.013274167 4.70124e-39
0.066097721 -0.13172771 0.013274167 1.1339324e-38
0.067951061 -0.13172771 0.013274167 1.1062018e-38
-0.071936019 -0.14527388 -0.030745056 9.1259226e-39
-0.070005499 -0.14527388 -0.030745056 2.3509521e-38
-0.068074979 -0.14527388 -0.030745056 2.3509524e-38
-0.066144459 -0.14527388 -0.030745056 2.3509883e-38
-0.06399595 -0.14422549 -0.026798274 2.3509527e-38
-0.062072352 -0.14422549 -0.026798274 2.3509886e-38
-0.059988938 -0.14340474 -0.023708489 2.3509886e-38
-0.057870157 -0.14233841 -0.019694116 2.3509886e-38
-0.055959009 -0.14233841 -0.019694116 2.3509886e-38
-0.054047868 -0.14233841 -0.019694116 2.3509886e-38
-0.052005596 -0.14155935 -0.01676121 2.3509886e-38
-0.050099589 -0.14155935 -0.01676121 2.3509886e-38
-0.048193589 -0.14155935 -0.01676121 2.3509886e-38
-0.046287589 -0.14155935 -0.01676121 2.3509886e-38
-0.044381589 -0.14155935 -0.01676121 2.3509886e-38
-0.042366542 -0.14075352 -0.013727572 2.3509886e-38
-0.040331103 -0.13970654 -0.0097860359 2.3509886e-38
-0.038437329 -0.13970654 -0.0097860359 2.3509886e-38
-0.03645166 -0.13891099 -0.0067911409 2.3509886e-38
-0.034563139 -0.13891099 -0.0067911409 2.3509886e-38
-0.032674618 -0.13891099 -0.0067911409 2.3509886e-38
-0.030862236 -0.13970654 -0.0097860359 2.3509886e-38
-0.028968463 -0.13970654 -0.0097860359 2.3509886e-38
-0.027009057 -0.13891099 -0.0067911409 2.3509886e-38
-0.025120532 -0.13891099 -0.0067911409 2.3509886e-38
-0.023158273 -0.13784705 -0.002785828 2.3509886e-38
-0.021276774 -0.13784705 -0.002785828 2.3509886e-38
-0.019349532 -0.13703169 0.00028369203 2.3509886e-38
-0.017473413 -0.13703169 0.00028369203 2.3509886e-38
-0.015597297 -0.13703169 0.00028369203 2.3509886e-38
-0.013692835 -0.13625093 0.0032230355 2.3509886e-38
-0.011821872 -0.13625093 0.0032230355 2.3509886e-38
-0.0099509079 -0.13625093 0.0032230355 2.3509886e-38
-0.0080799442 -0.13625093 0.0032230355 2.3509886e-38
-0.0062089823 -0.13625093 0.0032230355 2.3509886e-38
-0.004334474 -0.13517688 0.0072663762 2.3509886e-38
-0.0024705995 -0.13517688 0.0072663762 2.3509886e-38
-0.00060672499 -0.13517688 0.0072663762 2.3509886e-38
0.0012571476 -0.13517688 0.0072663762 2.3509886e-38
0.0031025354 -0.13437669 0.010278795 2.3509886e-38
0.0049611274 -0.13437669 0.010278795 2.3509886e-38
0.0068197194 -0.13437669 0.010278795 2.3509886e-38
