# .PCD v0.7 - Point Cloud Data file format
VERSION 0.7
FIELDS x y z rgb
SIZE 4 4 4 4
TYPE F F F F
COUNT 1 1 1 1
WIDTH 930
HEIGHT 1
VIEWPOINT 0 0 0 1 0 0 0
POINTS 930
DATA ascii
0.032524861 -0.096107781 -0.041248649 2.3509886e-38
0.034595564 -0.096107781 -0.041248649 2.3509886e-38
0.036666267 -0.096107781 -0.041248649 2.341769e-38
0.038736973 -0.096107781 -0.041248649 2.341769e-38
0.040881656 -0.096935675 -0.045267195 2.341769e-38
0.042959407 -0.096935675 -0.045267195 2.3509886e-38
0.045125831 -0.097769186 -0.049313039 2.3509886e-38
0.047114909 -0.096935675 -0.045267195 2.3509886e-38
0.04919266 -0.096935675 -0.045267195 2.3509886e-38
0.0511612 -0.096107781 -0.041248649 2.3509883e-38
0.053116437 -0.09528552 -0.037257403 2.2217705e-38
0.055180144 -0.09528552 -0.037257403 1.0140075e-38
0.05724385 -0.09528552 -0.037257403 8.942609e-39
-0.053590626 -0.082392648 0.034728795 2.7550649e-40
-0.051653132 -0.082392648 0.034728795 1.6963259e-38
-0.049715638 -0.082392648 0.034728795 1.7240918e-38
-0.047537684 -0.081566691 0.038704187 6.5465764e-39
-0.045607165 -0.081566691 0.038704187 2.1575533e-38
-0.043676645 -0.081566691 0.038704187 2.3509856e-38
-0.041746125 -0.081566691 0.038704187 2.3509876e-38
-0.039815597 -0.081566691 0.038704187 2.3509886e-38
-0.037885077 -0.081566691 0.038704187 2.3509886e-38
-0.035954557 -0.081566691 0.038704187 2.3509886e-38
-0.034361854 -0.083022356 0.031698018 2.3509886e-38
-0.032419041 -0.083022356 0.031698018 2.3509886e-38
-0.030788004 -0.084471121 0.024725109 2.3509886e-38
-0.028832972 -0.084471121 0.024725109 2.3509886e-38
-0.02687794 -0.084471121 0.024725109 2.3509886e-38
-0.024922907 -0.084471121 0.024725109 2.3509886e-38
-0.022967875 -0.084471121 0.024725109 2.3509886e-38
-0.021159392 -0.085318208 0.020648032 2.3509886e-38
-0.019197211 -0.085318208 0.020648032 2.3509886e-38
-0.0173642 -0.086145595 0.016665846 2.3509886e-38
-0.015395042 -0.086145595 0.016665846 2.3509886e-38
-0.01351282 -0.086769998 0.01366058 2.3509886e-38
-0.011754878 -0.08842507 0.0056946576 2.3509886e-38
-0.0098671876 -0.089248091 0.0017334521 2.3509886e-38
-0.0078718439 -0.089248091 0.0017334521 2.3509886e-38
-0.0059441328 -0.089889243 -0.0013523996 2.3509886e-38
-0.0040242523 -0.090722546 -0.0053630769 2.3509886e-38
-0.0020884164 -0.09153457 -0.0092713535 2.3509886e-38
-7.3779374e-05 -0.09153457 -0.0092713535 2.3509886e-38
0.0019408613 -0.09153457 -0.0092713535 2.3509886e-38
0.0039020181 -0.09237951 -0.013338059 2.3509886e-38
0.0059237853 -0.09237951 -0.013338059 2.3509886e-38
0.0079455562 -0.09237951 -0.013338059 2.3509886e-38
0.0099360552 -0.093202889 -0.017301053 2.3509886e-38
0.011940286 -0.09403196 -0.021291345 2.3509886e-38
0.013975997 -0.09403196 -0.021291345 2.3509886e-38
0.016001143 -0.094866768 -0.025309294 2.3509886e-38
0.0180439 -0.094866768 -0.025309294 2.3509886e-38
0.020090206 -0.095707402 -0.029355258 2.3509886e-38
0.022140056 -0.095707402 -0.029355258 2.3509886e-38
0.024207169 -0.096525535 -0.033292979 2.3509886e-38
0.026263924 -0.096525535 -0.033292979 2.3509886e-38
0.028351959 -0.097349226 -0.037257403 2.3509886e-38
0.030415665 -0.097349226 -0.037257403 2.3509886e-38
0.032524861 -0.098178491 -0.041248649 2.3509886e-38
0.034595564 -0.098178491 -0.041248649 2.3509886e-38
0.036666267 -0.098178491 -0.041248649 2.341769e-38
0.038736973 -0.098178491 -0.041248649 2.341769e-38
0.040881656 -0.099013418 -0.045267195 2.341769e-38
0.042959407 -0.099013418 -0.045267195 2.3509886e-38
0.045037158 -0.099013418 -0.045267195 2.3509886e-38
0.047114909 -0.099013418 -0.045267195 2.3509886e-38
0.04919266 -0.099013418 -0.045267195 2.3509886e-38
0.051052731 -0.097349226 -0.037257403 2.3509883e-38
0.053001747 -0.096525535 -0.033292979 2.3509524e-38
0.055058502 -0.096525535 -0.033292979 1.0969835e-38
0.057115257 -0.096525535 -0.033292979 8.8493357e-39
-0.053590626 -0.084330142 0.034728795 8.1114064e-39
-0.051653132 -0.084330142 0.034728795 1.8622779e-38
-0.049715638 -0.084330142 0.034728795 1.5580672e-38
-0.047778159 -0.084330142 0.034728795 2.1215435e-39
-0.045607165 -0.083497211 0.038704187 1.4752692e-38
-0.043676645 -0.083497211 0.038704187 2.3142503e-38
-0.041746125 -0.083497211 0.038704187 2.2773025e-38
-0.039815597 -0.083497211 0.038704187 2.3509886e-38
-0.037885077 -0.083497211 0.038704187 2.3509886e-38
-0.036153212 -0.084330142 0.034728795 2.341769e-38
-0.034361854 -0.084965169 0.031698018 2.341769e-38
-0.032419041 -0.084965169 0.031698018 2.3509886e-38
-0.030788004 -0.086426154 0.024725109 2.3509886e-38
-0.028832972 -0.086426154 0.024725109 2.3325494e-38
-0.02687794 -0.086426154 0.024725109 2.3509886e-38
-0.024922907 -0.086426154 0.024725109 2.3509886e-38
-0.023121566 -0.087280393 0.020648032 2.3509886e-38
-0.021159392 -0.087280393 0.020648032 2.3509886e-38
-0.019333363 -0.088114753 0.016665846 2.3509886e-38
-0.0173642 -0.088114753 0.016665846 2.3509886e-38
-0.015487254 -0.088744432 0.01366058 2.3509886e-38
-0.013625812 -0.089562759 0.009754926 2.3509886e-38
-0.011754878 -0.090413481 0.0056946576 2.3509886e-38
-0.0098671876 -0.091243446 0.0017334521 2.3509886e-38
-0.0078718439 -0.091243446 0.0017334521 2.3509886e-38
-0.0059441328 -0.091889992 -0.0013523996 2.3509886e-38
-0.0039433837 -0.091889992 -0.0013523996 2.3509886e-38
-0.0020164624 -0.092730328 -0.0053630769 2.3509886e-38
-7.3779374e-05 -0.093549207 -0.0092713535 2.3509886e-38
0.0019408613 -0.093549207 -0.0092713535 2.3509886e-38
0.0039554983 -0.093549207 -0.0092713535 2.3509886e-38
0.0059237853 -0.09440127 -0.013338059 2.3509886e-38
0.0079455562 -0.09440127 -0.013338059 2.3509886e-38
0.0099360552 -0.095231608 -0.017301053 2.3509886e-38
0.011940286 -0.096067667 -0.021291345 2.3509886e-38
0.013958385 -0.096909523 -0.025309294 2.3509886e-38
0.016001143 -0.096909523 -0.025309294 2.3509886e-38
0.0180439 -0.096909523 -0.025309294 2.3509886e-38
0.020086659 -0.096909523 -0.025309294 2.3509886e-38
0.022140056 -0.09775725 -0.029355258 2.3509886e-38
0.024189908 -0.09775725 -0.029355258 2.3509886e-38
0.02623976 -0.09775725 -0.029355258 2.3509886e-38
0.028320679 -0.098582298 -0.033292979 2.3509886e-38
0.030377436 -0.098582298 -0.033292979 2.3509886e-38
0.032479372 -0.099412933 -0.037257403 2.3509886e-38
0.034543078 -0.099412933 -0.037257403 2.3509886e-38
0.036666267 -0.10024919 -0.041248649 2.341769e-38
0.038736973 -0.10024919 -0.041248649 2.341769e-38
0.040807679 -0.10024919 -0.041248649 2.341769e-38
0.042959407 -0.10109118 -0.045267195 2.3509886e-38
0.045037158 -0.10109118 -0.045267195 2.3509886e-38
0.047114909 -0.10109118 -0.045267195 2.3509886e-38
0.04919266 -0.10109118 -0.045267195 2.3509886e-38
0.051052731 -0.099412933 -0.037257403 2.3509886e-38
0.053001747 -0.098582298 -0.033292979 2.3325131e-38
0.055058502 -0.098582298 -0.033292979 1.0140075e-38
0.057115257 -0.098582298 -0.033292979 8.7571429e-39
0.059172016 -0.098582298 -0.033292979 6.4522494e-39
-0.053590626 -0.086267635 0.034728795 8.941167e-39
-0.051653132 -0.086267635 0.034728795 1.8161798e-38
-0.049715638 -0.086267635 0.034728795 1.7056158e-38
-0.047778159 -0.086267635 0.034728795 4.6204734e-40
-0.045840666 -0.086267635 0.034728795 1.0327302e-38
-0.043676645 -0.085427731 0.038704187 2.3509849e-38
-0.041746125 -0.085427731 0.038704187 2.3509873e-38
-0.039815597 -0.085427731 0.038704187 2.3509886e-38
-0.037885077 -0.085427731 0.038704187 2.3509886e-38
-0.036153212 -0.086267635 0.034728795 2.3509886e-38
-0.034361854 -0.086907968 0.031698018 2.3509886e-38
-0.032419041 -0.086907968 0.031698018 2.3509886e-38
-0.030656256 -0.087758631 0.027671725 2.3509886e-38
-0.028832972 -0.088381186 0.024725109 2.3509886e-38
-0.02687794 -0.088381186 0.024725109 2.3509886e-38
-0.024922907 -0.088381186 0.024725109 2.3509886e-38
-0.023121566 -0.089242578 0.020648032 2.3509886e-38
-0.021302525 -0.090083912 0.016665846 2.3509886e-38
-0.019333363 -0.090083912 0.016665846 2.3509886e-38
-0.017461684 -0.090718865 0.01366058 2.3509886e-38
-0.015487254 -0.090718865 0.01366058 2.3509886e-38
-0.013625812 -0.091544032 0.009754926 2.3509886e-38
-0.011754878 -0.092401877 0.0056946576 2.3509886e-38
-0.0098671876 -0.093238786 0.0017334521 2.3509886e-38
-0.0078718439 -0.093238786 0.0017334521 2.3509886e-38
-0.0059441328 -0.093890756 -0.0013523996 2.3509886e-38
-0.0039433837 -0.093890756 -0.0013523996 2.3509886e-38
-0.0020164624 -0.094738111 -0.0053630769 2.3509886e-38
-7.3779374e-05 -0.095563844 -0.0092713535 2.3509886e-38
0.0019408613 -0.095563844 -0.0092713535 2.3509886e-38
0.0039554983 -0.095563844 -0.0092713535 2.3509886e-38
0.0059237853 -0.096423045 -0.013338059 2.3509886e-38
0.0079455562 -0.096423045 -0.013338059 2.3509886e-38
0.0099673234 -0.096423045 -0.013338059 2.3509886e-38
0.011940286 -0.098103389 -0.021291345 2.3509886e-38
0.013975997 -0.098103389 -0.021291345 2.3509886e-38
0.016011711 -0.098103389 -0.021291345 2.3509886e-38
0.018047422 -0.098103389 -0.021291345 2.3509886e-38
0.020086659 -0.098952278 -0.025309294 2.3509886e-38
0.022140056 -0.099807099 -0.029355258 2.3509886e-38
0.024189908 -0.099807099 -0.029355258 2.3509886e-38
0.02623976 -0.099807099 -0.029355258 2.3509886e-38
0.028320679 -0.10063905 -0.033292979 2.3509886e-38
0.030377436 -0.10063905 -0.033292979 2.3509886e-38
0.032479372 -0.10147664 -0.037257403 2.3509886e-38
0.034543078 -0.10147664 -0.037257403 2.3509886e-38
0.036666267 -0.1023199 -0.041248649 2.3509886e-38
0.038736973 -0.1023199 -0.041248649 2.3509886e-38
0.040807679 -0.1023199 -0.041248649 2.3509886e-38
0.042959407 -0.10316892 -0.045267195 2.3509886e-38
0.045037158 -0.10316892 -0.045267195 2.3509886e-38
0.047114909 -0.10316892 -0.045267195 2.3509886e-38
0.04919266 -0.10316892 -0.045267195 2.3509886e-38
0.0511612 -0.1023199 -0.041248649 2.3509886e-38
0.053116437 -0.10147664 -0.037257403 2.3509527e-38
0.055058502 -0.10063905 -0.033292979 9.8645695e-39
0.057115257 -0.10063905 -0.033292979 7.3742113e-39
0.059172016 -0.10063905 -0.033292979 7.4664041e-39
-0.053590626 -0.088205129 0.034728795 1.3273641e-38
-0.051653132 -0.088205129 0.034728795 1.8161438e-38
-0.049715638 -0.088205129 0.034728795 1.5488116e-38
-0.047778159 -0.088205129 0.034728795 1.1063307e-39
-0.045840666 -0.088205129 0.034728795 8.851093e-39
-0.043676645 -0.087358251 0.038704187 2.2496773e-38
-0.041746125 -0.087358251 0.038704187 2.3509876e-38
-0.039815597 -0.087358251 0.038704187 2.3509886e-38
-0.037885077 -0.087358251 0.038704187 2.3509886e-38
-0.036153212 -0.088205129 0.034728795 2.3509886e-38
-0.034215719 -0.088205129 0.034728795 2.3509886e-38
-0.032419041 -0.088850766 0.031698018 2.3509886e-38
-0.030656256 -0.089708492 0.027671725 2.3509886e-38
-0.028832972 -0.090336218 0.024725109 2.3509886e-38
-0.02687794 -0.090336218 0.024725109 2.3509886e-38
-0.024922907 -0.090336218 0.024725109 2.3509886e-38
-0.023121566 -0.091204748 0.020648032 2.3509886e-38
-0.021302525 -0.092053071 0.016665846 2.3509886e-38
-0.019333363 -0.092053071 0.016665846 2.3509886e-38
-0.017461684 -0.092693284 0.01366058 2.3509886e-38
-0.015607093 -0.093525305 0.009754926 2.3509886e-38
-0.013625812 -0.093525305 0.009754926 2.3509886e-38
-0.011754878 -0.094390273 0.0056946576 2.3509886e-38
-0.0098671876 -0.095234126 0.0017334521 2.3509886e-38
-0.0078718439 -0.095234126 0.0017334521 2.3509886e-38
-0.0059441328 -0.095891505 -0.0013523996 2.3509886e-38
-0.0039433837 -0.095891505 -0.0013523996 2.3509886e-38
-0.0020164624 -0.096745893 -0.0053630769 2.3509886e-38
-7.3779374e-05 -0.097578481 -0.0092713535 2.3509886e-38
0.0019408613 -0.097578481 -0.0092713535 2.3509886e-38
0.0039554983 -0.097578481 -0.0092713535 2.3509886e-38
0.0059237853 -0.098444805 -0.013338059 2.3509886e-38
0.0079455562 -0.098444805 -0.013338059 2.3509886e-38
0.0099673234 -0.098444805 -0.013338059 2.3509886e-38
0.011964772 -0.099289045 -0.017301053 2.3509886e-38
0.013975997 -0.1001391 -0.021291345 2.3509886e-38
0.016022205 -0.099289045 -0.017301053 2.3509886e-38
0.018050922 -0.099289045 -0.017301053 2.3509886e-38
0.020086659 -0.10099503 -0.025309294 2.3509886e-38
0.022129416 -0.10099503 -0.025309294 2.3509886e-38
0.024189908 -0.10185695 -0.029355258 2.3509886e-38
0.02623976 -0.10185695 -0.029355258 2.3509886e-38
0.028289612 -0.10185695 -0.029355258 2.3509886e-38
0.030377436 -0.10269581 -0.033292979 2.3509886e-38
0.032434192 -0.10269581 -0.033292979 2.3509886e-38
0.034490947 -0.10269581 -0.033292979 2.3509886e-38
0.036606785 -0.10354035 -0.037257403 2.3509886e-38
0.038670491 -0.10354035 -0.037257403 2.3509886e-38
0.040807679 -0.10439061 -0.041248649 2.3509886e-38
0.042959407 -0.10524668 -0.045267195 2.3509886e-38
0.045037158 -0.10524668 -0.045267195 2.3509886e-38
0.047114909 -0.10524668 -0.045267195 2.3509886e-38
0.04919266 -0.10524668 -0.045267195 2.3509886e-38
0.05127041 -0.10524668 -0.045267195 2.3509886e-38
0.053231906 -0.10439061 -0.041248649 2.3325497e-38
0.055302609 -0.10439061 -0.041248649 9.0344557e-39
0.057503663 -0.10524668 -0.045267195 5.5310217e-39
0.059581414 -0.10524668 -0.045267195 5.0693205e-39
-0.053789899 -0.09079358 0.031698018 1.3549509e-38
-0.0518471 -0.09079358 0.031698018 1.8344753e-38
-0.049715638 -0.090142623 0.034728795 1.5210452e-38
-0.047778159 -0.090142623 0.034728795 3.6805945e-40
-0.045840666 -0.090142623 0.034728795 4.1484012e-39
-0.043676645 -0.089288771 0.038704187 2.3141069e-38
-0.041746125 -0.089288771 0.038704187 2.3509876e-38
-0.039815597 -0.089288771 0.038704187 2.3509886e-38
-0.037885077 -0.089288771 0.038704187 2.3509886e-38
-0.036153212 -0.090142623 0.034728795 2.3509886e-38
-0.034215719 -0.090142623 0.034728795 2.3509886e-38
-0.032419041 -0.09079358 0.031698018 2.3509886e-38
-0.030656256 -0.091658354 0.027671725 2.3509886e-38
-0.028832972 -0.092291236 0.024725109 2.3509886e-38
-0.02687794 -0.092291236 0.024725109 2.3509886e-38
-0.024922907 -0.092291236 0.024725109 2.3509886e-38
-0.023121566 -0.093166932 0.020648032 2.3509886e-38
-0.021302525 -0.094022244 0.016665846 2.3509886e-38
-0.019436114 -0.094667718 0.01366058 2.3509886e-38
-0.017461684 -0.094667718 0.01366058 2.3509886e-38
-0.015607093 -0.095506594 0.009754926 2.3509886e-38
-0.013625812 -0.095506594 0.009754926 2.3509886e-38
-0.011754878 -0.096378669 0.0056946576 2.3509886e-38
-0.0098671876 -0.097229466 0.0017334521 2.3509886e-38
-0.0078718439 -0.097229466 0.0017334521 2.3509886e-38
-0.0058765039 -0.097229466 0.0017334521 2.3509886e-38
-0.0039433837 -0.097892255 -0.0013523996 2.3509886e-38
-0.0020164624 -0.098753676 -0.0053630769 2.3509886e-38
-8.6799264e-06 -0.098753676 -0.0053630769 2.3509886e-38
0.0019408613 -0.099593118 -0.0092713535 2.3509886e-38
0.0039554983 -0.099593118 -0.0092713535 2.3509886e-38
0.0059701353 -0.099593118 -0.0092713535 2.3509886e-38
0.0079847723 -0.099593118 -0.0092713535 2.3509886e-38
0.0099994093 -0.099593118 -0.0092713535 2.3509886e-38
0.011989091 -0.10046658 -0.013338059 2.3509886e-38
0.01401086 -0.10046658 -0.013338059 2.3509886e-38
0.016032627 -0.10046658 -0.013338059 2.3509886e-38
0.018050922 -0.10131776 -0.017301053 2.3509886e-38
0.020083137 -0.1021748 -0.021291345 2.3509886e-38
0.022129416 -0.10303779 -0.025309294 2.3509886e-38
0.024189908 -0.1039068 -0.029355258 2.3509886e-38
0.02623976 -0.1039068 -0.029355258 2.3509886e-38
0.028289612 -0.1039068 -0.029355258 2.3509886e-38
0.030377436 -0.10475256 -0.033292979 2.3509886e-38
0.032434192 -0.10475256 -0.033292979 2.3509886e-38
0.034490947 -0.10475256 -0.033292979 2.3509886e-38
0.036606785 -0.10560407 -0.037257403 2.3509886e-38
0.038670491 -0.10560407 -0.037257403 2.3509886e-38
0.040807679 -0.1064613 -0.041248649 2.3509886e-38
0.042959407 -0.10732444 -0.045267195 2.3509886e-38
0.045037158 -0.10732444 -0.045267195 2.3509886e-38
0.047114909 -0.10732444 -0.045267195 2.3509886e-38
0.04919266 -0.10732444 -0.045267195 2.3509886e-38
0.05127041 -0.10732444 -0.045267195 2.3509886e-38
0.053348161 -0.10732444 -0.045267195 2.3325138e-38
0.055425912 -0.10732444 -0.045267195 1.0970928e-38
0.057503663 -0.10732444 -0.045267195 4.8860153e-39
0.059581414 -0.10732444 -0.045267195 3.4105222e-39
-0.053789899 -0.092736378 0.031698018 1.2719393e-38
-0.0518471 -0.092736378 0.031698018 1.7698307e-38
-0.049904287 -0.092736378 0.031698018 1.520938e-38
-0.047778159 -0.092080101 0.034728795 1.0123429e-39
-0.045840666 -0.092080101 0.034728795 1.3811198e-39
-0.043903172 -0.092080101 0.034728795 2.350986e-38
-0.041965678 -0.092080101 0.034728795 2.3509879e-38
-0.039815597 -0.091219291 0.038704187 2.3509886e-38
-0.037885077 -0.091219291 0.038704187 2.3509886e-38
-0.036153212 -0.092080101 0.034728795 2.3509886e-38
-0.034215719 -0.092080101 0.034728795 2.3509886e-38
-0.032419041 -0.092736378 0.031698018 2.3509886e-38
-0.030656256 -0.093608215 0.027671725 2.3509886e-38
-0.028706394 -0.093608215 0.027671725 2.3509886e-38
-0.026756525 -0.093608215 0.027671725 2.3509886e-38
-0.024922907 -0.094246268 0.024725109 2.3509886e-38
-0.023121566 -0.095129102 0.020648032 2.3509886e-38
-0.021159392 -0.095129102 0.020648032 2.3509886e-38
-0.019333363 -0.095991403 0.016665846 2.3509886e-38
-0.0173642 -0.095991403 0.016665846 2.3509886e-38
-0.015607093 -0.097487867 0.009754926 2.3509886e-38
-0.013625812 -0.097487867 0.009754926 2.3509886e-38
-0.011644535 -0.097487867 0.009754926 2.3509886e-38
-0.0098671876 -0.099224806 0.0017334521 2.3509886e-38
-0.0078718439 -0.099224806 0.0017334521 2.3509886e-38
-0.0058765039 -0.099224806 0.0017334521 2.3509886e-38
-0.0038811602 -0.099224806 0.0017334521 2.3509886e-38
-0.0019426271 -0.099893004 -0.0013523996 2.3509886e-38
5.8121979e-05 -0.099893004 -0.0013523996 2.3509886e-38
0.0019991063 -0.10076147 -0.0053630769 2.3509886e-38
0.0039554983 -0.10160775 -0.0092713535 2.3509886e-38
0.0059701353 -0.10160775 -0.0092713535 2.3509886e-38
0.0079847723 -0.10160775 -0.0092713535 2.3509886e-38
0.0099994093 -0.10160775 -0.0092713535 2.3509886e-38
0.012014048 -0.10160775 -0.0092713535 2.3509886e-38
0.01401086 -0.10248834 -0.013338059 2.3509886e-38
0.016032627 -0.10248834 -0.013338059 2.3509886e-38
0.018054396 -0.10248834 -0.013338059 2.3509886e-38
0.020083137 -0.10421051 -0.021291345 2.3509886e-38
0.022118848 -0.10421051 -0.021291345 2.3509886e-38
0.024172174 -0.10508056 -0.025309294 2.3509886e-38
0.02623976 -0.10595666 -0.029355258 2.3509886e-38
0.028289612 -0.10595666 -0.029355258 2.3509886e-38
0.030377436 -0.1068093 -0.033292979 2.3509886e-38
0.032434192 -0.1068093 -0.033292979 2.3509886e-38
0.034490947 -0.1068093 -0.033292979 2.3509886e-38
0.036606785 -0.10766776 -0.037257403 2.3509886e-38
0.038736973 -0.108532 -0.041248649 2.3509886e-38
0.040807679 -0.108532 -0.041248649 2.3509886e-38
0.042959407 -0.10940216 -0.045267195 2.3509886e-38
0.045037158 -0.10940216 -0.045267195 2.3509886e-38
0.047114909 -0.10940216 -0.045267195 2.3509886e-38
0.04919266 -0.10940216 -0.045267195 2.3509886e-38
0.05127041 -0.10940216 -0.045267195 2.3509886e-38
0.053348161 -0.10940216 -0.045267195 2.3417691e-38
0.055425912 -0.10940216 -0.045267195 1.5581073e-38
0.057503663 -0.10940216 -0.045267195 5.4399093e-39
0.059581414 -0.10940216 -0.045267195 3.4108852e-39
-0.053789899 -0.094679192 0.031698018 1.3364402e-38
-0.0518471 -0.094679192 0.031698018 1.3364399e-38
-0.049904287 -0.094679192 0.031698018 1.0322297e-38
-0.047961488 -0.094679192 0.031698018 1.564432e-39
-0.045840666 -0.094017595 0.034728795 1.0116254e-39
-0.043903172 -0.094017595 0.034728795 2.3509869e-38
-0.041965678 -0.094017595 0.034728795 2.350988e-38
-0.040028185 -0.094017595 0.034728795 2.3509886e-38
-0.038090698 -0.094017595 0.034728795 2.3509886e-38
-0.036304653 -0.094679192 0.031698018 2.3509886e-38
-0.034361854 -0.094679192 0.031698018 2.3509886e-38
-0.032419041 -0.094679192 0.031698018 2.3509886e-38
-0.030656256 -0.095558092 0.027671725 2.3509886e-38
-0.028706394 -0.095558092 0.027671725 2.3509886e-38
-0.026756525 -0.095558092 0.027671725 2.3509886e-38
-0.024922907 -0.096201301 0.024725109 2.3509886e-38
-0.022967875 -0.096201301 0.024725109 2.3509886e-38
-0.021159392 -0.097091287 0.020648032 2.3509886e-38
-0.019197211 -0.097091287 0.020648032 2.3509886e-38
-0.0173642 -0.097960562 0.016665846 2.3509886e-38
-0.015395042 -0.097960562 0.016665846 2.3509886e-38
-0.01351282 -0.098616585 0.01366058 2.3509886e-38
-0.011538394 -0.098616585 0.01366058 2.3509886e-38
-0.0097664818 -0.10035546 0.0056946576 2.3509886e-38
-0.0077780858 -0.10035546 0.0056946576 2.3509886e-38
-0.005789686 -0.10035546 0.0056946576 2.3509886e-38
-0.0038012899 -0.10035546 0.0056946576 2.3509886e-38
-0.0018858165 -0.10122015 0.0017334521 2.3509886e-38
0.00010952353 -0.10122015 0.0017334521 2.3509886e-38
0.0019991063 -0.10276926 -0.0053630769 2.3509886e-38
0.0040068924 -0.10276926 -0.0053630769 2.3509886e-38
0.0059701353 -0.10362239 -0.0092713535 2.3509886e-38
0.0079847723 -0.10362239 -0.0092713535 2.3509886e-38
0.0099994093 -0.10362239 -0.0092713535 2.3509886e-38
0.012014048 -0.10362239 -0.0092713535 2.3509886e-38
0.01401086 -0.10451011 -0.013338059 2.3509886e-38
0.016032627 -0.10451011 -0.013338059 2.3509886e-38
0.018054396 -0.10451011 -0.013338059 2.3509886e-38
0.020079637 -0.10537519 -0.017301053 2.3509886e-38
0.022118848 -0.10624625 -0.021291345 2.3509886e-38
0.024172174 -0.1071233 -0.025309294 2.3509886e-38
0.02623976 -0.10800649 -0.029355258 2.3509886e-38
0.028289612 -0.10800649 -0.029355258 2.3509886e-38
0.030339463 -0.10800649 -0.029355258 2.3509886e-38
0.032389313 -0.10800649 -0.029355258 2.3509886e-38
0.034490947 -0.10886608 -0.033292979 2.3509886e-38
0.036606785 -0.10973148 -0.037257403 2.3509886e-38
0.038736973 -0.11060272 -0.041248649 2.3509886e-38
0.040807679 -0.11060272 -0.041248649 2.3509886e-38
0.042878382 -0.11060272 -0.041248649 2.3509886e-38
0.045037158 -0.11147992 -0.045267195 2.3509886e-38
0.047114909 -0.11147992 -0.045267195 2.3509886e-38
0.04919266 -0.11147992 -0.045267195 2.3509886e-38
0.05127041 -0.11147992 -0.045267195 2.341805e-38
0.053348161 -0.11147992 -0.045267195 2.3234379e-38
0.055425912 -0.11147992 -0.045267195 1.9822798e-38
0.057634898 -0.11236309 -0.049313039 5.9016133e-39
0.059719741 -0.11236309 -0.049313039 3.3190539e-39
-0.053789899 -0.09662199 0.031698018 1.3825023e-38
-0.0518471 -0.09662199 0.031698018 9.7687725e-39
-0.049904287 -0.09662199 0.031698018 5.0667926e-39
-0.047961488 -0.09662199 0.031698018 7.3468397e-40
-0.046018675 -0.09662199 0.031698018 1.4704441e-39
-0.044075876 -0.09662199 0.031698018 2.3045656e-38
-0.042133071 -0.09662199 0.031698018 2.3509521e-38
-0.040028185 -0.095955089 0.034728795 2.3509886e-38
-0.038090698 -0.095955089 0.034728795 2.3509886e-38
-0.036304653 -0.09662199 0.031698018 2.3509886e-38
-0.034361854 -0.09662199 0.031698018 2.3509886e-38
-0.032419041 -0.09662199 0.031698018 2.3509886e-38
-0.030476242 -0.09662199 0.031698018 2.3509886e-38
-0.028706394 -0.097507954 0.027671725 2.3509886e-38
-0.026756525 -0.097507954 0.027671725 2.3509886e-38
-0.024922907 -0.098156333 0.024725109 2.3509886e-38
-0.022967875 -0.098156333 0.024725109 2.3509886e-38
-0.021012846 -0.098156333 0.024725109 2.3509886e-38
-0.019197211 -0.099053472 0.020648032 2.3509886e-38
-0.0173642 -0.09992972 0.016665846 2.3509886e-38
-0.015395042 -0.09992972 0.016665846 2.3509886e-38
-0.01351282 -0.100591 0.01366058 2.3509886e-38
-0.011538394 -0.100591 0.01366058 2.3509886e-38
-0.0097664818 -0.10234386 0.0056946576 2.3509886e-38
-0.0077780858 -0.10234386 0.0056946576 2.3509886e-38
-0.005789686 -0.10234386 0.0056946576 2.3509886e-38
-0.0038012899 -0.10234386 0.0056946576 2.3509886e-38
-0.0018858165 -0.1032155 0.0017334521 2.3509886e-38
0.00010952353 -0.1032155 0.0017334521 2.3509886e-38
0.0020588785 -0.10389452 -0.0013523996 2.3509886e-38
0.0040596314 -0.10389452 -0.0013523996 2.3509886e-38
0.0060146749 -0.10477705 -0.0053630769 2.3509886e-38
0.0080224611 -0.10477705 -0.0053630769 2.3509886e-38
0.0099994093 -0.10563703 -0.0092713535 2.3509886e-38
0.012014048 -0.10563703 -0.0092713535 2.3509886e-38
0.01401086 -0.10653187 -0.013338059 2.3509886e-38
0.016032627 -0.10653187 -0.013338059 2.3509886e-38
0.018054396 -0.10653187 -0.013338059 2.3509886e-38
0.020079637 -0.10740392 -0.017301053 2.3509886e-38
0.022118848 -0.10828196 -0.021291345 2.3509886e-38
0.024172174 -0.10916607 -0.025309294 2.3509886e-38
0.026214931 -0.10916607 -0.025309294 2.3509886e-38
0.028289612 -0.11005636 -0.029355258 2.3509886e-38
0.030339463 -0.11005636 -0.029355258 2.3509886e-38
0.032389313 -0.11005636 -0.029355258 2.3509886e-38
0.034439165 -0.11005636 -0.029355258 2.3509886e-38
0.036547702 -0.11092283 -0.033292979 2.3509886e-38
0.038670491 -0.11179517 -0.037257403 2.3509886e-38
0.040807679 -0.11267342 -0.041248649 2.3509886e-38
0.042878382 -0.11267342 -0.041248649 2.3509886e-38
0.044949085 -0.11267342 -0.041248649 2.3509886e-38
0.047114909 -0.11355768 -0.045267195 2.3509886e-38
0.04919266 -0.11355768 -0.045267195 2.3509886e-38
0.05127041 -0.11355768 -0.045267195 2.341805e-38
0.053348161 -0.11355768 -0.045267195 2.3050349e-38
0.055425912 -0.11355768 -0.045267195 2.2312796e-38
0.057634898 -0.11444794 -0.049313039 8.5756495e-39
0.059994403 -0.11621563 -0.057346433 2.3981794e-39
0.062093332 -0.11621563 -0.057346433 3.5956408e-39
-0.055528119 -0.097892582 0.034728795 1.2626482e-38
-0.053590626 -0.097892582 0.034728795 1.5760411e-38
-0.051653132 -0.097892582 0.034728795 1.0689651e-38
-0.049715638 -0.097892582 0.034728795 4.420347e-39
-0.047961488 -0.098564804 0.031698018 9.1835496e-40
-0.046018675 -0.098564804 0.031698018 2.0228976e-39
-0.044075876 -0.098564804 0.031698018 2.1477617e-38
-0.041965678 -0.097892582 0.034728795 2.3509524e-38
-0.040028185 -0.097892582 0.034728795 2.3509886e-38
-0.038090698 -0.097892582 0.034728795 2.3509886e-38
-0.036153212 -0.097892582 0.034728795 2.3509886e-38
-0.034215719 -0.097892582 0.034728795 2.3509886e-38
-0.032419041 -0.098564804 0.031698018 2.3509886e-38
-0.030476242 -0.098564804 0.031698018 2.3509886e-38
-0.028533436 -0.098564804 0.031698018 2.3509886e-38
-0.026756525 -0.099457815 0.027671725 2.3509886e-38
-0.024922907 -0.10011137 0.024725109 2.3509886e-38
-0.022967875 -0.10011137 0.024725109 2.3509886e-38
-0.021012846 -0.10011137 0.024725109 2.3509886e-38
-0.019197211 -0.10101564 0.020648032 2.3509886e-38
-0.017235033 -0.10101564 0.020648032 2.3509886e-38
-0.015395042 -0.10189888 0.016665846 2.3509886e-38
-0.013425879 -0.10189888 0.016665846 2.3509886e-38
-0.011538394 -0.10256544 0.01366058 2.3509886e-38
-0.0097664818 -0.10433225 0.0056946576 2.3509886e-38
-0.0077780858 -0.10433225 0.0056946576 2.3509886e-38
-0.005789686 -0.10433225 0.0056946576 2.3509886e-38
-0.0038012899 -0.10433225 0.0056946576 2.3509886e-38
-0.0018858165 -0.10521083 0.0017334521 2.3509886e-38
0.00010952353 -0.10521083 0.0017334521 2.3509886e-38
0.0020588785 -0.10589527 -0.0013523996 2.3509886e-38
0.0040596314 -0.10589527 -0.0013523996 2.3509886e-38
0.0060146749 -0.10678484 -0.0053630769 2.3509886e-38
0.0080224611 -0.10678484 -0.0053630769 2.3509886e-38
0.0099994093 -0.10765167 -0.0092713535 2.3509886e-38
0.012014048 -0.10765167 -0.0092713535 2.3509886e-38
0.01401086 -0.10855366 -0.013338059 2.3509886e-38
0.016032627 -0.10855366 -0.013338059 2.3509886e-38
0.018054396 -0.10855366 -0.013338059 2.3509886e-38
0.020079637 -0.10943262 -0.017301053 2.3509886e-38
0.022118848 -0.11031766 -0.021291345 2.3509886e-38
0.024172174 -0.11120884 -0.025309294 2.3509886e-38
0.026214931 -0.11120884 -0.025309294 2.3509886e-38
0.028289612 -0.11210622 -0.029355258 2.3509886e-38
0.030339463 -0.11210622 -0.029355258 2.3509886e-38
0.032389313 -0.11210622 -0.029355258 2.3509886e-38
0.034439165 -0.11210622 -0.029355258 2.3509886e-38
0.036547702 -0.11297958 -0.033292979 2.3509886e-38
0.038670491 -0.11385889 -0.037257403 2.3509886e-38
0.040734198 -0.11385889 -0.037257403 2.3509886e-38
0.042878382 -0.11474411 -0.041248649 2.3509886e-38
0.044949085 -0.11474411 -0.041248649 2.3509886e-38
0.047114909 -0.11563541 -0.045267195 2.3509886e-38
0.04919266 -0.11563541 -0.045267195 2.3509886e-38
0.05127041 -0.11563541 -0.045267195 2.341805e-38
0.053348161 -0.11563541 -0.045267195 2.3050349e-38
0.05555005 -0.11653279 -0.049313039 2.2958873e-38
0.057762459 -0.11740504 -0.053245753 1.4476171e-38
0.059994403 -0.11831455 -0.057346433 1.6602584e-39
0.062093332 -0.11831455 -0.057346433 2.7658801e-39
0.064192265 -0.11831455 -0.057346433 5.1626035e-39
-0.055528119 -0.099830076 0.034728795 1.5208679e-38
-0.053590626 -0.099830076 0.034728795 1.7144066e-38
-0.051653132 -0.099830076 0.034728795 1.0966958e-38
-0.049715638 -0.099830076 0.034728795 4.0515658e-39
-0.047961488 -0.1005076 0.031698018 9.1835496e-40
-0.046018675 -0.1005076 0.031698018 1.2856969e-39
-0.044075876 -0.1005076 0.031698018 1.6683087e-38
-0.041965678 -0.099830076 0.034728795 2.3509524e-38
-0.040028185 -0.099830076 0.034728795 2.3509883e-38
-0.038090698 -0.099830076 0.034728795 2.3509883e-38
-0.036153212 -0.099830076 0.034728795 2.3509883e-38
-0.034215719 -0.099830076 0.034728795 2.3509886e-38
-0.032419041 -0.1005076 0.031698018 2.3509886e-38
-0.030476242 -0.1005076 0.031698018 2.3509886e-38
-0.028533436 -0.1005076 0.031698018 2.3509886e-38
-0.02659063 -0.1005076 0.031698018 2.3509886e-38
-0.024922907 -0.1020664 0.024725109 2.3509886e-38
-0.022967875 -0.1020664 0.024725109 2.3509886e-38
-0.021012846 -0.1020664 0.024725109 2.3509886e-38
-0.019057818 -0.1020664 0.024725109 2.3509886e-38
-0.017235033 -0.10297783 0.020648032 2.3509886e-38
-0.015272852 -0.10297783 0.020648032 2.3509886e-38
-0.013425879 -0.10386805 0.016665846 2.3509886e-38
-0.011538394 -0.10453986 0.01366058 2.3509886e-38
-0.0097664818 -0.10632066 0.0056946576 2.3509886e-38
-0.0077780858 -0.10632066 0.0056946576 2.3509886e-38
-0.005789686 -0.10632066 0.0056946576 2.3509886e-38
-0.0038012899 -0.10632066 0.0056946576 2.3509886e-38
-0.0018128902 -0.10632066 0.0056946576 2.3509886e-38
0.00010952353 -0.10720618 0.0017334521 2.3509886e-38
0.0021048672 -0.10720618 0.0017334521 2.3509886e-38
0.0040596314 -0.10789602 -0.0013523996 2.3509886e-38
0.0060146749 -0.10879262 -0.0053630769 2.3509886e-38
0.0080224611 -0.10879262 -0.0053630769 2.3509886e-38
0.0099994093 -0.1096663 -0.0092713535 2.3509886e-38
0.012014048 -0.1096663 -0.0092713535 2.3509886e-38
0.01401086 -0.11057542 -0.013338059 2.3509886e-38
0.016032627 -0.11057542 -0.013338059 2.3509886e-38
0.018054396 -0.11057542 -0.013338059 2.3509886e-38
0.020079637 -0.11146136 -0.017301053 2.3509886e-38
0.022118848 -0.11235337 -0.021291345 2.3509886e-38
0.024172174 -0.11325158 -0.025309294 2.3509886e-38
0.02623976 -0.11415605 -0.029355258 2.3509886e-38
0.028289612 -0.11415605 -0.029355258 2.3509886e-38
0.030339463 -0.11415605 -0.029355258 2.3509886e-38
0.032389313 -0.11415605 -0.029355258 2.3509886e-38
0.034439165 -0.11415605 -0.029355258 2.3509886e-38
0.036547702 -0.11503632 -0.033292979 2.3509886e-38
0.038604461 -0.11503632 -0.033292979 2.3509886e-38
0.040661216 -0.11503632 -0.033292979 2.3509886e-38
0.042797904 -0.11592259 -0.037257403 2.3509886e-38
0.044949085 -0.11681484 -0.041248649 2.3509886e-38
0.047114909 -0.11771317 -0.045267195 2.3509886e-38
0.04919266 -0.11771317 -0.045267195 2.3509886e-38
0.05127041 -0.11771317 -0.045267195 2.341805e-38
0.053465206 -0.11861761 -0.049313039 2.2681572e-38
0.05567072 -0.11949678 -0.053245753 2.3142544e-38
0.058057226 -0.12152828 -0.062333196 1.9731318e-38
0.059994403 -0.1204135 -0.057346433 1.0152421e-39
0.062093332 -0.1204135 -0.057346433 1.5673397e-39
0.064192265 -0.1204135 -0.057346433 4.3324898e-39
-0.057465613 -0.10176755 0.034728795 2.0261431e-39
-0.055528119 -0.10176755 0.034728795 1.7052952e-38
-0.053590626 -0.10176755 0.034728795 1.935748e-38
-0.051653132 -0.10176755 0.034728795 7.279852e-39
-0.049904287 -0.1024504 0.031698018 2.577156e-39
-0.047961488 -0.1024504 0.031698018 8.2651947e-40
-0.046018675 -0.1024504 0.031698018 1.839591e-39
-0.044075876 -0.1024504 0.031698018 1.7329176e-38
-0.042133071 -0.1024504 0.031698018 2.3509158e-38
-0.040028185 -0.10176755 0.034728795 2.3232932e-38
-0.038090698 -0.10176755 0.034728795 2.350988e-38
-0.036153212 -0.10176755 0.034728795 2.3232933e-38
-0.034215719 -0.10176755 0.034728795 2.3232936e-38
-0.032419041 -0.1024504 0.031698018 2.3509527e-38
-0.030476242 -0.1024504 0.031698018 2.3233299e-38
-0.028533436 -0.1024504 0.031698018 2.3417691e-38
-0.02659063 -0.1024504 0.031698018 2.3509886e-38
-0.024922907 -0.10402142 0.024725109 2.3509886e-38
-0.022967875 -0.10402142 0.024725109 2.341805e-38
-0.021012846 -0.10402142 0.024725109 2.341805e-38
-0.019057818 -0.10402142 0.024725109 2.3418047e-38
-0.017235033 -0.10494001 0.020648032 2.3418047e-38
-0.015272852 -0.10494001 0.020648032 2.3418047e-38
-0.013425879 -0.10583721 0.016665846 2.3418047e-38
-0.011538394 -0.10651429 0.01366058 2.3509886e-38
-0.0097664818 -0.10830905 0.0056946576 2.3509886e-38
-0.0077780858 -0.10830905 0.0056946576 2.3509886e-38
-0.005789686 -0.10830905 0.0056946576 2.3509886e-38
-0.0038012899 -0.10830905 0.0056946576 2.3509886e-38
-0.0018128902 -0.10830905 0.0056946576 2.3509886e-38
0.00010952353 -0.10920154 0.0017334521 2.3509886e-38
0.0021048672 -0.10920154 0.0017334521 2.3509886e-38
0.0040596314 -0.10989676 -0.0013523996 2.3509886e-38
0.0060603842 -0.10989676 -0.0013523996 2.3509886e-38
0.0080224611 -0.1108004 -0.0053630769 2.3509886e-38
0.0099994093 -0.11168094 -0.0092713535 2.3509886e-38
0.012014048 -0.11168094 -0.0092713535 2.3509886e-38
0.01401086 -0.11259718 -0.013338059 2.3509886e-38
0.016032627 -0.11259718 -0.013338059 2.3509886e-38
0.018054396 -0.11259718 -0.013338059 2.3509886e-38
0.020079637 -0.11349006 -0.017301053 2.3509886e-38
0.022118848 -0.11438908 -0.021291345 2.3509886e-38
0.024154563 -0.11438908 -0.021291345 2.3509886e-38
0.02623976 -0.11620592 -0.029355258 2.3509886e-38
0.028289612 -0.11620592 -0.029355258 2.3509886e-38
0.030339463 -0.11620592 -0.029355258 2.3509886e-38
0.032389313 -0.11620592 -0.029355258 2.3509886e-38
0.034439165 -0.11620592 -0.029355258 2.3509886e-38
0.036547702 -0.1170931 -0.033292979 2.3509886e-38
0.038604461 -0.1170931 -0.033292979 2.3509886e-38
0.040661216 -0.1170931 -0.033292979 2.3509886e-38
0.042797904 -0.11798631 -0.037257403 2.3509886e-38
0.044861611 -0.11798631 -0.037257403 2.3509886e-38
0.047114909 -0.11979093 -0.045267195 2.3509886e-38
0.04919266 -0.11979093 -0.045267195 2.3509886e-38
0.05127041 -0.11979093 -0.045267195 2.3509886e-38
0.053348161 -0.11979093 -0.045267195 2.3509527e-38
0.05555005 -0.12070246 -0.049313039 2.2496099e-38
0.057634898 -0.12070246 -0.049313039 2.2588645e-38
0.059994403 -0.12251242 -0.057346433 2.0286668e-39
0.062093332 -0.12251242 -0.057346433 9.2212445e-41
-0.059403092 -0.10370506 0.034728795 9.1835496e-41
-0.057465613 -0.10370506 0.034728795 2.3956444e-39
-0.055528119 -0.10370506 0.034728795 1.7515009e-38
-0.053590626 -0.10370506 0.034728795 1.8436242e-38
-0.051653132 -0.10370506 0.034728795 3.6849413e-39
-0.049904287 -0.1043932 0.031698018 6.4284847e-40
-0.047961488 -0.1043932 0.031698018 6.4284847e-40
-0.046018675 -0.1043932 0.031698018 1.6551997e-39
-0.044075876 -0.1043932 0.031698018 1.447111e-38
-0.042133071 -0.1043932 0.031698018 2.3509879e-38
-0.040190265 -0.1043932 0.031698018 2.3233288e-38
-0.038090698 -0.10370506 0.034728795 2.3509879e-38
-0.036153212 -0.10370506 0.034728795 2.3509879e-38
-0.034215719 -0.10370506 0.034728795 2.3509883e-38
-0.032278225 -0.10370506 0.034728795 2.3509883e-38
-0.030340731 -0.10370506 0.034728795 2.3417691e-38
-0.028533436 -0.1043932 0.031698018 2.3509886e-38
-0.02659063 -0.1043932 0.031698018 2.3509886e-38
-0.024806663 -0.10530742 0.027671725 2.3509886e-38
-0.022967875 -0.10597645 0.024725109 2.341805e-38
-0.021012846 -0.10597645 0.024725109 2.341805e-38
-0.019057818 -0.10597645 0.024725109 2.3418047e-38
-0.017235033 -0.1069022 0.020648032 2.3418047e-38
-0.015272852 -0.1069022 0.020648032 2.3418047e-38
-0.013425879 -0.10780637 0.016665846 2.3418047e-38
-0.011538394 -0.10848872 0.01366058 2.3509886e-38
-0.0097664818 -0.11029746 0.0056946576 2.3509886e-38
-0.0077780858 -0.11029746 0.0056946576 2.3509886e-38
-0.005789686 -0.11029746 0.0056946576 2.3509886e-38
-0.0038012899 -0.11029746 0.0056946576 2.3509886e-38
-0.0018128902 -0.11029746 0.0056946576 2.3509886e-38
0.00010952353 -0.11119686 0.0017334521 2.3509886e-38
0.0021048672 -0.11119686 0.0017334521 2.3509886e-38
0.0040596314 -0.11189754 -0.0013523996 2.3509886e-38
0.0060603842 -0.11189754 -0.0013523996 2.3509886e-38
0.0080611371 -0.11189754 -0.0013523996 2.3509886e-38
0.010030247 -0.11280818 -0.0053630769 2.3509886e-38
0.012014048 -0.11369558 -0.0092713535 2.3509886e-38
0.01401086 -0.11461894 -0.013338059 2.3509886e-38
0.016032627 -0.11461894 -0.013338059 2.3509886e-38
0.018054396 -0.11461894 -0.013338059 2.3509886e-38
0.020076163 -0.11461894 -0.013338059 2.3509886e-38
0.022108354 -0.11551876 -0.017301053 2.3509886e-38
0.024154563 -0.11642478 -0.021291345 2.3509886e-38
0.026214931 -0.11733709 -0.025309294 2.3509886e-38
0.028289612 -0.11825575 -0.029355258 2.3509886e-38
0.030339463 -0.11825575 -0.029355258 2.3509886e-38
0.032389313 -0.11825575 -0.029355258 2.3509886e-38
0.034439165 -0.11825575 -0.029355258 2.3509886e-38
0.036489017 -0.11825575 -0.029355258 2.3509886e-38
0.038538869 -0.11825575 -0.029355258 2.3509886e-38
0.040588722 -0.11825575 -0.029355258 2.3509886e-38
0.042717971 -0.11914985 -0.033292979 2.3509886e-38
0.044774726 -0.11914985 -0.033292979 2.3509886e-38
0.047019791 -0.12095623 -0.041248649 2.3509886e-38
0.04919266 -0.12186868 -0.045267195 2.3509886e-38
0.05127041 -0.12186868 -0.045267195 2.3509886e-38
0.053348161 -0.12186868 -0.045267195 2.3509527e-38
0.05555005 -0.12278731 -0.049313039 2.3233299e-38
0.057634898 -0.12278731 -0.049313039 2.3509879e-38
0.059994403 -0.12461133 -0.057346433 3.2275631e-39
0.062272571 -0.12574361 -0.062333196 2.7624637e-40
-0.059403092 -0.10564254 0.034728795 9.1835496e-41
-0.057465613 -0.10564254 0.034728795 1.01271e-39
-0.055528119 -0.10564254 0.034728795 1.7515728e-38
-0.053590626 -0.10564254 0.034728795 1.8345125e-38
-0.0518471 -0.10633601 0.031698018 1.6577165e-39
-0.050154895 -0.10725726 0.027671725 9.1907243e-40
-0.047961488 -0.10633601 0.031698018 8.268782e-40
-0.046018675 -0.10633601 0.031698018 6.4284847e-40
-0.044075876 -0.10633601 0.031698018 8.2025258e-39
-0.042133071 -0.10633601 0.031698018 2.3509879e-38
-0.040028185 -0.10564254 0.034728795 2.3509874e-38
-0.038090698 -0.10564254 0.034728795 2.3232932e-38
-0.036153212 -0.10564254 0.034728795 2.3509879e-38
-0.034215719 -0.10564254 0.034728795 2.3509883e-38
-0.032278225 -0.10564254 0.034728795 2.3509883e-38
-0.030340731 -0.10564254 0.034728795 2.3417691e-38
-0.028533436 -0.10633601 0.031698018 2.3509886e-38
-0.02659063 -0.10633601 0.031698018 2.3509886e-38
-0.024806663 -0.10725726 0.027671725 2.3509886e-38
-0.022967875 -0.10793148 0.024725109 2.341805e-38
-0.021012846 -0.10793148 0.024725109 2.341805e-38
-0.019057818 -0.10793148 0.024725109 2.3418047e-38
-0.017235033 -0.10886435 0.020648032 2.3418047e-38
-0.015272852 -0.10886435 0.020648032 2.3418047e-38
-0.013425879 -0.10977553 0.016665846 2.3418047e-38
-0.011538394 -0.11046316 0.01366058 2.3509886e-38
-0.009663254 -0.11135681 0.009754926 2.3509886e-38
-0.0077780858 -0.11228584 0.0056946576 2.3509886e-38
-0.005789686 -0.11228584 0.0056946576 2.3509886e-38
-0.0038012899 -0.11228584 0.0056946576 2.3509886e-38
-0.0018128902 -0.11228584 0.0056946576 2.3509886e-38
0.00010952353 -0.11319222 0.0017334521 2.3509886e-38
0.0021048672 -0.11319222 0.0017334521 2.3509886e-38
0.004100211 -0.11319222 0.0017334521 2.3509886e-38
0.0060603842 -0.11389829 -0.0013523996 2.3509886e-38
0.0080611371 -0.11389829 -0.0013523996 2.3509886e-38
0.010030247 -0.11481597 -0.0053630769 2.3509886e-38
0.012014048 -0.11571021 -0.0092713535 2.3509886e-38
0.014028685 -0.11571021 -0.0092713535 2.3509886e-38
0.016032627 -0.11664073 -0.013338059 2.3509886e-38
0.018054396 -0.11664073 -0.013338059 2.3509886e-38
0.020076163 -0.11664073 -0.013338059 2.3509886e-38
0.022108354 -0.1175475 -0.017301053 2.3509886e-38
0.02413707 -0.1175475 -0.017301053 2.3509886e-38
0.026214931 -0.11937986 -0.025309294 2.3509886e-38
0.028257689 -0.11937986 -0.025309294 2.3509886e-38
0.030300446 -0.11937986 -0.025309294 2.3509886e-38
0.032389313 -0.12030561 -0.029355258 2.3509886e-38
0.034439165 -0.12030561 -0.029355258 2.3509886e-38
0.036489017 -0.12030561 -0.029355258 2.3509886e-38
0.038538869 -0.12030561 -0.029355258 2.3509886e-38
0.040588722 -0.12030561 -0.029355258 2.3509886e-38
0.042717971 -0.1212066 -0.033292979 2.3509886e-38
0.044774726 -0.1212066 -0.033292979 2.3509886e-38
0.047019791 -0.12302695 -0.041248649 2.3509886e-38
0.049090497 -0.12302695 -0.041248649 2.3509886e-38
0.05127041 -0.12394641 -0.045267195 2.3509886e-38
0.053348161 -0.12394641 -0.045267195 2.3233302e-38
0.05555005 -0.12487216 -0.049313039 2.3325494e-38
0.057634898 -0.12487216 -0.049313039 2.3509879e-38
0.059854198 -0.12577201 -0.053245753 4.8870872e-39
0.061945938 -0.12577201 -0.053245753 1.3825967e-39
-0.059618309 -0.10827883 0.031698018 1.8402972e-40
-0.057465613 -0.10758002 0.034728795 2.4878401e-39
-0.055528119 -0.10758002 0.034728795 1.8253293e-38
-0.053590626 -0.10758002 0.034728795 1.7884147e-38
-0.0518471 -0.10827883 0.031698018 3.6734198e-40
-0.049904287 -0.10827883 0.031698018 3.6734198e-40
-0.047961488 -0.10827883 0.031698018 6.4284847e-40
-0.046018675 -0.10827883 0.031698018 5.5101298e-40
-0.044075876 -0.10827883 0.031698018 4.9767577e-39
-0.042133071 -0.10827883 0.031698018 2.1480494e-38
-0.040028185 -0.10758002 0.034728795 2.3509876e-38
-0.038090698 -0.10758002 0.034728795 2.3325127e-38
-0.036153212 -0.10758002 0.034728795 2.3509879e-38
-0.034215719 -0.10758002 0.034728795 2.3509523e-38
-0.032278225 -0.10758002 0.034728795 2.3417327e-38
-0.030340731 -0.10758002 0.034728795 2.3509886e-38
-0.028403245 -0.10758002 0.034728795 2.3325497e-38
-0.02659063 -0.10827883 0.031698018 2.3509886e-38
-0.024806663 -0.10920714 0.027671725 2.3509886e-38
-0.022856802 -0.10920714 0.027671725 2.341805e-38
-0.021012846 -0.10988651 0.024725109 2.341805e-38
-0.019057818 -0.10988651 0.024725109 2.3418047e-38
-0.017235033 -0.11082654 0.020648032 2.3418047e-38
-0.015272852 -0.11082654 0.020648032 2.3418047e-38
-0.013425879 -0.11174469 0.016665846 2.3418047e-38
-0.011538394 -0.11243759 0.01366058 2.3509886e-38
-0.009663254 -0.1133381 0.009754926 2.3509886e-38
-0.0077780858 -0.11427425 0.0056946576 2.3509886e-38
-0.005789686 -0.11427425 0.0056946576 2.3509886e-38
-0.0038012899 -0.11427425 0.0056946576 2.3509886e-38
-0.0018128902 -0.11427425 0.0056946576 2.3509886e-38
0.00010952353 -0.11518754 0.0017334521 2.3509886e-38
0.0021048672 -0.11518754 0.0017334521 2.3509886e-38
0.004100211 -0.11518754 0.0017334521 2.3509886e-38
0.006095551 -0.11518754 0.0017334521 2.3509886e-38
0.0080611371 -0.11589904 -0.0013523996 2.3509886e-38
0.010030247 -0.11682375 -0.0053630769 2.3509886e-38
0.012038032 -0.11682375 -0.0053630769 2.3509886e-38
0.014028685 -0.11772485 -0.0092713535 2.3509886e-38
0.016043322 -0.11772485 -0.0092713535 2.3509886e-38
0.018054396 -0.11866249 -0.013338059 2.3509886e-38
0.020076163 -0.11866249 -0.013338059 2.3509886e-38
0.022097932 -0.11866249 -0.013338059 2.3509886e-38
0.02413707 -0.1195762 -0.017301053 2.3509886e-38
0.026214931 -0.1214226 -0.025309294 2.3509886e-38
0.028257689 -0.1214226 -0.025309294 2.3509886e-38
0.030300446 -0.1214226 -0.025309294 2.3509886e-38
0.032389313 -0.12235548 -0.029355258 2.3509886e-38
0.034439165 -0.12235548 -0.029355258 2.3509886e-38
0.036489017 -0.12235548 -0.029355258 2.3509886e-38
0.038538869 -0.12235548 -0.029355258 2.3509886e-38
0.040588722 -0.12235548 -0.029355258 2.3509886e-38
0.042717971 -0.12326337 -0.033292979 2.3509886e-38
0.044774726 -0.12326337 -0.033292979 2.3509886e-38
0.047019791 -0.12509765 -0.041248649 2.3509886e-38
0.049090497 -0.12509765 -0.041248649 2.3509886e-38
0.0511612 -0.12509765 -0.041248649 2.3509886e-38
0.053348161 -0.12602417 -0.045267195 2.314075e-38
0.055425912 -0.12602417 -0.045267195 2.3325856e-38
0.057503663 -0.12602417 -0.045267195 2.3418045e-38
0.059854198 -0.12786375 -0.053245753 6.7317201e-39
-0.059403092 -0.10951753 0.034728795 0
-0.057190284 -0.10859399 0.038704187 3.503071e-39
-0.055259764 -0.10859399 0.038704187 1.7885589e-38
-0.053590626 -0.10951753 0.034728795 1.7423529e-38
-0.0518471 -0.11022164 0.031698018 2.7550649e-40
-0.049904287 -0.11022164 0.031698018 3.6734198e-40
-0.047961488 -0.11022164 0.031698018 3.6734198e-40
-0.046018675 -0.11022164 0.031698018 3.6734198e-40
-0.044075876 -0.11022164 0.031698018 2.5803902e-39
-0.042133071 -0.11022164 0.031698018 1.5857281e-38
-0.040028185 -0.10951753 0.034728795 2.3509876e-38
-0.038090698 -0.10951753 0.034728795 2.3509518e-38
-0.036153212 -0.10951753 0.034728795 2.3509879e-38
-0.034215719 -0.10951753 0.034728795 2.314074e-38
-0.032278225 -0.10951753 0.034728795 2.3509883e-38
-0.030340731 -0.10951753 0.034728795 2.3509886e-38
-0.028403245 -0.10951753 0.034728795 2.3141106e-38
-0.02659063 -0.11022164 0.031698018 2.3509886e-38
-0.024806663 -0.11115701 0.027671725 2.3509886e-38
-0.022856802 -0.11115701 0.027671725 2.341805e-38
-0.021012846 -0.11184154 0.024725109 2.341805e-38
-0.019057818 -0.11184154 0.024725109 2.3418047e-38
-0.017235033 -0.11278872 0.020648032 2.3418047e-38
-0.015272852 -0.11278872 0.020648032 2.3418047e-38
-0.013425879 -0.11371385 0.016665846 2.3418047e-38
-0.011538394 -0.11441202 0.01366058 2.3509886e-38
-0.0097664818 -0.11626263 0.0056946576 2.3509886e-38
-0.0077780858 -0.11626263 0.0056946576 2.3509886e-38
-0.005789686 -0.11626263 0.0056946576 2.3509886e-38
-0.0038012899 -0.11626263 0.0056946576 2.3509886e-38
-0.0018128902 -0.11626263 0.0056946576 2.3509886e-38
0.00010952353 -0.1171829 0.0017334521 2.3509886e-38
0.0021048672 -0.1171829 0.0017334521 2.3509886e-38
0.004100211 -0.1171829 0.0017334521 2.3509886e-38
0.006095551 -0.1171829 0.0017334521 2.3509886e-38
0.0080908947 -0.1171829 0.0017334521 2.3509886e-38
0.01006189 -0.11789979 -0.0013523996 2.3509886e-38
0.012038032 -0.11883153 -0.0053630769 2.3509886e-38
0.014028685 -0.11973949 -0.0092713535 2.3509886e-38
0.016043322 -0.11973949 -0.0092713535 2.3509886e-38
0.018054396 -0.12068425 -0.013338059 2.3509886e-38
0.020076163 -0.12068425 -0.013338059 2.3509886e-38
0.022097932 -0.12068425 -0.013338059 2.3509886e-38
0.02413707 -0.12160493 -0.017301053 2.3509886e-38
0.026214931 -0.12346537 -0.025309294 2.3509886e-38
0.028257689 -0.12346537 -0.025309294 2.3509886e-38
0.030300446 -0.12346537 -0.025309294 2.3509886e-38
0.032389313 -0.12440531 -0.029355258 2.3509886e-38
0.034439165 -0.12440531 -0.029355258 2.3509886e-38
0.036489017 -0.12440531 -0.029355258 2.3509886e-38
0.038538869 -0.12440531 -0.029355258 2.3509886e-38
0.040588722 -0.12440531 -0.029355258 2.3509886e-38
0.04263857 -0.12440531 -0.029355258 2.3509886e-38
0.044774726 -0.12532012 -0.033292979 2.3509886e-38
0.046925317 -0.12624113 -0.037257403 2.3509886e-38
0.049090497 -0.12716834 -0.041248649 2.3509886e-38
0.0511612 -0.12716834 -0.041248649 2.3509886e-38
0.053231906 -0.12716834 -0.041248649 2.341805e-38
0.055425912 -0.12810193 -0.045267195 2.341805e-38
0.057503663 -0.12810193 -0.045267195 2.3418045e-38
0.059581414 -0.12810193 -0.045267195 8.8522224e-39
-0.059403092 -0.11145501 0.034728795 0
-0.057190284 -0.11052449 0.038704187 4.240636e-39
-0.055259764 -0.11052449 0.038704187 1.7148024e-38
-0.053590626 -0.11145501 0.034728795 1.6962551e-38
-0.0518471 -0.11216442 0.031698018 9.2051156e-40
-0.050154895 -0.11310686 0.027671725 1.1970984e-39
-0.048205033 -0.11310686 0.027671725 1.8402972e-40
-0.046255171 -0.11310686 0.027671725 2.7550649e-40
-0.04430531 -0.11310686 0.027671725 1.8402972e-40
-0.042133071 -0.11216442 0.031698018 1.0048957e-38
-0.040190265 -0.11216442 0.031698018 2.3509874e-38
-0.038090698 -0.11145501 0.034728795 2.3509518e-38
-0.036153212 -0.11145501 0.034728795 2.3325127e-38
-0.034215719 -0.11145501 0.034728795 2.3232936e-38
-0.032278225 -0.11145501 0.034728795 2.3509883e-38
-0.030340731 -0.11145501 0.034728795 2.3509886e-38
-0.028533436 -0.11216442 0.031698018 2.3417691e-38
-0.02659063 -0.11216442 0.031698018 2.3509886e-38
-0.024806663 -0.11310686 0.027671725 2.3509886e-38
-0.022856802 -0.11310686 0.027671725 2.341805e-38
-0.021012846 -0.11379658 0.024725109 2.341805e-38
-0.019057818 -0.11379658 0.024725109 2.3418047e-38
-0.017235033 -0.11475091 0.020648032 2.3418047e-38
-0.015272852 -0.11475091 0.020648032 2.3418047e-38
