# .PCD v0.7 - Point Cloud Data file format
VERSION 0.7
FIELDS x y z rgb
SIZE 4 4 4 4
TYPE F F F F
COUNT 1 1 1 1
WIDTH 145
HEIGHT 1
VIEWPOINT 0 0 0 1 0 0 0
POINTS 145
DATA ascii
-0.00804919 -0.13276742 -0.035932787 2.3418047e-38
-0.0058964044 -0.13076027 -0.028010614 2.3325494e-38
-0.0039727986 -0.13076027 -0.028010614 2.3509167e-38
-0.01202248 -0.13547809 -0.038963564 2.3509876e-38
-0.00998668 -0.1347049 -0.035932787 2.2866307e-38
-0.00804919 -0.1347049 -0.035932787 2.3234374e-38
-0.0058964044 -0.13268389 -0.028010614 2.3509886e-38
-0.0039727986 -0.13268389 -0.028010614 2.3509527e-38
-0.01202248 -0.13742088 -0.038963564 2.3509879e-38
-0.00998668 -0.13664238 -0.035932787 2.2681917e-38
-0.00804919 -0.13664238 -0.035932787 2.3234376e-38
-0.0058964044 -0.13460748 -0.028010614 2.3509886e-38
-0.0039727986 -0.13460748 -0.028010614 2.3509527e-38
-0.01202248 -0.13936369 -0.038963564 2.3509879e-38
-0.00998668 -0.13857989 -0.035932787 2.2497526e-38
-0.00804919 -0.13857989 -0.035932787 2.2774116e-38
-0.0058964044 -0.13653107 -0.028010614 2.3509886e-38
-0.0039727986 -0.13653107 -0.028010614 2.3509167e-38
-0.0022367164 -0.13857989 -0.035932787 2.3509527e-38
-0.016158719 -0.14312203 -0.045936473 2.0924804e-38
-0.013965286 -0.1413065 -0.038963564 2.2954906e-38
-0.01202248 -0.1413065 -0.038963564 2.350988e-38
-0.00998668 -0.14051737 -0.035932787 2.3050703e-38
-0.00804919 -0.14051737 -0.035932787 2.3234376e-38
-0.0058964044 -0.13845469 -0.028010614 2.3509886e-38
-0.0039727986 -0.13845469 -0.028010614 2.3509527e-38
-0.0021426231 -0.1394823 -0.031957395 2.3509527e-38
-0.016158719 -0.14507706 -0.045936473 2.1570173e-38
-0.01420369 -0.14507706 -0.045936473 2.267832e-38
-0.01202248 -0.14324932 -0.038963564 2.350988e-38
-0.00998668 -0.14245488 -0.035932787 2.3234376e-38
-0.00804919 -0.14245488 -0.035932787 2.3234379e-38
-0.0058964044 -0.14037828 -0.028010614 2.3509886e-38
-0.0039727986 -0.14037828 -0.028010614 2.3416971e-38
-0.0021426231 -0.14141284 -0.031957395 2.3509527e-38
-0.016158719 -0.1470321 -0.045936473 2.2123348e-38
-0.01420369 -0.1470321 -0.045936473 2.2216986e-38
-0.012153082 -0.14625455 -0.042989857 2.3417327e-38
-0.010079674 -0.1451921 -0.038963564 2.341805e-38
-0.0079341829 -0.14334334 -0.031957395 2.341805e-38
-0.0058124289 -0.14148657 -0.024920829 2.3417691e-38
-0.0038942471 -0.14148657 -0.024920829 2.3140384e-38
-0.0019760653 -0.14148657 -0.024920829 2.3509527e-38
-0.016052809 -0.14820443 -0.042989857 2.2953109e-38
-0.013965286 -0.14713491 -0.038963564 2.2309182e-38
-0.01202248 -0.14713491 -0.038963564 2.3417327e-38
-0.00998668 -0.14632986 -0.035932787 2.341805e-38
-0.0079341829 -0.14527388 -0.031957395 2.3326213e-38
-0.0058124289 -0.14340474 -0.024920829 2.3509886e-38
-0.0038942471 -0.14340474 -0.024920829 2.323258e-38
-0.0022367164 -0.14632986 -0.035932787 2.3509527e-38
-0.01202248 -0.14907773 -0.038963564 2.3047466e-38
-0.00998668 -0.14826734 -0.035932787 2.3509883e-38
-0.0079341829 -0.14720438 -0.031957395 2.2773039e-38
-0.0058964044 -0.14614908 -0.028010614 2.3233302e-38
-0.0039727986 -0.14614908 -0.028010614 2.3324775e-38
-0.0022367164 -0.14826734 -0.035932787 2.3509527e-38
-0.00029923022 -0.14826734 -0.035932787 2.350952e-38
0.0028070658 -0.13276802 0.022033922 2.3325129e-38
0.0047541857 -0.13115202 0.028077595 2.3509876e-38
0.0065794438 -0.13115202 0.028077595 2.2034744e-38
0.0084047019 -0.13115202 0.028077595 7.7444189e-39
-0.0077306144 -0.1472411 -0.024920829 2.3417687e-38
-0.0058124289 -0.1472411 -0.024920829 2.3509527e-38
-0.0039727986 -0.14807267 -0.028010614 2.3509527e-38
0.00090679526 -0.13539489 0.019094817 2.350952e-38
0.0028681718 -0.13378824 0.025064461 2.3232933e-38
0.0047541857 -0.13297729 0.028077595 2.3509876e-38
0.0065794438 -0.13297729 0.028077595 2.1112788e-38
0.0084047019 -0.13297729 0.028077595 8.2975927e-39
0.010229964 -0.13297729 0.028077595 9.3117418e-39
0.012055222 -0.13297729 0.028077595 9.6805243e-39
0.01390937 -0.13217102 0.031073324 9.4961331e-39
0.015729377 -0.13217102 0.031073324 9.4039374e-39
-0.0077306144 -0.1491593 -0.024920829 2.3509883e-38
-0.0058124289 -0.1491593 -0.024920829 2.3509527e-38
-0.0039727986 -0.1499963 -0.028010614 2.3509527e-38
-0.0009342134 -0.13723589 0.019094817 2.3509527e-38
0.00090679526 -0.13723589 0.019094817 2.350988e-38
0.0028681718 -0.13561879 0.025064461 2.350988e-38
0.0047541857 -0.13480256 0.028077595 2.3048896e-38
0.0065794438 -0.13480256 0.028077595 2.0559614e-38
0.0084047019 -0.13480256 0.028077595 1.0233701e-38
0.010229964 -0.13480256 0.028077595 1.1524437e-38
0.012055222 -0.13480256 0.028077595 1.1432241e-38
0.01390937 -0.13399105 0.031073324 1.1708828e-38
0.015729377 -0.13399105 0.031073324 1.1432241e-38
-0.0009342134 -0.1390769 0.019094817 2.3509527e-38
0.00090679526 -0.1390769 0.019094817 2.350952e-38
0.0028681718 -0.13744931 0.025064461 2.350988e-38
0.0047541857 -0.13662781 0.028077595 2.1481571e-38
0.0065794438 -0.13662781 0.028077595 1.853131e-38
0.0084047019 -0.13662781 0.028077595 1.1340048e-38
0.010229964 -0.13662781 0.028077595 1.1340046e-38
-0.0009342134 -0.14091791 0.019094817 2.3509527e-38
0.00090679526 -0.14091791 0.019094817 2.3417324e-38
0.0028681718 -0.13927986 0.025064461 2.3232933e-38
0.0046987161 -0.13927986 0.025064461 1.8807897e-38
0.0065794438 -0.13845308 0.028077595 1.4659094e-38
0.0084493496 -0.13763104 0.031073324 1.0233701e-38
0.010269359 -0.13763104 0.031073324 1.0233698e-38
-0.0010301843 -0.14387859 0.015040271 2.3509527e-38
0.00081793219 -0.14387859 0.015040271 2.350988e-38
0.0028681718 -0.14111041 0.025064461 2.350952e-38
0.0047541857 -0.14027832 0.028077595 1.6963985e-38
0.0066293441 -0.13945107 0.031073324 1.1340051e-38
0.0084493496 -0.13945107 0.031073324 9.1273533e-39
0.010269359 -0.13945107 0.031073324 8.2975899e-39
-0.0011715889 -0.14738683 0.0090664551 2.3509527e-38
0.00075265393 -0.14655443 0.012061827 2.350988e-38
0.0028681718 -0.14294095 0.025064461 2.350988e-38
0.0047541857 -0.1421036 0.028077595 1.5304463e-38
0.0066293441 -0.14127107 0.031073324 8.3897911e-39
0.0084493496 -0.14127107 0.031073324 7.8366145e-39
0.010269359 -0.14127107 0.031073324 1.0049307e-38
-0.0029540285 -0.14840777 0.012061827 2.3325494e-38
-0.0011006854 -0.14840777 0.012061827 2.3417327e-38
0.00068700314 -0.14924543 0.0090664551 2.3417324e-38
0.0028681718 -0.1447715 0.025064461 2.3048542e-38
0.0047541857 -0.14392884 0.028077595 1.3460195e-38
0.0065794438 -0.14392884 0.028077595 5.5317266e-39
0.0084047019 -0.14392884 0.028077595 5.6239194e-39
0.010229964 -0.14392884 0.028077595 7.0990495e-39
0.0026660487 -0.14942293 0.015040271 2.350988e-38
0.0048093349 -0.14491107 0.031073324 8.6667409e-39
0.0066293441 -0.14491107 0.031073324 3.3190315e-39
0.0084493496 -0.14491107 0.031073324 5.6239222e-39
0.010111839 -0.14828195 0.019094817 5.5317266e-39
0.011952847 -0.14828195 0.019094817 7.0990523e-39
0.013793858 -0.14828195 0.019094817 5.8083135e-39
0.015602876 -0.14942293 0.015040271 1.4747629e-39
0.017450994 -0.14942293 0.015040271 9.1835496e-41
0.0029289275 -0.14757936 0.028077595 2.2957064e-38
0.0048093349 -0.14673109 0.031073324 4.4257392e-39
0.0066293441 -0.14673109 0.031073324 2.7694142e-40
0.0084493496 -0.14673109 0.031073324 3.227196e-39
0.0029289275 -0.14940463 0.028077595 2.21273e-38
0.0048817284 -0.14743073 0.035005562 1.9368131e-39
0.0067947805 -0.14572121 0.041005604 3.6949438e-40
0.008597374 -0.14572121 0.041005604 2.490347e-39
0.0048817284 -0.14924385 0.035005562 2.7765888e-40
0.0067947805 -0.14752381 0.041005604 2.7873508e-40
0.008597374 -0.14752381 0.041005604 9.4346623e-41
0.0067947805 -0.1493264 0.041005604 2.8698593e-42
0.008597374 -0.1493264 0.041005604 1.793662e-42
