# .PCD v0.7 - Point Cloud Data file format
VERSION 0.7
FIELDS x y z rgb
SIZE 4 4 4 4
TYPE F F F F
COUNT 1 1 1 1
WIDTH 937
HEIGHT 1
VIEWPOINT 0 0 0 1 0 0 0
POINTS 937
DATA ascii
-0.045988172 -0.094660893 0.040107634 2.3509886e-38
-0.044316024 -0.095346272 0.037112262 2.3509886e-38
-0.042457432 -0.095346272 0.037112262 2.3509886e-38
-0.040770501 -0.09603554 0.034099843 2.3509886e-38
-0.039129935 -0.096960694 0.030056503 2.3509886e-38
-0.037258968 -0.096960694 0.030056503 2.3509886e-38
-0.035388008 -0.096960694 0.030056503 2.3509886e-38
-0.033517048 -0.096960694 0.030056503 2.3509886e-38
-0.031646088 -0.096960694 0.030056503 2.3509886e-38
-0.02977512 -0.096960694 0.030056503 2.3509886e-38
-0.028035574 -0.097633243 0.027117159 2.3509886e-38
-0.026291311 -0.098335579 0.024047639 2.3509886e-38
-0.024409816 -0.098335579 0.024047639 2.3509886e-38
-0.022686325 -0.099252045 0.020042326 2.3509886e-38
-0.020797804 -0.099252045 0.020042326 2.3509886e-38
-0.018909283 -0.099252045 0.020042326 2.3509886e-38
-0.017020762 -0.099252045 0.020042326 2.3509886e-38
-0.015132241 -0.099252045 0.020042326 2.3509886e-38
-0.013335612 -0.099937305 0.017047431 2.3509886e-38
-0.011441842 -0.099937305 0.017047431 2.3509886e-38
-0.009655185 -0.10083917 0.013105896 2.3509886e-38
-0.0078316256 -0.10153329 0.010072258 2.3509886e-38
-0.0059950463 -0.10220437 0.0071393522 2.3509886e-38
-0.0040839016 -0.10220437 0.0071393522 2.3509886e-38
-0.0021727569 -0.10220437 0.0071393522 2.3509886e-38
-0.00026161224 -0.10220437 0.0071393522 2.3509886e-38
0.0016495287 -0.10220437 0.0071393522 2.3509886e-38
0.003500849 -0.1031229 0.0031249793 2.3509886e-38
0.0054190308 -0.1031229 0.0031249793 2.3509886e-38
0.0073372126 -0.1031229 0.0031249793 2.3509886e-38
0.0092256032 -0.10382988 3.5193749e-05 2.3509886e-38
0.011118062 -0.10473295 -0.0039115874 2.3509886e-38
0.013048584 -0.10473295 -0.0039115874 2.3509886e-38
0.014961679 -0.10564254 -0.0078869788 2.3509886e-38
0.016899168 -0.10564254 -0.0078869788 2.3509886e-38
0.01883666 -0.10564254 -0.0078869788 2.3509886e-38
0.02077415 -0.10564254 -0.0078869788 2.3509886e-38
0.022719612 -0.10633601 -0.010917756 2.3509886e-38
0.024662416 -0.10633601 -0.010917756 2.3509886e-38
0.02662993 -0.10725726 -0.01494405 2.3509886e-38
0.028603043 -0.10793148 -0.017890666 2.3509886e-38
0.030558074 -0.10793148 -0.017890666 2.3509886e-38
0.03255957 -0.10886435 -0.021967743 2.3509886e-38
0.034521747 -0.10886435 -0.021967743 2.3509886e-38
0.036483929 -0.10886435 -0.021967743 2.3509886e-38
0.038446106 -0.10886435 -0.021967743 2.3509886e-38
0.040481597 -0.10977553 -0.025949929 2.3509886e-38
0.042450756 -0.10977553 -0.025949929 2.3509886e-38
0.044419922 -0.10977553 -0.025949929 2.3509886e-38
0.046389081 -0.10977553 -0.025949929 2.3509886e-38
0.048358239 -0.10977553 -0.025949929 2.3509886e-38
0.050327405 -0.10977553 -0.025949929 2.3509886e-38
0.052296564 -0.10977553 -0.025949929 2.3509886e-38
0.054357938 -0.11046316 -0.028955195 2.3509886e-38
0.056332368 -0.11046316 -0.028955195 2.3509886e-38
0.058440331 -0.11135681 -0.032860849 2.3509886e-38
0.060421612 -0.11135681 -0.032860849 2.3509886e-38
0.062555946 -0.11228584 -0.036921117 2.3509886e-38
0.06454435 -0.11228584 -0.036921117 2.3509886e-38
0.066695958 -0.11319222 -0.040882323 2.3509886e-38
0.068691298 -0.11319222 -0.040882323 2.3048907e-38
0.070824608 -0.11389829 -0.043968175 2.3509886e-38
0.073011711 -0.11481597 -0.047978852 2.3509886e-38
0.075019494 -0.11481597 -0.047978852 2.3509886e-38
0.077027284 -0.11481597 -0.047978852 2.3325494e-38
0.079035074 -0.11481597 -0.047978852 2.3509886e-38
0.081042856 -0.11481597 -0.047978852 2.3509886e-38
0.083266497 -0.11571021 -0.051887129 6.9161142e-39
0.085281134 -0.11571021 -0.051887129 4.6458229e-40
-0.079980463 -0.10273984 0.013105896 1.8993708e-38
-0.07807979 -0.10273984 0.013105896 2.0836564e-38
-0.075830102 -0.10183108 0.017047431 2.1204992e-38
-0.073936328 -0.10183108 0.017047431 2.1021671e-38
-0.072042555 -0.10183108 0.017047431 1.9822761e-38
-0.069899365 -0.10114056 0.020042326 1.9269224e-38
-0.068010837 -0.10114056 0.020042326 1.7793371e-38
-0.066122323 -0.10114056 0.020042326 1.733204e-38
-0.063681796 -0.099509358 0.027117159 1.7055453e-38
-0.061043352 -0.097204864 0.037112262 2.2033663e-38
-0.058961555 -0.09651424 0.040107634 2.34166e-38
-0.057108209 -0.09651424 0.040107634 2.3509879e-38
-0.055254877 -0.09651424 0.040107634 2.350988e-38
-0.053195253 -0.09582752 0.043086078 2.3509527e-38
-0.051347136 -0.09582752 0.043086078 2.3509527e-38
-0.04949902 -0.09582752 0.043086078 2.3509886e-38
-0.047841519 -0.09651424 0.040107634 2.3509886e-38
-0.045988172 -0.09651424 0.040107634 2.3509886e-38
-0.044134825 -0.09651424 0.040107634 2.3509886e-38
-0.042457432 -0.097204864 0.037112262 2.3509886e-38
-0.04059884 -0.097204864 0.037112262 2.3509886e-38
-0.038906619 -0.097899407 0.034099843 2.3509886e-38
-0.037042752 -0.097899407 0.034099843 2.3509886e-38
-0.03517887 -0.097899407 0.034099843 2.3509886e-38
-0.033315003 -0.097899407 0.034099843 2.3509886e-38
-0.031451128 -0.097899407 0.034099843 2.3509886e-38
-0.02977512 -0.098831654 0.030056503 2.3509886e-38
-0.027904153 -0.098831654 0.030056503 2.3509886e-38
-0.026291311 -0.10021709 0.024047639 2.3509886e-38
-0.024409816 -0.10021709 0.024047639 2.3509886e-38
-0.022686325 -0.10114056 0.020042326 2.3509886e-38
-0.020797804 -0.10114056 0.020042326 2.3509886e-38
-0.018909283 -0.10114056 0.020042326 2.3509886e-38
-0.017020762 -0.10114056 0.020042326 2.3509886e-38
-0.015132241 -0.10114056 0.020042326 2.3509886e-38
-0.013335612 -0.10183108 0.017047431 2.3509886e-38
-0.011441842 -0.10183108 0.017047431 2.3509886e-38
-0.009655185 -0.10273984 0.013105896 2.3509886e-38
-0.0078316256 -0.10343929 0.010072258 2.3509886e-38
-0.0059950463 -0.1041155 0.0071393522 2.3509886e-38
-0.0040839016 -0.1041155 0.0071393522 2.3509886e-38
-0.0021727569 -0.1041155 0.0071393522 2.3509886e-38
-0.00026161224 -0.1041155 0.0071393522 2.3509886e-38
0.0016495287 -0.1041155 0.0071393522 2.3509886e-38
0.003500849 -0.10504107 0.0031249793 2.3509886e-38
0.0054190308 -0.10504107 0.0031249793 2.3509886e-38
0.0073372126 -0.10504107 0.0031249793 2.3509886e-38
0.0092256032 -0.10575347 3.5193749e-05 2.3509886e-38
0.011149202 -0.10575347 3.5193749e-05 2.3509886e-38
0.013048584 -0.10666345 -0.0039115874 2.3509886e-38
0.014979104 -0.10666345 -0.0039115874 2.3509886e-38
0.016899168 -0.10758002 -0.0078869788 2.3509886e-38
0.01883666 -0.10758002 -0.0078869788 2.3509886e-38
0.02077415 -0.10758002 -0.0078869788 2.3509886e-38
0.022711642 -0.10758002 -0.0078869788 2.3509886e-38
0.024662416 -0.10827883 -0.010917756 2.3509886e-38
0.02662993 -0.10920714 -0.01494405 2.3509886e-38
0.028603043 -0.10988651 -0.017890666 2.3509886e-38
0.030558074 -0.10988651 -0.017890666 2.3509886e-38
0.03255957 -0.11082654 -0.021967743 2.3509886e-38
0.034521747 -0.11082654 -0.021967743 2.3509886e-38
0.036483929 -0.11082654 -0.021967743 2.3509886e-38
0.038446106 -0.11082654 -0.021967743 2.3509886e-38
0.040408283 -0.11082654 -0.021967743 2.3509886e-38
0.042370465 -0.11082654 -0.021967743 2.3509886e-38
0.044332646 -0.11082654 -0.021967743 2.3509886e-38
0.046294823 -0.11082654 -0.021967743 2.3509886e-38
0.048358239 -0.11174469 -0.025949929 2.3509886e-38
0.050327405 -0.11174469 -0.025949929 2.3509886e-38
0.052296564 -0.11174469 -0.025949929 2.3509886e-38
0.054265726 -0.11174469 -0.025949929 2.3509886e-38
0.056234885 -0.11174469 -0.025949929 2.3509886e-38
0.058306798 -0.11243759 -0.028955195 2.3509886e-38
0.060421612 -0.1133381 -0.032860849 2.3509886e-38
0.062402889 -0.1133381 -0.032860849 2.3509886e-38
0.06454435 -0.11427425 -0.036921117 2.3509886e-38
0.066532746 -0.11427425 -0.036921117 2.3509886e-38
0.068691298 -0.11518754 -0.040882323 2.3141103e-38
0.070686638 -0.11518754 -0.040882323 2.3509886e-38
0.072825365 -0.11589904 -0.043968175 2.3509886e-38
0.074826121 -0.11589904 -0.043968175 2.3509886e-38
0.077027284 -0.11682375 -0.047978852 2.3233299e-38
0.07882762 -0.11589904 -0.043968175 2.3509886e-38
0.080828376 -0.11589904 -0.043968175 2.3509886e-38
0.083050638 -0.11682375 -0.047978852 1.1710287e-38
0.085281134 -0.11772485 -0.051887129 2.5850818e-39
-0.079617649 -0.10372485 0.017047431 1.9269938e-38
-0.077723876 -0.10372485 0.017047431 2.1389735e-38
-0.075830102 -0.10372485 0.017047431 2.1205348e-38
-0.073936328 -0.10372485 0.017047431 2.0928757e-38
-0.072042555 -0.10372485 0.017047431 1.9822762e-38
-0.069899365 -0.10302909 0.020042326 1.8900442e-38
-0.068010837 -0.10302909 0.020042326 1.7885567e-38
-0.066122323 -0.10302909 0.020042326 1.7424236e-38
-0.063681796 -0.10138547 0.027117159 1.6410084e-38
-0.061043352 -0.099063456 0.037112262 2.0835119e-38
-0.058961555 -0.098367572 0.040107634 2.3509156e-38
-0.057108209 -0.098367572 0.040107634 2.3417323e-38
-0.055254877 -0.098367572 0.040107634 2.350988e-38
-0.053195253 -0.097675636 0.043086078 2.3509527e-38
-0.051347136 -0.097675636 0.043086078 2.3509527e-38
-0.04949902 -0.097675636 0.043086078 2.3509886e-38
-0.047650903 -0.097675636 0.043086078 2.3509886e-38
-0.045988172 -0.098367572 0.040107634 2.3509886e-38
-0.044134825 -0.098367572 0.040107634 2.3509886e-38
-0.042457432 -0.099063456 0.037112262 2.3509886e-38
-0.04059884 -0.099063456 0.037112262 2.3509886e-38
-0.038906619 -0.099763289 0.034099843 2.3509886e-38
-0.037042752 -0.099763289 0.034099843 2.3509886e-38
-0.03517887 -0.099763289 0.034099843 2.3509886e-38
-0.033315003 -0.099763289 0.034099843 2.3509886e-38
-0.031451128 -0.099763289 0.034099843 2.3509886e-38
-0.02977512 -0.10070263 0.030056503 2.3509886e-38
-0.027904153 -0.10070263 0.030056503 2.3509886e-38
-0.026291311 -0.10209858 0.024047639 2.3509886e-38
-0.024409816 -0.10209858 0.024047639 2.3509886e-38
-0.022528321 -0.10209858 0.024047639 2.3509886e-38
-0.020797804 -0.10302909 0.020042326 2.3509886e-38
-0.018909283 -0.10302909 0.020042326 2.3509886e-38
-0.017020762 -0.10302909 0.020042326 2.3509886e-38
-0.015132241 -0.10302909 0.020042326 2.3509886e-38
-0.013335612 -0.10372485 0.017047431 2.3509886e-38
-0.011441842 -0.10372485 0.017047431 2.3509886e-38
-0.009655185 -0.10464053 0.013105896 2.3509886e-38
-0.0078316256 -0.10534529 0.010072258 2.3509886e-38
-0.0059950463 -0.10602666 0.0071393522 2.3509886e-38
-0.0040839016 -0.10602666 0.0071393522 2.3509886e-38
-0.0021727569 -0.10602666 0.0071393522 2.3509886e-38
-0.00026161224 -0.10602666 0.0071393522 2.3509886e-38
0.0016495287 -0.10602666 0.0071393522 2.3509886e-38
0.003500849 -0.10695927 0.0031249793 2.3509886e-38
0.0054190308 -0.10695927 0.0031249793 2.3509886e-38
0.0073372126 -0.10695927 0.0031249793 2.3509886e-38
0.0092553981 -0.10695927 0.0031249793 2.3509886e-38
0.01117358 -0.10695927 0.0031249793 2.3509886e-38
0.013091765 -0.10695927 0.0031249793 2.3509886e-38
0.014979104 -0.10859399 -0.0039115874 2.3509886e-38
0.016909625 -0.10859399 -0.0039115874 2.3509886e-38
0.01883666 -0.10951753 -0.0078869788 2.3509886e-38
0.02077415 -0.10951753 -0.0078869788 2.3509886e-38
0.022711642 -0.10951753 -0.0078869788 2.3509886e-38
0.024662416 -0.11022164 -0.010917756 2.3509886e-38
0.026605222 -0.11022164 -0.010917756 2.3509886e-38
0.028579794 -0.11115701 -0.01494405 2.3509886e-38
0.030558074 -0.11184154 -0.017890666 2.3509886e-38
0.032513104 -0.11184154 -0.017890666 2.3509886e-38
0.034521747 -0.11278872 -0.021967743 2.3509886e-38
0.036483929 -0.11278872 -0.021967743 2.3509886e-38
0.038446106 -0.11278872 -0.021967743 2.3509886e-38
0.040408283 -0.11278872 -0.021967743 2.3509886e-38
0.042370465 -0.11278872 -0.021967743 2.3509886e-38
0.044332646 -0.11278872 -0.021967743 2.3509886e-38
0.046294823 -0.11278872 -0.021967743 2.3509886e-38
0.048358239 -0.11371385 -0.025949929 2.3509886e-38
0.050327405 -0.11371385 -0.025949929 2.3509886e-38
0.052296564 -0.11371385 -0.025949929 2.3509886e-38
0.054265726 -0.11371385 -0.025949929 2.3509886e-38
0.056234885 -0.11371385 -0.025949929 2.3509886e-38
0.058306798 -0.11441202 -0.028955195 2.3509886e-38
0.060281228 -0.11441202 -0.028955195 2.3509886e-38
0.062402889 -0.11531936 -0.032860849 2.3509886e-38
0.064384162 -0.11531936 -0.032860849 2.3509886e-38
0.066365451 -0.11531936 -0.032860849 2.3509886e-38
0.068521142 -0.11626263 -0.036921117 2.3509886e-38
0.070509538 -0.11626263 -0.036921117 2.3509886e-38
0.072681986 -0.1171829 -0.040882323 2.3509886e-38
0.074677326 -0.1171829 -0.040882323 2.3509886e-38
0.07682687 -0.11789979 -0.043968175 2.3325494e-38
0.078668013 -0.1171829 -0.040882323 2.3141103e-38
0.080663353 -0.1171829 -0.040882323 2.3509886e-38
0.082658693 -0.1171829 -0.040882323 1.7518612e-38
-0.079617649 -0.10561861 0.017047431 1.9638723e-38
-0.077723876 -0.10561861 0.017047431 2.21273e-38
-0.075830102 -0.10561861 0.017047431 2.1481933e-38
-0.073936328 -0.10561861 0.017047431 2.0744366e-38
-0.072042555 -0.10561861 0.017047431 2.0283741e-38
-0.069899365 -0.1049176 0.020042326 1.9083754e-38
-0.068010837 -0.1049176 0.020042326 1.7793371e-38
-0.066122323 -0.1049176 0.020042326 1.7239844e-38
-0.063681796 -0.1032616 0.027117159 1.6502279e-38
-0.061043352 -0.10092205 0.037112262 1.9544381e-38
-0.058961555 -0.10022092 0.040107634 2.3509876e-38
-0.056891486 -0.099523753 0.043086078 2.3232932e-38
-0.05504337 -0.099523753 0.043086078 2.350952e-38
-0.053195253 -0.099523753 0.043086078 2.3509527e-38
-0.051347136 -0.099523753 0.043086078 2.3509527e-38
-0.04949902 -0.099523753 0.043086078 2.3509886e-38
-0.047650903 -0.099523753 0.043086078 2.3509886e-38
-0.045802787 -0.099523753 0.043086078 2.3509886e-38
-0.04395467 -0.099523753 0.043086078 2.3509886e-38
-0.042281494 -0.10022092 0.040107634 2.3509886e-38
-0.040428147 -0.10022092 0.040107634 2.3509886e-38
-0.038740247 -0.10092205 0.037112262 2.3509886e-38
-0.037042752 -0.10162716 0.034099843 2.3509886e-38
-0.03517887 -0.10162716 0.034099843 2.3509886e-38
-0.033315003 -0.10162716 0.034099843 2.3509886e-38
-0.031451128 -0.10162716 0.034099843 2.3509886e-38
-0.02977512 -0.10257359 0.030056503 2.3509886e-38
-0.027904153 -0.10257359 0.030056503 2.3509886e-38
-0.026159458 -0.1032616 0.027117159 2.3509886e-38
-0.024409816 -0.10398008 0.024047639 2.3509886e-38
-0.022528321 -0.10398008 0.024047639 2.3509886e-38
-0.020797804 -0.1049176 0.020042326 2.3509886e-38
-0.018909283 -0.1049176 0.020042326 2.3509886e-38
-0.017020762 -0.1049176 0.020042326 2.3509886e-38
-0.015132241 -0.1049176 0.020042326 2.3509886e-38
-0.013335612 -0.10561861 0.017047431 2.3509886e-38
-0.011441842 -0.10561861 0.017047431 2.3509886e-38
-0.009655185 -0.1065412 0.013105896 2.3509886e-38
-0.0079061911 -0.1079378 0.0071393522 2.3509886e-38
-0.0059950463 -0.1079378 0.0071393522 2.3509886e-38
-0.0040839016 -0.1079378 0.0071393522 2.3509886e-38
-0.0021727569 -0.1079378 0.0071393522 2.3509886e-38
-0.00026161224 -0.1079378 0.0071393522 2.3509886e-38
0.0016495287 -0.1079378 0.0071393522 2.3509886e-38
0.0035606772 -0.1079378 0.0071393522 2.3509886e-38
0.0054190308 -0.10887744 0.0031249793 2.3509886e-38
0.0073372126 -0.10887744 0.0031249793 2.3509886e-38
0.0092553981 -0.10887744 0.0031249793 2.3509886e-38
0.01117358 -0.10887744 0.0031249793 2.3509886e-38
0.013091765 -0.10887744 0.0031249793 2.3509886e-38
0.014996404 -0.10960068 3.5193749e-05 2.3509886e-38
0.016909625 -0.11052449 -0.0039115874 2.3509886e-38
0.018840145 -0.11052449 -0.0039115874 2.3509886e-38
0.020770665 -0.11052449 -0.0039115874 2.3509886e-38
0.022701185 -0.11052449 -0.0039115874 2.3509886e-38
0.024649132 -0.11145501 -0.0078869788 2.3509886e-38
0.026605222 -0.11216442 -0.010917756 2.3509886e-38
0.028579794 -0.11310686 -0.01494405 2.3509886e-38
0.030558074 -0.11379658 -0.017890666 2.3509886e-38
0.032513104 -0.11379658 -0.017890666 2.3509886e-38
0.034468137 -0.11379658 -0.017890666 2.3509886e-38
0.036423165 -0.11379658 -0.017890666 2.3509886e-38
0.038378194 -0.11379658 -0.017890666 2.3509886e-38
0.040333226 -0.11379658 -0.017890666 2.3509886e-38
0.042370465 -0.11475091 -0.021967743 2.3509886e-38
0.044332646 -0.11475091 -0.021967743 2.3509886e-38
0.046294823 -0.11475091 -0.021967743 2.3509886e-38
0.048257001 -0.11475091 -0.021967743 2.3509886e-38
0.050219178 -0.11475091 -0.021967743 2.3509886e-38
0.052181359 -0.11475091 -0.021967743 2.3509886e-38
0.054265726 -0.115683 -0.025949929 2.3509886e-38
0.056234885 -0.115683 -0.025949929 2.3509886e-38
0.058306798 -0.11638646 -0.028955195 2.3509886e-38
0.060281228 -0.11638646 -0.028955195 2.3509886e-38
0.062402889 -0.11730064 -0.032860849 2.3509886e-38
0.064384162 -0.11730064 -0.032860849 2.3509886e-38
0.066365451 -0.11730064 -0.032860849 2.3509886e-38
0.068521142 -0.11825104 -0.036921117 2.3509886e-38
0.070509538 -0.11825104 -0.036921117 2.3509886e-38
0.072681986 -0.11917825 -0.040882323 2.3325494e-38
0.074677326 -0.11917825 -0.040882323 2.3509886e-38
0.076672673 -0.11917825 -0.040882323 2.3509886e-38
0.078668013 -0.11917825 -0.040882323 2.3141103e-38
0.080663353 -0.11917825 -0.040882323 2.3509886e-38
0.082658693 -0.11917825 -0.040882323 2.1759611e-38
-0.079980463 -0.1084419 0.013105896 2.0284095e-38
-0.07807979 -0.1084419 0.013105896 2.2865221e-38
-0.075830102 -0.1075124 0.017047431 2.1297539e-38
-0.073936328 -0.1075124 0.017047431 2.0098996e-38
-0.072042555 -0.1075124 0.017047431 2.0468135e-38
-0.070148781 -0.1075124 0.017047431 1.9360341e-38
-0.068010837 -0.10680611 0.020042326 1.7516784e-38
-0.066122323 -0.10680611 0.020042326 1.6871062e-38
-0.063921288 -0.10586159 0.024047639 1.6871062e-38
-0.061581492 -0.10444455 0.030056503 1.8161446e-38
-0.058961555 -0.10207425 0.040107634 2.3509876e-38
-0.056891486 -0.10137187 0.043086078 2.3140736e-38
-0.05504337 -0.10137187 0.043086078 2.350988e-38
-0.053195253 -0.10137187 0.043086078 2.3509527e-38
-0.051073447 -0.10041572 0.047140624 2.3509527e-38
-0.049232438 -0.10041572 0.047140624 2.3509886e-38
-0.04739143 -0.10041572 0.047140624 2.3509886e-38
-0.045550421 -0.10041572 0.047140624 2.3509886e-38
-0.04395467 -0.10137187 0.043086078 2.3509886e-38
-0.042281494 -0.10207425 0.040107634 2.3509886e-38
-0.040428147 -0.10207425 0.040107634 2.3509886e-38
-0.038740247 -0.10278064 0.037112262 2.3509886e-38
-0.037042752 -0.10349102 0.034099843 2.3509886e-38
-0.03517887 -0.10349102 0.034099843 2.3509886e-38
-0.033315003 -0.10349102 0.034099843 2.3509886e-38
-0.031451128 -0.10349102 0.034099843 2.3509886e-38
-0.029587254 -0.10349102 0.034099843 2.3509886e-38
-0.027723379 -0.10349102 0.034099843 2.3509886e-38
-0.026033193 -0.10444455 0.030056503 2.3509886e-38
-0.024409816 -0.10586159 0.024047639 2.3509886e-38
-0.022528321 -0.10586159 0.024047639 2.3509886e-38
-0.020797804 -0.10680611 0.020042326 2.3509886e-38
-0.018909283 -0.10680611 0.020042326 2.3509886e-38
-0.017020762 -0.10680611 0.020042326 2.3509886e-38
-0.015132241 -0.10680611 0.020042326 2.3509886e-38
-0.01324372 -0.10680611 0.020042326 2.3509886e-38
-0.011355199 -0.10680611 0.020042326 2.3509886e-38
-0.0097376294 -0.10915731 0.010072258 2.3509886e-38
-0.0078316256 -0.10915731 0.010072258 2.3509886e-38
-0.0059256256 -0.10915731 0.010072258 2.3509886e-38
-0.0040196255 -0.10915731 0.010072258 2.3509886e-38
-0.002113618 -0.10915731 0.010072258 2.3509886e-38
-0.00026161224 -0.10984896 0.0071393522 2.3509886e-38
0.0016495287 -0.10984896 0.0071393522 2.3509886e-38
0.0035606772 -0.10984896 0.0071393522 2.3509886e-38
0.0054190308 -0.11079563 0.0031249793 2.3509886e-38
0.0073372126 -0.11079563 0.0031249793 2.3509886e-38
0.0092553981 -0.11079563 0.0031249793 2.3509886e-38
0.01117358 -0.11079563 0.0031249793 2.3509886e-38
0.013091765 -0.11079563 0.0031249793 2.3509886e-38
0.015009947 -0.11079563 0.0031249793 2.3509886e-38
0.016920004 -0.11152427 3.5193749e-05 2.3509886e-38
0.018843604 -0.11152427 3.5193749e-05 2.3509886e-38
0.020770665 -0.11245503 -0.0039115874 2.3509886e-38
0.022701185 -0.11245503 -0.0039115874 2.3509886e-38
0.024631707 -0.11245503 -0.0039115874 2.3509886e-38
0.026586622 -0.11339252 -0.0078869788 2.3509886e-38
0.028548026 -0.11410724 -0.010917756 2.3509886e-38
0.030490831 -0.11410724 -0.010917756 2.3509886e-38
0.032433636 -0.11410724 -0.010917756 2.3509886e-38
0.034429386 -0.11505674 -0.01494405 2.3509886e-38
0.036423165 -0.11575161 -0.017890666 2.3509886e-38
0.038378194 -0.11575161 -0.017890666 2.3509886e-38
0.040333226 -0.11575161 -0.017890666 2.3509886e-38
0.042288259 -0.11575161 -0.017890666 2.3509886e-38
0.044332646 -0.11671309 -0.021967743 2.3509886e-38
0.046294823 -0.11671309 -0.021967743 2.3509886e-38
0.048257001 -0.11671309 -0.021967743 2.3509886e-38
0.050219178 -0.11671309 -0.021967743 2.3509886e-38
0.052181359 -0.11671309 -0.021967743 2.3509886e-38
0.054265726 -0.11765216 -0.025949929 2.3509886e-38
0.056234885 -0.11765216 -0.025949929 2.3509886e-38
0.058306798 -0.11836089 -0.028955195 2.3509886e-38
0.060281228 -0.11836089 -0.028955195 2.3509886e-38
0.062402889 -0.11928193 -0.032860849 2.3509886e-38
0.064384162 -0.11928193 -0.032860849 2.3509886e-38
0.066532746 -0.12023942 -0.036921117 2.3509886e-38
0.068521142 -0.12023942 -0.036921117 2.3509886e-38
0.070509538 -0.12023942 -0.036921117 2.3509886e-38
0.072497934 -0.12023942 -0.036921117 2.341769e-38
0.074677326 -0.12117358 -0.040882323 2.3509886e-38
0.076672673 -0.12117358 -0.040882323 2.3509886e-38
0.078668013 -0.12117358 -0.040882323 2.3509886e-38
0.080663353 -0.12117358 -0.040882323 2.3509886e-38
0.082658693 -0.12117358 -0.040882323 2.3234379e-38
0.084654033 -0.12117358 -0.040882323 1.3739678e-38
-0.079980463 -0.11034258 0.013105896 2.1021304e-38
-0.07807979 -0.11034258 0.013105896 2.3234001e-38
-0.076179102 -0.11034258 0.013105896 2.1021308e-38
-0.074278414 -0.11034258 0.013105896 1.9453627e-38
-0.072042555 -0.10940616 0.017047431 2.0283743e-38
-0.070148781 -0.10940616 0.017047431 1.9636928e-38
-0.068255007 -0.10940616 0.017047431 1.7424589e-38
-0.066122323 -0.10869466 0.020042326 1.6594475e-38
-0.063921288 -0.10774307 0.024047639 1.7239844e-38
-0.061581492 -0.10631551 0.030056503 1.723949e-38
-0.058961555 -0.1039276 0.040107634 2.3509876e-38
-0.056891486 -0.10322 0.043086078 2.3232932e-38
-0.05504337 -0.10322 0.043086078 2.350988e-38
-0.053195253 -0.10322 0.043086078 2.3509527e-38
-0.051073447 -0.10225673 0.047140624 2.3509527e-38
-0.049232438 -0.10225673 0.047140624 2.3509886e-38
-0.04739143 -0.10225673 0.047140624 2.3509886e-38
-0.045550421 -0.10225673 0.047140624 2.3509886e-38
-0.04395467 -0.10322 0.043086078 2.3509886e-38
-0.042106554 -0.10322 0.043086078 2.3509886e-38
-0.040428147 -0.1039276 0.040107634 2.3509886e-38
-0.038740247 -0.10463922 0.037112262 2.3509886e-38
-0.037042752 -0.10535492 0.034099843 2.3509886e-38
-0.03517887 -0.10535492 0.034099843 2.3509886e-38
-0.033315003 -0.10535492 0.034099843 2.3509886e-38
-0.031451128 -0.10535492 0.034099843 2.3509886e-38
-0.029587254 -0.10535492 0.034099843 2.3509886e-38
-0.027723379 -0.10535492 0.034099843 2.3509886e-38
-0.026033193 -0.10631551 0.030056503 2.3509886e-38
-0.024162233 -0.10631551 0.030056503 2.3509886e-38
-0.022291265 -0.10631551 0.030056503 2.3509886e-38
-0.020797804 -0.10869466 0.020042326 2.3509886e-38
-0.018909283 -0.10869466 0.020042326 2.3509886e-38
-0.017020762 -0.10869466 0.020042326 2.3509886e-38
-0.015132241 -0.10869466 0.020042326 2.3509886e-38
-0.013120823 -0.10774307 0.024047639 2.3509886e-38
-0.011239324 -0.10774307 0.024047639 2.3509886e-38
-0.009548068 -0.10940616 0.017047431 2.3509886e-38
-0.0077545047 -0.11034258 0.013105896 2.3509886e-38
-0.0058538169 -0.11034258 0.013105896 2.3509886e-38
-0.0040196255 -0.11106332 0.010072258 2.3509886e-38
-0.002113618 -0.11106332 0.010072258 2.3509886e-38
-0.00026161224 -0.11176009 0.0071393522 2.3509886e-38
0.0016495287 -0.11176009 0.0071393522 2.3509886e-38
0.0035606772 -0.11176009 0.0071393522 2.3509886e-38
0.0054190308 -0.1127138 0.0031249793 2.3509886e-38
0.0073372126 -0.1127138 0.0031249793 2.3509886e-38
0.0092553981 -0.1127138 0.0031249793 2.3509886e-38
0.01117358 -0.1127138 0.0031249793 2.3509886e-38
0.013091765 -0.1127138 0.0031249793 2.3509886e-38
0.015009947 -0.1127138 0.0031249793 2.3509886e-38
0.016928131 -0.1127138 0.0031249793 2.3509886e-38
0.018843604 -0.11344786 3.5193749e-05 2.3509886e-38
0.020767206 -0.11344786 3.5193749e-05 2.3509886e-38
0.022690807 -0.11344786 3.5193749e-05 2.3509886e-38
0.024631707 -0.11438553 -0.0039115874 2.3509886e-38
0.026562227 -0.11438553 -0.0039115874 2.3509886e-38
0.028524114 -0.11533 -0.0078869788 2.3509886e-38
0.030490831 -0.11605005 -0.010917756 2.3509886e-38
0.032433636 -0.11605005 -0.010917756 2.3509886e-38
0.034376442 -0.11605005 -0.010917756 2.3509886e-38
0.036379252 -0.11700659 -0.01494405 2.3509886e-38
0.038329117 -0.11700659 -0.01494405 2.3509886e-38
0.040333226 -0.11770664 -0.017890666 2.3509886e-38
0.042288259 -0.11770664 -0.017890666 2.3509886e-38
0.044332646 -0.11867525 -0.021967743 2.3509886e-38
0.046294823 -0.11867525 -0.021967743 2.3509886e-38
0.048257001 -0.11867525 -0.021967743 2.3509886e-38
0.050219178 -0.11867525 -0.021967743 2.3509886e-38
0.052181359 -0.11867525 -0.021967743 2.3509886e-38
0.054265726 -0.11962132 -0.025949929 2.3509886e-38
0.056332368 -0.12033533 -0.028955195 2.3509886e-38
0.058306798 -0.12033533 -0.028955195 2.3509886e-38
0.060281228 -0.12033533 -0.028955195 2.3509886e-38
0.062402889 -0.12126322 -0.032860849 2.3509886e-38
0.064384162 -0.12126322 -0.032860849 2.3509886e-38
0.066532746 -0.12222783 -0.036921117 2.3509886e-38
0.068521142 -0.12222783 -0.036921117 2.3233299e-38
0.070509538 -0.12222783 -0.036921117 2.3509886e-38
0.072497934 -0.12222783 -0.036921117 2.3509886e-38
0.074677326 -0.12316893 -0.040882323 2.3233299e-38
0.076672673 -0.12316893 -0.040882323 2.3509886e-38
0.078668013 -0.12316893 -0.040882323 2.3509886e-38
0.080451518 -0.12222783 -0.036921117 2.3233299e-38
0.082439914 -0.12222783 -0.036921117 2.3233662e-38
0.08442831 -0.12222783 -0.036921117 2.0654353e-38
-0.079980463 -0.11224325 0.013105896 2.2865218e-38
-0.07807979 -0.11224325 0.013105896 2.2496434e-38
-0.076179102 -0.11224325 0.013105896 2.0375936e-38
-0.074278414 -0.11224325 0.013105896 2.0928757e-38
-0.072377726 -0.11224325 0.013105896 2.0007157e-38
-0.070477054 -0.11224325 0.013105896 1.8991558e-38
-0.068255007 -0.11129995 0.017047431 1.6502632e-38
-0.066122323 -0.11058317 0.020042326 1.7239844e-38
-0.063921288 -0.10962458 0.024047639 1.7055453e-38
-0.061581492 -0.10818647 0.030056503 1.7516077e-38
-0.058961555 -0.10578094 0.040107634 2.3509516e-38
-0.056891486 -0.1050681 0.043086078 2.3509879e-38
-0.05504337 -0.1050681 0.043086078 2.3417324e-38
-0.052914456 -0.10409774 0.047140624 2.3509527e-38
-0.051073447 -0.10409774 0.047140624 2.3509527e-38
-0.049232438 -0.10409774 0.047140624 2.3509886e-38
-0.04739143 -0.10409774 0.047140624 2.3509886e-38
-0.045550421 -0.10409774 0.047140624 2.3509886e-38
-0.04395467 -0.1050681 0.043086078 2.3509886e-38
-0.042106554 -0.1050681 0.043086078 2.3509886e-38
-0.040428147 -0.10578094 0.040107634 2.3509886e-38
-0.038740247 -0.10649781 0.037112262 2.3509886e-38
-0.036881655 -0.10649781 0.037112262 2.3509886e-38
-0.035023063 -0.10649781 0.037112262 2.3509886e-38
-0.033315003 -0.10721879 0.034099843 2.3509886e-38
-0.031451128 -0.10721879 0.034099843 2.3509886e-38
-0.029587254 -0.10721879 0.034099843 2.3509886e-38
-0.027723379 -0.10721879 0.034099843 2.3509886e-38
-0.025859505 -0.10721879 0.034099843 2.3509886e-38
-0.024162233 -0.10818647 0.030056503 2.3509886e-38
-0.022291265 -0.10818647 0.030056503 2.3509886e-38
-0.020531107 -0.10888995 0.027117159 2.3509886e-38
-0.018654991 -0.10888995 0.027117159 2.3509886e-38
-0.01688382 -0.10962458 0.024047639 2.3509886e-38
-0.015002321 -0.10962458 0.024047639 2.3509886e-38
-0.013120823 -0.10962458 0.024047639 2.3509886e-38
-0.011239324 -0.10962458 0.024047639 2.3509886e-38
-0.009548068 -0.11129995 0.017047431 2.3509886e-38
-0.0076542944 -0.11129995 0.017047431 2.3509886e-38
-0.0058538169 -0.11224325 0.013105896 2.3509886e-38
-0.0039531365 -0.11224325 0.013105896 2.3509886e-38
-0.002113618 -0.11296929 0.010072258 2.3509886e-38
-0.00026161224 -0.11367123 0.0071393522 2.3509886e-38
0.0016495287 -0.11367123 0.0071393522 2.3509886e-38
0.0035606772 -0.11367123 0.0071393522 2.3509886e-38
0.0054718219 -0.11367123 0.0071393522 2.3509886e-38
0.0073372126 -0.114632 0.0031249793 2.3509886e-38
0.0092553981 -0.114632 0.0031249793 2.3509886e-38
0.01117358 -0.114632 0.0031249793 2.3509886e-38
0.013091765 -0.114632 0.0031249793 2.3509886e-38
0.015009947 -0.114632 0.0031249793 2.3509886e-38
0.016928131 -0.114632 0.0031249793 2.3509886e-38
0.018843604 -0.11537148 3.5193749e-05 2.3509886e-38
0.020767206 -0.11537148 3.5193749e-05 2.3509886e-38
0.022690807 -0.11537148 3.5193749e-05 2.3509886e-38
0.024631707 -0.11631607 -0.0039115874 2.3509886e-38
0.026562227 -0.11631607 -0.0039115874 2.3509886e-38
0.028524114 -0.11726747 -0.0078869788 2.3509886e-38
0.030490831 -0.11799283 -0.010917756 2.3509886e-38
0.032433636 -0.11799283 -0.010917756 2.3509886e-38
0.034376442 -0.11799283 -0.010917756 2.3509886e-38
0.036379252 -0.11895646 -0.01494405 2.3509886e-38
0.038329117 -0.11895646 -0.01494405 2.3509886e-38
0.040278979 -0.11895646 -0.01494405 2.3509886e-38
0.042288259 -0.11966167 -0.017890666 2.3509886e-38
0.044332646 -0.12063743 -0.021967743 2.3509886e-38
0.046294823 -0.12063743 -0.021967743 2.3509886e-38
0.048257001 -0.12063743 -0.021967743 2.3509886e-38
0.050219178 -0.12063743 -0.021967743 2.3509886e-38
0.052181359 -0.12063743 -0.021967743 2.3509886e-38
0.054265726 -0.12159048 -0.025949929 2.3509886e-38
0.056332368 -0.12230973 -0.028955195 2.3509886e-38
0.058440331 -0.12324448 -0.032860849 2.3509886e-38
0.060421612 -0.12324448 -0.032860849 2.3509886e-38
0.062402889 -0.12324448 -0.032860849 2.3509886e-38
0.064384162 -0.12324448 -0.032860849 2.3509886e-38
0.066532746 -0.12421621 -0.036921117 2.3509886e-38
0.068521142 -0.12421621 -0.036921117 2.3509886e-38
0.070509538 -0.12421621 -0.036921117 2.3509886e-38
0.072497934 -0.12421621 -0.036921117 2.3509886e-38
0.07448633 -0.12421621 -0.036921117 2.3509886e-38
0.076672673 -0.12516426 -0.040882323 2.3509886e-38
0.078668013 -0.12516426 -0.040882323 2.3509886e-38
0.080451518 -0.12421621 -0.036921117 2.3509886e-38
0.082439914 -0.12421621 -0.036921117 2.341805e-38
0.084654033 -0.12516426 -0.040882323 2.2958873e-38
-0.082165718 -0.1148753 0.010072258 7.0994124e-39
-0.079980463 -0.11414395 0.013105896 2.3141808e-38
-0.07807979 -0.11414395 0.013105896 2.2496434e-38
-0.076179102 -0.11414395 0.013105896 2.0560326e-38
-0.074278414 -0.11414395 0.013105896 2.1113148e-38
-0.072377726 -0.11414395 0.013105896 2.0191192e-38
-0.070477054 -0.11414395 0.013105896 1.8899366e-38
-0.068255007 -0.11319371 0.017047431 1.6779219e-38
-0.066361248 -0.11319371 0.017047431 1.6871062e-38
-0.064233795 -0.11247168 0.020042326 1.6963257e-38
-0.06180568 -0.11076607 0.027117159 1.723949e-38
-0.058961555 -0.10763429 0.040107634 2.3509876e-38
-0.056891486 -0.10691623 0.043086078 2.3509879e-38
-0.054755464 -0.10593875 0.047140624 2.3232933e-38
-0.052710906 -0.10523017 0.050079729 2.3509527e-38
-0.050875038 -0.10523017 0.050079729 2.3509527e-38
-0.049232438 -0.10593875 0.047140624 2.3509886e-38
-0.04739143 -0.10593875 0.047140624 2.3509886e-38
-0.045550421 -0.10593875 0.047140624 2.3509886e-38
-0.04395467 -0.10691623 0.043086078 2.3509886e-38
-0.042106554 -0.10691623 0.043086078 2.3509886e-38
-0.040428147 -0.10763429 0.040107634 2.3509886e-38
-0.038740247 -0.1083564 0.037112262 2.3509886e-38
-0.036881655 -0.1083564 0.037112262 2.3509886e-38
-0.035023063 -0.1083564 0.037112262 2.3509886e-38
-0.033164471 -0.1083564 0.037112262 2.3509886e-38
-0.031305879 -0.1083564 0.037112262 2.3509886e-38
-0.029587254 -0.10908265 0.034099843 2.3509886e-38
-0.027723379 -0.10908265 0.034099843 2.3509886e-38
-0.025859505 -0.10908265 0.034099843 2.3509886e-38
-0.024162233 -0.11005743 0.030056503 2.3509886e-38
-0.022291265 -0.11005743 0.030056503 2.3509886e-38
-0.020531107 -0.11076607 0.027117159 2.3509886e-38
-0.018654991 -0.11076607 0.027117159 2.3509886e-38
-0.01688382 -0.11150609 0.024047639 2.3509886e-38
-0.015002321 -0.11150609 0.024047639 2.3509886e-38
-0.013120823 -0.11150609 0.024047639 2.3509886e-38
-0.011239324 -0.11150609 0.024047639 2.3509886e-38
-0.009548068 -0.11319371 0.017047431 2.3509886e-38
-0.0076542944 -0.11319371 0.017047431 2.3509886e-38
-0.0058538169 -0.11414395 0.013105896 2.3509886e-38
-0.0039531365 -0.11414395 0.013105896 2.3509886e-38
-0.002113618 -0.1148753 0.010072258 2.3509886e-38
-0.00020761788 -0.1148753 0.010072258 2.3509886e-38
0.0016495287 -0.11558239 0.0071393522 2.3509886e-38
0.0035606772 -0.11558239 0.0071393522 2.3509886e-38
0.0054718219 -0.11558239 0.0071393522 2.3509886e-38
0.0073829666 -0.11558239 0.0071393522 2.3509886e-38
0.0092553981 -0.11655019 0.0031249793 2.3509886e-38
0.01117358 -0.11655019 0.0031249793 2.3509886e-38
0.013091765 -0.11655019 0.0031249793 2.3509886e-38
0.015009947 -0.11655019 0.0031249793 2.3509886e-38
0.016928131 -0.11655019 0.0031249793 2.3509886e-38
0.018846314 -0.11655019 0.0031249793 2.3509886e-38
0.020764496 -0.11655019 0.0031249793 2.3509886e-38
0.022690807 -0.11729507 3.5193749e-05 2.3509886e-38
0.024631707 -0.11824657 -0.0039115874 2.3509886e-38
0.026586622 -0.11920498 -0.0078869788 2.3509886e-38
0.028524114 -0.11920498 -0.0078869788 2.3509886e-38
0.030490831 -0.11993565 -0.010917756 2.3509886e-38
0.032433636 -0.11993565 -0.010917756 2.3509886e-38
0.034376442 -0.11993565 -0.010917756 2.3509886e-38
0.036379252 -0.12090631 -0.01494405 2.3509886e-38
0.038329117 -0.12090631 -0.01494405 2.3509886e-38
0.040278979 -0.12090631 -0.01494405 2.3509886e-38
0.042288259 -0.12161671 -0.017890666 2.3509886e-38
0.044243287 -0.12161671 -0.017890666 2.3509886e-38
0.046294823 -0.12259962 -0.021967743 2.3509886e-38
0.048257001 -0.12259962 -0.021967743 2.3509886e-38
0.050219178 -0.12259962 -0.021967743 2.3509886e-38
0.052181359 -0.12259962 -0.021967743 2.3509886e-38
0.054265726 -0.12355967 -0.025949929 2.3509886e-38
0.056234885 -0.12355967 -0.025949929 2.3509886e-38
0.058306798 -0.12428416 -0.028955195 2.3509886e-38
0.060281228 -0.12428416 -0.028955195 2.3509886e-38
0.062402889 -0.12522577 -0.032860849 2.3509886e-38
0.064384162 -0.12522577 -0.032860849 2.3509886e-38
0.066532746 -0.12620462 -0.036921117 2.3509886e-38
0.068521142 -0.12620462 -0.036921117 2.3509886e-38
0.070509538 -0.12620462 -0.036921117 2.3509886e-38
0.072497934 -0.12620462 -0.036921117 2.3509886e-38
0.07448633 -0.12620462 -0.036921117 2.3509886e-38
0.076672673 -0.12715961 -0.040882323 2.3509886e-38
0.078668013 -0.12715961 -0.040882323 2.3509886e-38
0.080451518 -0.12620462 -0.036921117 2.3509886e-38
0.082439914 -0.12620462 -0.036921117 2.341805e-38
0.084654033 -0.12715961 -0.040882323 2.2958873e-38
0.086649388 -0.12715961 -0.040882323 7.1023145e-39
-0.082165718 -0.11678131 0.010072258 9.5886986e-39
-0.079980463 -0.11604463 0.013105896 2.2864865e-38
-0.07807979 -0.11604463 0.013105896 2.2128008e-38
-0.076179102 -0.11604463 0.013105896 2.0560682e-38
-0.074278414 -0.11604463 0.013105896 2.1205344e-38
-0.072377726 -0.11604463 0.013105896 2.0283387e-38
-0.070477054 -0.11604463 0.013105896 1.9175953e-38
-0.068576366 -0.11604463 0.013105896 1.7424589e-38
-0.066361248 -0.11508749 0.017047431 1.6686671e-38
-0.064233795 -0.1143602 0.020042326 1.7147649e-38
-0.06180568 -0.11264218 0.027117159 1.6962903e-38
-0.058739617 -0.10876434 0.043086078 2.3509876e-38
-0.056382611 -0.10706602 0.050079729 2.3509879e-38
-0.054546759 -0.10706602 0.050079729 2.3048542e-38
-0.052710906 -0.10706602 0.050079729 2.3509527e-38
-0.050875038 -0.10706602 0.050079729 2.3509527e-38
-0.049039185 -0.10706602 0.050079729 2.3509886e-38
-0.04739143 -0.10777976 0.047140624 2.3509886e-38
-0.045550421 -0.10777976 0.047140624 2.3509886e-38
-0.04395467 -0.10876434 0.043086078 2.3509886e-38
-0.042106554 -0.10876434 0.043086078 2.3509886e-38
-0.040428147 -0.10948761 0.040107634 2.3509886e-38
-0.038740247 -0.11021499 0.037112262 2.3509886e-38
-0.036881655 -0.11021499 0.037112262 2.3509886e-38
-0.035023063 -0.11021499 0.037112262 2.3509886e-38
-0.033164471 -0.11021499 0.037112262 2.3509886e-38
-0.031305879 -0.11021499 0.037112262 2.3509886e-38
-0.029447287 -0.11021499 0.037112262 2.3509886e-38
-0.027723379 -0.11094652 0.034099843 2.3509886e-38
-0.025859505 -0.11094652 0.034099843 2.3509886e-38
-0.024162233 -0.11192839 0.030056503 2.3509886e-38
-0.022291265 -0.11192839 0.030056503 2.3509886e-38
-0.020420305 -0.11192839 0.030056503 2.3509886e-38
-0.018654991 -0.11264218 0.027117159 2.3509886e-38
-0.016778875 -0.11264218 0.027117159 2.3509886e-38
-0.015002321 -0.11338757 0.024047639 2.3509886e-38
-0.013120823 -0.11338757 0.024047639 2.3509886e-38
-0.011239324 -0.11338757 0.024047639 2.3509886e-38
-0.0094666779 -0.1143602 0.020042326 2.3509886e-38
-0.0076542944 -0.11508749 0.017047431 2.3509886e-38
-0.0057605207 -0.11508749 0.017047431 2.3509886e-38
-0.0039531365 -0.11604463 0.013105896 2.3509886e-38
-0.0020524524 -0.11604463 0.013105896 2.3509886e-38
-0.00020761788 -0.11678131 0.010072258 2.3509886e-38
0.0016495287 -0.11749353 0.0071393522 2.3509886e-38
0.0035606772 -0.11749353 0.0071393522 2.3509886e-38
0.0054718219 -0.11749353 0.0071393522 2.3509886e-38
0.0073829666 -0.11749353 0.0071393522 2.3509886e-38
0.0092941113 -0.11749353 0.0071393522 2.3509886e-38
0.01117358 -0.11846836 0.0031249793 2.3509886e-38
0.013091765 -0.11846836 0.0031249793 2.3509886e-38
0.015009947 -0.11846836 0.0031249793 2.3509886e-38
0.016928131 -0.11846836 0.0031249793 2.3509886e-38
0.018846314 -0.11846836 0.0031249793 2.3509886e-38
0.020764496 -0.11846836 0.0031249793 2.3509886e-38
0.02268268 -0.11846836 0.0031249793 2.3509886e-38
0.024614407 -0.11921866 3.5193749e-05 2.3509886e-38
0.026562227 -0.12017711 -0.0039115874 2.3509886e-38
0.028524114 -0.12114246 -0.0078869788 2.3509886e-38
0.030490831 -0.12187846 -0.010917756 2.3509886e-38
0.032433636 -0.12187846 -0.010917756 2.3509886e-38
0.034376442 -0.12187846 -0.010917756 2.3509886e-38
0.036379252 -0.12285618 -0.01494405 2.3509886e-38
0.038329117 -0.12285618 -0.01494405 2.3509886e-38
0.040278979 -0.12285618 -0.01494405 2.3509886e-38
0.042288259 -0.12357174 -0.017890666 2.3509886e-38
0.044243287 -0.12357174 -0.017890666 2.3509886e-38
0.046294823 -0.1245618 -0.021967743 2.3509886e-38
0.048257001 -0.1245618 -0.021967743 2.3509886e-38
0.050219178 -0.1245618 -0.021967743 2.3509886e-38
0.052181359 -0.1245618 -0.021967743 2.3509886e-38
0.054265726 -0.12552883 -0.025949929 2.3509886e-38
0.056234885 -0.12552883 -0.025949929 2.3509886e-38
0.058204047 -0.12552883 -0.025949929 2.3509886e-38
0.060281228 -0.1262586 -0.028955195 2.3509886e-38
0.062255658 -0.1262586 -0.028955195 2.3509886e-38
0.064230084 -0.1262586 -0.028955195 2.3509886e-38
0.066365451 -0.12720706 -0.032860849 2.3509886e-38
0.068521142 -0.12819304 -0.036921117 2.3509886e-38
0.070509538 -0.12819304 -0.036921117 2.3509886e-38
0.072497934 -0.12819304 -0.036921117 2.3509886e-38
0.07448633 -0.12819304 -0.036921117 2.3509886e-38
0.076672673 -0.12915494 -0.040882323 2.3509886e-38
0.078668013 -0.12915494 -0.040882323 2.3509886e-38
0.080663353 -0.12915494 -0.040882323 2.3509886e-38
0.082658693 -0.12915494 -0.040882323 2.341805e-38
0.084654033 -0.12915494 -0.040882323 2.2682649e-38
0.086649388 -0.12915494 -0.040882323 7.8398796e-39
0.088644728 -0.12915494 -0.040882323 5.9956012e-39
-0.082165718 -0.11868732 0.010072258 1.244641e-38
-0.080259711 -0.11868732 0.010072258 2.2772674e-38
-0.078353718 -0.11868732 0.010072258 2.1851421e-38
-0.07644771 -0.11868732 0.010072258 2.0560679e-38
-0.074541703 -0.11868732 0.010072258 2.065217e-38
-0.07263571 -0.11868732 0.010072258 1.9822049e-38
-0.070477054 -0.11794533 0.013105896 1.9452539e-38
-0.068576366 -0.11794533 0.013105896 1.8069958e-38
-0.066361248 -0.11698125 0.017047431 1.6778866e-38
-0.064233795 -0.11624874 0.020042326 1.7424236e-38
-0.062039793 -0.11526908 0.024047639 1.6870707e-38
-0.058218464 -0.10890187 0.050079729 2.3509876e-38
-0.056382611 -0.10890187 0.050079729 2.3509879e-38
-0.054546759 -0.10890187 0.050079729 2.3232933e-38
-0.052710906 -0.10890187 0.050079729 2.3509527e-38
-0.050875038 -0.10890187 0.050079729 2.3509527e-38
-0.049039185 -0.10890187 0.050079729 2.3509886e-38
-0.047203332 -0.10890187 0.050079729 2.3509886e-38
-0.045367479 -0.10890187 0.050079729 2.3509886e-38
-0.043709412 -0.10962076 0.047140624 2.3509886e-38
-0.041868396 -0.10962076 0.047140624 2.3509886e-38
-0.04025843 -0.11061247 0.043086078 2.3509886e-38
-0.038574815 -0.11134095 0.040107634 2.3509886e-38
-0.036881655 -0.11207359 0.037112262 2.3509886e-38
-0.035023063 -0.11207359 0.037112262 2.3509886e-38
-0.033164471 -0.11207359 0.037112262 2.3509886e-38
-0.031305879 -0.11207359 0.037112262 2.3509886e-38
-0.029447287 -0.11207359 0.037112262 2.3509886e-38
-0.027723379 -0.11281042 0.034099843 2.3509886e-38
-0.025859505 -0.11281042 0.034099843 2.3509886e-38
-0.024162233 -0.11379938 0.030056503 2.3509886e-38
-0.022291265 -0.11379938 0.030056503 2.3509886e-38
-0.020420305 -0.11379938 0.030056503 2.3509886e-38
-0.018654991 -0.1145183 0.027117159 2.3509886e-38
-0.016778875 -0.1145183 0.027117159 2.3509886e-38
-0.015002321 -0.11526908 0.024047639 2.3509886e-38
-0.013120823 -0.11526908 0.024047639 2.3509886e-38
-0.011239324 -0.11526908 0.024047639 2.3509886e-38
-0.0094666779 -0.11624874 0.020042326 2.3509886e-38
-0.0076542944 -0.11698125 0.017047431 2.3509886e-38
-0.0057605207 -0.11698125 0.017047431 2.3509886e-38
-0.0039531365 -0.11794533 0.013105896 2.3509886e-38
-0.0020524524 -0.11794533 0.013105896 2.3509886e-38
-0.00020761788 -0.11868732 0.010072258 2.3509886e-38
0.0016495287 -0.11940466 0.0071393522 2.3509886e-38
0.0035606772 -0.11940466 0.0071393522 2.3509886e-38
0.0054718219 -0.11940466 0.0071393522 2.3509886e-38
0.0073829666 -0.11940466 0.0071393522 2.3509886e-38
0.0092941113 -0.11940466 0.0071393522 2.3509886e-38
0.011205254 -0.11940466 0.0071393522 2.3509886e-38
0.013116399 -0.11940466 0.0071393522 2.3509886e-38
0.015027544 -0.11940466 0.0071393522 2.3509886e-38
0.016928131 -0.12038656 0.0031249793 2.3509886e-38
0.018846314 -0.12038656 0.0031249793 2.3509886e-38
0.020764496 -0.12038656 0.0031249793 2.3509886e-38
0.02268268 -0.12038656 0.0031249793 2.3509886e-38
0.024614407 -0.12114228 3.5193749e-05 2.3509886e-38
0.026562227 -0.12210761 -0.0039115874 2.3509886e-38
0.028524114 -0.12307997 -0.0078869788 2.3509886e-38
0.030490831 -0.12382124 -0.010917756 2.3509886e-38
0.032433636 -0.12382124 -0.010917756 2.3509886e-38
0.034429386 -0.12480606 -0.01494405 2.3509886e-38
0.036379252 -0.12480606 -0.01494405 2.3509886e-38
0.038329117 -0.12480606 -0.01494405 2.3509886e-38
0.040278979 -0.12480606 -0.01494405 2.3509886e-38
0.042288259 -0.12552677 -0.017890666 2.3509886e-38
0.044332646 -0.12652399 -0.021967743 2.3509886e-38
0.046294823 -0.12652399 -0.021967743 2.3509886e-38
0.048257001 -0.12652399 -0.021967743 2.3509886e-38
0.050219178 -0.12652399 -0.021967743 2.3509886e-38
0.052181359 -0.12652399 -0.021967743 2.3509886e-38
0.054265726 -0.12749799 -0.025949929 2.3509886e-38
0.056234885 -0.12749799 -0.025949929 2.3509886e-38
0.058204047 -0.12749799 -0.025949929 2.3509886e-38
0.06017321 -0.12749799 -0.025949929 2.3509886e-38
0.062255658 -0.12823303 -0.028955195 2.3509886e-38
0.064230084 -0.12823303 -0.028955195 2.3509886e-38
0.066365451 -0.12918831 -0.032860849 2.3509886e-38
0.068521142 -0.13018142 -0.036921117 2.3509886e-38
0.070509538 -0.13018142 -0.036921117 2.3509886e-38
0.072497934 -0.13018142 -0.036921117 2.3509886e-38
0.07448633 -0.13018142 -0.036921117 2.3509886e-38
0.076672673 -0.13115029 -0.040882323 2.3509886e-38
0.078668013 -0.13115029 -0.040882323 2.3509886e-38
0.080451518 -0.13018142 -0.036921117 2.3509886e-38
0.082439914 -0.13018142 -0.036921117 2.341805e-38
0.084654033 -0.13115029 -0.040882323 2.2774843e-38
0.086649388 -0.13115029 -0.040882323 8.1164692e-39
0.088644728 -0.13115029 -0.040882323 5.6268187e-39
0.090640068 -0.13115029 -0.040882323 7.5621996e-39
-0.082165718 -0.12059332 0.010072258 1.4843499e-38
-0.080259711 -0.12059332 0.010072258 2.2680122e-38
-0.078353718 -0.12059332 0.010072258 2.1667027e-38
-0.07644771 -0.12059332 0.010072258 2.0652872e-38
-0.074541703 -0.12059332 0.010072258 2.0283027e-38
-0.07263571 -0.12059332 0.010072258 1.9360715e-38
-0.070729703 -0.12059332 0.010072258 1.9360344e-38
-0.068823695 -0.12059332 0.010072258 1.8069958e-38
-0.066675678 -0.119846 0.013105896 1.6871062e-38
-0.064775005 -0.119846 0.013105896 1.733204e-38
-0.062345281 -0.11813726 0.020042326 1.6686316e-38
-0.058218464 -0.11073773 0.050079729 2.2863426e-38
-0.056162104 -0.10999118 0.053110268 2.3509879e-38
-0.054331556 -0.10999118 0.053110268 2.3325129e-38
-0.052501008 -0.10999118 0.053110268 2.3509527e-38
-0.050670475 -0.10999118 0.053110268 2.3509527e-38
-0.049039185 -0.11073773 0.050079729 2.3509886e-38
-0.047203332 -0.11073773 0.050079729 2.3509886e-38
-0.045367479 -0.11073773 0.050079729 2.3509886e-38
-0.043709412 -0.11146177 0.047140624 2.3509886e-38
-0.041868396 -0.11146177 0.047140624 2.3509886e-38
-0.04025843 -0.11246057 0.043086078 2.3509886e-38
-0.038574815 -0.1131943 0.040107634 2.3509886e-38
-0.036881655 -0.11393218 0.037112262 2.3509886e-38
-0.035023063 -0.11393218 0.037112262 2.3509886e-38
-0.033164471 -0.11393218 0.037112262 2.3509886e-38
-0.031305879 -0.11393218 0.037112262 2.3509886e-38
-0.029587254 -0.11467429 0.034099843 2.3509886e-38
-0.027723379 -0.11467429 0.034099843 2.3509886e-38
-0.025859505 -0.11467429 0.034099843 2.3509886e-38
-0.02399563 -0.11467429 0.034099843 2.3509886e-38
-0.022131756 -0.11467429 0.034099843 2.3509886e-38
-0.020420305 -0.11567034 0.030056503 2.3509886e-38
-0.018549342 -0.11567034 0.030056503 2.3509886e-38
-0.016778875 -0.11639442 0.027117159 2.3509886e-38
-0.014902756 -0.11639442 0.027117159 2.3509886e-38
-0.013120823 -0.11715056 0.024047639 2.3509886e-38
-0.011239324 -0.11715056 0.024047639 2.3509886e-38
-0.0094666779 -0.11813726 0.020042326 2.3509886e-38
-0.0076542944 -0.11887501 0.017047431 2.3509886e-38
-0.0057605207 -0.11887501 0.017047431 2.3509886e-38
-0.0038667507 -0.11887501 0.017047431 2.3509886e-38
-0.0020524524 -0.119846 0.013105896 2.3509886e-38
-0.00020761788 -0.12059332 0.010072258 2.3509886e-38
0.0016983822 -0.12059332 0.010072258 2.3509886e-38
0.0035606772 -0.12131582 0.0071393522 2.3509886e-38
0.0054718219 -0.12131582 0.0071393522 2.3509886e-38
0.0073829666 -0.12131582 0.0071393522 2.3509886e-38
0.0092941113 -0.12131582 0.0071393522 2.3509886e-38
0.011205254 -0.12131582 0.0071393522 2.3509886e-38
0.013116399 -0.12131582 0.0071393522 2.3509886e-38
0.015027544 -0.12131582 0.0071393522 2.3509886e-38
0.016938688 -0.12131582 0.0071393522 2.3509886e-38
0.018846314 -0.12230472 0.0031249793 2.3509886e-38
0.020764496 -0.12230472 0.0031249793 2.3509886e-38
0.02268268 -0.12230472 0.0031249793 2.3509886e-38
0.024600863 -0.12230472 0.0031249793 2.3509886e-38
0.026538007 -0.12306587 3.5193749e-05 2.3509886e-38
0.028492749 -0.12403814 -0.0039115874 2.3509886e-38
0.030490831 -0.12576406 -0.010917756 2.3509886e-38
0.032433636 -0.12576406 -0.010917756 2.3509886e-38
0.034429386 -0.12675591 -0.01494405 2.3509886e-38
0.036379252 -0.12675591 -0.01494405 2.3509886e-38
0.038329117 -0.12675591 -0.01494405 2.3509886e-38
0.040278979 -0.12675591 -0.01494405 2.3509886e-38
0.042288259 -0.1274818 -0.017890666 2.3509886e-38
0.044332646 -0.12848614 -0.021967743 2.3509886e-38
0.046294823 -0.12848614 -0.021967743 2.3509886e-38
0.048257001 -0.12848614 -0.021967743 2.3509886e-38
0.050219178 -0.12848614 -0.021967743 2.3509886e-38
0.052181359 -0.12848614 -0.021967743 2.3509886e-38
0.054265726 -0.12946714 -0.025949929 2.3509886e-38
0.056234885 -0.12946714 -0.025949929 2.3509886e-38
0.058204047 -0.12946714 -0.025949929 2.3509886e-38
0.06017321 -0.12946714 -0.025949929 2.3509886e-38
0.062142368 -0.12946714 -0.025949929 2.3509886e-38
0.064111531 -0.12946714 -0.025949929 2.3509886e-38
0.066204518 -0.13020746 -0.028955195 2.3509886e-38
0.068346724 -0.1311696 -0.032860849 2.3509886e-38
0.070509538 -0.13216983 -0.036921117 2.3509886e-38
0.072497934 -0.13216983 -0.036921117 2.3509886e-38
0.07448633 -0.13216983 -0.036921117 2.3509886e-38
0.076672673 -0.13314565 -0.040882323 2.3509886e-38
0.078668013 -0.13314565 -0.040882323 2.3509886e-38
0.080451518 -0.13216983 -0.036921117 2.3509886e-38
0.082439914 -0.13216983 -0.036921117 2.341805e-38
0.084654033 -0.13314565 -0.040882323 2.2958873e-38
