# .PCD v0.7 - Point Cloud Data file format
VERSION 0.7
FIELDS x y z rgb
SIZE 4 4 4 4
TYPE F F F F
COUNT 1 1 1 1
WIDTH 939
HEIGHT 1
VIEWPOINT 0 0 0 1 0 0 0
POINTS 939
DATA ascii
4.4316053e-05 -0.089248091 -0.0032127649 2.3325138e-38
0.00195878 -0.090722546 -0.010309294 2.3417333e-38
0.0039665662 -0.090722546 -0.010309294 2.3509527e-38
0.0059114285 -0.09237951 -0.018284276 2.3509886e-38
0.0079331957 -0.09237951 -0.018284276 2.3509886e-38
0.0099549647 -0.09237951 -0.018284276 2.3141103e-38
0.011955816 -0.09403196 -0.026237562 2.2495731e-38
0.013988005 -0.094866768 -0.030255511 2.185108e-38
0.016070165 -0.10420491 -0.075200155 2.277376e-38
0.018191725 -0.10420491 -0.075200155 2.295887e-38
0.020313285 -0.10420491 -0.075200155 2.3142544e-38
0.022434846 -0.10420491 -0.075200155 2.3142541e-38
0.024556406 -0.10420491 -0.075200155 2.0561781e-38
-0.020251658 -0.080567271 0.047741815 9.2552961e-41
-0.018345654 -0.080567271 0.047741815 3.8750653e-39
-0.016524501 -0.08118178 0.044808909 2.2129447e-38
-0.014722452 -0.08202289 0.040794536 2.341804e-38
-0.013161287 -0.084965169 0.026751801 2.3418047e-38
-0.011218481 -0.084965169 0.026751801 2.31411e-38
-0.0092756748 -0.084965169 0.026751801 2.3141103e-38
-0.0074734688 -0.086426154 0.019778892 2.3509886e-38
-0.0055934936 -0.087280393 0.015701815 2.3509527e-38
-0.0036976486 -0.088114753 0.011719629 2.3509527e-38
-0.0017732754 -0.088744432 0.008714363 2.3325138e-38
9.6403062e-05 -0.090413481 0.00074844062 2.3509527e-38
0.0020044893 -0.091889992 -0.0062986165 2.3509527e-38
0.0039665662 -0.092730328 -0.010309294 2.3509527e-38
0.0059435144 -0.093549207 -0.01421757 2.3325497e-38
0.0079331957 -0.09440127 -0.018284276 2.3048907e-38
0.0099375937 -0.095231608 -0.02224727 2.3048907e-38
0.011955816 -0.096067667 -0.026237562 2.3233296e-38
0.013988005 -0.096909523 -0.030255511 2.332621e-38
0.016030764 -0.096909523 -0.030255511 2.3234379e-38
0.018191725 -0.10632648 -0.075200155 2.2497892e-38
0.020313285 -0.10632648 -0.075200155 2.3142544e-38
0.022434846 -0.10632648 -0.075200155 2.3050707e-38
0.024556406 -0.10632648 -0.075200155 2.1575935e-38
-0.020251658 -0.082473263 0.047741815 9.2230102e-40
-0.018345654 -0.082473263 0.047741815 9.3987891e-41
-0.016524501 -0.083092928 0.044808909 2.2406037e-38
-0.014722452 -0.083941072 0.040794536 2.3509879e-38
-0.013161287 -0.086907968 0.026751801 2.3509886e-38
-0.011218481 -0.086907968 0.026751801 2.3416971e-38
-0.0092756748 -0.086907968 0.026751801 2.3233302e-38
-0.0074140541 -0.087758631 0.022725508 2.3509886e-38
-0.0055934936 -0.089242578 0.015701815 2.3232944e-38
-0.0036976486 -0.090083912 0.011719629 2.3417333e-38
-0.0017732754 -0.090718865 0.008714363 2.3509527e-38
9.6403062e-05 -0.092401877 0.00074844062 2.3509527e-38
0.0020044893 -0.093890756 -0.0062986165 2.3048554e-38
0.0039665662 -0.094738111 -0.010309294 2.3509527e-38
0.0059435144 -0.095563844 -0.01421757 2.3233302e-38
0.0079331957 -0.096423045 -0.018284276 2.1758169e-38
0.0099375937 -0.097260326 -0.02224727 2.3048907e-38
0.011955816 -0.098103389 -0.026237562 2.3509886e-38
0.013988005 -0.098952278 -0.030255511 2.2957431e-38
0.016030764 -0.098952278 -0.030255511 2.2589368e-38
0.018191725 -0.10844804 -0.075200155 2.3234379e-38
0.020313285 -0.10844804 -0.075200155 2.295887e-38
0.022434846 -0.10844804 -0.075200155 2.3050707e-38
0.024556406 -0.10844804 -0.075200155 2.2958873e-38
0.026677966 -0.10844804 -0.075200155 6.6413223e-39
0.028799528 -0.10844804 -0.075200155 6.2725398e-39
-0.022257935 -0.085004061 0.044808909 1.3367265e-38
-0.020346791 -0.085004061 0.044808909 9.2552961e-41
-0.018435646 -0.085004061 0.044808909 1.0761972e-42
-0.016640637 -0.085859254 0.040794536 2.3418035e-38
-0.014722452 -0.085859254 0.040794536 2.350988e-38
-0.012983166 -0.087358251 0.03375797 2.3324775e-38
-0.011146739 -0.088205129 0.029782578 2.3509527e-38
-0.0092756748 -0.088850766 0.026751801 2.3509527e-38
-0.0073328689 -0.088850766 0.026751801 2.3509527e-38
-0.0055184364 -0.090336218 0.019778892 2.3509527e-38
-0.0036976486 -0.092053071 0.011719629 2.3232944e-38
-0.0018314794 -0.093525305 0.004808709 2.3048554e-38
9.6403062e-05 -0.094390273 0.00074844062 2.3325138e-38
0.0020044893 -0.095891505 -0.0062986165 2.0835859e-38
0.0039665662 -0.096745893 -0.010309294 2.1665976e-38
0.0059435144 -0.097578481 -0.01421757 2.3509886e-38
0.0079331957 -0.098444805 -0.018284276 2.2956712e-38
0.0099375937 -0.099289045 -0.02224727 2.2680125e-38
0.011955816 -0.1001391 -0.026237562 2.3509886e-38
0.013991527 -0.1001391 -0.026237562 2.3509886e-38
0.016030764 -0.10099503 -0.030255511 2.341805e-38
0.018084161 -0.10185695 -0.034301475 2.3234379e-38
0.020278566 -0.10888223 -0.067279413 2.3234379e-38
0.022410905 -0.10973848 -0.071298793 2.2774479e-38
0.024525624 -0.10973848 -0.071298793 2.3050708e-38
0.026677966 -0.11056961 -0.075200155 6.2725426e-39
0.028799528 -0.11056961 -0.075200155 3.691065e-39
0.030921089 -0.11056961 -0.075200155 6.3647355e-39
0.033042647 -0.11056961 -0.075200155 6.4558493e-39
-0.024063662 -0.086285278 0.047741815 1.8620263e-38
-0.022157658 -0.086285278 0.047741815 7.0043329e-39
-0.020251658 -0.086285278 0.047741815 2.7586522e-40
-0.018435646 -0.08691521 0.044808909 7.1746481e-43
-0.016640637 -0.087777436 0.040794536 2.268083e-38
-0.014722452 -0.087777436 0.040794536 2.3509161e-38
-0.012882821 -0.088441074 0.037704751 2.2955273e-38
-0.011052646 -0.089288771 0.03375797 2.3509527e-38
-0.0092092529 -0.090142623 0.029782578 2.3509167e-38
-0.0072717592 -0.090142623 0.029782578 2.2955993e-38
-0.0053900629 -0.09079358 0.026751801 2.3509527e-38
-0.0036313161 -0.093166932 0.015701815 2.3233302e-38
-0.0018314794 -0.095506594 0.004808709 2.3325497e-38
9.6403062e-05 -0.096378669 0.00074844062 2.341805e-38
0.0020044893 -0.097892255 -0.0062986165 2.1020967e-38
0.0039665662 -0.098753676 -0.010309294 2.1758171e-38
0.0059435144 -0.099593118 -0.01421757 2.3509886e-38
0.0079581533 -0.099593118 -0.01421757 2.3509886e-38
0.0099549647 -0.10046658 -0.018284276 2.2864519e-38
0.01196631 -0.10131776 -0.02224727 2.3416974e-38
0.013991527 -0.1021748 -0.026237562 2.3509886e-38
0.016030764 -0.10303779 -0.030255511 2.3509886e-38
0.018084161 -0.1039068 -0.034301475 2.341805e-38
0.020278566 -0.11098991 -0.067279413 2.341805e-38
0.02238624 -0.11098991 -0.067279413 2.2958154e-38
0.024493912 -0.11098991 -0.067279413 2.3142544e-38
0.026640344 -0.1118532 -0.071298793 7.931708e-39
0.028755065 -0.1118532 -0.071298793 2.7687528e-39
0.030921089 -0.11269115 -0.075200155 5.4431449e-39
0.033042647 -0.11269115 -0.075200155 6.0881514e-39
-0.025706723 -0.086680889 0.054716989 2.35088e-38
-0.02381295 -0.086680889 0.054716989 1.3088528e-38
-0.022053938 -0.087534383 0.050775453 2.3945542e-39
-0.020251658 -0.088191271 0.047741815 9.2086609e-40
-0.018345654 -0.088191271 0.047741815 1.8510592e-40
-0.016524501 -0.088826358 0.044808909 1.7609714e-38
-0.014613356 -0.088826358 0.044808909 2.3509521e-38
-0.012882821 -0.090364665 0.037704751 2.3508085e-38
-0.011052646 -0.091219291 0.03375797 2.3509168e-38
-0.0092092529 -0.092080101 0.029782578 2.3509524e-38
-0.0072717592 -0.092080101 0.029782578 2.2218428e-38
-0.0053900629 -0.092736378 0.026751801 2.3140384e-38
-0.0036313161 -0.095129102 0.015701815 2.129719e-38
-0.0017284825 -0.095991403 0.011719629 2.1850367e-38
9.6403062e-05 -0.098367065 0.00074844062 2.341805e-38
0.0020044893 -0.099893004 -0.0062986165 2.304927e-38
0.0039665662 -0.10076147 -0.010309294 2.3509886e-38
0.0059435144 -0.10160775 -0.01421757 2.3509886e-38
0.0079581533 -0.10160775 -0.01421757 2.3509886e-38
0.0099549647 -0.10248834 -0.018284276 2.3509886e-38
0.01196631 -0.10334648 -0.02224727 2.3509527e-38
0.013991527 -0.10421051 -0.026237562 2.3048189e-38
0.016030764 -0.10508056 -0.030255511 2.3509527e-38
0.018094517 -0.1068093 -0.038239196 2.31411e-38
0.020221494 -0.11027823 -0.054259256 2.3509886e-38
0.022355638 -0.11201777 -0.06229265 2.3325856e-38
0.024493912 -0.11309759 -0.067279413 2.3234379e-38
0.026640344 -0.11396794 -0.071298793 1.0697578e-38
0.028755065 -0.11396794 -0.071298793 3.6907105e-39
0.030869786 -0.11396794 -0.071298793 5.8119288e-39
-0.025706723 -0.088574663 0.054716989 2.3505921e-38
-0.02381295 -0.088574663 0.054716989 8.7553366e-39
-0.022053938 -0.089435071 0.050775453 1.5647964e-39
-0.020251658 -0.090097278 0.047741815 5.5208917e-40
-0.018345654 -0.090097278 0.047741815 9.2552961e-41
-0.016439654 -0.090097278 0.047741815 1.3092131e-38
-0.014613356 -0.090737507 0.044808909 2.3508081e-38
-0.01280427 -0.091613799 0.040794536 2.332261e-38
-0.010959223 -0.092288271 0.037704751 2.3509165e-38
-0.0091221221 -0.093149811 0.03375797 2.3509521e-38
-0.0072717592 -0.094017595 0.029782578 2.2956349e-38
-0.0053342693 -0.094017595 0.029782578 2.3509883e-38
-0.0036313161 -0.097091287 0.015701815 2.166597e-38
-0.0016691387 -0.097091287 0.015701815 2.1943279e-38
0.00014979765 -0.09946914 0.004808709 2.2865235e-38
0.002039656 -0.10122015 -0.0032127649 2.341805e-38
0.0039665662 -0.10276926 -0.010309294 2.341805e-38
0.0059435144 -0.10362239 -0.01421757 2.3049626e-38
0.0079581533 -0.10362239 -0.01421757 2.2956715e-38
0.0099549647 -0.10451011 -0.018284276 2.3509886e-38
0.01196631 -0.10537519 -0.02224727 2.3509527e-38
0.013991527 -0.10624625 -0.026237562 2.3324775e-38
0.016030764 -0.1071233 -0.030255511 2.3509527e-38
0.018084161 -0.10800649 -0.034301475 2.3508804e-38
0.020203762 -0.11147992 -0.050213411 2.3509527e-38
0.022330472 -0.11322157 -0.05819197 2.3325497e-38
0.024454568 -0.11411671 -0.06229265 2.3142544e-38
0.026601585 -0.11520527 -0.067279413 1.3371252e-38
0.028709259 -0.11520527 -0.067279413 5.5342671e-39
0.030816931 -0.11520527 -0.067279413 5.6271816e-39
-0.027875669 -0.092003286 0.047741815 2.3414086e-38
-0.025969665 -0.092003286 0.047741815 2.3413726e-38
-0.024063662 -0.092003286 0.047741815 4.5139831e-39
-0.022157658 -0.092003286 0.047741815 5.5101298e-40
-0.020251658 -0.092003286 0.047741815 2.7550649e-40
-0.018345654 -0.092003286 0.047741815 3.5873241e-43
-0.016439654 -0.092003286 0.047741815 6.6377196e-39
-0.014613356 -0.09264864 0.044808909 2.2400654e-38
-0.01280427 -0.093531981 0.040794536 2.3508804e-38
-0.010959223 -0.094211861 0.037704751 2.3230415e-38
-0.0091221221 -0.095080331 0.03375797 2.3508801e-38
-0.0072717592 -0.095955089 0.029782578 2.3047463e-38
-0.0053342693 -0.095955089 0.029782578 2.350988e-38
-0.0035143271 -0.097507954 0.022725508 2.3509883e-38
-0.0015644617 -0.097507954 0.022725508 2.3418047e-38
0.00024067611 -0.09992972 0.011719629 2.3234018e-38
0.0021310747 -0.10145043 0.004808709 2.341805e-38
0.0040349998 -0.1032155 -0.0032127649 2.341805e-38
0.0059743524 -0.10477705 -0.010309294 2.3326213e-38
0.0079331957 -0.10653187 -0.018284276 2.3325497e-38
0.0099375937 -0.10740392 -0.02224727 2.3325497e-38
0.011955816 -0.10828196 -0.026237562 2.3509527e-38
0.013991527 -0.10828196 -0.026237562 2.3509168e-38
0.016030764 -0.10916607 -0.030255511 2.3509168e-38
0.018084161 -0.11005636 -0.034301475 2.3509165e-38
0.020186145 -0.11267342 -0.046194866 2.3509168e-38
0.022330472 -0.11531331 -0.05819197 2.3417333e-38
0.024454568 -0.11621563 -0.06229265 2.3049991e-38
0.026601585 -0.11731292 -0.067279413 1.7242392e-38
0.028709259 -0.11731292 -0.067279413 9.4064864e-39
0.030816931 -0.11731292 -0.067279413 5.8115757e-39
-0.031813659 -0.094559789 0.044808909 9.6801754e-39
-0.02990251 -0.094559789 0.044808909 1.1798157e-38
-0.027875669 -0.093909279 0.047741815 2.2215544e-38
-0.025969665 -0.093909279 0.047741815 2.212263e-38
-0.024063662 -0.093909279 0.047741815 1.3786156e-39
-0.022157658 -0.093909279 0.047741815 5.5101298e-40
-0.020251658 -0.093909279 0.047741815 6.4392747e-40
-0.018252574 -0.093236431 0.050775453 9.1835496e-41
-0.01635189 -0.093236431 0.050775453 1.013789e-39
-0.014613356 -0.094559789 0.044808909 1.594696e-38
-0.01280427 -0.095450163 0.040794536 2.3508802e-38
-0.010959223 -0.096135467 0.037704751 2.3509161e-38
-0.0091221221 -0.097010851 0.03375797 2.350952e-38
-0.0072717592 -0.097892582 0.029782578 2.2310255e-38
-0.0053342693 -0.097892582 0.029782578 2.3325846e-38
-0.0034472607 -0.098564804 0.026751801 2.3141456e-38
-0.0015644617 -0.099457815 0.022725508 2.2957425e-38
0.00034665316 -0.10011137 0.019778892 2.3418047e-38
0.0022098385 -0.10189888 0.011719629 2.3418047e-38
0.0040349998 -0.10521083 -0.0032127649 2.3326213e-38
0.0059743524 -0.10678484 -0.010309294 2.341805e-38
0.0079331957 -0.10855366 -0.018284276 2.3509886e-38
0.0099375937 -0.10943262 -0.02224727 2.3416974e-38
0.011955816 -0.11031766 -0.026237562 2.3323702e-38
0.013988005 -0.11120884 -0.030255511 2.3509168e-38
0.016034311 -0.11210622 -0.034301475 2.3508089e-38
0.018094517 -0.11297958 -0.038239196 2.3508807e-38
0.020186145 -0.11474411 -0.046194866 2.3508091e-38
0.022330472 -0.11740504 -0.05819197 2.3509527e-38
0.024454568 -0.11831455 -0.06229265 2.341805e-38
0.026553497 -0.11831455 -0.06229265 2.1206804e-38
0.028709259 -0.1194206 -0.067279413 1.3739681e-38
0.030816931 -0.1194206 -0.067279413 5.9037741e-39
-0.031687669 -0.095815286 0.047741815 8.9415342e-39
-0.029781669 -0.095815286 0.047741815 1.2627564e-38
-0.027875669 -0.095815286 0.047741815 1.9449322e-38
-0.026080225 -0.096470937 0.044808909 1.8895788e-38
-0.024063662 -0.095815286 0.047741815 7.3468537e-40
-0.022157658 -0.095815286 0.047741815 5.5101298e-40
-0.020153254 -0.095137119 0.050775453 1.2892997e-39
-0.018252574 -0.095137119 0.050775453 9.1835496e-41
-0.01635189 -0.095137119 0.050775453 2.7550649e-40
-0.014613356 -0.096470937 0.044808909 2.8551807e-39
-0.012882821 -0.098059073 0.037704751 1.9266001e-38
-0.011052646 -0.098941371 0.03375797 2.3507722e-38
-0.0091221221 -0.098941371 0.03375797 2.350952e-38
-0.0072717592 -0.099830076 0.029782578 2.2955267e-38
-0.0053342693 -0.099830076 0.029782578 2.350988e-38
-0.0034472607 -0.1005076 0.026751801 2.350988e-38
-0.0015044585 -0.1005076 0.026751801 2.3418045e-38
0.00038540363 -0.10140768 0.022725508 2.3141819e-38
0.0022098385 -0.10386805 0.011719629 2.3418047e-38
0.0039665662 -0.10879262 -0.010309294 2.2957431e-38
0.0059743524 -0.10879262 -0.010309294 2.3048907e-38
0.0079331957 -0.11057542 -0.018284276 2.3509527e-38
0.0099375937 -0.11146136 -0.02224727 2.3509527e-38
0.011955816 -0.11235337 -0.026237562 2.3508451e-38
0.013988005 -0.11325158 -0.030255511 2.3508091e-38
0.016034311 -0.11415605 -0.034301475 2.3509165e-38
0.018094517 -0.11503632 -0.038239196 2.3509165e-38
0.020186145 -0.11681484 -0.046194866 2.3139664e-38
0.022330472 -0.11949678 -0.05819197 2.3509527e-38
0.024454568 -0.1204135 -0.06229265 2.341805e-38
0.026553497 -0.1204135 -0.06229265 2.3142544e-38
0.028709259 -0.12152828 -0.067279413 1.5767985e-38
0.030816931 -0.12152828 -0.067279413 4.981815e-39
0.032924604 -0.12152828 -0.067279413 5.2591208e-39
-0.031687669 -0.097721294 0.047741815 1.0599986e-38
-0.029781669 -0.097721294 0.047741815 1.5669668e-38
-0.027875669 -0.097721294 0.047741815 2.0279448e-38
-0.026080225 -0.098382086 0.044808909 1.7605415e-38
-0.024063662 -0.097721294 0.047741815 5.5101578e-40
-0.022157658 -0.097721294 0.047741815 3.6734198e-40
-0.020153254 -0.097037792 0.050775453 3.6734198e-40
-0.018252574 -0.097037792 0.050775453 6.4392467e-40
-0.01635189 -0.097037792 0.050775453 2.7550649e-40
-0.014613356 -0.098382086 0.044808909 5.5101298e-40
-0.012882821 -0.099982664 0.037704751 2.3508802e-38
-0.011052646 -0.10087189 0.03375797 2.3508807e-38
-0.0091221221 -0.10087189 0.03375797 2.3509521e-38
-0.0072717592 -0.10176755 0.029782578 2.3324052e-38
-0.0053342693 -0.10176755 0.029782578 2.3509883e-38
-0.0034472607 -0.1024504 0.026751801 2.3233296e-38
-0.0015044585 -0.1024504 0.026751801 2.3418047e-38
0.00038540363 -0.10335754 0.022725508 2.3418047e-38
0.00225522 -0.10494001 0.015701815 2.3418047e-38
0.0041500181 -0.10651429 0.008714363 2.3509883e-38
0.0059743524 -0.1108004 -0.010309294 2.3509883e-38
0.0079331957 -0.11259718 -0.018284276 2.3509883e-38
0.0099375937 -0.11349006 -0.02224727 2.3509527e-38
0.011955816 -0.11438908 -0.026237562 2.3509527e-38
0.013988005 -0.11529435 -0.030255511 2.3509883e-38
0.016034311 -0.11620592 -0.034301475 2.3416248e-38
0.018094517 -0.1170931 -0.038239196 2.3509524e-38
0.020186145 -0.11888553 -0.046194866 2.3509527e-38
0.022355638 -0.12251242 -0.06229265 2.3417691e-38
0.024454568 -0.12251242 -0.06229265 2.3325856e-38
0.026553497 -0.12251242 -0.06229265 2.2773408e-38
0.028709259 -0.12363596 -0.067279413 1.9731671e-38
0.030816931 -0.12363596 -0.067279413 6.6406147e-39
0.032924604 -0.12363596 -0.067279413 6.0877968e-39
0.035099223 -0.12454154 -0.071298793 5.7190129e-39
0.037213944 -0.12454154 -0.071298793 5.2573117e-39
-0.035635948 -0.10029322 0.044808909 7.2827415e-39
-0.033724807 -0.10029322 0.044808909 7.3731407e-39
-0.031813659 -0.10029322 0.044808909 1.3458052e-38
-0.02990251 -0.10029322 0.044808909 2.0095059e-38
-0.027991369 -0.10029322 0.044808909 2.2215558e-38
-0.026080225 -0.10029322 0.044808909 1.6499428e-38
-0.024063662 -0.099627286 0.047741815 3.6734479e-40
-0.022053938 -0.09893848 0.050775453 4.5917888e-40
-0.020153254 -0.09893848 0.050775453 3.6734198e-40
-0.018345654 -0.099627286 0.047741815 5.5173044e-40
-0.016439654 -0.099627286 0.047741815 2.7550649e-40
-0.014722452 -0.10120471 0.040794536 1.1034637e-39
-0.012983166 -0.10280241 0.03375797 2.3508807e-38
-0.011052646 -0.10280241 0.03375797 2.3508085e-38
-0.0092092529 -0.10370506 0.029782578 2.3508804e-38
-0.0072717592 -0.10370506 0.029782578 2.3509524e-38
-0.0053900629 -0.1043932 0.026751801 2.3509883e-38
-0.0034472607 -0.1043932 0.026751801 2.3325492e-38
-0.0015644617 -0.10530742 0.022725508 2.3418047e-38
0.00038540363 -0.10530742 0.022725508 2.3418047e-38
0.00225522 -0.1069022 0.015701815 2.3418047e-38
0.0041500181 -0.10848872 0.008714363 2.3509883e-38
0.0060303435 -0.11119686 -0.0032127649 2.3509883e-38
0.0079331957 -0.11461894 -0.018284276 2.3509883e-38
0.0099375937 -0.11551876 -0.02224727 2.3509883e-38
0.011955816 -0.11642478 -0.026237562 2.3509883e-38
0.013988005 -0.11733709 -0.030255511 2.3509883e-38
0.016034311 -0.11825575 -0.034301475 2.3232933e-38
0.018094517 -0.11914985 -0.038239196 2.350988e-38
0.020168651 -0.12005 -0.04220362 2.341769e-38
0.022330472 -0.12368025 -0.05819197 2.341805e-38
0.024454568 -0.12461133 -0.06229265 2.341805e-38
0.026601585 -0.12574361 -0.067279413 2.3234379e-38
0.028709259 -0.12574361 -0.067279413 2.1759975e-38
0.030816931 -0.12574361 -0.067279413 8.3916086e-39
0.032924604 -0.12574361 -0.067279413 5.8101296e-39
0.035099223 -0.12665625 -0.071298793 5.9948767e-39
0.037213944 -0.12665625 -0.071298793 5.6253726e-39
-0.035635948 -0.10220437 0.044808909 9.4032382e-39
-0.033724807 -0.10220437 0.044808909 1.023156e-38
-0.031813659 -0.10220437 0.044808909 1.8897949e-38
-0.02990251 -0.10220437 0.044808909 2.3507372e-38
-0.027991369 -0.10220437 0.044808909 2.2031521e-38
-0.026080225 -0.10220437 0.044808909 1.3274016e-38
-0.024063662 -0.10153329 0.047741815 7.3540704e-40
-0.022053938 -0.10083917 0.050775453 8.2759987e-40
-0.020153254 -0.10083917 0.050775453 2.7550649e-40
-0.018345654 -0.10153329 0.047741815 3.6734198e-40
-0.016844206 -0.10473295 0.03375797 2.7550649e-40
-0.014913686 -0.10473295 0.03375797 1.5644418e-39
-0.013084233 -0.10564254 0.029782578 2.3508802e-38
-0.011146739 -0.10564254 0.029782578 2.3415885e-38
-0.0092092529 -0.10564254 0.029782578 2.3139658e-38
-0.0072717592 -0.10564254 0.029782578 2.3509521e-38
-0.0053900629 -0.10633601 0.026751801 2.350988e-38
-0.0034472607 -0.10633601 0.026751801 2.3325492e-38
-0.0015644617 -0.10725726 0.022725508 2.3418047e-38
0.00038540363 -0.10725726 0.022725508 2.3418047e-38
0.00225522 -0.10886435 0.015701815 2.3418047e-38
0.0041500181 -0.11046316 0.008714363 2.3509886e-38
0.006124448 -0.11046316 0.008714363 2.3509886e-38
0.0079331957 -0.11664073 -0.018284276 2.3509527e-38
0.0099549647 -0.11664073 -0.018284276 2.3509527e-38
0.011955816 -0.11846052 -0.026237562 2.3509527e-38
0.013988005 -0.11937986 -0.030255511 2.3509527e-38
0.016034311 -0.12030561 -0.034301475 2.3509523e-38
0.018084161 -0.12030561 -0.034301475 2.350988e-38
0.020168651 -0.12211372 -0.04220362 2.2956712e-38
0.022330472 -0.12577201 -0.05819197 2.341805e-38
0.024454568 -0.12671028 -0.06229265 2.341805e-38
0.026601585 -0.12785129 -0.067279413 2.3234379e-38
0.028709259 -0.12785129 -0.067279413 2.2774125e-38
0.030816931 -0.12785129 -0.067279413 8.7603911e-39
0.032924604 -0.12785129 -0.067279413 6.7320859e-39
0.035032276 -0.12785129 -0.067279413 7.1934199e-39
-0.035635948 -0.1041155 0.044808909 8.7571429e-39
-0.033724807 -0.1041155 0.044808909 1.0139358e-38
-0.031813659 -0.1041155 0.044808909 2.1571617e-38
-0.029781669 -0.10343929 0.047741815 2.3508807e-38
-0.027875669 -0.10343929 0.047741815 1.8067104e-38
-0.025969665 -0.10343929 0.047741815 8.2954459e-39
-0.024063662 -0.10343929 0.047741815 7.3540424e-40
-0.022157658 -0.10343929 0.047741815 1.01271e-39
-0.017046895 -0.10827883 0.026751801 2.7550649e-40
-0.015104089 -0.10827883 0.026751801 1.1045427e-39
-0.013161287 -0.10827883 0.026751801 2.2861631e-38
-0.011146739 -0.10758002 0.029782578 2.3509521e-38
-0.0092092529 -0.10758002 0.029782578 2.3139658e-38
-0.0072717592 -0.10758002 0.029782578 2.3509521e-38
-0.0053900629 -0.10827883 0.026751801 2.3141456e-38
-0.0034472607 -0.10827883 0.026751801 2.3417687e-38
-0.0016083755 -0.10988651 0.019778892 2.332621e-38
0.00034665316 -0.10988651 0.019778892 2.3418047e-38
0.00225522 -0.11082654 0.015701815 2.3418047e-38
0.0041500181 -0.11243759 0.008714363 2.3509886e-38
0.006124448 -0.11243759 0.008714363 2.3509886e-38
0.0080749094 -0.1133381 0.004808709 2.3509527e-38
0.010007501 -0.11589904 -0.0062986165 2.3509527e-38
0.011955816 -0.12049623 -0.026237562 2.3509527e-38
0.013991527 -0.12049623 -0.026237562 2.3509527e-38
0.016030764 -0.1214226 -0.030255511 2.3509523e-38
0.018084161 -0.12235548 -0.034301475 2.350988e-38
0.020151274 -0.12326337 -0.038239196 2.2680125e-38
0.022330472 -0.12786375 -0.05819197 2.341805e-38
0.024454568 -0.1288092 -0.06229265 2.3049273e-38
0.026601585 -0.12995897 -0.067279413 2.2773765e-38
0.028709259 -0.12995897 -0.067279413 2.3142544e-38
0.030816931 -0.12995897 -0.067279413 9.4057605e-39
0.032924604 -0.12995897 -0.067279413 7.193064e-39
0.035032276 -0.12995897 -0.067279413 7.8387893e-39
-0.035635948 -0.10602666 0.044808909 8.7574974e-39
-0.033724807 -0.10602666 0.044808909 9.3099523e-39
-0.031813659 -0.10602666 0.044808909 2.258612e-38
-0.029781669 -0.10534529 0.047741815 2.3508077e-38
-0.027875669 -0.10534529 0.047741815 1.2627916e-38
-0.025969665 -0.10534529 0.047741815 3.6860189e-39
-0.024063662 -0.10534529 0.047741815 3.6734198e-40
-0.022157658 -0.10534529 0.047741815 6.4392747e-40
-0.016439654 -0.10534529 0.047741815 2.7550649e-40
-0.0092092529 -0.10951753 0.029782578 2.3509879e-38
-0.0072717592 -0.10951753 0.029782578 2.3509879e-38
-0.0053342693 -0.10951753 0.029782578 2.3049259e-38
-0.0034472607 -0.11022164 0.026751801 2.350988e-38
-0.0015644617 -0.11115701 0.022725508 2.3141819e-38
0.00034665316 -0.11184154 0.019778892 2.3418047e-38
0.00225522 -0.11278872 0.015701815 2.341805e-38
0.0041789971 -0.11371385 0.011719629 2.3509886e-38
0.006124448 -0.11441202 0.008714363 2.3509886e-38
0.008098878 -0.11441202 0.008714363 2.3509527e-38
0.010007501 -0.11789979 -0.0062986165 2.3509527e-38
0.011976732 -0.12068425 -0.018284276 2.3509527e-38
0.013995027 -0.12160493 -0.02224727 2.3509527e-38
0.016030764 -0.12346537 -0.030255511 2.3325131e-38
0.018073522 -0.12346537 -0.030255511 2.350988e-38
0.020151274 -0.12532012 -0.038239196 2.2956712e-38
0.022330472 -0.12995549 -0.05819197 2.341805e-38
0.024454568 -0.13090815 -0.06229265 2.341805e-38
0.026601585 -0.13206665 -0.067279413 2.3142544e-38
0.028709259 -0.13206665 -0.067279413 2.3142544e-38
0.030816931 -0.13206665 -0.067279413 1.2079434e-38
0.032924604 -0.13206665 -0.067279413 7.1008684e-39
0.035032276 -0.13206665 -0.067279413 7.3778112e-39
-0.033724807 -0.1079378 0.044808909 1.041665e-38
-0.031813659 -0.1079378 0.044808909 2.350987e-38
-0.029781669 -0.1072513 0.047741815 2.3509511e-38
-0.027875669 -0.1072513 0.047741815 7.926292e-39
-0.025969665 -0.1072513 0.047741815 1.1045385e-39
-0.024063662 -0.1072513 0.047741815 3.6734198e-40
-0.022157658 -0.1072513 0.047741815 2.7550649e-40
-0.020251658 -0.1072513 0.047741815 2.7550929e-40
-0.0092092529 -0.11145501 0.029782578 2.3509876e-38
-0.0071916021 -0.11052449 0.03375797 2.3509879e-38
-0.0052610822 -0.11052449 0.03375797 2.323365e-38
-0.0034472607 -0.11216442 0.026751801 2.350988e-38
-0.0015044585 -0.11216442 0.026751801 2.3234012e-38
0.00038540363 -0.11310686 0.022725508 2.341805e-38
0.0023016855 -0.11379658 0.019778892 2.341805e-38
0.0041789971 -0.115683 0.011719629 2.3509886e-38
0.006124448 -0.11638646 0.008714363 2.3509886e-38
0.008098878 -0.11638646 0.008714363 2.3509527e-38
0.010038391 -0.11825104 0.00074844062 2.3509527e-38
0.011987427 -0.12175412 -0.01421757 2.3509168e-38
0.013998501 -0.12270601 -0.018284276 2.3509527e-38
0.016027242 -0.12456764 -0.026237562 2.3509883e-38
0.018062953 -0.12456764 -0.026237562 2.350988e-38
0.020151274 -0.12737687 -0.038239196 2.3509886e-38
0.022256851 -0.12923907 -0.046194866 2.341805e-38
0.024454568 -0.13300706 -0.06229265 2.341805e-38
0.026553497 -0.13300706 -0.06229265 2.3142544e-38
0.028652426 -0.13300706 -0.06229265 2.3142544e-38
0.030816931 -0.1341743 -0.067279413 1.5029694e-38
0.032924604 -0.1341743 -0.067279413 9.0369766e-39
-0.033724807 -0.10984896 0.044808909 1.1431157e-38
-0.031813659 -0.10984896 0.044808909 2.3509863e-38
-0.029781669 -0.10915731 0.047741815 2.3509866e-38
-0.027875669 -0.10915731 0.047741815 3.5941722e-39
-0.025969665 -0.10915731 0.047741815 3.6734198e-40
-0.024063662 -0.10915731 0.047741815 6.4356594e-40
-0.022157658 -0.10915731 0.047741815 2.7550649e-40
-0.0091221221 -0.11245503 0.03375797 2.3509873e-38
-0.0071916021 -0.11245503 0.03375797 2.3509876e-38
-0.0052610822 -0.11245503 0.03375797 2.3325846e-38
-0.0034472607 -0.11410724 0.026751801 2.350988e-38
-0.0015044585 -0.11410724 0.026751801 2.3326208e-38
0.00043834746 -0.11410724 0.026751801 2.341805e-38
0.0023016855 -0.11575161 0.019778892 2.341805e-38
0.0041500181 -0.11836089 0.008714363 2.3509886e-38
0.006124448 -0.11836089 0.008714363 2.3509527e-38
0.0080749094 -0.11928193 0.004808709 2.3509168e-38
0.010038391 -0.12023942 0.00074844062 2.3509168e-38
0.011987427 -0.12376876 -0.01421757 2.3509168e-38
0.014002066 -0.12376876 -0.01421757 2.3509527e-38
0.016020268 -0.1247278 -0.018284276 2.3509883e-38
0.018052459 -0.12566237 -0.02224727 2.350988e-38
0.020168651 -0.13036855 -0.04220362 2.3509886e-38
0.022232357 -0.13036855 -0.04220362 2.3234018e-38
0.024422213 -0.13413896 -0.05819197 2.3325856e-38
0.026553497 -0.13510598 -0.06229265 2.2958155e-38
0.028652426 -0.13510598 -0.06229265 2.2774125e-38
0.030816931 -0.13628198 -0.067279413 1.807215e-38
0.032924604 -0.13628198 -0.067279413 1.171065e-38
0.035032276 -0.13628198 -0.067279413 9.406115e-39
-0.035635948 -0.11176009 0.044808909 8.9422376e-39
-0.033724807 -0.11176009 0.044808909 1.2537501e-38
-0.031813659 -0.11176009 0.044808909 2.3509139e-38
-0.02990251 -0.11176009 0.044808909 2.3139999e-38
-0.027991369 -0.11176009 0.044808909 7.3647763e-40
-0.025969665 -0.11106332 0.047741815 3.6734198e-40
-0.024063662 -0.11106332 0.047741815 1.0130617e-39
-0.0090356246 -0.11344786 0.037704751 2.3416597e-38
-0.0071120225 -0.11344786 0.037704751 2.3509156e-38
-0.0052610822 -0.11438553 0.03375797 2.3325843e-38
-0.0033967793 -0.11533 0.029782578 2.350988e-38
-0.0015044585 -0.11605005 0.026751801 2.3234012e-38
0.00043834746 -0.11605005 0.026751801 2.341805e-38
0.0023016855 -0.11770664 0.019778892 2.341805e-38
0.0041789971 -0.11962132 0.011719629 2.3509527e-38
0.006124448 -0.12033533 0.008714363 2.3509527e-38
0.0080749094 -0.12126322 0.004808709 2.3509168e-38
0.010056188 -0.12126322 0.004808709 2.3509168e-38
0.011997707 -0.12485488 -0.010309294 2.3509168e-38
0.014005492 -0.12485488 -0.010309294 2.3509527e-38
0.016020268 -0.12674956 -0.018284276 2.3416971e-38
0.018042037 -0.12674956 -0.018284276 2.3048542e-38
0.020151274 -0.13149039 -0.038239196 2.3509886e-38
0.022208029 -0.13149039 -0.038239196 2.2773039e-38
0.024327554 -0.13338046 -0.046194866 2.341805e-38
0.026476027 -0.13529639 -0.054259256 2.3234379e-38
0.028652426 -0.13720493 -0.06229265 2.3142544e-38
0.030751355 -0.13720493 -0.06229265 2.1206801e-38
0.032924604 -0.13838966 -0.067279413 1.2448215e-38
0.035032276 -0.13838966 -0.067279413 9.1295282e-39
-0.035635948 -0.11367123 0.044808909 9.3106572e-39
-0.033724807 -0.11367123 0.044808909 1.4381414e-38
-0.031813659 -0.11367123 0.044808909 2.3139996e-38
-0.02990251 -0.11367123 0.044808909 2.2125844e-38
-0.027991369 -0.11367123 0.044808909 4.5989495e-40
-0.025969665 -0.11296929 0.047741815 2.7586522e-40
-0.024063662 -0.11296929 0.047741815 3.6770072e-40
-0.017366569 -0.12063743 0.015701815 1.836752e-40
-0.0090356246 -0.11537148 0.037704751 2.3509153e-38
-0.0071120225 -0.11537148 0.037704751 2.3324404e-38
-0.0052610822 -0.11631607 0.03375797 2.3509876e-38
-0.0033967793 -0.11726747 0.029782578 2.3418043e-38
-0.0015044585 -0.11799283 0.026751801 2.3418045e-38
0.00043834746 -0.11799283 0.026751801 2.341805e-38
0.0023016855 -0.11966167 0.019778892 2.341805e-38
0.0041789971 -0.12159048 0.011719629 2.3509527e-38
0.0060936324 -0.12324448 0.004808709 2.3509527e-38
0.0080749094 -0.12324448 0.004808709 2.3509168e-38
0.010056188 -0.12324448 0.004808709 2.3509168e-38
0.012008255 -0.12590279 -0.0062986165 2.3509168e-38
0.014005492 -0.12686269 -0.010309294 2.3509527e-38
0.016016703 -0.12779804 -0.01421757 2.3509527e-38
0.018031342 -0.12779804 -0.01421757 2.350988e-38
0.020151274 -0.13354714 -0.038239196 2.3509886e-38
0.022208029 -0.13354714 -0.038239196 2.341805e-38
0.024327554 -0.13545118 -0.046194866 2.341805e-38
0.026476027 -0.13738121 -0.054259256 2.3234379e-38
0.028605692 -0.13832243 -0.05819197 2.3142544e-38
0.030697431 -0.13832243 -0.05819197 2.3142544e-38
0.032850284 -0.13930385 -0.06229265 1.6043844e-38
-0.037547089 -0.11558239 0.044808909 7.742977e-39
-0.035635948 -0.11558239 0.044808909 1.0785431e-38
-0.033724807 -0.11558239 0.044808909 1.6040935e-38
-0.031813659 -0.11558239 0.044808909 2.2586825e-38
-0.02990251 -0.11558239 0.044808909 2.1203891e-38
-0.027991369 -0.11558239 0.044808909 6.442834e-40
-0.026080225 -0.11558239 0.044808909 2.7586522e-40
-0.02416908 -0.11558239 0.044808909 3.6770072e-40
-0.022257935 -0.11558239 0.044808909 2.7622395e-40
-0.021290928 -0.12259962 0.015701815 2.8025969e-45
-0.019328747 -0.12259962 0.015701815 7.0064923e-45
-0.017366569 -0.12259962 0.015701815 4.6026209e-40
-0.0090356246 -0.11729507 0.037704751 2.3509873e-38
-0.0071120225 -0.11729507 0.037704751 2.3232209e-38
-0.0052610822 -0.11824657 0.03375797 2.3509879e-38
-0.0033967793 -0.11920498 0.029782578 2.350988e-38
-0.0015044585 -0.11993565 0.026751801 2.3418045e-38
0.00043834746 -0.11993565 0.026751801 2.341805e-38
0.0023016855 -0.12161671 0.019778892 2.341805e-38
0.0041789971 -0.12355967 0.011719629 2.3509886e-38
0.006124448 -0.12428416 0.008714363 2.3509527e-38
0.008098878 -0.12428416 0.008714363 2.3509168e-38
0.010056188 -0.12522577 0.004808709 2.3509168e-38
0.012016371 -0.12715961 -0.0032127649 2.3509168e-38
0.014009008 -0.12790357 -0.0062986165 2.3509527e-38
0.016016703 -0.12981267 -0.01421757 2.3509883e-38
0.018031342 -0.12981267 -0.01421757 2.350988e-38
0.020168651 -0.13655965 -0.04220362 2.3509886e-38
0.022232357 -0.13655965 -0.04220362 2.341805e-38
0.024359262 -0.13849069 -0.050213411 2.341805e-38
0.026476027 -0.13946606 -0.054259256 2.3234379e-38
0.028605692 -0.14041416 -0.05819197 2.3142544e-38
0.030697431 -0.14041416 -0.05819197 2.3142544e-38
0.032789171 -0.14041416 -0.05819197 1.825654e-38
-0.037547089 -0.11749353 0.044808909 9.0337158e-39
-0.03549967 -0.11678131 0.047741815 1.5118626e-38
-0.033593677 -0.11678131 0.047741815 1.9543296e-38
-0.031813659 -0.11749353 0.044808909 2.2124771e-38
-0.02990251 -0.11749353 0.044808909 1.8161082e-38
-0.027991369 -0.11749353 0.044808909 7.361189e-40
-0.026080225 -0.11749353 0.044808909 2.7550649e-40
-0.024313372 -0.11846836 0.040794536 3.6770072e-40
-0.022395186 -0.11846836 0.040794536 2.7622395e-40
-0.021290928 -0.1245618 0.015701815 2.8025969e-45
-0.019328747 -0.1245618 0.015701815 5.6051939e-45
-0.017366569 -0.1245618 0.015701815 4.6098095e-40
-0.0089679062 -0.11846836 0.040794536 2.3509876e-38
-0.0070497207 -0.11846836 0.040794536 2.3232211e-38
-0.0052610822 -0.12017711 0.03375797 2.3509879e-38
-0.0033305585 -0.12017711 0.03375797 2.350988e-38
-0.0014592856 -0.12114246 0.029782578 2.3326208e-38
0.00043834746 -0.12187846 0.026751801 2.341805e-38
0.0023016855 -0.12357174 0.019778892 2.341805e-38
0.0041789971 -0.12552883 0.011719629 2.3509886e-38
0.006124448 -0.1262586 0.008714363 2.3509886e-38
0.008098878 -0.1262586 0.008714363 2.3509527e-38
0.010056188 -0.12720706 0.004808709 2.3509527e-38
0.012016371 -0.12915494 -0.0032127649 2.3509168e-38
0.014011713 -0.12915494 -0.0032127649 2.3509527e-38
0.016013278 -0.13087825 -0.010309294 2.3509883e-38
0.018031342 -0.13182731 -0.01421757 2.350988e-38
0.020186145 -0.13959257 -0.046194866 2.3509886e-38
0.022256851 -0.13959257 -0.046194866 2.341805e-38
0.024359262 -0.14056842 -0.050213411 2.341805e-38
0.026476027 -0.14155091 -0.054259256 2.3234379e-38
0.028605692 -0.14250593 -0.05819197 2.3142544e-38
0.030697431 -0.14250593 -0.05819197 2.3142544e-38
0.032789171 -0.14250593 -0.05819197 2.0838017e-38
-0.037547089 -0.11940466 0.044808909 8.4805448e-39
-0.03549967 -0.11868732 0.047741815 1.7239127e-38
-0.033593677 -0.11868732 0.047741815 2.0925873e-38
-0.031813659 -0.11940466 0.044808909 1.8989765e-38
-0.02990251 -0.11940466 0.044808909 1.2537153e-38
-0.028149731 -0.12038656 0.040794536 5.5137171e-40
-0.026231553 -0.12038656 0.040794536 2.7550649e-40
-0.024313372 -0.12038656 0.040794536 1.8402972e-40
-0.022395186 -0.12038656 0.040794536 0
-0.021420095 -0.12749799 0.011719629 9.2198432e-41
-0.019450936 -0.12749799 0.011719629 5.6051939e-45
-0.017481774 -0.12749799 0.011719629 9.2198432e-41
-0.015512615 -0.12749799 0.011719629 5.5137171e-40
-0.0088799223 -0.11940466 0.044808909 2.3509879e-38
-0.0069687776 -0.11940466 0.044808909 2.3509158e-38
-0.0051884204 -0.12114228 0.037704751 2.3418042e-38
-0.0032648221 -0.12114228 0.037704751 2.3418043e-38
-0.0014000386 -0.12210761 0.03375797 2.3234015e-38
0.00043834746 -0.12382124 0.026751801 2.3418047e-38
0.0023352653 -0.12480606 0.022725508 2.341805e-38
0.0042174011 -0.12652399 0.015701815 2.3509886e-38
0.0061481595 -0.12749799 0.011719629 2.3509886e-38
0.008098878 -0.12823303 0.008714363 2.3509527e-38
0.010038391 -0.13018142 0.00074844062 2.3509527e-38
0.012016371 -0.13115029 -0.0032127649 2.3509527e-38
0.014011713 -0.13115029 -0.0032127649 2.3509527e-38
0.016013278 -0.13288604 -0.010309294 2.3509883e-38
0.018052459 -0.13580595 -0.02224727 2.350988e-38
0.020168651 -0.14068706 -0.04220362 2.3509886e-38
0.022232357 -0.14068706 -0.04220362 2.341805e-38
0.024359262 -0.14264618 -0.050213411 2.341805e-38
0.026476027 -0.14363576 -0.054259256 2.3234379e-38
0.028605692 -0.14459766 -0.05819197 2.3142544e-38
0.030697431 -0.14459766 -0.05819197 2.3142544e-38
0.032789171 -0.14459766 -0.05819197 2.2497539e-38
0.03488091 -0.14459766 -0.05819197 1.014368e-38
0.037048142 -0.14560063 -0.06229265 8.9444152e-39
-0.039458238 -0.12131582 0.044808909 7.8355355e-39
-0.037547089 -0.12131582 0.044808909 9.5868924e-39
-0.03549967 -0.12059332 0.047741815 2.1203186e-38
-0.033593677 -0.12059332 0.047741815 2.3508797e-38
-0.031813659 -0.12131582 0.044808909 1.613135e-38
-0.02990251 -0.12131582 0.044808909 6.0831067e-39
-0.028149731 -0.12230472 0.040794536 3.6734198e-40
-0.026231553 -0.12230472 0.040794536 8.2831873e-40
-0.024424426 -0.12306587 0.037704751 9.1835496e-41
-0.022500828 -0.12306587 0.037704751 0
-0.021420095 -0.12946714 0.011719629 2.7658689e-40
-0.019450936 -0.12946714 0.011719629 3.629363e-43
-0.017568715 -0.13020746 0.008714363 0
-0.015594289 -0.13020746 0.008714363 3.6734198e-40
-0.010791067 -0.12131582 0.044808909 3.6734198e-40
-0.0088799223 -0.12131582 0.044808909 2.3508801e-38
-0.0069687776 -0.12131582 0.044808909 2.3509521e-38
-0.005131539 -0.12230472 0.040794536 2.3418043e-38
-0.0032133535 -0.12230472 0.040794536 2.3325492e-38
-0.00134122 -0.12306587 0.037704751 2.3418047e-38
0.00043834746 -0.12576406 0.026751801 2.3418047e-38
0.0023352653 -0.12675591 0.022725508 2.3418047e-38
0.0042174011 -0.12848614 0.015701815 2.3509886e-38
0.0061481595 -0.12946714 0.011719629 2.3509886e-38
0.008098878 -0.13020746 0.008714363 2.3509527e-38
0.010056188 -0.1311696 0.004808709 2.3509527e-38
0.012016371 -0.13314565 -0.0032127649 2.3509527e-38
0.014011713 -0.13314565 -0.0032127649 2.3509527e-38
0.016013278 -0.13489382 -0.010309294 2.3509883e-38
0.018042037 -0.13685839 -0.018284276 2.350988e-38
0.020168651 -0.14275078 -0.04220362 2.3509886e-38
0.022232357 -0.14275078 -0.04220362 2.341805e-38
0.024359262 -0.14472394 -0.050213411 2.341805e-38
0.026476027 -0.14572059 -0.054259256 2.3234379e-38
0.028560871 -0.14572059 -0.054259256 2.3142544e-38
0.030645715 -0.14572059 -0.054259256 2.3142544e-38
0.032730557 -0.14572059 -0.054259256 2.3142544e-38
0.03488091 -0.1466894 -0.05819197 1.1065636e-38
0.036972649 -0.1466894 -0.05819197 8.9444152e-39
0.039064389 -0.1466894 -0.05819197 1.060429e-38
-0.039458238 -0.12322696 0.044808909 1.0785796e-38
-0.037405677 -0.1224993 0.047741815 1.1891427e-38
-0.03549967 -0.1224993 0.047741815 2.2586123e-38
-0.033593677 -0.1224993 0.047741815 2.3138219e-38
-0.031687669 -0.1224993 0.047741815 9.6773013e-39
-0.02990251 -0.12322696 0.044808909 1.5651677e-39
-0.028271623 -0.12498946 0.037704751 2.7550649e-40
-0.026348028 -0.12498946 0.037704751 9.2051717e-40
-0.024566289 -0.12596865 0.03375797 9.1835496e-41
-0.023389257 -0.1314363 0.011719629 0
-0.021517579 -0.1321819 0.008714363 1.8511013e-40
-0.019543149 -0.1321819 0.008714363 7.1886611e-43
-0.017681707 -0.13315089 0.004808709 3.5873241e-43
-0.01570043 -0.13315089 0.004808709 3.6734198e-40
-0.010721646 -0.1224993 0.047741815 4.5917748e-40
-0.0088156462 -0.1224993 0.047741815 1.9820616e-38
-0.0069096386 -0.1224993 0.047741815 2.3509521e-38
-0.0050576329 -0.12322696 0.044808909 2.350988e-38
-0.0032133535 -0.12422292 0.040794536 2.3509883e-38
-0.00134122 -0.12498946 0.037704751 2.3418047e-38
0.00047820434 -0.12695493 0.029782578 2.3418047e-38
0.0023352653 -0.12870578 0.022725508 2.3418047e-38
0.0042174011 -0.13044833 0.015701815 2.3509886e-38
0.0061481595 -0.1314363 0.011719629 2.3509886e-38
0.00811732 -0.1314363 0.011719629 2.3509527e-38
0.010056188 -0.13315089 0.004808709 2.3509527e-38
0.012016371 -0.13514097 -0.0032127649 2.3509527e-38
0.014011713 -0.13514097 -0.0032127649 2.3509527e-38
0.016013278 -0.1369016 -0.010309294 2.3509883e-38
0.018042037 -0.13888018 -0.018284276 2.350988e-38
0.020186145 -0.14580469 -0.046194866 2.3509886e-38
0.022256851 -0.14580469 -0.046194866 2.341805e-38
0.024359262 -0.14680167 -0.050213411 2.341805e-38
0.026476027 -0.14780544 -0.054259256 2.3234379e-38
0.028560871 -0.14780544 -0.054259256 2.3142544e-38
0.030645715 -0.14780544 -0.054259256 2.3142544e-38
0.032730557 -0.14780544 -0.054259256 2.286632e-38
0.034815405 -0.14780544 -0.054259256 1.2817353e-38
0.036900248 -0.14780544 -0.054259256 9.8663715e-39
-0.037405677 -0.12440531 0.047741815 1.2443525e-38
-0.03549967 -0.12440531 0.047741815 2.3507002e-38
-0.033593677 -0.12440531 0.047741815 2.3508809e-38
-0.031687669 -0.12440531 0.047741815 7.3724134e-39
-0.02990251 -0.12513812 0.044808909 3.6734479e-40
-0.028271623 -0.12691309 0.037704751 2.7550929e-40
-0.026348028 -0.12691309 0.037704751 3.6734619e-40
-0.02535842 -0.13340546 0.011719629 9.1838299e-41
-0.023389257 -0.13340546 0.011719629 0
-0.021644264 -0.13513215 0.004808709 3.5873241e-43
-0.019662987 -0.13513215 0.004808709 7.1746481e-43
-0.017799173 -0.13614662 0.00074844062 3.5873241e-43
-0.015810773 -0.13614662 0.00074844062 3.6734198e-40
-0.014508449 -0.14288907 -0.026237562 1.1953034e-39
-0.010721646 -0.12440531 0.047741815 7.3540424e-40
-0.0088156462 -0.12440531 0.047741815 1.3735707e-38
-0.0069096386 -0.12440531 0.047741815 2.3047466e-38
-0.0050576329 -0.12513812 0.044808909 2.3509883e-38
-0.0032133535 -0.12614109 0.040794536 2.3509883e-38
-0.0012951717 -0.12614109 0.040794536 2.3418047e-38
0.00053048134 -0.12789918 0.03375797 2.3418047e-38
0.0023016855 -0.13139187 0.019778892 2.3418047e-38
0.0042174011 -0.13241051 0.015701815 2.3509883e-38
0.0061481595 -0.13340546 0.011719629 2.3509883e-38
0.00811732 -0.13340546 0.011719629 2.3509883e-38
0.010056188 -0.13513215 0.004808709 2.3509883e-38
0.012016371 -0.13713633 -0.0032127649 2.3509883e-38
0.014011713 -0.13713633 -0.0032127649 2.3509883e-38
0.016013278 -0.13890938 -0.010309294 2.350988e-38
0.018042037 -0.14090194 -0.018284276 2.350988e-38
0.020151274 -0.14588766 -0.038239196 2.3509886e-38
0.022208029 -0.14588766 -0.038239196 2.341805e-38
0.024327554 -0.14787538 -0.046194866 2.341805e-38
0.026437011 -0.14887942 -0.050213411 2.3234379e-38
0.028514761 -0.14887942 -0.050213411 2.3142544e-38
0.030645715 -0.14989029 -0.054259256 2.3142544e-38
0.032730557 -0.14989029 -0.054259256 2.286632e-38
0.034815405 -0.14989029 -0.054259256 1.4937853e-38
0.036900248 -0.14989029 -0.054259256 1.0696132e-38
-0.035635948 -0.12704925 0.044808909 2.3507e-38
-0.033724807 -0.12704925 0.044808909 2.1939676e-38
-0.031813659 -0.12704925 0.044808909 1.0109121e-39
-0.030067921 -0.12805928 0.040794536 5.5101298e-40
-0.028427325 -0.12982969 0.03375797 5.5101578e-40
-0.026912697 -0.13260551 0.022725508 2.7550929e-40
-0.025466438 -0.13613077 0.008714363 1.836752e-40
-0.023492008 -0.13613077 0.008714363 2.7658969e-40
-0.021644264 -0.13711344 0.004808709 3.5873241e-43
-0.01990911 -0.13913165 -0.0032127649 3.5873241e-43
-0.01791377 -0.13913165 -0.0032127649 1.8511013e-40
-0.01643572 -0.14392079 -0.02224727 3.6734339e-40
-0.014508449 -0.14492477 -0.026237562 4.5917748e-40
-0.012472738 -0.14492477 -0.026237562 2.7550649e-40
-0.0088156462 -0.12631132 0.047741815 9.0337298e-39
-0.0069096386 -0.12631132 0.047741815 2.1756727e-38
-0.0050576329 -0.12704925 0.044808909 2.3509883e-38
-0.0032133535 -0.12805928 0.040794536 2.3509883e-38
-0.0012951717 -0.12805928 0.040794536 2.3325492e-38
0.00058238208 -0.12883668 0.037704751 2.3509883e-38
0.0023811534 -0.13159247 0.026751801 2.3509883e-38
0.0042567179 -0.13334687 0.019778892 2.3509883e-38
0.0061795786 -0.1343727 0.015701815 2.3509883e-38
0.00811732 -0.13537462 0.011719629 2.3509883e-38
0.010056188 -0.13711344 0.004808709 2.3509527e-38
0.012016371 -0.13913165 -0.0032127649 2.3509527e-38
0.014009008 -0.13990806 -0.0062986165 2.3509883e-38
0.016013278 -0.14091717 -0.010309294 2.350988e-38
0.018031342 -0.14190049 -0.01421757 2.350988e-38
0.020081175 -0.14392079 -0.02224727 2.3509883e-38
0.022208029 -0.14794444 -0.038239196 2.3509886e-38
0.024296064 -0.14894189 -0.04220362 2.341805e-38
0.02639826 -0.14994611 -0.046194866 2.3234379e-38
-0.034396626 -0.13276742 0.029782578 2.2031505e-38
-0.03245914 -0.13276742 0.029782578 6.4284847e-40
-0.030521654 -0.13276742 0.029782578 6.4284847e-40
-0.02858416 -0.13276742 0.029782578 5.5101298e-40
-0.02702377 -0.1353019 0.019778892 3.6734198e-40
-0.025466438 -0.1381052 0.008714363 2.7550649e-40
-0.023625541 -0.13909473 0.004808709 2.8025969e-45
-0.021775965 -0.14012341 0.00074844062 5.6051939e-45
-0.020126857 -0.14292495 -0.010309294 3.643376e-43
-0.018232137 -0.14391513 -0.01421757 5.6051939e-45
-0.01643572 -0.14594953 -0.02224727 6.4537221e-40
-0.014508449 -0.14696048 -0.026237562 0
-0.0088799223 -0.12896039 0.044808909 1.2903759e-39
-0.0068484731 -0.12744872 0.050775453 1.7331334e-38
-0.004947789 -0.12744872 0.050775453 2.3509521e-38
-0.0031464919 -0.12896039 0.044808909 2.3509521e-38
-0.0012951717 -0.12997745 0.040794536 2.3139658e-38
0.00058238208 -0.13076027 0.037704751 2.3509521e-38
0.0024156943 -0.13276742 0.029782578 2.3509521e-38
0.0042567179 -0.1353019 0.019778892 2.3509524e-38
0.0061795786 -0.13633488 0.015701815 2.3509883e-38
0.0081417579 -0.13633488 0.015701815 2.3509527e-38
0.010038391 -0.14012341 0.00074844062 2.3509886e-38
0.011997707 -0.14292495 -0.010309294 2.3509886e-38
0.014005492 -0.14292495 -0.010309294 2.3509886e-38
0.016016703 -0.14391513 -0.01421757 2.350988e-38
0.018031342 -0.14391513 -0.01421757 2.3509879e-38
0.020081175 -0.14594953 -0.02224727 2.3509521e-38
0.022159036 -0.14797847 -0.030255511 2.3509883e-38
-0.034396626 -0.1347049 0.029782578 2.2123336e-38
-0.032589331 -0.13547809 0.026751801 1.2878493e-39
-0.030646525 -0.13547809 0.026751801 6.4284847e-40
-0.028703727 -0.13547809 0.026751801 5.5101298e-40
-0.026912697 -0.13650523 0.022725508 3.6734198e-40
-0.025466438 -0.14007963 0.008714363 2.7550649e-40
-0.023625541 -0.14107598 0.004808709 9.1838299e-41
-0.021775965 -0.14211179 0.00074844062 5.6051939e-45
-0.020493153 -0.14797823 -0.02224727 9.8090893e-45
-0.018464435 -0.14797823 -0.02224727 7.0064923e-45
-0.016544163 -0.14899619 -0.026237562 2.8025969e-45
-0.0068484731 -0.12934943 0.050775453 9.5869008e-39
-0.004947789 -0.12934943 0.050775453 2.267868e-38
-0.0031464919 -0.13087155 0.044808909 2.35088e-38
-0.0012951717 -0.13189565 0.040794536 2.350952e-38
0.00058238208 -0.13268389 0.037704751 2.3509521e-38
0.0024156943 -0.1347049 0.029782578 2.3509521e-38
0.0043239594 -0.13547809 0.026751801 2.3509524e-38
0.0061795786 -0.13829704 0.015701815 2.3509883e-38
0.0081417579 -0.13829704 0.015701815 2.3509527e-38
0.010021027 -0.14312236 -0.0032127649 2.3509886e-38
0.011997707 -0.14493273 -0.010309294 2.341805e-38
0.014005492 -0.14493273 -0.010309294 2.3509886e-38
0.016016703 -0.14592977 -0.01421757 2.350988e-38
0.018042037 -0.14696725 -0.018284276 2.3509518e-38
0.020081175 -0.14797823 -0.02224727 2.3509161e-38
-0.034396626 -0.13664238 0.029782578 1.779086e-38
-0.03245914 -0.13664238 0.029782578 6.4284847e-40
-0.030521654 -0.13664238 0.029782578 6.4284847e-40
-0.02858416 -0.13664238 0.029782578 5.5101298e-40
-0.026760917 -0.13742088 0.026751801 3.6734198e-40
-0.025068741 -0.13921197 0.019778892 2.7550649e-40
-0.023764364 -0.1441002 0.00074844062 9.1838299e-41
-0.022134643 -0.14694051 -0.010309294 5.6051939e-45
-0.020371556 -0.14898901 -0.018284276 9.8090893e-45
-0.0068484731 -0.1312501 0.050775453 5.8068799e-39
-0.004947789 -0.1312501 0.050775453 2.3509521e-38
-0.0031464919 -0.13278268 0.044808909 2.3508439e-38
-0.0012951717 -0.13381381 0.040794536 2.350952e-38
0.00058238208 -0.13460748 0.037704751 2.3509521e-38
0.0024156943 -0.13664238 0.029782578 2.3509521e-38
0.0043239594 -0.13742088 0.026751801 2.3509524e-38
0.0061795786 -0.14025922 0.015701815 2.3509883e-38
0.0081417579 -0.14025922 0.015701815 2.3509527e-38
0.010038391 -0.1441002 0.00074844062 2.3509886e-38
0.012008255 -0.14591034 -0.0062986165 2.341805e-38
0.014005492 -0.14694051 -0.010309294 2.3509886e-38
0.016016703 -0.14794444 -0.01421757 2.3509883e-38
0.018042037 -0.14898901 -0.018284276 2.350952e-38
-0.034396626 -0.13857989 0.029782578 1.3826448e-38
-0.03245914 -0.13857989 0.029782578 1.2882081e-39
-0.030521654 -0.13857989 0.029782578 5.5101298e-40
-0.02858416 -0.13857989 0.029782578 3.6734198e-40
-0.026760917 -0.13936369 0.026751801 2.7550649e-40
-0.025068741 -0.141167 0.019778892 9.1835496e-41
-0.023253106 -0.14222141 0.015701815 9.1838299e-41
-0.005131539 -0.13573201 0.040794536 2.3509521e-38
-0.0032133535 -0.13573201 0.040794536 2.35088e-38
-0.00134122 -0.13653107 0.037704751 2.3508439e-38
0.00047820434 -0.13857989 0.029782578 2.3509521e-38
0.0023811534 -0.13936369 0.026751801 2.3509521e-38
0.0042567179 -0.141167 0.019778892 2.3509524e-38
0.0061795786 -0.14222141 0.015701815 2.3509883e-38
0.0081417579 -0.14222141 0.015701815 2.3509527e-38
0.010073308 -0.14402847 0.008714363 2.3509886e-38
0.012016371 -0.14711304 -0.0032127649 2.341805e-38
0.014009008 -0.14791109 -0.0062986165 2.341805e-38
0.016013278 -0.14894833 -0.010309294 2.3509883e-38
0.018031342 -0.14995907 -0.01421757 2.3509883e-38
-0.03245914 -0.14051737 0.029782578 1.3804023e-39
-0.030521654 -0.14051737 0.029782578 5.5101298e-40
-0.028703727 -0.1413065 0.026751801 3.6734198e-40
-0.026760917 -0.1413065 0.026751801 2.7550649e-40
-0.024962831 -0.14235483 0.022725508 9.1835496e-41
-0.023113713 -0.14312203 0.019778892 9.1838299e-41
-0.005131539 -0.13765021 0.040794536 2.332405e-38
