# .PCD v0.7 - Point Cloud Data file format
VERSION 0.7
FIELDS x y z rgb
SIZE 4 4 4 4
TYPE F F F F
COUNT 1 1 1 1
WIDTH 938
HEIGHT 1
VIEWPOINT 0 0 0 1 0 0 0
POINTS 938
DATA ascii
0.02711805 -0.10508056 -0.071209148 2.2865961e-38
0.029160809 -0.10508056 -0.071209148 2.3142544e-38
0.031203564 -0.10508056 -0.071209148 5.5346231e-39
-0.035083972 -0.083540857 0.036823556 5.5245772e-40
-0.033230633 -0.083540857 0.036823556 5.8061667e-39
-0.031377293 -0.083540857 0.036823556 8.4787581e-39
-0.02922184 -0.08200562 0.043856546 9.7691326e-39
-0.02725973 -0.081364051 0.046795651 2.4860282e-39
-0.025423873 -0.081364051 0.046795651 7.3468397e-40
-0.023588017 -0.081364051 0.046795651 1.1891059e-38
-0.02175216 -0.081364051 0.046795651 2.3416233e-38
-0.019916303 -0.081364051 0.046795651 2.3509873e-38
-0.017982148 -0.080702513 0.04982619 2.3509518e-38
-0.016151607 -0.080702513 0.04982619 2.3509883e-38
-0.014408737 -0.081364051 0.046795651 2.3509886e-38
-0.012762949 -0.082890689 0.039802 2.3509886e-38
-0.011066705 -0.08419472 0.033828184 2.3509886e-38
-0.0093751177 -0.085734919 0.026772425 2.3509886e-38
-0.0077892728 -0.088574663 0.013763353 2.3509886e-38
-0.0058954991 -0.088574663 0.013763353 2.3509886e-38
-0.0040742904 -0.089435071 0.0098218173 2.3509883e-38
-0.0022241399 -0.090097278 0.0067881797 2.3509883e-38
-0.00031813607 -0.090097278 0.0067881797 2.350988e-38
0.0014965087 -0.091613799 -0.00015909923 2.3418043e-38
0.0031751841 -0.096201301 -0.021174744 2.3418043e-38
0.0051302165 -0.096201301 -0.021174744 2.3417687e-38
0.0070216581 -0.097960562 -0.029234007 2.3417687e-38
0.0089908186 -0.097960562 -0.029234007 2.341769e-38
0.010959981 -0.097960562 -0.029234007 2.3325494e-38
0.012921238 -0.098616585 -0.032239273 2.3325497e-38
0.014892245 -0.09946914 -0.036144927 2.3416974e-38
0.016877081 -0.10035546 -0.040205196 2.3509524e-38
0.018884012 -0.10189377 -0.047252253 2.2863071e-38
0.020919478 -0.10362239 -0.055171207 2.3325131e-38
0.023007877 -0.10624625 -0.067191198 2.3509886e-38
0.025043592 -0.10624625 -0.067191198 2.341805e-38
0.027079303 -0.10624625 -0.067191198 2.2774125e-38
0.029115018 -0.10624625 -0.067191198 2.2958873e-38
0.031150728 -0.10624625 -0.067191198 9.3150068e-39
-0.035083972 -0.085394189 0.036823556 9.1838299e-41
-0.033230633 -0.085394189 0.036823556 5.5295798e-39
-0.031377293 -0.085394189 0.036823556 9.4007144e-39
-0.029396012 -0.084738806 0.039802 8.4783938e-39
-0.027380824 -0.083846629 0.043856546 1.1031022e-39
-0.025539819 -0.083846629 0.043856546 1.3800436e-39
-0.023588017 -0.083199903 0.046795651 7.8344481e-39
-0.02175216 -0.083199903 0.046795651 2.3508428e-38
-0.019916303 -0.083199903 0.046795651 2.3509873e-38
-0.017982148 -0.082533047 0.04982619 2.3141092e-38
-0.016151607 -0.082533047 0.04982619 2.3509883e-38
-0.014408737 -0.083199903 0.046795651 2.3509886e-38
-0.012762949 -0.084738806 0.039802 2.3509886e-38
-0.011066705 -0.086053312 0.033828184 2.3509886e-38
-0.0093751177 -0.087605879 0.026772425 2.3509886e-38
-0.0077892728 -0.090468436 0.013763353 2.3509883e-38
-0.0058954991 -0.090468436 0.013763353 2.3509883e-38
-0.0040742904 -0.091335744 0.0098218173 2.350988e-38
-0.0022241399 -0.092003286 0.0067881797 2.350988e-38
-0.00031813607 -0.092003286 0.0067881797 2.350988e-38
0.0014965087 -0.093531981 -0.00015909923 2.350988e-38
0.0031751841 -0.098156333 -0.021174744 2.350988e-38
0.0051302165 -0.098156333 -0.021174744 2.3509883e-38
0.0070530772 -0.099053472 -0.025251821 2.3417687e-38
0.0089908186 -0.09992972 -0.029234007 2.341769e-38
0.010959981 -0.09992972 -0.029234007 2.3417691e-38
0.012921238 -0.100591 -0.032239273 2.3417333e-38
0.014892245 -0.10145043 -0.036144927 2.3509168e-38
0.016877081 -0.10234386 -0.040205196 2.3509524e-38
0.018884012 -0.10389452 -0.047252253 2.3507725e-38
0.020902347 -0.10477705 -0.05126293 2.3509527e-38
0.022983391 -0.10740392 -0.063200906 2.3509886e-38
0.025043592 -0.10828196 -0.067191198 2.3233662e-38
0.027079303 -0.10828196 -0.067191198 2.3142544e-38
0.029115018 -0.10828196 -0.067191198 2.2958873e-38
0.031150728 -0.10828196 -0.067191198 1.2911358e-38
-0.033230633 -0.087247536 0.036823556 7.0969083e-39
-0.031377293 -0.087247536 0.036823556 1.161341e-38
-0.029396012 -0.086586922 0.039802 7.187655e-39
-0.027380824 -0.085687637 0.043856546 9.1871369e-40
-0.025539819 -0.085687637 0.043856546 1.0112667e-39
-0.023588017 -0.085035756 0.046795651 4.4232098e-39
-0.02175216 -0.085035756 0.046795651 2.3509865e-38
-0.019916303 -0.085035756 0.046795651 2.3509869e-38
-0.017982148 -0.084363595 0.04982619 2.3233285e-38
-0.016151607 -0.084363595 0.04982619 2.350988e-38
-0.014408737 -0.085035756 0.046795651 2.3325492e-38
-0.012652755 -0.085687637 0.043856546 2.3509886e-38
-0.011066705 -0.087911904 0.033828184 2.3509886e-38
-0.009444695 -0.090128779 0.023833081 2.3509886e-38
-0.0077892728 -0.09236221 0.013763353 2.3509883e-38
-0.0058954991 -0.09236221 0.013763353 2.3509883e-38
-0.0040017292 -0.09236221 0.013763353 2.350988e-38
-0.0022241399 -0.093909279 0.0067881797 2.350988e-38
-0.00031813607 -0.093909279 0.0067881797 2.3509879e-38
0.0015492998 -0.094559789 0.0038552736 2.3509879e-38
0.0032087639 -0.099457815 -0.018228129 2.350988e-38
0.0051586293 -0.099457815 -0.018228129 2.3509883e-38
0.0070530772 -0.10101564 -0.025251821 2.3509883e-38
0.0089908186 -0.10189888 -0.029234007 2.3509886e-38
0.010959981 -0.10189888 -0.029234007 2.3509886e-38
0.012921238 -0.10256544 -0.032239273 2.3509527e-38
0.014892245 -0.10343169 -0.036144927 2.3509168e-38
0.016880555 -0.10521083 -0.044166401 2.3509168e-38
0.018884012 -0.10589527 -0.047252253 2.3509165e-38
0.020902347 -0.10678484 -0.05126293 2.3509527e-38
0.022983391 -0.10943262 -0.063200906 2.304891e-38
0.025012108 -0.10943262 -0.063200906 2.2589017e-38
0.027079303 -0.11031766 -0.067191198 2.2958873e-38
0.029115018 -0.11031766 -0.067191198 2.2498978e-38
0.031150728 -0.11031766 -0.067191198 1.696761e-38
-0.035228401 -0.089770496 0.033828184 8.2796561e-40
-0.033230633 -0.089100882 0.036823556 7.3734924e-39
-0.031377293 -0.089100882 0.036823556 1.0599258e-38
-0.029396012 -0.088435039 0.039802 2.3934822e-39
-0.027380824 -0.087528646 0.043856546 1.1031022e-39
-0.025539819 -0.087528646 0.043856546 6.4284847e-40
-0.023588017 -0.086871609 0.046795651 2.3027131e-39
-0.02175216 -0.086871609 0.046795651 2.3509869e-38
-0.019916303 -0.086871609 0.046795651 2.3140366e-38
-0.018080451 -0.086871609 0.046795651 2.3509876e-38
-0.016244594 -0.086871609 0.046795651 2.3509879e-38
-0.014408737 -0.086871609 0.046795651 2.3325847e-38
-0.012652755 -0.087528646 0.043856546 2.3509886e-38
-0.011066705 -0.089770496 0.033828184 2.3509886e-38
-0.0093751177 -0.091347814 0.026772425 2.3509883e-38
-0.0076358505 -0.092691094 0.020763561 2.3509883e-38
-0.0058351122 -0.093586475 0.016758248 2.3509883e-38
-0.0040017292 -0.094255984 0.013763353 2.350988e-38
-0.0022241399 -0.095815286 0.0067881797 2.350988e-38
-0.00031813607 -0.095815286 0.0067881797 2.350988e-38
0.0015492998 -0.096470937 0.0038552736 2.350988e-38
0.003254652 -0.1005076 -0.014201835 2.350988e-38
0.005197458 -0.1005076 -0.014201835 2.3509883e-38
0.0070852451 -0.1020664 -0.021174744 2.3509886e-38
0.0090152565 -0.10297783 -0.025251821 2.3509886e-38
0.010959981 -0.10386805 -0.029234007 2.3509886e-38
0.012921238 -0.10453986 -0.032239273 2.3509886e-38
0.014892245 -0.10541297 -0.036144927 2.3509527e-38
0.016877081 -0.10632066 -0.040205196 2.3509527e-38
0.018884012 -0.10789602 -0.047252253 2.3508088e-38
0.020902347 -0.10879262 -0.05126293 2.3508807e-38
0.022983391 -0.11146136 -0.063200906 2.3325497e-38
0.025012108 -0.11146136 -0.063200906 2.341805e-38
0.027079303 -0.11235337 -0.067191198 2.3142544e-38
0.029115018 -0.11235337 -0.067191198 2.249826e-38
0.031150728 -0.11235337 -0.067191198 2.1392637e-38
0.033186443 -0.11235337 -0.067191198 9.8689023e-39
-0.035228401 -0.091629088 0.033828184 3.6734198e-40
-0.033230633 -0.090954214 0.036823556 1.1152431e-38
-0.031377293 -0.090954214 0.036823556 9.8613297e-39
-0.029396012 -0.090283155 0.039802 1.1949404e-39
-0.027547896 -0.090283155 0.039802 6.4284847e-40
-0.025539819 -0.089369655 0.043856546 9.1835496e-40
-0.023588017 -0.088707477 0.046795651 1.5647964e-39
-0.02175216 -0.088707477 0.046795651 2.3509517e-38
-0.019916303 -0.088707477 0.046795651 2.3509518e-38
-0.018080451 -0.088707477 0.046795651 2.3417323e-38
-0.016244594 -0.088707477 0.046795651 2.3418043e-38
-0.014493763 -0.089369655 0.043856546 2.3141816e-38
-0.012652755 -0.089369655 0.043856546 2.3509886e-38
-0.011066705 -0.091629088 0.033828184 2.3509886e-38
-0.0093751177 -0.093218774 0.026772425 2.3509886e-38
-0.0075685754 -0.093881011 0.023833081 2.3509886e-38
-0.0058351122 -0.095475003 0.016758248 2.3509886e-38
-0.0040017292 -0.096149758 0.013763353 2.3509883e-38
-0.00217361 -0.097037792 0.0098218173 2.3509883e-38
-0.00031813607 -0.097721294 0.0067881797 2.3509883e-38
0.0015492998 -0.098382086 0.0038552736 2.3509883e-38
0.0033794791 -0.099982664 -0.0032488848 2.3509883e-38
0.0052266829 -0.10176755 -0.011171058 2.3509886e-38
0.0071084946 -0.10335754 -0.018228129 2.3509886e-38
0.0090583581 -0.10335754 -0.018228129 2.3509886e-38
0.011008222 -0.10335754 -0.018228129 2.3509886e-38
0.012921238 -0.10651429 -0.032239273 2.3509886e-38
0.014892245 -0.10739426 -0.036144927 2.3509886e-38
0.016877081 -0.10830905 -0.040205196 2.3509527e-38
0.018884012 -0.10989676 -0.047252253 2.3509527e-38
0.020902347 -0.1108004 -0.05126293 2.3509527e-38
0.022959072 -0.11259718 -0.059237912 2.3509527e-38
0.025012108 -0.11349006 -0.063200906 2.3509886e-38
0.027079303 -0.11438908 -0.067191198 2.341805e-38
0.029115018 -0.11438908 -0.067191198 2.3234379e-38
0.031150728 -0.11438908 -0.067191198 2.3142544e-38
0.033186443 -0.11438908 -0.067191198 1.5952728e-38
0.035289079 -0.11529435 -0.071209148 1.8467965e-39
-0.035228401 -0.09348768 0.033828184 1.5640859e-39
-0.033230633 -0.092807561 0.036823556 1.1889996e-38
-0.031377293 -0.092807561 0.036823556 1.0506699e-38
-0.029396012 -0.092131287 0.039802 1.0105492e-39
-0.027547896 -0.092131287 0.039802 1.9325055e-39
-0.025539819 -0.091210663 0.043856546 6.4284847e-40
-0.02369881 -0.091210663 0.043856546 5.5101298e-40
-0.02175216 -0.09054333 0.046795651 1.972806e-38
-0.019916303 -0.09054333 0.046795651 2.332405e-38
-0.018080451 -0.09054333 0.046795651 2.350988e-38
-0.016244594 -0.09054333 0.046795651 2.350988e-38
-0.014493763 -0.091210663 0.043856546 2.350988e-38
-0.012762949 -0.092131287 0.039802 2.3509883e-38
-0.011066705 -0.09348768 0.033828184 2.3509886e-38
-0.0093751177 -0.095089734 0.026772425 2.3509886e-38
-0.0075685754 -0.095757127 0.023833081 2.3509886e-38
-0.0058351122 -0.097363517 0.016758248 2.3509886e-38
-0.0040017292 -0.098043531 0.013763353 2.3509886e-38
-0.00217361 -0.09893848 0.0098218173 2.3509886e-38
-0.00031813607 -0.099627286 0.0067881797 2.3509886e-38
0.0015492998 -0.10029322 0.0038552736 2.3509886e-38
0.0034146905 -0.10120471 -0.00015909923 2.3509886e-38
0.0052650198 -0.10280241 -0.007195666 2.3509886e-38
0.0071402621 -0.1043932 -0.014201835 2.3509886e-38
0.0090830661 -0.1043932 -0.014201835 2.3509886e-38
0.011025872 -0.1043932 -0.014201835 2.3509886e-38
0.012929142 -0.10780637 -0.029234007 2.3509886e-38
0.014895668 -0.10848872 -0.032239273 2.3509886e-38
0.016877081 -0.11029746 -0.040205196 2.3509527e-38
0.018884012 -0.11189754 -0.047252253 2.3509527e-38
0.020919478 -0.11369558 -0.055171207 2.3509527e-38
0.022959072 -0.11461894 -0.059237912 2.3509527e-38
0.025012108 -0.11551876 -0.063200906 2.3509883e-38
0.027079303 -0.11642478 -0.067191198 2.3509883e-38
0.029069539 -0.11551876 -0.063200906 2.3418047e-38
0.031098258 -0.11551876 -0.063200906 2.3418047e-38
0.033186443 -0.11642478 -0.067191198 2.212839e-38
0.035155691 -0.11551876 -0.063200906 3.5977876e-39
0.037184406 -0.11551876 -0.063200906 3.0456928e-39
0.039213121 -0.11551876 -0.063200906 6.1803442e-39
-0.037086993 -0.095346272 0.033828184 2.7550649e-40
-0.035228401 -0.095346272 0.033828184 1.5651649e-39
-0.033092245 -0.093979403 0.039802 1.115351e-38
-0.031244129 -0.093979403 0.039802 1.0968396e-38
-0.029396012 -0.093979403 0.039802 5.5101298e-40
-0.027670607 -0.094660893 0.036823556 6.4284847e-40
-0.025699772 -0.093979403 0.039802 6.4284847e-40
-0.02369881 -0.093051672 0.043856546 1.8410287e-39
-0.021857802 -0.093051672 0.043856546 1.7699756e-38
-0.019916303 -0.092379183 0.046795651 2.304782e-38
-0.018080451 -0.092379183 0.046795651 2.3417323e-38
-0.016244594 -0.092379183 0.046795651 2.3325127e-38
-0.014493763 -0.093051672 0.043856546 2.3049261e-38
-0.012762949 -0.093979403 0.039802 2.3509883e-38
-0.011066705 -0.095346272 0.033828184 2.3509886e-38
-0.0093751177 -0.096960694 0.026772425 2.3509886e-38
-0.0075685754 -0.097633243 0.023833081 2.3509886e-38
-0.0057543516 -0.098335579 0.020763561 2.3509886e-38
-0.0039465912 -0.099252045 0.016758248 2.3509886e-38
-0.00217361 -0.10083917 0.0098218173 2.3509886e-38
-0.00031813607 -0.10153329 0.0067881797 2.3509886e-38
0.0015492998 -0.10220437 0.0038552736 2.3509886e-38
0.0034146905 -0.1031229 -0.00015909923 2.3509886e-38
0.0052650198 -0.10473295 -0.007195666 2.3509886e-38
0.0071402621 -0.10633601 -0.014201835 2.3509886e-38
0.0090830661 -0.10633601 -0.014201835 2.3509886e-38
0.011025872 -0.10633601 -0.014201835 2.3509886e-38
0.012968676 -0.10633601 -0.014201835 2.3509886e-38
0.014907951 -0.10725726 -0.018228129 2.3509886e-38
0.016877081 -0.11228584 -0.040205196 2.3509527e-38
0.018894561 -0.11481597 -0.05126293 2.3509527e-38
0.020919478 -0.11571021 -0.055171207 2.3509527e-38
0.022959072 -0.11664073 -0.059237912 2.3509527e-38
0.025012108 -0.1175475 -0.063200906 2.3509886e-38
0.027079303 -0.11846052 -0.067191198 2.3509886e-38
0.029069539 -0.1175475 -0.063200906 2.341805e-38
0.031098258 -0.1175475 -0.063200906 2.341805e-38
0.033186443 -0.11846052 -0.067191198 2.3234379e-38
0.035155691 -0.1175475 -0.063200906 4.5197439e-39
0.037184406 -0.1175475 -0.063200906 1.9393452e-39
0.039213121 -0.1175475 -0.063200906 6.5491267e-39
-0.034940362 -0.09582752 0.039802 1.01271e-39
-0.033092245 -0.09582752 0.039802 9.6783803e-39
-0.031244129 -0.09582752 0.039802 1.0968396e-38
-0.029396012 -0.09582752 0.039802 5.5101298e-40
-0.027670607 -0.09651424 0.036823556 6.4284847e-40
-0.025699772 -0.09582752 0.039802 9.1835496e-40
-0.02369881 -0.094892681 0.043856546 5.5101298e-40
-0.021857802 -0.094892681 0.043856546 5.6210495e-39
-0.020016793 -0.094892681 0.043856546 1.2168017e-38
-0.018175784 -0.094892681 0.043856546 1.9083408e-38
-0.016459182 -0.09582752 0.039802 2.3232211e-38
-0.014697231 -0.09651424 0.036823556 2.350988e-38
-0.012925297 -0.097204864 0.033828184 2.3509883e-38
-0.01114329 -0.097899407 0.030815765 2.3509886e-38
-0.009444695 -0.099509358 0.023833081 2.3509886e-38
-0.0075685754 -0.099509358 0.023833081 2.3509886e-38
-0.0057543516 -0.10021709 0.020763561 2.3509886e-38
-0.0039465912 -0.10114056 0.016758248 2.3509886e-38
-0.0021079555 -0.10183108 0.013763353 2.3509886e-38
-0.0003618449 -0.1041155 0.0038552736 2.3509886e-38
0.0014965087 -0.10504107 -0.00015909923 2.3509886e-38
0.0033794791 -0.10575347 -0.0032488848 2.3509886e-38
0.0053030811 -0.10575347 -0.0032488848 2.3509886e-38
0.0071641747 -0.10758002 -0.011171058 2.3509886e-38
0.0091016665 -0.10758002 -0.011171058 2.3509886e-38
0.011039156 -0.10758002 -0.011171058 2.3509886e-38
0.012968676 -0.10827883 -0.014201835 2.3509886e-38
0.014907951 -0.10920714 -0.018228129 2.3509886e-38
0.016877081 -0.11427425 -0.040205196 2.3509527e-38
0.018884012 -0.11589904 -0.047252253 2.3509527e-38
0.020937303 -0.11866249 -0.059237912 2.3509527e-38
0.022983391 -0.1195762 -0.063200906 2.3509527e-38
0.025012108 -0.1195762 -0.063200906 2.3509886e-38
0.027079303 -0.12049623 -0.067191198 2.3509886e-38
0.029115018 -0.12049623 -0.067191198 2.341805e-38
0.031150728 -0.12049623 -0.067191198 2.341805e-38
0.033186443 -0.12049623 -0.067191198 2.3050347e-38
0.035155691 -0.1195762 -0.063200906 6.5473289e-39
0.037184406 -0.1195762 -0.063200906 3.3212007e-39
0.039213121 -0.1195762 -0.063200906 6.4569311e-39
-0.034744866 -0.096733689 0.043856546 4.7005352e-39
-0.033230633 -0.098367572 0.036823556 9.8634905e-39
-0.031377293 -0.098367572 0.036823556 9.9549672e-39
-0.029523954 -0.098367572 0.036823556 3.6734198e-40
-0.027670607 -0.098367572 0.036823556 5.5101298e-40
-0.025699772 -0.097675636 0.039802 9.1907243e-40
-0.02369881 -0.096733689 0.043856546 6.4284847e-40
-0.021857802 -0.096733689 0.043856546 1.9332244e-39
-0.020016793 -0.096733689 0.043856546 1.1337177e-38
-0.018175784 -0.096733689 0.043856546 2.3047101e-38
-0.016550571 -0.098367572 0.036823556 2.3509517e-38
-0.014697231 -0.098367572 0.036823556 2.304782e-38
-0.012925297 -0.099063456 0.033828184 2.3509883e-38
-0.01114329 -0.099763289 0.030815765 2.3509886e-38
-0.009444695 -0.10138547 0.023833081 2.3509886e-38
-0.0075685754 -0.10138547 0.023833081 2.3509886e-38
-0.0057543516 -0.10209858 0.020763561 2.3509886e-38
-0.0039465912 -0.10302909 0.016758248 2.3509886e-38
-0.0021079555 -0.10372485 0.013763353 2.3509886e-38
-0.00031813607 -0.10534529 0.0067881797 2.3509886e-38
0.0015492998 -0.10602666 0.0038552736 2.3509886e-38
0.0034604445 -0.10602666 0.0038552736 2.3509886e-38
0.005332876 -0.10695927 -0.00015909923 2.3509886e-38
0.0072266795 -0.10767709 -0.0032488848 2.3509886e-38
0.0091260616 -0.10859399 -0.007195666 2.3509886e-38
0.011039156 -0.10951753 -0.011171058 2.3509886e-38
0.012968676 -0.11022164 -0.014201835 2.3509886e-38
0.014907951 -0.11115701 -0.018228129 2.3509886e-38
0.016877081 -0.11626263 -0.040205196 2.3509527e-38
0.018884012 -0.11789979 -0.047252253 2.3509527e-38
0.020937303 -0.12068425 -0.059237912 2.3509886e-38
0.022983391 -0.12160493 -0.063200906 2.3509886e-38
0.025012108 -0.12160493 -0.063200906 2.3509886e-38
0.027079303 -0.12253194 -0.067191198 2.3509886e-38
0.029115018 -0.12253194 -0.067191198 2.341805e-38
0.031150728 -0.12253194 -0.067191198 2.341805e-38
0.033186443 -0.12253194 -0.067191198 2.3050347e-38
0.035155691 -0.12160493 -0.063200906 1.0788328e-38
0.037111446 -0.12068425 -0.059237912 6.0870696e-39
0.039133213 -0.12068425 -0.059237912 7.5621996e-39
0.041154981 -0.12068425 -0.059237912 6.9179092e-39
-0.034744866 -0.098574698 0.043856546 1.0878721e-38
-0.032903858 -0.098574698 0.043856546 1.1615207e-38
-0.031244129 -0.099523753 0.039802 8.5720328e-39
-0.029523954 -0.10022092 0.036823556 5.5101298e-40
-0.027670607 -0.10022092 0.036823556 7.3468397e-40
-0.025699772 -0.099523753 0.039802 5.5101298e-40
-0.023851655 -0.099523753 0.039802 5.5101298e-40
-0.022003535 -0.099523753 0.039802 5.5101298e-40
-0.020155419 -0.099523753 0.039802 9.1244821e-39
-0.018307298 -0.099523753 0.039802 2.3509517e-38
-0.016734909 -0.10162716 0.030815765 2.3509517e-38
-0.014871038 -0.10162716 0.030815765 2.3323688e-38
-0.013007164 -0.10162716 0.030815765 2.3509883e-38
-0.011398848 -0.10398008 0.020763561 2.3509886e-38
-0.009444695 -0.1032616 0.023833081 2.3509886e-38
-0.0075685754 -0.1032616 0.023833081 2.3509886e-38
-0.0058351122 -0.1049176 0.016758248 2.3509886e-38
-0.0039465912 -0.1049176 0.016758248 2.3509886e-38
-0.0021079555 -0.10561861 0.013763353 2.3509886e-38
-0.00031813607 -0.1072513 0.0067881797 2.3509886e-38
0.0015492998 -0.1079378 0.0038552736 2.3509886e-38
0.0034604445 -0.1079378 0.0038552736 2.3509886e-38
0.005332876 -0.10887744 -0.00015909923 2.3509886e-38
0.0072266795 -0.10960068 -0.0032488848 2.3509886e-38
0.0091260616 -0.11052449 -0.007195666 2.3509886e-38
0.011039156 -0.11145501 -0.011171058 2.3509886e-38
0.012968676 -0.11216442 -0.014201835 2.3509886e-38
0.014907951 -0.11310686 -0.018228129 2.3509886e-38
0.016857816 -0.11310686 -0.018228129 2.3509527e-38
0.018925957 -0.12363364 -0.063200906 2.3509527e-38
0.020937303 -0.12270601 -0.059237912 2.3509886e-38
0.022959072 -0.12270601 -0.059237912 2.3509886e-38
0.024980839 -0.12270601 -0.059237912 2.3509886e-38
0.027079303 -0.12456764 -0.067191198 2.3509886e-38
0.029115018 -0.12456764 -0.067191198 2.341805e-38
0.031150728 -0.12456764 -0.067191198 2.341805e-38
0.033186443 -0.12456764 -0.067191198 2.3234379e-38
0.035155691 -0.12363364 -0.063200906 1.4568349e-38
0.037036579 -0.12175412 -0.055171207 7.9302633e-39
0.039051216 -0.12175412 -0.055171207 8.2075691e-39
0.041065857 -0.12175412 -0.055171207 8.3919603e-39
-0.034744866 -0.10041572 0.043856546 1.3552395e-38
-0.032903858 -0.10041572 0.043856546 1.1800678e-38
-0.031244129 -0.10137187 0.039802 7.0054259e-39
-0.029396012 -0.10137187 0.039802 3.6734198e-40
-0.027670607 -0.10207425 0.036823556 5.5101298e-40
-0.025817271 -0.10207425 0.036823556 5.5101298e-40
-0.023851655 -0.10137187 0.039802 1.0105492e-39
-0.022003535 -0.10137187 0.039802 6.4284847e-40
-0.020359661 -0.10278064 0.033828184 6.7266768e-39
-0.018598784 -0.10349102 0.030815765 2.3507718e-38
-0.016734909 -0.10349102 0.030815765 2.3507358e-38
-0.014871038 -0.10349102 0.030815765 2.3509517e-38
-0.013007164 -0.10349102 0.030815765 2.3509883e-38
-0.011320811 -0.10513772 0.023833081 2.3509886e-38
-0.0093751177 -0.10444455 0.026772425 2.3509886e-38
-0.0075041577 -0.10444455 0.026772425 2.3509886e-38
-0.0057543516 -0.10586159 0.020763561 2.3509886e-38
-0.0039465912 -0.10680611 0.016758248 2.3509886e-38
-0.0021079555 -0.1075124 0.013763353 2.3509886e-38
-0.00031813607 -0.10915731 0.0067881797 2.3509886e-38
0.0015878677 -0.10915731 0.0067881797 2.3509886e-38
0.0034604445 -0.10984896 0.0038552736 2.3509886e-38
0.005332876 -0.11079563 -0.00015909923 2.3509886e-38
0.0072266795 -0.11152427 -0.0032488848 2.3509886e-38
0.0091260616 -0.11245503 -0.007195666 2.3509886e-38
0.011039156 -0.11339252 -0.011171058 2.3509886e-38
0.012968676 -0.11410724 -0.014201835 2.3509886e-38
0.014914138 -0.11339252 -0.011171058 2.3509886e-38
0.016851628 -0.11339252 -0.011171058 2.3509886e-38
0.01878912 -0.11339252 -0.011171058 2.3509886e-38
0.020937303 -0.1247278 -0.059237912 2.3509886e-38
0.022959072 -0.1247278 -0.059237912 2.3509886e-38
0.024980839 -0.1247278 -0.059237912 2.3509886e-38
0.027079303 -0.12660335 -0.067191198 2.3509886e-38
0.029115018 -0.12660335 -0.067191198 2.341805e-38
0.031150728 -0.12660335 -0.067191198 2.341805e-38
0.033186443 -0.12660335 -0.067191198 2.341805e-38
0.035155691 -0.12566237 -0.063200906 1.8348372e-38
0.037036579 -0.12376876 -0.055171207 1.0603937e-38
0.039051216 -0.12376876 -0.055171207 8.8522196e-39
0.041065857 -0.12376876 -0.055171207 8.7603799e-39
0.042537693 -0.11836089 -0.032239273 9.8670876e-39
0.044512123 -0.11836089 -0.032239273 9.9592832e-39
-0.034744866 -0.10225673 0.043856546 1.2077625e-38
-0.032903858 -0.10225673 0.043856546 1.069433e-38
-0.031244129 -0.10322 0.039802 5.991274e-39
-0.029396012 -0.10322 0.039802 2.7550649e-40
-0.027670607 -0.1039276 0.036823556 3.6734198e-40
-0.025699772 -0.10322 0.039802 5.5101298e-40
-0.023851655 -0.10322 0.039802 1.1027448e-39
-0.022003535 -0.10322 0.039802 6.4284847e-40
-0.0206009 -0.10631551 0.026772425 4.6065333e-39
-0.018729936 -0.10631551 0.026772425 2.3509156e-38
-0.016734909 -0.10535492 0.030815765 2.3507356e-38
-0.014871038 -0.10535492 0.030815765 2.3509158e-38
-0.013007164 -0.10535492 0.030815765 2.3509524e-38
-0.011320811 -0.10701384 0.023833081 2.3509886e-38
-0.0093751177 -0.10631551 0.026772425 2.3509886e-38
-0.0075041577 -0.10631551 0.026772425 2.3509886e-38
-0.0056924596 -0.10701384 0.023833081 2.3509886e-38
-0.0039465912 -0.10869466 0.016758248 2.3509886e-38
-0.0021079555 -0.10940616 0.013763353 2.3509886e-38
-0.00031813607 -0.11106332 0.0067881797 2.3509886e-38
0.0015878677 -0.11106332 0.0067881797 2.3509886e-38
0.0034604445 -0.11176009 0.0038552736 2.3509886e-38
0.005332876 -0.1127138 -0.00015909923 2.3509886e-38
0.0072266795 -0.11344786 -0.0032488848 2.3509886e-38
0.0091260616 -0.11438553 -0.007195666 2.3509886e-38
0.011056582 -0.11438553 -0.007195666 2.3509886e-38
0.012976646 -0.11533 -0.011171058 2.3509886e-38
0.014914138 -0.11533 -0.011171058 2.3509886e-38
0.016851628 -0.11533 -0.011171058 2.3509886e-38
0.01878912 -0.11533 -0.011171058 2.3509886e-38
0.020919478 -0.1257834 -0.055171207 2.3509886e-38
0.022934115 -0.1257834 -0.055171207 2.3509886e-38
0.024980839 -0.12674956 -0.059237912 2.3509886e-38
0.027079303 -0.12863909 -0.067191198 2.3509886e-38
0.029115018 -0.12863909 -0.067191198 2.341805e-38
0.031150728 -0.12863909 -0.067191198 2.341805e-38
0.033186443 -0.12863909 -0.067191198 2.341805e-38
0.035155691 -0.12769108 -0.063200906 2.2588292e-38
0.037036579 -0.1257834 -0.055171207 1.4383957e-38
0.038972415 -0.12485488 -0.05126293 9.9585672e-39
0.040892296 -0.12390204 -0.047252253 8.5759886e-39
0.042537693 -0.12033533 -0.032239273 9.774529e-39
0.044512123 -0.12033533 -0.032239273 9.6823334e-39
0.046486557 -0.12033533 -0.032239273 9.774529e-39
-0.034744866 -0.10409774 0.043856546 1.4382515e-38
-0.032903858 -0.10409774 0.043856546 9.5883427e-39
-0.031244129 -0.1050681 0.039802 2.0279409e-39
-0.029396012 -0.1050681 0.039802 6.4392747e-40
-0.027670607 -0.10578094 0.036823556 4.5917748e-40
-0.025699772 -0.1050681 0.039802 3.6734198e-40
-0.023851655 -0.1050681 0.039802 5.5101298e-40
-0.022003535 -0.1050681 0.039802 1.0105492e-39
-0.020701397 -0.10888995 0.023833081 2.1172513e-39
-0.018825278 -0.10888995 0.023833081 2.3508797e-38
-0.016734909 -0.10721879 0.030815765 2.3505556e-38
-0.014871038 -0.10721879 0.030815765 2.3509158e-38
-0.012652755 -0.10409774 0.043856546 2.3509524e-38
-0.010811746 -0.10409774 0.043856546 2.3509886e-38
-0.0091372095 -0.10578094 0.036823556 2.3509886e-38
-0.0072838701 -0.10578094 0.036823556 2.3509886e-38
-0.0056924596 -0.10888995 0.023833081 2.3509886e-38
-0.0039465912 -0.11058317 0.016758248 2.3509886e-38
-0.0021079555 -0.11129995 0.013763353 2.3509886e-38
-0.00031813607 -0.11296929 0.0067881797 2.3509886e-38
0.0015492998 -0.11367123 0.0038552736 2.3509886e-38
0.0034604445 -0.11367123 0.0038552736 2.3509886e-38
0.005332876 -0.114632 -0.00015909923 2.3509886e-38
0.0072266795 -0.11537148 -0.0032488848 2.3509886e-38
0.0091260616 -0.11631607 -0.007195666 2.3509886e-38
0.011056582 -0.11631607 -0.007195666 2.3509886e-38
0.012976646 -0.11726747 -0.011171058 2.3509886e-38
0.01491148 -0.11799283 -0.014201835 2.3509886e-38
0.016854286 -0.11799283 -0.014201835 2.3509886e-38
0.01879709 -0.11799283 -0.014201835 2.3509886e-38
0.020902347 -0.12686269 -0.05126293 2.3509886e-38
0.022910131 -0.12686269 -0.05126293 2.3509886e-38
0.024917915 -0.12686269 -0.05126293 2.3509886e-38
0.027002607 -0.12877132 -0.059237912 2.3509527e-38
0.029115018 -0.13067479 -0.067191198 2.3509527e-38
0.031150728 -0.13067479 -0.067191198 2.3509527e-38
0.033186443 -0.13067479 -0.067191198 2.341805e-38
0.035155691 -0.12971978 -0.063200906 2.3141466e-38
0.037111446 -0.12877132 -0.059237912 1.8439845e-38
0.038972415 -0.12686269 -0.05126293 8.8514993e-39
0.040892296 -0.12590279 -0.047252253 8.6671053e-39
0.04263014 -0.12324448 -0.036144927 1.1340776e-38
0.044611417 -0.12324448 -0.036144927 1.0511372e-38
0.046592698 -0.12324448 -0.036144927 9.5894161e-39
-0.034744866 -0.10593875 0.043856546 1.281519e-38
-0.032903858 -0.10593875 0.043856546 5.9005175e-39
-0.031244129 -0.10691623 0.039802 6.4500647e-40
-0.029396012 -0.10691623 0.039802 6.4500647e-40
-0.027670607 -0.10763429 0.036823556 2.7550649e-40
-0.025817271 -0.10763429 0.036823556 3.6734198e-40
-0.023851655 -0.10691623 0.039802 5.5101298e-40
-0.022003535 -0.10691623 0.039802 5.5101298e-40
-0.020806342 -0.11150609 0.020763561 1.6562703e-39
-0.018924844 -0.11150609 0.020763561 2.1662359e-38
-0.016334776 -0.10593875 0.043856546 2.3508074e-38
-0.014493763 -0.10593875 0.043856546 2.3509156e-38
-0.012652755 -0.10593875 0.043856546 2.3509521e-38
-0.010811746 -0.10593875 0.043856546 2.3509886e-38
-0.0091372095 -0.10763429 0.036823556 2.3509886e-38
-0.0072838701 -0.10763429 0.036823556 2.3509886e-38
-0.005633194 -0.11005743 0.026772425 2.3509886e-38
-0.0038728528 -0.11150609 0.020763561 2.3509886e-38
-0.0021079555 -0.11319371 0.013763353 2.3509886e-38
-0.00027292222 -0.11414395 0.0098218173 2.3509886e-38
0.0015878677 -0.1148753 0.0067881797 2.3509886e-38
0.0034604445 -0.11558239 0.0038552736 2.3509886e-38
0.0053715892 -0.11558239 0.0038552736 2.3509886e-38
0.0072510578 -0.11655019 -0.00015909923 2.3509886e-38
0.0091502815 -0.11729507 -0.0032488848 2.3509886e-38
0.011056582 -0.11824657 -0.007195666 2.3509886e-38
0.012976646 -0.11920498 -0.011171058 2.3509886e-38
0.01491148 -0.11993565 -0.014201835 2.3509886e-38
0.016854286 -0.11993565 -0.014201835 2.3509886e-38
0.018865479 -0.12620462 -0.040205196 2.3509886e-38
0.020853877 -0.12620462 -0.040205196 2.3509886e-38
0.02288552 -0.12790357 -0.047252253 2.3509886e-38
0.024917915 -0.12887047 -0.05126293 2.3509527e-38
0.02696339 -0.12981267 -0.055171207 2.3509527e-38
0.029069539 -0.13174851 -0.063200906 2.3509527e-38
0.031098258 -0.13174851 -0.063200906 2.3509527e-38
0.033186443 -0.1327105 -0.067191198 2.341805e-38
0.035155691 -0.13174851 -0.063200906 2.341805e-38
0.037111446 -0.13079311 -0.059237912 2.1850727e-38
0.038972415 -0.12887047 -0.05126293 9.220279e-39
0.040892296 -0.12790357 -0.047252253 8.5749068e-39
0.042726249 -0.12620462 -0.040205196 9.5894161e-39
0.044714645 -0.12620462 -0.040205196 9.8660002e-39
0.046703041 -0.12620462 -0.040205196 9.1284351e-39
-0.034940362 -0.10876434 0.039802 1.2999221e-38
-0.033092245 -0.10876434 0.039802 2.6733103e-39
-0.031244129 -0.10876434 0.039802 9.1835496e-41
-0.029523954 -0.10948761 0.036823556 3.6806365e-40
-0.027670607 -0.10948761 0.036823556 3.6734198e-40
-0.025935438 -0.11021499 0.033828184 4.5953621e-40
-0.024076845 -0.11021499 0.033828184 6.4356594e-40
-0.022218253 -0.11021499 0.033828184 5.5101298e-40
-0.020806342 -0.11338757 0.020763561 1.2874906e-39
-0.018825278 -0.11264218 0.023833081 1.6499764e-38
-0.016244594 -0.10706602 0.046795651 2.3509153e-38
-0.014408737 -0.10706602 0.046795651 2.3509156e-38
-0.012572885 -0.10706602 0.046795651 2.3509521e-38
-0.010811746 -0.10777976 0.043856546 2.3509886e-38
-0.0090667084 -0.10876434 0.039802 2.3509886e-38
-0.0072838701 -0.10948761 0.036823556 2.3509886e-38
-0.005551666 -0.11094652 0.030815765 2.3509886e-38
-0.0038728528 -0.11338757 0.020763561 2.3509886e-38
-0.0021079555 -0.11508749 0.013763353 2.3509886e-38
-0.00027292222 -0.11604463 0.0098218173 2.3509886e-38
0.0015878677 -0.11678131 0.0067881797 2.3509886e-38
0.0034604445 -0.11749353 0.0038552736 2.3509886e-38
0.0053715892 -0.11749353 0.0038552736 2.3509886e-38
0.0072510578 -0.11846836 -0.00015909923 2.3509886e-38
0.0091502815 -0.11921866 -0.0032488848 2.3509886e-38
0.011073882 -0.11921866 -0.0032488848 2.3509886e-38
0.012976646 -0.12114246 -0.011171058 2.3509886e-38
0.01491148 -0.12187846 -0.014201835 2.3509886e-38
0.016854286 -0.12187846 -0.014201835 2.3509883e-38
0.018844528 -0.1262586 -0.032239273 2.3509886e-38
0.020853877 -0.12819304 -0.040205196 2.3509886e-38
0.02288552 -0.12990431 -0.047252253 2.3509886e-38
0.024917915 -0.13087825 -0.05126293 2.3509527e-38
0.02696339 -0.13182731 -0.055171207 2.3509527e-38
0.029069539 -0.13377722 -0.063200906 2.3509527e-38
0.031098258 -0.13377722 -0.063200906 2.3509527e-38
0.033186443 -0.13474621 -0.067191198 2.3232944e-38
0.035155691 -0.13377722 -0.063200906 2.3509886e-38
0.037111446 -0.13281487 -0.059237912 2.3509886e-38
0.039051216 -0.13182731 -0.055171207 9.3117558e-39
0.040824667 -0.12915494 -0.044166401 8.9433292e-39
0.042726249 -0.12819304 -0.040205196 9.2199147e-39
0.044714645 -0.12819304 -0.040205196 1.0418455e-38
0.046703041 -0.12819304 -0.040205196 9.4968547e-39
0.048806038 -0.12915494 -0.044166401 1.004931e-38
0.050801378 -0.12915494 -0.044166401 9.957114e-39
-0.034940362 -0.11061247 0.039802 1.3183609e-38
-0.033092245 -0.11061247 0.039802 8.2939773e-40
-0.031377293 -0.11134095 0.036823556 9.1835496e-41
-0.029523954 -0.11134095 0.036823556 9.1835496e-41
-0.027794033 -0.11207359 0.033828184 5.5173184e-40
-0.026054278 -0.11281042 0.030815765 2.7550649e-40
-0.024190404 -0.11281042 0.030815765 7.3576017e-40
-0.022326533 -0.11281042 0.030815765 4.5917748e-40
-0.020701397 -0.1145183 0.023833081 5.5101298e-40
-0.018825278 -0.1145183 0.023833081 9.6772873e-39
-0.016244594 -0.10890187 0.046795651 2.1754553e-38
-0.014408737 -0.10890187 0.046795651 2.3508434e-38
-0.012572885 -0.10890187 0.046795651 2.350988e-38
-0.010811746 -0.10962076 0.043856546 2.3509886e-38
-0.0090667084 -0.11061247 0.039802 2.3509886e-38
-0.0072838701 -0.11134095 0.036823556 2.3509886e-38
-0.005551666 -0.11281042 0.030815765 2.3509886e-38
-0.0037622303 -0.11379938 0.026772425 2.3509886e-38
-0.0020580702 -0.11624874 0.016758248 2.3509886e-38
-0.00027292222 -0.11794533 0.0098218173 2.3509886e-38
0.0015878677 -0.11868732 0.0067881797 2.3509886e-38
0.0034938678 -0.11868732 0.0067881797 2.3509886e-38
0.0053715892 -0.11940466 0.0038552736 2.3509886e-38
0.0072510578 -0.12038656 -0.00015909923 2.3509886e-38
0.0091692433 -0.12038656 -0.00015909923 2.3509886e-38
0.011073882 -0.12114228 -0.0032488848 2.3509886e-38
0.012976646 -0.12307997 -0.011171058 2.3509886e-38
0.01491148 -0.12382124 -0.014201835 2.3509886e-38
0.016860399 -0.12552677 -0.021174744 2.3509883e-38
0.018844528 -0.12823303 -0.032239273 2.3509883e-38
0.020853877 -0.13018142 -0.040205196 2.3509886e-38
0.022866582 -0.13115029 -0.044166401 2.3509886e-38
0.024886273 -0.13190506 -0.047252253 2.3509527e-38
0.02696339 -0.13384195 -0.055171207 2.3509527e-38
0.029024376 -0.13483663 -0.059237912 2.3509527e-38
0.031046143 -0.13483663 -0.059237912 2.3509527e-38
0.033186443 -0.13678192 -0.067191198 2.3232944e-38
0.035222154 -0.13678192 -0.067191198 2.314075e-38
0.037184406 -0.13580595 -0.063200906 2.3509886e-38
0.039213121 -0.13580595 -0.063200906 9.6805383e-39
0.040824667 -0.13115029 -0.044166401 9.3121117e-39
0.042726249 -0.13018142 -0.040205196 1.0234064e-38
0.044714645 -0.13018142 -0.040205196 1.0879789e-38
0.046810694 -0.13115029 -0.044166401 9.7734388e-39
0.048806038 -0.13115029 -0.044166401 9.8649156e-39
0.050896063 -0.13190506 -0.047252253 9.7727199e-39
0.052896816 -0.13190506 -0.047252253 9.7727199e-39
-0.035228401 -0.11393218 0.033828184 1.2260574e-38
-0.033230633 -0.1131943 0.036823556 2.7550649e-40
-0.031377293 -0.1131943 0.036823556 2.7586802e-40
-0.029523954 -0.1131943 0.036823556 1.8367239e-40
-0.027794033 -0.11393218 0.033828184 2.7586802e-40
-0.026054278 -0.11467429 0.030815765 9.1835496e-41
-0.024342827 -0.11567034 0.026772425 2.7550649e-40
-0.022471864 -0.11567034 0.026772425 5.5137171e-40
-0.020701397 -0.11639442 0.023833081 5.5101298e-40
-0.018825278 -0.11639442 0.023833081 3.1321165e-39
-0.016244594 -0.11073773 0.046795651 1.631573e-38
-0.014408737 -0.11073773 0.046795651 2.3322959e-38
-0.012572885 -0.11073773 0.046795651 2.350988e-38
-0.010811746 -0.11146177 0.043856546 2.3509886e-38
-0.0090667084 -0.11246057 0.039802 2.3509886e-38
-0.0072838701 -0.1131943 0.036823556 2.3509886e-38
-0.0054909252 -0.11393218 0.033828184 2.3509886e-38
-0.0036877915 -0.11467429 0.030815765 2.3509886e-38
-0.001940228 -0.11639442 0.023833081 2.3509886e-38
-0.00016954914 -0.11813726 0.016758248 2.3509886e-38
0.0016277581 -0.119846 0.0098218173 2.3509886e-38
0.0034938678 -0.12059332 0.0067881797 2.3509886e-38
0.0053998716 -0.12059332 0.0067881797 2.3509886e-38
0.0072827321 -0.12131582 0.0038552736 2.3509886e-38
0.0091692433 -0.12230472 -0.00015909923 2.3509886e-38
0.011087425 -0.12230472 -0.00015909923 2.3509886e-38
0.012987103 -0.12403814 -0.007195666 2.3509886e-38
0.01491148 -0.12576406 -0.014201835 2.3509886e-38
0.016860399 -0.1274818 -0.021174744 2.3509883e-38
0.018836625 -0.12946714 -0.029234007 2.3509883e-38
0.020836079 -0.1311696 -0.036144927 2.3509886e-38
0.022842273 -0.13216983 -0.040205196 2.3509886e-38
0.024886273 -0.13390581 -0.047252253 2.3509527e-38
0.026925702 -0.13489382 -0.05126293 2.3509527e-38
0.028978027 -0.13585658 -0.055171207 2.3509527e-38
0.031046143 -0.13685839 -0.059237912 2.3509527e-38
0.033186443 -0.13881765 -0.067191198 2.3509527e-38
0.035222154 -0.13881765 -0.067191198 2.3509527e-38
0.037257865 -0.13881765 -0.067191198 2.3325497e-38
0.03929358 -0.13881765 -0.067191198 1.2262016e-38
0.041154981 -0.13685839 -0.059237912 9.5879784e-39
0.042820007 -0.13314565 -0.044166401 1.0510291e-38
0.04481535 -0.13314565 -0.044166401 1.0233701e-38
0.046810694 -0.13314565 -0.044166401 9.9571112e-39
0.048806038 -0.13314565 -0.044166401 1.0232976e-38
0.050896063 -0.13390581 -0.047252253 1.0140781e-38
0.052896816 -0.13390581 -0.047252253 1.0140781e-38
-0.035228401 -0.11579077 0.033828184 1.2076183e-38
-0.033369809 -0.11579077 0.033828184 2.7550649e-40
-0.031511217 -0.11579077 0.033828184 4.6025928e-40
-0.029652625 -0.11579077 0.033828184 9.1835496e-41
-0.028084755 -0.1175413 0.026772425 3.6806365e-40
-0.026329741 -0.11827053 0.023833081 9.1835496e-41
-0.024453629 -0.11827053 0.023833081 2.7550649e-40
-0.022577513 -0.11827053 0.023833081 8.2867186e-40
-0.020806342 -0.11903207 0.020763561 3.6734198e-40
-0.018924844 -0.11903207 0.020763561 5.5101298e-40
-0.016059153 -0.11107419 0.052839324 1.0876185e-38
-0.014233895 -0.11107419 0.052839324 2.3415155e-38
-0.012408637 -0.11107419 0.052839324 2.350988e-38
-0.010737024 -0.11257361 0.046795651 2.3509886e-38
-0.0090667084 -0.1143087 0.039802 2.3509886e-38
-0.0072838701 -0.11504765 0.036823556 2.3509886e-38
-0.0054909252 -0.11579077 0.033828184 2.3509886e-38
-0.0036877915 -0.11653815 0.030815765 2.3509886e-38
-0.001940228 -0.11827053 0.023833081 2.3509886e-38
-0.00016954914 -0.12002577 0.016758248 2.3509886e-38
0.0016795918 -0.1207688 0.013763353 2.3509886e-38
0.0034938678 -0.1224993 0.0067881797 2.3509886e-38
0.0053998716 -0.1224993 0.0067881797 2.3509886e-38
0.0072827321 -0.12322696 0.0038552736 2.3509886e-38
0.0091692433 -0.12422292 -0.00015909923 2.3509886e-38
0.011087425 -0.12422292 -0.00015909923 2.3509886e-38
0.012997482 -0.12498946 -0.0032488848 2.3509886e-38
0.01491148 -0.12770687 -0.014201835 2.3509886e-38
0.016860399 -0.12943684 -0.021174744 2.3509883e-38
0.018836625 -0.1314363 -0.029234007 2.3509883e-38
0.02081896 -0.1321819 -0.032239273 2.3509886e-38
0.022817358 -0.13315089 -0.036144927 2.3509886e-38
0.024861924 -0.13514097 -0.044166401 2.3509527e-38
0.026887026 -0.13590656 -0.047252253 2.3509527e-38
0.028978027 -0.13787122 -0.055171207 2.3509527e-38
0.031046143 -0.13888018 -0.059237912 2.3509527e-38
0.033186443 -0.14085336 -0.067191198 2.3232944e-38
0.035222154 -0.14085336 -0.067191198 2.3509527e-38
0.037257865 -0.14085336 -0.067191198 2.3325497e-38
0.039374597 -0.14185019 -0.071209148 1.6503015e-38
0.041154981 -0.13888018 -0.059237912 1.1155304e-38
0.043176752 -0.13888018 -0.059237912 9.8649184e-39
-0.037086993 -0.11764936 0.033828184 1.2997778e-38
-0.035228401 -0.11764936 0.033828184 1.2260574e-38
-0.033369809 -0.11764936 0.033828184 6.4392747e-40
-0.031645902 -0.11840202 0.030815765 1.8367239e-40
-0.029955715 -0.11941226 0.026772425 9.1835496e-41
-0.028205864 -0.12014665 0.023833081 1.8439126e-40
-0.026450843 -0.12091358 0.020763561 0
-0.02456934 -0.12091358 0.020763561 1.8402972e-40
-0.022687841 -0.12091358 0.020763561 9.2086609e-40
-0.020806342 -0.12091358 0.020763561 3.6734198e-40
-0.018924844 -0.12091358 0.020763561 3.6734198e-40
-0.016059153 -0.11289944 0.052839324 6.8202962e-39
-0.014233895 -0.11289944 0.052839324 2.3508428e-38
-0.012408637 -0.11289944 0.052839324 2.350988e-38
-0.010737024 -0.11440946 0.046795651 2.3509886e-38
-0.0089011714 -0.11440946 0.046795651 2.3509886e-38
-0.0072185919 -0.1161568 0.039802 2.3509886e-38
-0.0053704754 -0.1161568 0.039802 2.3509886e-38
-0.0035771877 -0.11690097 0.036823556 2.3509886e-38
-0.001823917 -0.11840202 0.030815765 2.3509886e-38
-6.4112246e-05 -0.12014665 0.023833081 2.3509886e-38
0.0017189719 -0.12191428 0.016758248 2.3509886e-38
0.0035284422 -0.12364738 0.0098218173 2.3509886e-38
0.0054291263 -0.12364738 0.0098218173 2.3509886e-38
0.0072827321 -0.12513812 0.0038552736 2.3509886e-38
0.0091938768 -0.12513812 0.0038552736 2.3509886e-38
0.011087425 -0.12614109 -0.00015909923 2.3509886e-38
0.012997482 -0.12691309 -0.0032488848 2.3509886e-38
0.01491148 -0.12964968 -0.014201835 2.3509886e-38
0.016860399 -0.13139187 -0.021174744 2.3509883e-38
0.018826151 -0.13241051 -0.025251821 2.3509883e-38
0.020805785 -0.13340546 -0.029234007 2.3509886e-38
0.02279339 -0.13415633 -0.032239273 2.3509886e-38
0.024798635 -0.13513215 -0.036144927 2.3509527e-38
0.026857268 -0.13713633 -0.044166401 2.3509527e-38
0.028933488 -0.13890938 -0.05126293 2.3509527e-38
0.030992666 -0.13988586 -0.055171207 2.3509527e-38
0.033067912 -0.14090194 -0.059237912 2.295636e-38
0.035155691 -0.14189209 -0.063200906 2.3509527e-38
0.037257865 -0.14288907 -0.067191198 2.3509527e-38
0.039374597 -0.14389296 -0.071209148 2.0651458e-38
0.041417353 -0.14389296 -0.071209148 1.4382151e-38
-0.038945585 -0.11950795 0.033828184 1.1982181e-38
-0.037086993 -0.11950795 0.033828184 1.1890707e-38
-0.035228401 -0.11950795 0.033828184 1.1523009e-38
-0.033369809 -0.11950795 0.033828184 1.8402972e-40
-0.031645902 -0.12026589 0.030815765 9.1835496e-41
-0.029955715 -0.12128322 0.026772425 1.8439126e-40
-0.028205864 -0.12202276 0.023833081 0
-0.026608847 -0.12380283 0.016758248 9.2194229e-41
-0.024720326 -0.12380283 0.016758248 3.5873241e-43
-0.022831805 -0.12380283 0.016758248 2.7622395e-40
-0.021045681 -0.12455635 0.013763353 2.7550649e-40
-0.017982148 -0.11548282 0.04982619 7.361189e-40
-0.016059153 -0.11472471 0.052839324 4.5154082e-39
-0.014233895 -0.11472471 0.052839324 2.3416234e-38
-0.012408637 -0.11472471 0.052839324 2.3509879e-38
-0.010737024 -0.11624531 0.046795651 2.3509883e-38
-0.0089011714 -0.11624531 0.046795651 2.3509883e-38
-0.0072185919 -0.11800493 0.039802 2.3509883e-38
-0.0053704754 -0.11800493 0.039802 2.3509883e-38
-0.0035771877 -0.11875431 0.036823556 2.3509886e-38
-0.0017737411 -0.11950795 0.033828184 2.3509886e-38
-2.0302832e-05 -0.12128322 0.026772425 2.3509886e-38
0.0018120073 -0.12202276 0.023833081 2.3509886e-38
0.0035733618 -0.12455635 0.013763353 2.3509886e-38
0.0054291263 -0.12554805 0.0098218173 2.3509886e-38
0.0073058717 -0.12631132 0.0067881797 2.3509886e-38
0.0091938768 -0.12704925 0.0038552736 2.3509886e-38
0.011105021 -0.12704925 0.0038552736 2.3509886e-38
0.013005609 -0.12805928 -0.00015909923 2.3509886e-38
0.01491148 -0.13159247 -0.014201835 2.3509886e-38
0.016860399 -0.13334687 -0.021174744 2.3509883e-38
0.018826151 -0.1343727 -0.025251821 2.3509886e-38
0.020805785 -0.13537462 -0.029234007 2.3509886e-38
0.022774948 -0.13537462 -0.029234007 2.3509886e-38
0.02476782 -0.13613077 -0.032239273 2.3509527e-38
0.026819069 -0.138135 -0.040205196 2.3509527e-38
0.028887779 -0.13990806 -0.047252253 2.3509527e-38
0.030941272 -0.14091717 -0.05126293 2.3509527e-38
0.033067912 -0.1429237 -0.059237912 2.3509527e-38
0.035155691 -0.14392079 -0.063200906 2.3509527e-38
0.037184406 -0.14392079 -0.063200906 2.3509527e-38
0.03929358 -0.14492477 -0.067191198 2.2956349e-38
0.041417353 -0.1459357 -0.071209148 1.7332413e-38
-0.038945585 -0.12136655 0.033828184 1.3272922e-38
-0.037086993 -0.12136655 0.033828184 1.2536076e-38
-0.035228401 -0.12136655 0.033828184 1.0693248e-38
-0.033369809 -0.12136655 0.033828184 9.1835496e-41
-0.031645902 -0.12212978 0.030815765 3.5873241e-43
-0.029955715 -0.12315418 0.026772425 3.5873241e-43
-0.028205864 -0.12389888 0.023833081 3.5873241e-43
-0.026608847 -0.12569134 0.016758248 4.6169421e-40
-0.024833225 -0.12645011 0.013763353 3.5873241e-43
-0.022939451 -0.12645011 0.013763353 9.1835496e-41
-0.021045681 -0.12645011 0.013763353 7.3647763e-40
-0.017982148 -0.11731337 0.04982619 3.6734198e-40
-0.016059153 -0.11654995 0.052839324 1.5647936e-39
-0.014233895 -0.11654995 0.052839324 2.3508794e-38
-0.012490522 -0.11731337 0.04982619 2.3509157e-38
-0.010737024 -0.11808117 0.046795651 2.323149e-38
-0.0089011714 -0.11808117 0.046795651 2.3509879e-38
-0.0071297288 -0.11882581 0.043856546 2.3509879e-38
-0.0053704754 -0.11985306 0.039802 2.350988e-38
-0.0035223551 -0.11985306 0.039802 2.3509883e-38
-0.0017238483 -0.12060766 0.036823556 2.3048907e-38
3.9957464e-05 -0.12212978 0.030815765 2.341805e-38
0.0018120073 -0.12389888 0.023833081 2.341805e-38
0.0036074929 -0.12569134 0.016758248 2.341805e-38
0.0054671355 -0.12645011 0.013763353 2.3509886e-38
0.0073298085 -0.12744872 0.0098218173 2.3509886e-38
0.0091938768 -0.12896039 0.0038552736 2.3509527e-38
0.011105021 -0.12896039 0.0038552736 2.3509527e-38
0.013005609 -0.12997745 -0.00015909923 2.3509527e-38
0.014907951 -0.13455538 -0.018228129 2.3509886e-38
0.016860399 -0.1353019 -0.021174744 2.341805e-38
0.018826151 -0.13633488 -0.025251821 2.341805e-38
0.020788331 -0.13633488 -0.025251821 2.341805e-38
0.022774948 -0.13734378 -0.029234007 2.3509886e-38
0.024744108 -0.13734378 -0.029234007 2.3509886e-38
0.02674225 -0.1381052 -0.032239273 2.3509527e-38
0.028807465 -0.14012341 -0.040205196 2.3509527e-38
0.030847952 -0.14112701 -0.044166401 2.3509527e-38
0.033007301 -0.14391513 -0.055171207 2.3509168e-38
0.035089679 -0.14494546 -0.059237912 2.2679409e-38
0.037184406 -0.14594953 -0.063200906 2.3509527e-38
0.03929358 -0.14696048 -0.067191198 2.3140384e-38
0.041417353 -0.14797847 -0.071209148 2.0190843e-38
0.043555878 -0.14900355 -0.075255111 8.4819979e-39
-0.038790658 -0.12246101 0.036823556 1.3826096e-38
-0.036937311 -0.12246101 0.036823556 1.3458033e-38
-0.035083972 -0.12246101 0.036823556 7.8355411e-39
-0.033369809 -0.12322514 0.033828184 3.5873241e-43
-0.031645902 -0.12399365 0.030815765 3.5873241e-43
-0.03008198 -0.12577499 0.023833081 1.4349296e-42
-0.028497368 -0.12757985 0.016758248 1.4349296e-42
-0.026726998 -0.1283439 0.013763353 1.7950633e-42
-0.024833225 -0.1283439 0.013763353 3.5873241e-43
-0.022939451 -0.1283439 0.013763353 9.1835496e-41
-0.02118044 -0.12934943 0.0098218173 5.5173044e-40
-0.019378159 -0.13012333 0.0067881797 3.6734198e-40
-0.016059153 -0.11837523 0.052839324 1.2878535e-39
-0.014233895 -0.11837523 0.052839324 2.1662725e-38
-0.012490522 -0.11914389 0.04982619 2.3509514e-38
-0.010737024 -0.11991702 0.046795651 2.3507714e-38
-0.0089011714 -0.11991702 0.046795651 2.3509517e-38
-0.0071297288 -0.12066682 0.043856546 2.3509156e-38
-0.0053704754 -0.12170117 0.039802 2.3508801e-38
-0.0035223551 -0.12170117 0.039802 2.350988e-38
-0.0016742386 -0.12170117 0.039802 2.3325494e-38
8.4850937e-05 -0.12322514 0.033828184 2.341805e-38
0.0018506572 -0.12502514 0.026772425 2.341805e-38
0.0036531426 -0.12655805 0.020763561 2.341805e-38
0.0054671355 -0.1283439 0.013763353 2.3509886e-38
0.0073298085 -0.12934943 0.0098218173 2.3509886e-38
0.0091938768 -0.13087155 0.0038552736 2.3509527e-38
0.011105021 -0.13087155 0.0038552736 2.3509527e-38
0.012987103 -0.13369073 -0.007195666 2.3509527e-38
0.01491148 -0.13547809 -0.014201835 2.3509886e-38
0.016857816 -0.13650523 -0.018228129 2.341805e-38
0.01881543 -0.13725694 -0.021174744 2.3234379e-38
0.020788331 -0.13829704 -0.025251821 2.341805e-38
0.022774948 -0.13931294 -0.029234007 2.341805e-38
0.024744108 -0.13931294 -0.029234007 2.3509527e-38
0.02674225 -0.14007963 -0.032239273 2.3509527e-38
0.028761193 -0.14107598 -0.036144927 2.3509527e-38
0.030847952 -0.14312236 -0.044166401 2.3509527e-38
0.032949056 -0.14493273 -0.05126293 2.3509527e-38
0.035021942 -0.14592977 -0.055171207 2.3324055e-38
0.037111446 -0.14696725 -0.059237912 2.3509527e-38
0.039213121 -0.14797823 -0.063200906 2.3140387e-38
0.04124184 -0.14797823 -0.063200906 2.2772323e-38
-0.038636595 -0.1235493 0.039802 1.4194876e-38
-0.036788478 -0.1235493 0.039802 1.2352405e-38
-0.034940362 -0.1235493 0.039802 3.5945422e-39
-0.033230633 -0.12431435 0.036823556 3.5873241e-43
-0.031645902 -0.12585752 0.030815765 3.5873241e-43
-0.03008198 -0.12765111 0.023833081 7.1746481e-43
-0.028620765 -0.13023765 0.013763353 2.7838195e-40
-0.026882492 -0.1312501 0.0098218173 7.1746481e-43
-0.024981808 -0.1312501 0.0098218173 0
-0.023190163 -0.13202934 0.0067881797 4.6061241e-40
-0.021284159 -0.13202934 0.0067881797 6.4392467e-40
-0.019378159 -0.13202934 0.0067881797 3.6734198e-40
-0.017562147 -0.13278268 0.0038552736 1.4722448e-39
-0.014233895 -0.12020047 0.052839324 1.7422445e-38
-0.012408637 -0.12020047 0.052839324 2.3509514e-38
-0.010737024 -0.12175287 0.046795651 2.3509514e-38
-0.0089011714 -0.12175287 0.046795651 2.3508437e-38
-0.0071297288 -0.12250783 0.043856546 2.3509156e-38
-0.0052887201 -0.12250783 0.043856546 2.3508441e-38
-0.0035223551 -0.1235493 0.039802 2.350988e-38
-0.0016742386 -0.1235493 0.039802 2.3509886e-38
