# .PCD v0.7 - Point Cloud Data file format
VERSION 0.7
FIELDS x y z rgb
SIZE 4 4 4 4
TYPE F F F F
COUNT 1 1 1 1
WIDTH 944
HEIGHT 1
VIEWPOINT 0 0 0 1 0 0 0
POINTS 944
DATA ascii
0.024751741 -0.11355768 -0.062180124 2.34166e-38
0.026825946 -0.11444794 -0.066225968 1.8622427e-38
0.02891079 -0.11444794 -0.066225968 1.1431165e-38
0.030995633 -0.11444794 -0.066225968 2.8569715e-39
0.033080477 -0.11444794 -0.066225968 4.4243e-39
0.035165321 -0.11444794 -0.066225968 5.9916257e-39
-0.02784301 -0.091697961 0.045745172 2.4899953e-39
-0.025954496 -0.091697961 0.045745172 4.5989495e-40
-0.024065968 -0.091697961 0.045745172 6.4284847e-40
-0.022177454 -0.091697961 0.045745172 9.1835496e-40
-0.020288926 -0.091697961 0.045745172 9.9524337e-39
-0.018400412 -0.091697961 0.045745172 2.3508432e-38
-0.016511884 -0.091697961 0.045745172 2.350951e-38
-0.014623363 -0.091697961 0.045745172 2.350879e-38
-0.01284774 -0.09236221 0.042750277 2.34166e-38
-0.010953967 -0.09236221 0.042750277 2.3232932e-38
-0.0091949552 -0.093236431 0.038808741 2.2587566e-38
-0.0073926747 -0.093909279 0.035775103 2.2034039e-38
-0.0055766627 -0.094559789 0.032842197 2.2678333e-38
-0.003665518 -0.094559789 0.032842197 2.3509527e-38
-0.0018634684 -0.095450163 0.028827824 2.2588296e-38
-2.3838133e-05 -0.096135467 0.025738038 2.3234379e-38
0.00085819885 -0.10589527 -0.018265329 2.3234379e-38
0.0029265843 -0.10521083 -0.015179478 2.3234379e-38
0.004921928 -0.10521083 -0.015179478 2.341805e-38
0.0067866258 -0.10678484 -0.022276007 2.341805e-38
0.0087293088 -0.10765167 -0.026184283 2.3509886e-38
0.010624278 -0.10943262 -0.034213983 2.3325492e-38
0.012547687 -0.11120884 -0.042222224 2.3141456e-38
0.014544334 -0.11210622 -0.046268187 2.3325847e-38
0.016517982 -0.11385889 -0.054170333 2.3509879e-38
0.018550199 -0.11474411 -0.058161579 2.3509876e-38
0.020620901 -0.11474411 -0.058161579 2.3324404e-38
0.022656258 -0.11653279 -0.066225968 2.3508793e-38
0.024741102 -0.11653279 -0.066225968 2.3509873e-38
0.026825946 -0.11653279 -0.066225968 2.2494641e-38
0.02891079 -0.11653279 -0.066225968 1.6040947e-38
0.031005977 -0.11740504 -0.070158683 3.3179497e-39
0.033080477 -0.11653279 -0.066225968 4.1477131e-39
0.035140492 -0.11563541 -0.062180124 6.176017e-39
0.037218243 -0.11563541 -0.062180124 6.9143065e-39
-0.025954496 -0.093586475 0.045745172 7.371979e-40
-0.024065968 -0.093586475 0.045745172 5.5101298e-40
-0.022177454 -0.093586475 0.045745172 1.0109079e-39
-0.020288926 -0.093586475 0.045745172 7.0032539e-39
-0.018400412 -0.093586475 0.045745172 2.3507711e-38
-0.016511884 -0.093586475 0.045745172 2.3509153e-38
-0.014741514 -0.094255984 0.042750277 2.3047452e-38
-0.01284774 -0.094255984 0.042750277 2.2033663e-38
-0.011095639 -0.095137119 0.038808741 2.2495367e-38
-0.0091949552 -0.095137119 0.038808741 2.3417327e-38
-0.0073926747 -0.095815286 0.035775103 2.3509527e-38
-0.0055766627 -0.096470937 0.032842197 2.3508809e-38
-0.003665518 -0.096470937 0.032842197 2.3509168e-38
-0.0018634684 -0.097368345 0.028827824 2.341805e-38
-2.3838133e-05 -0.098059073 0.025738038 2.3142544e-38
0.00093124434 -0.10720618 -0.015179478 2.2772686e-38
0.0029265843 -0.10720618 -0.015179478 2.341805e-38
0.004921928 -0.10720618 -0.015179478 2.341805e-38
0.0068604611 -0.10789602 -0.018265329 2.2773039e-38
0.0087944083 -0.10879262 -0.022276007 2.3325494e-38
0.010683339 -0.11057542 -0.030250989 2.3509883e-38
0.012600522 -0.11235337 -0.038204275 2.350988e-38
0.014544334 -0.11415605 -0.046268187 2.3325846e-38
0.016517982 -0.11592259 -0.054170333 2.3233288e-38
0.018581688 -0.11592259 -0.054170333 2.3417679e-38
0.020620901 -0.11681484 -0.058161579 2.3141089e-38
0.022673991 -0.11771317 -0.062180124 2.3509873e-38
0.024751741 -0.11771317 -0.062180124 2.3509153e-38
0.026825946 -0.11861761 -0.066225968 2.2680111e-38
0.02891079 -0.11861761 -0.066225968 1.9729851e-38
0.031005977 -0.11949678 -0.070158683 4.0565937e-39
0.033080477 -0.11861761 -0.066225968 3.9644009e-39
0.035140492 -0.11771317 -0.062180124 5.9927047e-39
0.037218243 -0.11771317 -0.062180124 6.7299138e-39
-0.025954496 -0.095475003 0.045745172 9.1835496e-41
-0.024065968 -0.095475003 0.045745172 2.7550649e-40
-0.022177454 -0.095475003 0.045745172 7.3576017e-40
-0.020288926 -0.095475003 0.045745172 2.7629836e-39
-0.018400412 -0.095475003 0.045745172 2.0649292e-38
-0.016511884 -0.095475003 0.045745172 2.3509514e-38
-0.014741514 -0.096149758 0.042750277 2.3509514e-38
-0.01284774 -0.096149758 0.042750277 2.0742564e-38
-0.011095639 -0.097037792 0.038808741 2.3140013e-38
-0.0091949552 -0.097037792 0.038808741 2.3509524e-38
-0.0073926747 -0.097721294 0.035775103 2.3508809e-38
-0.0055766627 -0.098382086 0.032842197 2.3324421e-38
-0.003665518 -0.098382086 0.032842197 2.3509168e-38
-0.0017543733 -0.098382086 0.032842197 2.3509527e-38
-2.3838133e-05 -0.099982664 0.025738038 2.341805e-38
0.00093124434 -0.10920154 -0.015179478 2.3509886e-38
0.0029265843 -0.10920154 -0.015179478 2.3509886e-38
0.004921928 -0.10920154 -0.015179478 2.3509886e-38
0.0068604611 -0.10989676 -0.018265329 2.3509886e-38
0.0087944083 -0.1108004 -0.022276007 2.3509886e-38
0.01074395 -0.11168094 -0.026184283 2.3509883e-38
0.012705106 -0.11259718 -0.030250989 2.350988e-38
0.014681712 -0.11349006 -0.034213983 2.3418042e-38
0.016556211 -0.1170931 -0.050205909 2.3418039e-38
0.018581688 -0.11798631 -0.054170333 2.3325843e-38
0.020620901 -0.11888553 -0.058161579 2.3326199e-38
0.022673991 -0.11979093 -0.062180124 2.3418036e-38
0.024751741 -0.11979093 -0.062180124 2.3509872e-38
0.026825946 -0.12070246 -0.066225968 2.3509873e-38
0.02891079 -0.12070246 -0.066225968 2.0099715e-38
0.031005977 -0.12158851 -0.070158683 3.4123061e-39
0.033080477 -0.12070246 -0.066225968 5.0711086e-39
0.035140492 -0.11979093 -0.062180124 7.0072168e-39
0.037218243 -0.11979093 -0.062180124 5.9008692e-39
0.039295994 -0.11979093 -0.062180124 7.5596745e-39
-0.024065968 -0.097363517 0.045745172 4.5953902e-40
-0.022177454 -0.097363517 0.045745172 7.361231e-40
-0.020422827 -0.098043531 0.042750277 3.6734198e-40
-0.018529054 -0.098043531 0.042750277 1.4104125e-38
-0.01663528 -0.098043531 0.042750277 2.1386857e-38
-0.014741514 -0.098043531 0.042750277 2.3508434e-38
-0.01284774 -0.098043531 0.042750277 2.2863063e-38
-0.011095639 -0.09893848 0.038808741 2.3509517e-38
-0.0091949552 -0.09893848 0.038808741 2.3509524e-38
-0.0072942711 -0.09893848 0.038808741 2.3508809e-38
-0.0055766627 -0.10029322 0.032842197 2.3416615e-38
-0.003665518 -0.10029322 0.032842197 2.3509168e-38
-0.0017543733 -0.10029322 0.032842197 2.3509527e-38
-2.3838133e-05 -0.10190627 0.025738038 2.3509886e-38
0.00093124434 -0.11119686 -0.015179478 2.3509886e-38
0.0029265843 -0.11119686 -0.015179478 2.3509886e-38
0.004921928 -0.11119686 -0.015179478 2.3509886e-38
0.0068604611 -0.11189754 -0.018265329 2.3509886e-38
0.0087944083 -0.11280818 -0.022276007 2.3509883e-38
0.010802194 -0.11280818 -0.022276007 2.3509883e-38
0.012758587 -0.11369558 -0.026184283 2.350988e-38
0.014726873 -0.11461894 -0.030250989 2.3418042e-38
0.016633201 -0.11733709 -0.042222224 2.3418039e-38
0.018581688 -0.12005 -0.054170333 2.3325843e-38
0.020620901 -0.12095623 -0.058161579 2.3326199e-38
0.022656258 -0.12278731 -0.066225968 2.3418036e-38
0.024741102 -0.12278731 -0.066225968 2.3418036e-38
0.026825946 -0.12278731 -0.066225968 2.3418038e-38
0.028914237 -0.12368025 -0.070158683 2.2773388e-38
0.031016761 -0.12461133 -0.074259363 5.0729064e-39
0.033097714 -0.12368025 -0.070158683 3.8732842e-39
0.035140492 -0.12186868 -0.062180124 7.4689138e-39
0.037218243 -0.12186868 -0.062180124 7.1916081e-39
0.039295994 -0.12186868 -0.062180124 7.1916081e-39
-0.024546694 -0.10153329 0.035775103 2.7550649e-40
-0.022499736 -0.10083917 0.038808741 2.7550649e-40
-0.020422827 -0.099937305 0.042750277 3.6734198e-40
-0.018400412 -0.099252045 0.045745172 1.3458756e-38
-0.016511884 -0.099252045 0.045745172 1.9542944e-38
-0.014741514 -0.099937305 0.042750277 2.3507353e-38
-0.01284774 -0.099937305 0.042750277 2.3509873e-38
-0.010953967 -0.099937305 0.042750277 2.3509517e-38
-0.0091949552 -0.10083917 0.038808741 2.3231857e-38
-0.0072942711 -0.10083917 0.038808741 2.3509168e-38
-0.0055766627 -0.10220437 0.032842197 2.3508809e-38
-0.003665518 -0.10220437 0.032842197 2.3509168e-38
-0.0017543733 -0.10220437 0.032842197 2.3509527e-38
-2.3838133e-05 -0.10382988 0.025738038 2.3509886e-38
0.0012846924 -0.10977553 -0.0002470836 2.3509886e-38
0.0030134022 -0.11228584 -0.011218272 2.3509886e-38
0.004921928 -0.11319222 -0.015179478 2.3509886e-38
0.0068604611 -0.11389829 -0.018265329 2.3509886e-38
0.0087944083 -0.11481597 -0.022276007 2.3509883e-38
0.010802194 -0.11481597 -0.022276007 2.3509883e-38
0.012758587 -0.11571021 -0.026184283 2.350988e-38
0.014726873 -0.11664073 -0.030250989 2.3509879e-38
0.016710427 -0.1175475 -0.034213983 2.3418039e-38
0.018707659 -0.11846052 -0.038204275 2.3418039e-38
0.020669723 -0.1212066 -0.050205909 2.3418039e-38
0.022673991 -0.12394641 -0.062180124 2.3418039e-38
0.024741102 -0.12487216 -0.066225968 2.3509873e-38
0.026822498 -0.12577201 -0.070158683 2.3418038e-38
0.028914237 -0.12577201 -0.070158683 2.341804e-38
0.031016761 -0.12671028 -0.074259363 8.2072019e-39
0.033097714 -0.12577201 -0.070158683 3.5045045e-39
0.035165321 -0.12487216 -0.066225968 6.8235472e-39
0.037250169 -0.12487216 -0.066225968 7.7447846e-39
0.039335012 -0.12487216 -0.066225968 7.0072196e-39
-0.022499736 -0.10273984 0.038808741 2.7550649e-40
-0.020422827 -0.10183108 0.042750277 1.7495562e-39
-0.018400412 -0.10114056 0.045745172 1.3735343e-38
-0.016511884 -0.10114056 0.045745172 2.0096118e-38
-0.014623363 -0.10114056 0.045745172 2.3508434e-38
-0.01284774 -0.10183108 0.042750277 2.3509873e-38
-0.010953967 -0.10183108 0.042750277 2.3508797e-38
-0.0090601966 -0.10183108 0.042750277 2.3047466e-38
-0.0072942711 -0.10273984 0.038808741 2.3509168e-38
-0.0055766627 -0.1041155 0.032842197 2.3508809e-38
-0.003665518 -0.1041155 0.032842197 2.3140033e-38
-0.0017543733 -0.1041155 0.032842197 2.3509527e-38
-0.00012418255 -0.10666345 0.021791257 2.3509886e-38
0.0016405024 -0.10827883 0.014785089 2.3509886e-38
0.003187988 -0.11243759 -0.0032523498 2.3509886e-38
0.005083669 -0.1133381 -0.0071580037 2.3509886e-38
0.0068604611 -0.11589904 -0.018265329 2.3509886e-38
0.0087293088 -0.11772485 -0.026184283 2.3509883e-38
0.01074395 -0.11772485 -0.026184283 2.3509883e-38
0.012705106 -0.11866249 -0.030250989 2.350988e-38
0.014726873 -0.11866249 -0.030250989 2.350988e-38
0.016710427 -0.1195762 -0.034213983 2.3418042e-38
0.018739143 -0.1195762 -0.034213983 2.3418039e-38
0.020718716 -0.1214226 -0.042222224 2.3418039e-38
0.022673991 -0.12602417 -0.062180124 2.3418039e-38
0.024741102 -0.12695698 -0.066225968 2.3509873e-38
0.026822498 -0.12786375 -0.070158683 2.341804e-38
0.028914237 -0.12786375 -0.070158683 2.3418043e-38
0.031016761 -0.1288092 -0.074259363 1.4015527e-38
0.033097714 -0.12786375 -0.070158683 7.1919724e-39
0.035165321 -0.12695698 -0.066225968 7.376721e-39
0.037250169 -0.12695698 -0.066225968 8.8511336e-39
0.039335012 -0.12695698 -0.066225968 8.9433278e-39
-0.030421544 -0.10602666 0.032842197 7.1746481e-43
-0.024546694 -0.10534529 0.035775103 5.5173465e-40
-0.022499736 -0.10464053 0.038808741 5.5173184e-40
-0.020422827 -0.10372485 0.042750277 5.5101298e-40
-0.018400412 -0.10302909 0.045745172 7.4660397e-39
-0.016511884 -0.10302909 0.045745172 1.9081966e-38
-0.014623363 -0.10302909 0.045745172 2.3509154e-38
-0.01284774 -0.10372485 0.042750277 2.3509513e-38
-0.010953967 -0.10372485 0.042750277 2.3323685e-38
-0.0090601966 -0.10372485 0.042750277 2.3416245e-38
-0.0071664229 -0.10372485 0.042750277 2.3509527e-38
-0.0054866709 -0.10534529 0.035775103 2.3324421e-38
-0.003665518 -0.10602666 0.032842197 2.3232227e-38
-0.0017543733 -0.10602666 0.032842197 2.3509527e-38
-0.00012418255 -0.10859399 0.021791257 2.3509886e-38
0.0016405024 -0.11022164 0.014785089 2.3509886e-38
0.003187988 -0.11441202 -0.0032523498 2.3509886e-38
0.005083669 -0.11531936 -0.0071580037 2.3509886e-38
0.0069172718 -0.1171829 -0.015179478 2.3509886e-38
0.0087944083 -0.11883153 -0.022276007 2.3509883e-38
0.010802194 -0.11883153 -0.022276007 2.3509883e-38
0.012758587 -0.11973949 -0.026184283 2.350988e-38
0.014726873 -0.12068425 -0.030250989 2.350988e-38
0.016748644 -0.12068425 -0.030250989 2.3509879e-38
0.018770412 -0.12068425 -0.030250989 2.3418042e-38
0.020718716 -0.12346537 -0.042222224 2.3418039e-38
0.022709101 -0.12624113 -0.054170333 2.3509876e-38
0.024751741 -0.12810193 -0.062180124 2.3509876e-38
0.026825946 -0.12904184 -0.066225968 2.341804e-38
0.028914237 -0.12995549 -0.070158683 2.3141816e-38
0.031005977 -0.12995549 -0.070158683 1.8809701e-38
0.033097714 -0.12995549 -0.070158683 1.1434053e-38
0.035165321 -0.12904184 -0.066225968 7.6529505e-39
0.037250169 -0.12904184 -0.066225968 9.0351689e-39
0.039335012 -0.12904184 -0.066225968 9.6808943e-39
-0.035573002 -0.10561861 0.042750277 4.6061241e-40
-0.028510403 -0.1079378 0.032842197 3.5873241e-43
-0.026599254 -0.1079378 0.032842197 1.8438846e-40
-0.024546694 -0.1072513 0.035775103 5.5173465e-40
-0.022499736 -0.1065412 0.038808741 4.5953902e-40
-0.020422827 -0.10561861 0.042750277 3.6734198e-40
-0.018400412 -0.1049176 0.045745172 2.3030845e-39
-0.016511884 -0.1049176 0.045745172 1.4933163e-38
-0.014623363 -0.1049176 0.045745172 2.3508794e-38
-0.012734842 -0.1049176 0.045745172 2.3509873e-38
-0.010846321 -0.1049176 0.045745172 2.3509517e-38
-0.0089577995 -0.1049176 0.045745172 2.3509521e-38
-0.0070692785 -0.1049176 0.045745172 2.3509527e-38
-0.0053935908 -0.1065412 0.038808741 2.3232227e-38
-0.003665518 -0.1079378 0.032842197 2.3509168e-38
-0.0017543733 -0.1079378 0.032842197 2.3509527e-38
-2.3838133e-05 -0.10960068 0.025738038 2.3509886e-38
0.001545202 -0.11310686 0.010758795 2.3509886e-38
0.0032538511 -0.115683 -0.0002470836 2.3509886e-38
0.0052230172 -0.115683 -0.0002470836 2.3509886e-38
0.006990198 -0.11825104 -0.011218272 2.3509886e-38
0.0088612102 -0.11990054 -0.018265329 2.3509883e-38
0.010861967 -0.11990054 -0.018265329 2.3509883e-38
0.012809981 -0.12083931 -0.022276007 2.350988e-38
0.014773224 -0.12175412 -0.026184283 2.350988e-38
0.016748644 -0.12270601 -0.030250989 2.350988e-38
0.018770412 -0.12270601 -0.030250989 2.3509879e-38
0.02076786 -0.12363364 -0.034213983 2.3509879e-38
0.022726478 -0.12737687 -0.050205909 2.3509876e-38
0.02476231 -0.12923907 -0.058161579 2.3509876e-38
0.026829492 -0.13017969 -0.062180124 2.3418043e-38
0.02891079 -0.13112669 -0.066225968 2.332621e-38
0.030995633 -0.13112669 -0.066225968 2.1391181e-38
0.033080477 -0.13112669 -0.066225968 1.4844936e-38
0.035165321 -0.13112669 -0.066225968 7.2852498e-39
0.037250169 -0.13112669 -0.066225968 8.482714e-39
0.039335012 -0.13112669 -0.066225968 8.4819951e-39
-0.035573002 -0.1075124 0.042750277 5.5281084e-40
-0.032170702 -0.10915731 0.035775103 5.0711114e-39
-0.030264702 -0.10915731 0.035775103 5.5424437e-40
-0.028358694 -0.10915731 0.035775103 2.7694142e-40
-0.026599254 -0.10984896 0.032842197 1.8438846e-40
-0.024688106 -0.10984896 0.032842197 2.7550649e-40
-0.022640686 -0.10915731 0.035775103 2.7550649e-40
-0.020734694 -0.10915731 0.035775103 3.6734198e-40
-0.018400412 -0.10680611 0.045745172 1.2889325e-39
-0.016511884 -0.10680611 0.045745172 1.0323381e-38
-0.014623363 -0.10680611 0.045745172 2.3509514e-38
-0.012734842 -0.10680611 0.045745172 2.3509873e-38
-0.010846321 -0.10680611 0.045745172 2.3509157e-38
-0.0089577995 -0.10680611 0.045745172 2.3509521e-38
-0.0070692785 -0.10680611 0.045745172 2.3416251e-38
-0.0052726492 -0.1075124 0.042750277 2.3509168e-38
-0.003665518 -0.10984896 0.032842197 2.3509527e-38
-0.0017543733 -0.10984896 0.032842197 2.3509886e-38
-2.3838133e-05 -0.11152427 0.025738038 2.3509886e-38
0.001712244 -0.11339252 0.017815866 2.3509886e-38
0.0034304857 -0.11575161 0.0078121796 2.3509886e-38
0.0053033084 -0.11671309 0.0037351027 2.3509886e-38
0.0071921758 -0.11765216 -0.0002470836 2.3509886e-38
0.0088612102 -0.12190129 -0.018265329 2.3509883e-38
0.010861967 -0.12190129 -0.018265329 2.3509883e-38
0.012809981 -0.1228471 -0.022276007 2.3509883e-38
0.014773224 -0.12376876 -0.026184283 2.350988e-38
0.016748644 -0.1247278 -0.030250989 2.350988e-38
0.018739143 -0.12566237 -0.034213983 2.350988e-38
0.02076786 -0.12566237 -0.034213983 2.350988e-38
0.022761473 -0.12755089 -0.042222224 2.3509879e-38
0.024793591 -0.12850504 -0.046268187 2.3509879e-38
0.026829492 -0.13225742 -0.062180124 2.3418045e-38
0.02891079 -0.13321154 -0.066225968 2.341805e-38
0.030995633 -0.13321154 -0.066225968 2.3234379e-38
0.033080477 -0.13321154 -0.066225968 1.880935e-38
0.035165321 -0.13321154 -0.066225968 7.6536764e-39
0.037250169 -0.13321154 -0.066225968 8.6671081e-39
0.039335012 -0.13321154 -0.066225968 8.5749124e-39
-0.037466776 -0.10940616 0.042750277 9.1835496e-41
-0.035573002 -0.10940616 0.042750277 1.8402972e-40
-0.033679236 -0.10940616 0.042750277 3.4115914e-39
-0.032003161 -0.11034258 0.038808741 4.2413521e-39
-0.030264702 -0.11106332 0.035775103 3.5873241e-43
-0.028358694 -0.11106332 0.035775103 0
-0.026599254 -0.11176009 0.032842197 0
-0.024688106 -0.11176009 0.032842197 2.7550929e-40
-0.022776965 -0.11176009 0.032842197 7.3612591e-40
-0.020865824 -0.11176009 0.032842197 5.5101298e-40
-0.018698376 -0.11034258 0.038808741 3.6734198e-40
-0.016511884 -0.10869466 0.045745172 7.9262948e-39
-0.014623363 -0.10869466 0.045745172 2.3509514e-38
-0.012734842 -0.10869466 0.045745172 2.3509153e-38
-0.010846321 -0.10869466 0.045745172 2.3047098e-38
-0.0089577995 -0.10869466 0.045745172 2.3509521e-38
-0.0070692785 -0.10869466 0.045745172 2.3416251e-38
-0.0052726492 -0.10940616 0.042750277 2.3509527e-38
-0.003665518 -0.11176009 0.032842197 2.3509527e-38
-0.0018634684 -0.1127138 0.028827824 2.3509886e-38
-2.3838133e-05 -0.11344786 0.025738038 2.3509886e-38
0.001712244 -0.11533 0.017815866 2.3509886e-38
0.0035833083 -0.11605005 0.014785089 2.3509886e-38
0.0053855143 -0.11770664 0.0078121796 2.3509886e-38
0.0073405467 -0.11770664 0.0078121796 2.3509886e-38
0.0088612102 -0.12390204 -0.018265329 2.3509883e-38
0.010861967 -0.12390204 -0.018265329 2.3509883e-38
0.01286272 -0.12390204 -0.018265329 2.3509883e-38
0.014773224 -0.1257834 -0.026184283 2.3509883e-38
0.016748644 -0.12674956 -0.030250989 2.350988e-38
0.018739143 -0.12769108 -0.034213983 2.350988e-38
0.02076786 -0.12769108 -0.034213983 2.350988e-38
0.022779085 -0.12863909 -0.038204275 2.350988e-38
0.024793591 -0.13055487 -0.046268187 2.350988e-38
0.02683999 -0.13149039 -0.050205909 2.3418045e-38
0.028907243 -0.13433518 -0.062180124 2.2496453e-38
0.030995633 -0.13529639 -0.066225968 2.3234379e-38
0.033097714 -0.13623069 -0.070158683 2.0653263e-38
0.035165321 -0.13529639 -0.066225968 6.7317229e-39
0.037250169 -0.13529639 -0.066225968 7.7451518e-39
0.039335012 -0.13529639 -0.066225968 8.3905212e-39
-0.035573002 -0.11129995 0.042750277 4.6061521e-40
-0.033679236 -0.11129995 0.042750277 3.0428089e-39
-0.032003161 -0.11224325 0.038808741 4.9789171e-39
-0.030264702 -0.11296929 0.035775103 3.6949578e-40
-0.028358694 -0.11296929 0.035775103 0
-0.026599254 -0.11367123 0.032842197 5.5317378e-40
-0.024881672 -0.114632 0.028827824 2.7550929e-40
-0.02296349 -0.114632 0.028827824 2.7550649e-40
-0.020865824 -0.11367123 0.032842197 5.5101298e-40
-0.018698376 -0.11224325 0.038808741 3.6734198e-40
-0.016511884 -0.11058317 0.045745172 1.5647964e-39
-0.014623363 -0.11058317 0.045745172 2.3509514e-38
-0.012734842 -0.11058317 0.045745172 2.350951e-38
-0.010846321 -0.11058317 0.045745172 2.3508793e-38
-0.0089577995 -0.11058317 0.045745172 2.3509879e-38
-0.0070692785 -0.11058317 0.045745172 2.3508444e-38
-0.0051807575 -0.11058317 0.045745172 2.3509527e-38
-0.0035806708 -0.11296929 0.035775103 2.332478e-38
-0.0018634684 -0.114632 0.028827824 2.3509886e-38
-2.3838133e-05 -0.11537148 0.025738038 2.3509886e-38
0.001712244 -0.11726747 0.017815866 2.3509886e-38
0.0035833083 -0.11799283 0.014785089 2.3509886e-38
0.005444929 -0.11895646 0.010758795 2.3509886e-38
0.0073405467 -0.11966167 0.0078121796 2.3509886e-38
0.0089126118 -0.12516426 -0.015179478 2.3509886e-38
0.010907955 -0.12516426 -0.015179478 2.3509886e-38
0.01286272 -0.12590279 -0.018265329 2.3509883e-38
0.014773224 -0.12779804 -0.026184283 2.3509883e-38
0.016748644 -0.12877132 -0.030250989 2.3509883e-38
0.018739143 -0.12971978 -0.034213983 2.3509883e-38
0.02076786 -0.12971978 -0.034213983 2.3509883e-38
0.022779085 -0.13067479 -0.038204275 2.3509883e-38
0.024804231 -0.1316364 -0.042222224 2.3509883e-38
0.026843442 -0.13260473 -0.046268187 2.3418047e-38
0.028903719 -0.13545118 -0.058161579 2.341805e-38
0.030995633 -0.13738121 -0.066225968 2.2589371e-38
0.033080477 -0.13738121 -0.066225968 2.3050349e-38
0.035165321 -0.13738121 -0.066225968 7.9302661e-39
0.037250169 -0.13738121 -0.066225968 7.2848967e-39
0.03941248 -0.13930385 -0.074259363 8.2990486e-39
0.041511409 -0.13930385 -0.074259363 8.3912415e-39
-0.035573002 -0.11319371 0.042750277 4.8860054e-39
-0.033679236 -0.11319371 0.042750277 7.7440672e-39
-0.03178547 -0.11319371 0.042750277 3.780374e-39
-0.030264702 -0.1148753 0.035775103 9.2911693e-41
-0.028358694 -0.1148753 0.035775103 0
-0.026599254 -0.11558239 0.032842197 4.6097815e-40
-0.024881672 -0.11655019 0.028827824 2.7550929e-40
-0.02296349 -0.11655019 0.028827824 2.7550649e-40
-0.020865824 -0.11558239 0.032842197 8.2760267e-40
-0.018698376 -0.11414395 0.038808741 3.6734198e-40
-0.016511884 -0.11247168 0.045745172 9.1943116e-40
-0.014623363 -0.11247168 0.045745172 2.1755637e-38
-0.012734842 -0.11247168 0.045745172 2.350915e-38
-0.010846321 -0.11247168 0.045745172 2.3324041e-38
-0.0089577995 -0.11247168 0.045745172 2.3509879e-38
-0.0070692785 -0.11247168 0.045745172 2.3508804e-38
-0.0051807575 -0.11247168 0.045745172 2.3509527e-38
-0.0035806708 -0.1148753 0.035775103 2.3509527e-38
-0.0017543733 -0.11558239 0.032842197 2.3509886e-38
-2.3838133e-05 -0.11729507 0.025738038 2.3509886e-38
0.0018063374 -0.11824657 0.021791257 2.3509886e-38
0.0036497302 -0.11920498 0.017815866 2.3509886e-38
0.0055261143 -0.11993565 0.014785089 2.3509886e-38
0.0073405467 -0.12161671 0.0078121796 2.3509886e-38
0.009046223 -0.12522577 -0.0071580037 2.3509886e-38
0.010907955 -0.12715961 -0.015179478 2.3509886e-38
0.01286272 -0.12790357 -0.018265329 2.3509883e-38
0.014817763 -0.12887047 -0.022276007 2.3509883e-38
0.016787861 -0.12981267 -0.026184283 2.3509883e-38
0.018770412 -0.13079311 -0.030250989 2.3509883e-38
0.020792179 -0.13079311 -0.030250989 2.3509883e-38
0.022796577 -0.13174851 -0.034213983 2.3509883e-38
0.024804231 -0.13367917 -0.042222224 2.3509883e-38
0.026843442 -0.13465457 -0.046268187 2.341805e-38
0.028903719 -0.13752188 -0.058161579 2.341805e-38
0.030984994 -0.13849069 -0.062180124 2.3050349e-38
0.033080477 -0.13946606 -0.066225968 2.3234379e-38
0.035189457 -0.14041416 -0.070158683 9.6819831e-39
0.037281197 -0.14041416 -0.070158683 6.7317229e-39
0.03941248 -0.1414028 -0.074259363 8.3912415e-39
0.041511409 -0.1414028 -0.074259363 8.9444152e-39
-0.037466776 -0.11508749 0.042750277 4.2395542e-39
-0.035573002 -0.11508749 0.042750277 6.1756625e-39
-0.033679236 -0.11508749 0.042750277 6.2689371e-39
-0.03178547 -0.11508749 0.042750277 2.028657e-39
-0.030264702 -0.11678131 0.035775103 3.5873241e-43
-0.028358694 -0.11678131 0.035775103 0
-0.026452702 -0.11678131 0.035775103 1.8439406e-40
-0.024881672 -0.11846836 0.028827824 2.7550929e-40
-0.02296349 -0.11846836 0.028827824 3.6734339e-40
-0.020865824 -0.11749353 0.032842197 9.197983e-40
-0.018698376 -0.11604463 0.038808741 3.6734198e-40
-0.016511884 -0.1143602 0.045745172 1.3804051e-39
-0.014465358 -0.11338757 0.049750485 1.8897572e-38
-0.012583856 -0.11338757 0.049750485 2.350987e-38
-0.010702357 -0.11338757 0.049750485 2.3509153e-38
-0.0088208579 -0.11338757 0.049750485 2.3509876e-38
-0.0070692785 -0.1143602 0.045745172 2.3509161e-38
-0.0052726492 -0.11508749 0.042750277 2.3509527e-38
-0.0035806708 -0.11678131 0.035775103 2.3509527e-38
-0.0017543733 -0.11749353 0.032842197 2.3509886e-38
5.4713339e-05 -0.11846836 0.028827824 2.3509886e-38
0.0018997602 -0.11921866 0.025738038 2.3509886e-38
0.0036497302 -0.12114246 0.017815866 2.3509886e-38
0.0055261143 -0.12187846 0.014785089 2.3509886e-38
0.0073405467 -0.12357174 0.0078121796 2.3509886e-38
0.009046223 -0.12720706 -0.0071580037 2.3509886e-38
0.01096699 -0.12819304 -0.011218272 2.3509886e-38
0.012903299 -0.12915494 -0.015179478 2.3509886e-38
0.014863472 -0.12990431 -0.018265329 2.3509886e-38
0.016787861 -0.13182731 -0.026184283 2.3509886e-38
0.018802498 -0.13182731 -0.026184283 2.3509886e-38
0.020792179 -0.13281487 -0.030250989 2.3509886e-38
0.022796577 -0.13377722 -0.034213983 2.3509886e-38
0.024814799 -0.13474621 -0.038204275 2.3509886e-38
0.02685051 -0.13474621 -0.038204275 2.341805e-38
0.028903719 -0.13959257 -0.058161579 2.341805e-38
0.030984994 -0.14056842 -0.062180124 2.3142544e-38
0.033080477 -0.14155091 -0.066225968 2.3234379e-38
0.035189457 -0.14250593 -0.070158683 1.2816634e-38
0.037281197 -0.14250593 -0.070158683 6.4558521e-39
0.03941248 -0.14350171 -0.074259363 7.9309822e-39
0.041511409 -0.14350171 -0.074259363 8.9451341e-39
-0.035804521 -0.11794533 0.038808741 1.0417019e-38
-0.033903833 -0.11794533 0.038808741 5.6235677e-39
-0.032003161 -0.11794533 0.038808741 5.5352691e-40
-0.030264702 -0.11868732 0.035775103 3.5873241e-43
-0.028358694 -0.11868732 0.035775103 0
-0.026452702 -0.11868732 0.035775103 2.8025969e-45
-0.024881672 -0.12038656 0.028827824 2.7550929e-40
-0.023107048 -0.12114228 0.025738038 4.5918309e-40
-0.021045301 -0.12038656 0.028827824 9.197983e-40
-0.018828686 -0.11868732 0.035775103 3.6734198e-40
-0.016346853 -0.11526908 0.049750485 1.2882095e-39
-0.014465358 -0.11526908 0.049750485 1.4472179e-38
-0.012583856 -0.11526908 0.049750485 2.2678669e-38
-0.010702357 -0.11526908 0.049750485 2.3509513e-38
-0.0088208579 -0.11526908 0.049750485 2.3509876e-38
-0.0070692785 -0.11624874 0.045745172 2.3509161e-38
-0.0052726492 -0.11698125 0.042750277 2.3416974e-38
-0.0035806708 -0.11868732 0.035775103 2.3509527e-38
-0.0017543733 -0.11940466 0.032842197 2.3509886e-38
0.00015677139 -0.11940466 0.032842197 2.3509886e-38
0.0018997602 -0.12114228 0.025738038 2.3509886e-38
0.0036497302 -0.12307997 0.017815866 2.3509886e-38
0.0055261143 -0.12382124 0.014785089 2.3509886e-38
0.0073947944 -0.12480606 0.010758795 2.3509886e-38
0.009046223 -0.12918831 -0.0071580037 2.3509886e-38
0.01096699 -0.13018142 -0.011218272 2.3509886e-38
0.012903299 -0.13115029 -0.015179478 2.3509886e-38
0.014863472 -0.13190506 -0.018265329 2.3509886e-38
0.016787861 -0.13384195 -0.026184283 2.3509886e-38
0.018802498 -0.13384195 -0.026184283 2.3509886e-38
0.020792179 -0.13483663 -0.030250989 2.3509886e-38
0.022796577 -0.13580595 -0.034213983 2.3509886e-38
0.024814799 -0.13678192 -0.038204275 2.3509886e-38
0.02685051 -0.13678192 -0.038204275 2.341805e-38
0.028903719 -0.1416633 -0.058161579 2.341805e-38
0.030984994 -0.14264618 -0.062180124 2.3142544e-38
0.033062745 -0.14264618 -0.062180124 2.3234379e-38
0.035165321 -0.14363576 -0.066225968 1.7426413e-38
0.037281197 -0.14459766 -0.070158683 8.6685472e-39
0.03941248 -0.14560063 -0.074259363 7.5621968e-39
0.041511409 -0.14560063 -0.074259363 8.3919575e-39
-0.039605882 -0.119846 0.038808741 9.4028612e-39
-0.037705209 -0.119846 0.038808741 1.1062385e-38
-0.035804521 -0.119846 0.038808741 1.1338972e-38
-0.033903833 -0.119846 0.038808741 2.5811105e-39
-0.032003161 -0.119846 0.038808741 3.5873241e-43
-0.030264702 -0.12059332 0.035775103 3.5873241e-43
-0.028358694 -0.12059332 0.035775103 1.8439126e-40
-0.026452702 -0.12059332 0.035775103 2.8025969e-45
-0.024881672 -0.12230472 0.028827824 2.7551209e-40
-0.023290429 -0.12403814 0.021791257 3.6734619e-40
-0.021537643 -0.12501745 0.017815866 6.4321141e-40
-0.019730348 -0.12576406 0.014785089 3.6734198e-40
-0.01609927 -0.11567034 0.055759348 5.5101298e-40
-0.014228303 -0.11567034 0.055759348 8.6638543e-39
-0.012357343 -0.11567034 0.055759348 1.8806453e-38
-0.010592028 -0.11639442 0.052820005 2.3324038e-38
-0.0088208579 -0.11715056 0.049750485 2.3509876e-38
-0.0071664229 -0.11887501 0.042750277 2.3509521e-38
-0.0053935908 -0.119846 0.038808741 2.3509527e-38
-0.0035806708 -0.12059332 0.035775103 2.3509527e-38
-0.001674667 -0.12059332 0.035775103 2.3509886e-38
0.00015677139 -0.12131582 0.032842197 2.3509886e-38
0.0018997602 -0.12306587 0.025738038 2.3509886e-38
0.0037368611 -0.12403814 0.021791257 2.3509886e-38
0.0055261143 -0.12576406 0.014785089 2.3509886e-38
0.0074689202 -0.12576406 0.014785089 2.3509886e-38
0.0091613345 -0.12946714 -0.0002470836 2.3509886e-38
0.011027504 -0.1311696 -0.0071580037 2.3509886e-38
0.012903299 -0.13314565 -0.015179478 2.3509886e-38
0.014863472 -0.13390581 -0.018265329 2.3509886e-38
0.016825549 -0.13489382 -0.022276007 2.3509886e-38
0.018802498 -0.13585658 -0.026184283 2.3509886e-38
0.020792179 -0.13685839 -0.030250989 2.3509886e-38
0.022796577 -0.13783465 -0.034213983 2.3509886e-38
0.024804231 -0.13980745 -0.042222224 2.3509886e-38
0.026846988 -0.13980745 -0.042222224 2.341805e-38
0.028900221 -0.14275078 -0.054170333 2.341805e-38
0.030974425 -0.14373399 -0.058161579 2.3234379e-38
0.033062745 -0.14472394 -0.062180124 2.3142544e-38
0.035140492 -0.14472394 -0.062180124 2.1575935e-38
0.037250169 -0.14572059 -0.066225968 1.3186133e-38
0.03941248 -0.14769958 -0.074259363 7.3778056e-39
0.041511409 -0.14769958 -0.074259363 7.6543925e-39
-0.037705209 -0.12174667 0.038808741 1.0232622e-38
-0.035804521 -0.12174667 0.038808741 1.0509212e-38
-0.033903833 -0.12174667 0.038808741 1.8402972e-40
-0.032003161 -0.12174667 0.038808741 3.5873241e-43
-0.030264702 -0.1224993 0.035775103 9.2911693e-41
-0.028201785 -0.12174667 0.038808741 2.7658969e-40
-0.026301105 -0.12174667 0.038808741 2.8025969e-45
-0.024881672 -0.12422292 0.028827824 2.7551209e-40
-0.023290429 -0.12596865 0.021791257 3.6734619e-40
-0.021673154 -0.12770687 0.014785089 3.6734198e-40
-0.019730348 -0.12770687 0.014785089 3.6734198e-40
-0.01609927 -0.1175413 0.055759348 5.5101298e-40
-0.014068794 -0.11653815 0.059802689 4.3306597e-39
-0.012204919 -0.11653815 0.059802689 1.4842039e-38
-0.010486379 -0.1175413 0.055759348 2.3416234e-38
-0.0088208579 -0.11903207 0.049750485 2.3509876e-38
-0.0070692785 -0.12002577 0.045745172 2.3509521e-38
-0.0052726492 -0.1207688 0.042750277 2.3509527e-38
-0.0034929067 -0.12174667 0.038808741 2.3509527e-38
-0.001674667 -0.1224993 0.035775103 2.3509886e-38
0.0002313368 -0.1224993 0.035775103 2.3509886e-38
0.0019728951 -0.12422292 0.028827824 2.3509886e-38
0.0037368611 -0.12596865 0.021791257 2.3509886e-38
0.0055261143 -0.12770687 0.014785089 2.3509886e-38
0.0074689202 -0.12770687 0.014785089 2.3509886e-38
0.0091613345 -0.1314363 -0.0002470836 2.3509886e-38
0.011027504 -0.13315089 -0.0071580037 2.3509886e-38
0.012955386 -0.13415821 -0.011218272 2.3509886e-38
0.014898639 -0.13514097 -0.015179478 2.3509886e-38
0.016864225 -0.13590656 -0.018265329 2.3509886e-38
0.018802498 -0.13787122 -0.026184283 2.3509886e-38
0.020817136 -0.13787122 -0.026184283 2.3509886e-38
0.022796577 -0.13986339 -0.034213983 2.3509886e-38
0.024804231 -0.14185019 -0.042222224 2.3509886e-38
0.026843442 -0.14285399 -0.046268187 2.341805e-38
0.028900221 -0.14481448 -0.054170333 2.341805e-38
0.030974425 -0.14580469 -0.058161579 2.3050347e-38
0.033062745 -0.14680167 -0.062180124 2.2866674e-38
0.035140492 -0.14680167 -0.062180124 2.3142541e-38
0.037218243 -0.14680167 -0.062180124 1.7703716e-38
-0.037705209 -0.12364738 0.038808741 9.5876084e-39
-0.035804521 -0.12364738 0.038808741 9.8638394e-39
-0.033903833 -0.12364738 0.038808741 9.2194229e-41
-0.032003161 -0.12364738 0.038808741 3.5873241e-43
-0.030264702 -0.12440531 0.035775103 1.8510732e-40
-0.028201785 -0.12364738 0.038808741 1.8439406e-40
-0.026301105 -0.12364738 0.038808741 2.8025969e-45
-0.02541263 -0.12889244 0.017815866 3.6734899e-40
-0.023615953 -0.12964968 0.014785089 3.6734619e-40
-0.021673154 -0.12964968 0.014785089 3.6734198e-40
-0.020672951 -0.13513215 -0.0071580037 4.5917748e-40
-0.01869167 -0.13513215 -0.0071580037 9.1943116e-40
-0.014068794 -0.11840202 0.059802689 1.6569864e-39
-0.012204919 -0.11840202 0.059802689 1.1338605e-38
-0.010486379 -0.11941226 0.055759348 2.350987e-38
-0.0087159127 -0.12014665 0.052820005 2.3509876e-38
-0.0070692785 -0.12191428 0.045745172 2.3509521e-38
-0.0052726492 -0.12266256 0.042750277 2.3509527e-38
-0.0034929067 -0.12364738 0.038808741 2.3324778e-38
-0.001674667 -0.12440531 0.035775103 2.3509886e-38
0.0002313368 -0.12440531 0.035775103 2.3509886e-38
0.0019728951 -0.12614109 0.028827824 2.3509886e-38
0.0038910769 -0.12614109 0.028827824 2.3509886e-38
0.005667381 -0.12789918 0.021791257 2.3509886e-38
0.0074689202 -0.12964968 0.014785089 2.3509886e-38
0.0091613345 -0.13340546 -0.0002470836 2.3509886e-38
0.011027504 -0.13513215 -0.0071580037 2.3509886e-38
0.012955386 -0.13614662 -0.011218272 2.3509886e-38
0.014898639 -0.13713633 -0.015179478 2.3509886e-38
0.016864225 -0.13790731 -0.018265329 2.3509886e-38
0.018833335 -0.13890938 -0.022276007 2.3509886e-38
0.020817136 -0.13988586 -0.026184283 2.3509886e-38
0.022813948 -0.14090194 -0.030250989 2.3509886e-38
0.024804231 -0.14389296 -0.042222224 2.3509886e-38
0.026843442 -0.14490382 -0.046268187 2.341805e-38
0.028900221 -0.1468782 -0.054170333 2.3049626e-38
0.030974425 -0.14787538 -0.058161579 2.3234379e-38
0.033045128 -0.14787538 -0.058161579 2.2590085e-38
0.035140492 -0.14887942 -0.062180124 2.3142541e-38
0.037218243 -0.14887942 -0.062180124 2.1116033e-38
-0.039360549 -0.12455635 0.042750277 1.0418089e-38
-0.037705209 -0.12554805 0.038808741 9.5883287e-39
-0.035804521 -0.12554805 0.038808741 9.8649156e-39
-0.033903833 -0.12554805 0.038808741 3.5873241e-43
-0.032003161 -0.12554805 0.038808741 3.5873241e-43
-0.030264702 -0.12631132 0.035775103 1.8510732e-40
-0.028358694 -0.12631132 0.035775103 0
-0.026599254 -0.12704925 0.032842197 2.8025969e-45
-0.02541263 -0.13082992 0.017815866 4.6026209e-40
-0.023615953 -0.13159247 0.014785089 3.6734339e-40
-0.022479605 -0.13613077 -0.0032523498 3.6734198e-40
-0.020672951 -0.13711344 -0.0071580037 8.279558e-40
-0.018858965 -0.138135 -0.011218272 5.5101298e-40
-0.014068794 -0.12026589 0.059802689 5.5101298e-40
-0.012204919 -0.12026589 0.059802689 8.480542e-39
-0.010486379 -0.12128322 0.055759348 2.3509153e-38
-0.0087159127 -0.12202276 0.052820005 2.350916e-38
-0.0070692785 -0.12380283 0.045745172 2.3509521e-38
-0.0052726492 -0.12455635 0.042750277 2.3509527e-38
-0.0034929067 -0.12554805 0.038808741 2.3416971e-38
-0.001674667 -0.12631132 0.035775103 2.3509886e-38
0.0002313368 -0.12631132 0.035775103 2.3509886e-38
0.0019728951 -0.12805928 0.028827824 2.3509886e-38
0.0038910769 -0.12805928 0.028827824 2.3509886e-38
0.005667381 -0.12982969 0.021791257 2.3509886e-38
0.0071368478 -0.13613077 -0.0032523498 2.3509886e-38
0.0091112815 -0.13613077 -0.0032523498 2.3509886e-38
0.011027504 -0.13711344 -0.0071580037 2.3509886e-38
0.013008781 -0.13711344 -0.0071580037 2.3509886e-38
0.014943786 -0.138135 -0.011218272 2.3509886e-38
0.016893983 -0.13913165 -0.015179478 2.3509886e-38
0.018833335 -0.14091717 -0.022276007 2.3509886e-38
0.02084112 -0.14091717 -0.022276007 2.3509886e-38
0.022813948 -0.1429237 -0.030250989 2.3509886e-38
0.024804231 -0.1459357 -0.042222224 2.3509886e-38
0.026843442 -0.14695369 -0.046268187 2.3509886e-38
0.028900221 -0.14894189 -0.054170333 2.3325856e-38
0.030963928 -0.14894189 -0.054170333 2.341805e-38
0.033045128 -0.14994611 -0.058161579 2.3050347e-38
0.035115834 -0.14994611 -0.058161579 2.2958507e-38
-0.039360549 -0.12645011 0.042750277 9.4046549e-39
-0.037466776 -0.12645011 0.042750277 7.7458524e-39
-0.035573002 -0.12645011 0.042750277 7.3781489e-39
-0.033903833 -0.12744872 0.038808741 1.0761972e-42
-0.032003161 -0.12744872 0.038808741 3.5873241e-43
-0.030264702 -0.12821732 0.035775103 3.5873241e-43
-0.028358694 -0.12821732 0.035775103 3.5873241e-43
-0.026954245 -0.13076027 0.025738038 0
-0.02541263 -0.13276742 0.017815866 9.1835496e-41
-0.024454039 -0.1381052 -0.0032523498 9.1835496e-41
-0.022479605 -0.1381052 -0.0032523498 2.7550649e-40
-0.020672951 -0.13909473 -0.0071580037 2.7550649e-40
-0.019022185 -0.14112701 -0.015179478 3.6734198e-40
-0.014068794 -0.12212978 0.059802689 4.5917748e-40
-0.012204919 -0.12212978 0.059802689 2.3952801e-39
-0.010592028 -0.12389888 0.052820005 2.3415884e-38
-0.0087159127 -0.12389888 0.052820005 2.3509521e-38
-0.0070692785 -0.12569134 0.045745172 2.3509521e-38
-0.0052726492 -0.12645011 0.042750277 2.3509165e-38
-0.0034929067 -0.12744872 0.038808741 2.3416248e-38
-0.001674667 -0.12821732 0.035775103 2.3509527e-38
0.0002313368 -0.12821732 0.035775103 2.3509886e-38
0.0019728951 -0.12997745 0.028827824 2.3509886e-38
0.0038910769 -0.12997745 0.028827824 2.3509886e-38
0.0055872239 -0.13276742 0.017815866 2.3509886e-38
0.0074689202 -0.13353528 0.014785089 2.3509886e-38
0.0091112815 -0.1381052 -0.0032523498 2.3509886e-38
0.011085708 -0.1381052 -0.0032523498 2.3509886e-38
0.013060141 -0.1381052 -0.0032523498 2.3509886e-38
0.014990058 -0.13909473 -0.0071580037 2.3509886e-38
0.016932182 -0.14012341 -0.011218272 2.3509886e-38
0.018889327 -0.14112701 -0.015179478 2.3509886e-38
0.020865731 -0.14190884 -0.018265329 2.3509886e-38
0.022813948 -0.14494546 -0.030250989 2.3509886e-38
0.024804231 -0.14797847 -0.042222224 2.3509886e-38
0.026843442 -0.14900355 -0.046268187 2.3509886e-38
-0.037466776 -0.1283439 0.042750277 8.3919435e-39
-0.035573002 -0.1283439 0.042750277 6.9175323e-39
-0.034076702 -0.13012333 0.035775103 2.1523944e-42
-0.032170702 -0.13012333 0.035775103 7.1746481e-43
-0.030264702 -0.13012333 0.035775103 3.5873241e-43
-0.028358694 -0.13012333 0.035775103 3.5873241e-43
-0.027151469 -0.13369073 0.021791257 0
-0.02541263 -0.1347049 0.017815866 3.5873241e-43
-0.024454039 -0.14007963 -0.0032523498 9.1835496e-41
-0.022479605 -0.14007963 -0.0032523498 2.7550649e-40
-0.020672951 -0.14107598 -0.0071580037 2.7550649e-40
-0.01869167 -0.14107598 -0.0071580037 6.4356594e-40
-0.014068794 -0.12399365 0.059802689 3.6734198e-40
-0.012204919 -0.12399365 0.059802689 8.279558e-40
-0.010486379 -0.12502514 0.055759348 2.0926603e-38
-0.0086154155 -0.12502514 0.055759348 2.332261e-38
-0.006939359 -0.12655805 0.049750485 2.3507722e-38
-0.0051807575 -0.12757985 0.045745172 2.3507722e-38
-0.0033788793 -0.1283439 0.042750277 2.3509521e-38
-0.0015922226 -0.12934943 0.038808741 2.3509527e-38
0.0002313368 -0.13012333 0.035775103 2.3509886e-38
0.0020679161 -0.13087155 0.032842197 2.3509886e-38
0.0038910769 -0.13189565 0.028827824 2.3509886e-38
0.0055872239 -0.1347049 0.017815866 2.3509886e-38
0.0074689202 -0.13547809 0.014785089 2.3509886e-38
0.0091613345 -0.13931294 -0.0002470836 2.3509886e-38
0.011085708 -0.14007963 -0.0032523498 2.3509886e-38
0.013060141 -0.14007963 -0.0032523498 2.3509886e-38
0.014990058 -0.14107598 -0.0071580037 2.3509886e-38
0.016932182 -0.14211179 -0.011218272 2.3509886e-38
0.018889327 -0.14312236 -0.015179478 2.3509886e-38
0.020865731 -0.14390959 -0.018265329 2.3509886e-38
0.022831773 -0.14592977 -0.026184283 2.3509886e-38
0.024814799 -0.14899619 -0.038204275 2.3509886e-38
-0.037466776 -0.13023765 0.042750277 8.7607316e-39
-0.035573002 -0.13023765 0.042750277 6.1792512e-39
-0.034076702 -0.13202934 0.035775103 1.8654085e-40
-0.032003161 -0.1312501 0.038808741 3.5873241e-43
-0.030102473 -0.1312501 0.038808741 3.5873241e-43
-0.028358694 -0.13202934 0.035775103 0
-0.027350124 -0.13664238 0.017815866 0
-0.02541263 -0.13664238 0.017815866 0
-0.024129372 -0.14025922 0.0037351027 9.1835496e-41
-0.022479605 -0.14205404 -0.0032523498 2.7550649e-40
-0.020672951 -0.14305727 -0.0071580037 2.7550649e-40
-0.018858965 -0.1441002 -0.011218272 3.6734198e-40
-0.016870569 -0.1441002 -0.011218272 3.6734198e-40
-0.011978447 -0.12431435 0.065810479 4.5917748e-40
-0.010125108 -0.12431435 0.065810479 1.8160734e-38
-0.0086154155 -0.1268961 0.055759348 2.3508442e-38
-0.006939359 -0.12843956 0.049750485 2.3509163e-38
-0.0050578602 -0.12843956 0.049750485 2.2953828e-38
-0.0032922365 -0.1294684 0.045745172 2.3509521e-38
-0.0014851056 -0.13023765 0.042750277 2.3509527e-38
0.00015677139 -0.13278268 0.032842197 2.3509886e-38
0.0020679161 -0.13278268 0.032842197 2.3509886e-38
0.0038910769 -0.13381381 0.028827824 2.3509886e-38
0.0055872239 -0.13664238 0.017815866 2.3509886e-38
0.0074689202 -0.13742088 0.014785089 2.3509886e-38
0.0091613345 -0.1412821 -0.0002470836 2.3509886e-38
0.011085708 -0.14205404 -0.0032523498 2.3509886e-38
0.013060141 -0.14205404 -0.0032523498 2.3509886e-38
0.015034571 -0.14205404 -0.0032523498 2.3509886e-38
0.016971339 -0.14305727 -0.0071580037 2.3509886e-38
0.018889327 -0.14511769 -0.015179478 2.3509886e-38
0.020865731 -0.14591034 -0.018265329 2.3509886e-38
0.022831773 -0.14794444 -0.026184283 2.3509886e-38
0.024835715 -0.14898901 -0.030250989 2.3509886e-38
-0.037466776 -0.13213144 0.042750277 8.2061243e-39
-0.035573002 -0.13213144 0.042750277 4.7030477e-39
-0.034076702 -0.13393532 0.035775103 9.3270426e-41
-0.032003161 -0.13315077 0.038808741 3.5873241e-43
-0.030102473 -0.13315077 0.038808741 3.5873241e-43
-0.028510403 -0.13469382 0.032842197 0
-0.02770276 -0.14040495 0.010758795 0
-0.025752898 -0.14040495 0.010758795 0
-0.023939941 -0.141167 0.0078121796 0
-0.022479605 -0.14402847 -0.0032523498 9.1835496e-41
-0.020672951 -0.14503856 -0.0071580037 2.7550649e-40
-0.01869167 -0.14503856 -0.0071580037 3.6734198e-40
-0.016870569 -0.14608859 -0.011218272 3.6734198e-40
-0.011978447 -0.12616767 0.065810479 6.4356594e-40
-0.010125108 -0.12616767 0.065810479 1.2997779e-38
-0.0088208579 -0.13032107 0.049750485 2.2677241e-38
-0.006939359 -0.13032107 0.049750485 2.3509163e-38
-0.0050578602 -0.13032107 0.049750485 2.3230415e-38
-0.0032922365 -0.13135691 0.045745172 2.3509521e-38
-0.0014851056 -0.13213144 0.042750277 2.3509883e-38
0.00015677139 -0.13469382 0.032842197 2.3509886e-38
0.0020679161 -0.13469382 0.032842197 2.3509886e-38
0.0039790608 -0.13469382 0.032842197 2.3509886e-38
0.0057469606 -0.13653107 0.025738038 2.3509886e-38
0.0074689202 -0.13936369 0.014785089 2.3509886e-38
0.0091613345 -0.14325126 -0.0002470836 2.3509886e-38
0.011130501 -0.14325126 -0.0002470836 2.3509886e-38
0.013060141 -0.14402847 -0.0032523498 2.3509886e-38
0.015034571 -0.14402847 -0.0032523498 2.3509886e-38
0.016971339 -0.14503856 -0.0071580037 2.3509886e-38
0.018889327 -0.14711304 -0.015179478 2.3509886e-38
0.020865731 -0.14791109 -0.018265329 2.3509886e-38
-0.039605882 -0.13505147 0.038808741 1.0878721e-38
-0.037705209 -0.13505147 0.038808741 6.8224738e-39
-0.035982709 -0.13584132 0.035775103 2.8580617e-39
-0.034076702 -0.13584132 0.035775103 0
-0.032332685 -0.13660498 0.032842197 0
-0.030421544 -0.13660498 0.032842197 0
-0.028510403 -0.13660498 0.032842197 0
-0.027501564 -0.1413065 0.014785089 0
-0.025558766 -0.1413065 0.014785089 0
-0.023939941 -0.14312203 0.0078121796 0
-0.022345241 -0.14522041 -0.0002470836 9.1835496e-41
-0.020672951 -0.14701982 -0.0071580037 9.1835496e-41
-0.01869167 -0.14701982 -0.0071580037 5.5173044e-40
-0.016710397 -0.14701982 -0.0071580037 3.6734198e-40
-0.014729116 -0.14701982 -0.0071580037 3.6734198e-40
-0.010702357 -0.13220255 0.049750485 5.9909111e-39
-0.0088208579 -0.13220255 0.049750485 1.7883067e-38
-0.006939359 -0.13220255 0.049750485 2.3507721e-38
-0.0050578602 -0.13220255 0.049750485 2.3508802e-38
-0.0032922365 -0.13324542 0.045745172 2.3509163e-38
-0.0014851056 -0.1340252 0.042750277 2.3509883e-38
0.0002313368 -0.13584132 0.035775103 2.3509886e-38
0.0021373369 -0.13584132 0.035775103 2.3509886e-38
0.0039790608 -0.13660498 0.032842197 2.3509886e-38
0.0057469606 -0.13845469 0.025738038 2.3509886e-38
0.0073405467 -0.14312203 0.0078121796 2.3509886e-38
0.009295579 -0.14312203 0.0078121796 2.3509886e-38
0.011189844 -0.14418359 0.0037351027 2.3509886e-38
0.013099659 -0.14522041 -0.0002470836 2.3509886e-38
0.015034571 -0.1460029 -0.0032523498 2.3509886e-38
0.017009001 -0.1460029 -0.0032523498 2.3509886e-38
0.018952616 -0.14701982 -0.0071580037 2.3509886e-38
0.020865731 -0.14991184 -0.018265329 2.3509886e-38
-0.041700717 -0.13774733 0.035775103 1.0601058e-38
-0.039605882 -0.13695215 0.038808741 1.1154232e-38
-0.037705209 -0.13695215 0.038808741 5.0700408e-39
-0.035982709 -0.13774733 0.035775103 1.9346691e-39
-0.034243833 -0.13851611 0.032842197 9.1835496e-41
-0.032332685 -0.13851611 0.032842197 9.1835496e-41
-0.030421544 -0.13851611 0.032842197 0
-0.028877851 -0.14037828 0.025738038 0
-0.027501564 -0.14324932 0.014785089 0
-0.025558766 -0.14324932 0.014785089 0
-0.023939941 -0.14507706 0.0078121796 0
-0.022345241 -0.1471896 -0.0002470836 9.1835496e-41
-0.020672951 -0.14900111 -0.0071580037 9.1835496e-41
-0.01869167 -0.14900111 -0.0071580037 2.7550649e-40
-0.016710397 -0.14900111 -0.0071580037 2.7550649e-40
-0.014729116 -0.14900111 -0.0071580037 3.6734198e-40
-0.0088208579 -0.13408406 0.049750485 1.2996699e-38
-0.006939359 -0.13408406 0.049750485 2.3414805e-38
-0.0050578602 -0.13408406 0.049750485 2.3508802e-38
-0.0032922365 -0.13513394 0.045745172 2.3507721e-38
-0.0014851056 -0.13591899 0.042750277 2.3509883e-38
0.0002313368 -0.13774733 0.035775103 2.3509886e-38
0.0021373369 -0.13774733 0.035775103 2.3509886e-38
0.0038910769 -0.13956837 0.028827824 2.3509886e-38
0.0057469606 -0.14037828 0.025738038 2.3509886e-38
0.0073947944 -0.14430468 0.010758795 2.3509886e-38
0.009344656 -0.14430468 0.010758795 2.3509886e-38
0.011250608 -0.14507706 0.0078121796 2.3509886e-38
0.013152026 -0.14614578 0.0037351027 2.3509886e-38
0.015068822 -0.1471896 -0.0002470836 2.3509886e-38
0.017009001 -0.14797734 -0.0032523498 2.3509886e-38
0.018983431 -0.14797734 -0.0032523498 2.3509886e-38
-0.041700717 -0.13965334 0.035775103 1.1062034e-38
-0.03979471 -0.13965334 0.035775103 1.1246425e-38
-0.037888717 -0.13965334 0.035775103 3.1332095e-39
-0.035982709 -0.13965334 0.035775103 1.1041868e-39
-0.034243833 -0.14042725 0.032842197 4.5953621e-40
-0.032332685 -0.14042725 0.032842197 9.1835496e-41
-0.030421544 -0.14042725 0.032842197 9.1835496e-41
-0.028877851 -0.14230187 0.025738038 0
-0.027501564 -0.1451921 0.014785089 0
-0.025558766 -0.1451921 0.014785089 0
-0.023939941 -0.1470321 0.0078121796 0
-0.022479605 -0.14995177 -0.0032523498 0
-0.0088208579 -0.13596557 0.049750485 8.7556996e-39
-0.006939359 -0.13596557 0.049750485 2.3508437e-38
-0.0050578602 -0.13596557 0.049750485 2.3509158e-38
-0.0032922365 -0.13702248 0.045745172 2.3507e-38
-0.0014037155 -0.13702248 0.045745172 2.3509883e-38
0.0002313368 -0.13965334 0.035775103 2.3509886e-38
0.0021373369 -0.13965334 0.035775103 2.3509886e-38
0.0039790608 -0.14042725 0.032842197 2.3509886e-38
0.0058092624 -0.14148657 0.028827824 2.3509886e-38
0.0075247139 -0.14439236 0.017815866 2.3509886e-38
0.009344656 -0.14625455 0.010758795 2.3509886e-38
0.011250608 -0.1470321 0.0078121796 2.3509886e-38
0.013152026 -0.14810793 0.0037351027 2.3509886e-38
0.015068822 -0.14915876 -0.0002470836 2.3509886e-38
0.017009001 -0.14995177 -0.0032523498 2.3509886e-38
0.018983431 -0.14995177 -0.0032523498 2.3509886e-38
-0.041888412 -0.14233841 0.032842197 1.1799596e-38
-0.03979471 -0.14155935 0.035775103 1.1338258e-38
-0.037888717 -0.14155935 0.035775103 1.5655208e-39
-0.036154982 -0.14233841 0.032842197 3.6734198e-40
-0.034243833 -0.14233841 0.032842197 3.6734198e-40
-0.032332685 -0.14233841 0.032842197 2.7550649e-40
-0.030421544 -0.14233841 0.032842197 9.1835496e-41
-0.028877851 -0.14422549 0.025738038 0
-0.027501564 -0.14713491 0.014785089 0
-0.025558766 -0.14713491 0.014785089 0
-0.0088208579 -0.13784705 0.049750485 4.7916434e-39
-0.006939359 -0.13784705 0.049750485 2.3507353e-38
-0.0050578602 -0.13784705 0.049750485 2.3509156e-38
-0.0032922365 -0.13891099 0.045745172 2.3509517e-38
-0.0014037155 -0.13891099 0.045745172 2.3509883e-38
0.00030845776 -0.14075352 0.038808741 2.3509886e-38
0.0021373369 -0.14155935 0.035775103 2.3509886e-38
0.0039790608 -0.14233841 0.032842197 2.3509886e-38
0.0058092624 -0.14340474 0.028827824 2.3509886e-38
0.0075979009 -0.14527388 0.021791257 2.3509886e-38
0.0094117224 -0.14713491 0.014785089 2.3509886e-38
0.011354525 -0.14713491 0.014785089 2.3509886e-38
-0.043799561 -0.14424954 0.032842197 8.6653018e-39
-0.041700717 -0.14346536 0.035775103 9.5872581e-39
