# .PCD v0.7 - Point Cloud Data file format
VERSION 0.7
FIELDS x y z rgb
SIZE 4 4 4 4
TYPE F F F F
COUNT 1 1 1 1
WIDTH 918
HEIGHT 1
VIEWPOINT 0 0 0 1 0 0 0
POINTS 918
DATA ascii
0.022012226 -0.049255818 -0.03747515 2.3509886e-38
0.024024321 -0.049937189 -0.041380804 2.3509886e-38
0.0260056 -0.049937189 -0.041380804 2.3509886e-38
0.028040269 -0.05064553 -0.045441072 2.3509886e-38
0.030028667 -0.05064553 -0.045441072 2.3509886e-38
0.032083042 -0.051336586 -0.049402278 2.3509886e-38
0.034078389 -0.051336586 -0.049402278 2.3509886e-38
0.036073729 -0.051336586 -0.049402278 2.3509886e-38
0.038069073 -0.051336586 -0.049402278 2.3509886e-38
0.04023239 -0.05257462 -0.056498807 2.3509886e-38
0.042240173 -0.05257462 -0.056498807 2.3509886e-38
0.044354174 -0.053256452 -0.060407083 2.3509883e-38
0.046368811 -0.053256452 -0.060407083 2.3140737e-38
0.048508231 -0.053965911 -0.064473785 2.3509879e-38
0.050529998 -0.053965911 -0.064473785 2.3509879e-38
0.052687261 -0.05465728 -0.068436779 2.3418043e-38
0.0548594 -0.055353418 -0.072427072 2.3142174e-38
0.056895114 -0.055353418 -0.072427072 2.3142537e-38
0.058930825 -0.055353418 -0.072427072 2.3142544e-38
0.06096654 -0.055353418 -0.072427072 2.3050708e-38
0.063002251 -0.055353418 -0.072427072 2.1852894e-38
0.065037966 -0.055353418 -0.072427072 2.5321463e-42
-0.057553153 -0.037303507 0.041559774 2.2773388e-38
-0.055717301 -0.037303507 0.041559774 2.3418043e-38
-0.053881448 -0.037303507 0.041559774 2.3418045e-38
-0.052045595 -0.037303507 0.041559774 2.1943276e-38
-0.050994139 -0.039588511 0.028592309 2.3326213e-38
-0.049135547 -0.039588511 0.028592309 2.341805e-38
-0.047448616 -0.04011932 0.02557989 2.2772684e-38
-0.045584735 -0.04011932 0.02557989 2.3417691e-38
-0.043720867 -0.04011932 0.02557989 2.3325494e-38
-0.041856986 -0.04011932 0.02557989 2.3509886e-38
-0.040195163 -0.040831804 0.02153655 2.3509886e-38
-0.038465928 -0.041349739 0.018597206 2.3509886e-38
-0.036589812 -0.041349739 0.018597206 2.3509886e-38
-0.034713689 -0.041349739 0.018597206 2.3509886e-38
-0.032837573 -0.041349739 0.018597206 2.3509886e-38
-0.031087931 -0.041890621 0.015527686 2.3141103e-38
-0.029364441 -0.0425964 0.011522373 2.341769e-38
-0.02747592 -0.0425964 0.011522373 2.3509886e-38
-0.025587399 -0.0425964 0.011522373 2.3509886e-38
-0.023936033 -0.043818668 0.0045859423 2.3509886e-38
-0.022133753 -0.044353217 0.001552304 2.341769e-38
-0.020317741 -0.044870034 -0.0013806021 2.341769e-38
-0.018406596 -0.044870034 -0.0013806021 2.3509886e-38
-0.016604546 -0.045577407 -0.0053949747 2.3509886e-38
-0.014686365 -0.045577407 -0.0053949747 2.3509886e-38
-0.012841318 -0.046121851 -0.0084847603 2.3509886e-38
-0.010917719 -0.046121851 -0.0084847603 2.3509886e-38
-0.0089941174 -0.046121851 -0.0084847603 2.3509886e-38
-0.0070705153 -0.046121851 -0.0084847603 2.3509886e-38
-0.005146917 -0.046121851 -0.0084847603 2.3509886e-38
-0.0032233149 -0.046121851 -0.0084847603 2.3509886e-38
-0.0012997128 -0.046121851 -0.0084847603 2.3509886e-38
0.00053359941 -0.047517821 -0.016406933 2.3509886e-38
0.0024418645 -0.048051879 -0.01943771 2.3509886e-38
0.0043846685 -0.048051879 -0.01943771 2.3509886e-38
0.0063274726 -0.048051879 -0.01943771 2.3509886e-38
0.0082397126 -0.049280569 -0.026410619 2.3509886e-38
0.010184022 -0.049998999 -0.030487696 2.3509886e-38
0.012146201 -0.049998999 -0.030487696 2.3509886e-38
0.014108378 -0.049998999 -0.030487696 2.3509886e-38
0.016070558 -0.049998999 -0.030487696 2.3509886e-38
0.018050192 -0.050700694 -0.034469884 2.3509886e-38
0.020019354 -0.050700694 -0.034469884 2.3509886e-38
0.022012226 -0.051230252 -0.03747515 2.3509886e-38
0.023986656 -0.051230252 -0.03747515 2.3509886e-38
0.0260056 -0.051918462 -0.041380804 2.3509886e-38
0.028040269 -0.052633926 -0.045441072 2.3509886e-38
0.030028667 -0.052633926 -0.045441072 2.3509886e-38
0.032017063 -0.052633926 -0.045441072 2.3509886e-38
0.034005463 -0.052633926 -0.045441072 2.3509886e-38
0.036073729 -0.053331926 -0.049402278 2.3509886e-38
0.038069073 -0.053331926 -0.049402278 2.3509886e-38
0.040137455 -0.053875685 -0.05248813 2.3509886e-38
0.042240173 -0.054582402 -0.056498807 2.3509886e-38
0.044247963 -0.054582402 -0.056498807 2.3509883e-38
0.046368811 -0.055271089 -0.060407083 2.3325127e-38
0.048508231 -0.055987686 -0.064473785 2.3509876e-38
0.050529998 -0.055987686 -0.064473785 2.3509876e-38
0.052687261 -0.056685999 -0.068436779 2.341804e-38
0.0548594 -0.057389125 -0.072427072 2.341804e-38
0.056895114 -0.057389125 -0.072427072 2.3234372e-38
0.058930825 -0.057389125 -0.072427072 2.2958864e-38
0.06096654 -0.057389125 -0.072427072 2.2682283e-38
0.063002251 -0.057389125 -0.072427072 2.3142544e-38
0.065037966 -0.057389125 -0.072427072 7.286752e-43
-0.061932992 -0.040914029 0.031587679 2.3418038e-38
-0.057553153 -0.03913936 0.041559774 2.341804e-38
-0.055717301 -0.03913936 0.041559774 2.3418043e-38
-0.053881448 -0.03913936 0.041559774 2.3418045e-38
-0.052045595 -0.03913936 0.041559774 2.3418047e-38
-0.050632786 -0.04038398 0.034566123 2.332621e-38
-0.048784669 -0.04038398 0.034566123 2.3234018e-38
-0.047276955 -0.041447103 0.028592309 2.341805e-38
-0.045418363 -0.041447103 0.028592309 2.3509886e-38
-0.043720867 -0.041983202 0.02557989 2.3509886e-38
-0.041856986 -0.041983202 0.02557989 2.3233299e-38
-0.040195163 -0.042702764 0.02153655 2.2864516e-38
-0.038465928 -0.043225855 0.018597206 2.2864516e-38
-0.036732432 -0.043772116 0.015527686 2.3048907e-38
-0.034850929 -0.043772116 0.015527686 2.3509886e-38
-0.032969426 -0.043772116 0.015527686 2.3509886e-38
-0.031252962 -0.044484913 0.011522373 2.3509886e-38
-0.029364441 -0.044484913 0.011522373 2.3509886e-38
-0.02747592 -0.044484913 0.011522373 2.3325494e-38
-0.025695045 -0.045017898 0.0085274782 2.3141103e-38
-0.023936033 -0.045719355 0.0045859423 2.3509886e-38
-0.022133753 -0.046259224 0.001552304 2.3509886e-38
-0.020227749 -0.046259224 0.001552304 2.3509886e-38
-0.018406596 -0.046781182 -0.0013806021 2.3048907e-38
-0.016495451 -0.046781182 -0.0013806021 2.3509886e-38
-0.014584307 -0.046781182 -0.0013806021 2.3509886e-38
-0.012841318 -0.048045456 -0.0084847603 2.3509886e-38
-0.010917719 -0.048045456 -0.0084847603 2.3509886e-38
-0.0089941174 -0.048045456 -0.0084847603 2.3509886e-38
-0.0070705153 -0.048045456 -0.0084847603 2.3509886e-38
-0.005146917 -0.048045456 -0.0084847603 2.3509886e-38
-0.0032233149 -0.048045456 -0.0084847603 2.3509886e-38
-0.0013516136 -0.048747838 -0.012431541 2.3509886e-38
0.00057890639 -0.048747838 -0.012431541 2.3509886e-38
0.0024710894 -0.049455315 -0.016406933 2.3509886e-38
0.0043846685 -0.049994677 -0.01943771 2.3509886e-38
0.0063027646 -0.050711215 -0.023464004 2.3509886e-38
0.0082397126 -0.051235601 -0.026410619 2.3509886e-38
0.010184022 -0.051961169 -0.030487696 2.3509886e-38
0.012146201 -0.051961169 -0.030487696 2.3509886e-38
0.014108378 -0.051961169 -0.030487696 2.3509886e-38
0.016070558 -0.051961169 -0.030487696 2.3509886e-38
0.018050192 -0.052669853 -0.034469884 2.3509886e-38
0.020019354 -0.052669853 -0.034469884 2.3509886e-38
0.022012226 -0.053204685 -0.03747515 2.3509886e-38
0.023986656 -0.053204685 -0.03747515 2.3509886e-38
0.0260056 -0.05389975 -0.041380804 2.3509886e-38
0.028040269 -0.054622322 -0.045441072 2.3509886e-38
0.030028667 -0.054622322 -0.045441072 2.3509886e-38
0.032017063 -0.054622322 -0.045441072 2.3509886e-38
0.034005463 -0.054622322 -0.045441072 2.3509886e-38
0.035993859 -0.054622322 -0.045441072 2.3509886e-38
0.038069073 -0.055327266 -0.049402278 2.3509886e-38
0.040064417 -0.055327266 -0.049402278 2.3509886e-38
0.042138211 -0.055876434 -0.05248813 2.3509886e-38
0.044247963 -0.056590199 -0.056498807 2.3509883e-38
0.046255745 -0.056590199 -0.056498807 2.3509879e-38
0.048383448 -0.057285726 -0.060407083 2.3509876e-38
0.050529998 -0.058009446 -0.064473785 2.3233648e-38
0.052551765 -0.058009446 -0.064473785 2.3142168e-38
0.054715976 -0.058714718 -0.068436779 2.3326201e-38
0.056895114 -0.059424847 -0.072427072 2.3234369e-38
0.058930825 -0.059424847 -0.072427072 2.3142538e-38
0.06096654 -0.059424847 -0.072427072 2.3142541e-38
0.063002251 -0.059424847 -0.072427072 2.3142544e-38
0.065037966 -0.059424847 -0.072427072 5.5498005e-40
-0.061932992 -0.042767376 0.031587679 2.3049975e-38
-0.060079645 -0.042767376 0.031587679 2.341804e-38
-0.058025252 -0.042232096 0.034566123 2.3418043e-38
-0.055910554 -0.041503429 0.038620669 2.2772672e-38
-0.053881448 -0.040975213 0.041559774 2.22195e-38
-0.052045595 -0.040975213 0.041559774 2.3509883e-38
-0.050387528 -0.041503429 0.038620669 2.3509883e-38
-0.048784669 -0.042232096 0.034566123 2.341769e-38
-0.047276955 -0.043305695 0.028592309 2.3509886e-38
-0.045418363 -0.043305695 0.028592309 2.3141103e-38
-0.043720867 -0.043847069 0.02557989 2.3509886e-38
-0.041856986 -0.043847069 0.02557989 2.3509886e-38
-0.040195163 -0.044573724 0.02153655 2.3509886e-38
-0.038465928 -0.04510197 0.018597206 2.3509886e-38
-0.036732432 -0.045653611 0.015527686 2.3509886e-38
-0.034850929 -0.045653611 0.015527686 2.3325494e-38
-0.032969426 -0.045653611 0.015527686 2.3325494e-38
-0.031252962 -0.046373442 0.011522373 2.3509886e-38
-0.029364441 -0.046373442 0.011522373 2.3325494e-38
-0.02747592 -0.046373442 0.011522373 2.2956712e-38
-0.025695045 -0.046911672 0.0085274782 2.3048907e-38
-0.023936033 -0.047620028 0.0045859423 2.3509886e-38
-0.022035349 -0.047620028 0.0045859423 2.3509886e-38
-0.020227749 -0.048165232 0.001552304 2.3509886e-38
-0.018406596 -0.048692316 -0.0013806021 2.341769e-38
-0.016495451 -0.048692316 -0.0013806021 2.3509886e-38
-0.014584307 -0.048692316 -0.0013806021 2.3509886e-38
-0.012768183 -0.04941377 -0.0053949747 2.3509886e-38
-0.010850001 -0.04941377 -0.0053949747 2.3509886e-38
-0.0089318156 -0.04941377 -0.0053949747 2.3509886e-38
-0.0070136338 -0.04941377 -0.0053949747 2.3509886e-38
-0.0050954483 -0.04941377 -0.0053949747 2.3509886e-38
-0.0032233149 -0.049969062 -0.0084847603 2.3509886e-38
-0.0012997128 -0.049969062 -0.0084847603 2.3509886e-38
0.00057890639 -0.050678357 -0.012431541 2.3509886e-38
0.0024710894 -0.051392809 -0.016406933 2.3509886e-38
0.0043846685 -0.051937476 -0.01943771 2.3509886e-38
0.0063274726 -0.051937476 -0.01943771 2.3509886e-38
0.0082526281 -0.052661076 -0.023464004 2.3509886e-38
0.010194743 -0.053190634 -0.026410619 2.3509886e-38
0.012146201 -0.053923354 -0.030487696 2.3509886e-38
0.014108378 -0.053923354 -0.030487696 2.3509886e-38
0.016070558 -0.053923354 -0.030487696 2.3509886e-38
0.018050192 -0.054639012 -0.034469884 2.3509886e-38
0.020019354 -0.054639012 -0.034469884 2.3509886e-38
0.022012226 -0.055179104 -0.03747515 2.3509886e-38
0.024024321 -0.055881023 -0.041380804 2.3509886e-38
0.0260056 -0.055881023 -0.041380804 2.3509886e-38
0.028040269 -0.056610718 -0.045441072 2.3509886e-38
0.030028667 -0.056610718 -0.045441072 2.3509886e-38
0.032017063 -0.056610718 -0.045441072 2.3509886e-38
0.034005463 -0.056610718 -0.045441072 2.3509886e-38
0.035993859 -0.056610718 -0.045441072 2.3509886e-38
0.038069073 -0.057322621 -0.049402278 2.3509886e-38
0.040064417 -0.057322621 -0.049402278 2.3509886e-38
0.042059757 -0.057322621 -0.049402278 2.3509886e-38
0.044138964 -0.057877198 -0.05248813 2.3509883e-38
0.046255745 -0.058597982 -0.056498807 2.350988e-38
0.048383448 -0.059300363 -0.060407083 2.3509879e-38
0.050529998 -0.06003122 -0.064473785 2.3325843e-38
0.052551765 -0.06003122 -0.064473785 2.3234367e-38
0.054715976 -0.060743436 -0.068436779 2.341804e-38
0.056744695 -0.060743436 -0.068436779 2.3234369e-38
0.05877341 -0.060743436 -0.068436779 2.3142538e-38
0.06096654 -0.061460555 -0.072427072 2.3142544e-38
0.063002251 -0.061460555 -0.072427072 2.3142544e-38
0.065037966 -0.061460555 -0.072427072 2.7676752e-39
-0.061721485 -0.044080213 0.034566123 2.3141816e-38
-0.059873369 -0.044080213 0.034566123 2.3326208e-38
-0.057751562 -0.043344438 0.038620669 2.3234012e-38
-0.055910554 -0.043344438 0.038620669 2.3509883e-38
-0.054069545 -0.043344438 0.038620669 2.3509883e-38
-0.052228536 -0.043344438 0.038620669 2.3509886e-38
-0.050387528 -0.043344438 0.038620669 2.3325494e-38
-0.048784669 -0.044080213 0.034566123 2.341769e-38
-0.047106262 -0.044620708 0.031587679 2.3509886e-38
-0.04525293 -0.044620708 0.031587679 2.3233299e-38
-0.043559771 -0.045164287 0.028592309 2.3509886e-38
-0.041856986 -0.045710951 0.02557989 2.341769e-38
-0.039993118 -0.045710951 0.02557989 2.3233299e-38
-0.038324203 -0.046444684 0.02153655 2.3509886e-38
-0.036589812 -0.046978086 0.018597206 2.3509886e-38
-0.034850929 -0.047535121 0.015527686 2.3325494e-38
-0.032969426 -0.047535121 0.015527686 2.3509886e-38
-0.031252962 -0.048261955 0.011522373 2.3509886e-38
-0.029364441 -0.048261955 0.011522373 2.341769e-38
-0.02747592 -0.048261955 0.011522373 2.3509886e-38
-0.025695045 -0.048805445 0.0085274782 2.3509886e-38
-0.023936033 -0.049520716 0.0045859423 2.3509886e-38
-0.022035349 -0.049520716 0.0045859423 2.3141103e-38
-0.020134669 -0.049520716 0.0045859423 2.3233299e-38
-0.018233985 -0.049520716 0.0045859423 2.3509886e-38
-0.016495451 -0.050603464 -0.0013806021 2.3509886e-38
-0.014584307 -0.050603464 -0.0013806021 2.3509886e-38
-0.012768183 -0.051331952 -0.0053949747 2.3509886e-38
-0.010850001 -0.051331952 -0.0053949747 2.3509886e-38
-0.0089318156 -0.051331952 -0.0053949747 2.3509886e-38
-0.0070136338 -0.051331952 -0.0053949747 2.3509886e-38
-0.0050954483 -0.051331952 -0.0053949747 2.3509886e-38
-0.0032233149 -0.051892653 -0.0084847603 2.3509886e-38
-0.0012997128 -0.051892653 -0.0084847603 2.3509886e-38
0.00057890639 -0.052608877 -0.012431541 2.3509886e-38
0.0024710894 -0.053330287 -0.016406933 2.3509886e-38
0.0043846685 -0.053880289 -0.01943771 2.3509886e-38
0.0063274726 -0.053880289 -0.01943771 2.3509886e-38
0.0082526281 -0.054610938 -0.023464004 2.3509886e-38
0.010194743 -0.055145666 -0.026410619 2.3509886e-38
0.012146201 -0.055885524 -0.030487696 2.3509886e-38
0.014108378 -0.055885524 -0.030487696 2.3509886e-38
0.016070558 -0.055885524 -0.030487696 2.3509886e-38
0.018032737 -0.055885524 -0.030487696 2.3509886e-38
0.020019354 -0.05660817 -0.034469884 2.3509886e-38
0.022012226 -0.057153538 -0.03747515 2.3509886e-38
0.023986656 -0.057153538 -0.03747515 2.3509886e-38
0.0260056 -0.057862297 -0.041380804 2.3509886e-38
0.028040269 -0.058599114 -0.045441072 2.3509886e-38
0.030028667 -0.058599114 -0.045441072 2.3509886e-38
0.032017063 -0.058599114 -0.045441072 2.3509886e-38
0.034005463 -0.058599114 -0.045441072 2.3509886e-38
0.035993859 -0.058599114 -0.045441072 2.3509886e-38
0.037982255 -0.058599114 -0.045441072 2.3509886e-38
0.040064417 -0.059317961 -0.049402278 2.3509886e-38
0.042059757 -0.059317961 -0.049402278 2.3509886e-38
0.044055101 -0.059317961 -0.049402278 2.3509886e-38
0.046139717 -0.059877947 -0.05248813 2.3509523e-38
0.048383448 -0.061315 -0.060407083 2.3509883e-38
0.050398089 -0.061315 -0.060407083 2.350988e-38
0.052551765 -0.06205298 -0.064473785 2.3418043e-38
0.054715976 -0.062772155 -0.068436779 2.3418043e-38
0.056744695 -0.062772155 -0.068436779 2.3050698e-38
0.05877341 -0.062772155 -0.068436779 2.2866671e-38
0.06096654 -0.063496262 -0.072427072 2.2958873e-38
0.063002251 -0.063496262 -0.072427072 2.249754e-38
0.065037966 -0.063496262 -0.072427072 4.1506124e-39
0.067073673 -0.063496262 -0.072427072 2.776799e-40
-0.065417737 -0.045928329 0.034566123 2.1219414e-39
-0.063569605 -0.045928329 0.034566123 8.8514993e-39
-0.06143358 -0.045185447 0.038620669 2.3326213e-38
-0.059592571 -0.045185447 0.038620669 2.3234018e-38
-0.057751562 -0.045185447 0.038620669 2.341805e-38
-0.055910554 -0.045185447 0.038620669 2.341769e-38
-0.054069545 -0.045185447 0.038620669 2.3325494e-38
-0.052228536 -0.045185447 0.038620669 2.3509886e-38
-0.050387528 -0.045185447 0.038620669 2.3417691e-38
-0.048784669 -0.045928329 0.034566123 2.3324778e-38
-0.047106262 -0.046474054 0.031587679 2.3509527e-38
-0.04525293 -0.046474054 0.031587679 2.3509886e-38
-0.043559771 -0.047022879 0.028592309 2.3509886e-38
-0.041701179 -0.047022879 0.028592309 2.3509886e-38
-0.039993118 -0.047574818 0.02557989 2.3509886e-38
-0.038129244 -0.047574818 0.02557989 2.3509886e-38
-0.036589812 -0.048854202 0.018597206 2.3509886e-38
-0.034850929 -0.049416617 0.015527686 2.3509886e-38
-0.032969426 -0.049416617 0.015527686 2.3509886e-38
-0.031252962 -0.050150484 0.011522373 2.3509886e-38
-0.029364441 -0.050150484 0.011522373 2.3509886e-38
-0.02747592 -0.050150484 0.011522373 2.3509886e-38
-0.025695045 -0.050699219 0.0085274782 2.3509886e-38
-0.023801275 -0.050699219 0.0085274782 2.3509886e-38
-0.022035349 -0.051421404 0.0045859423 2.3509886e-38
-0.020134669 -0.051421404 0.0045859423 2.3509886e-38
-0.018233985 -0.051421404 0.0045859423 2.3509886e-38
-0.016415745 -0.051977232 0.001552304 2.3509886e-38
-0.014509741 -0.051977232 0.001552304 2.3509886e-38
-0.012673162 -0.052514613 -0.0013806021 2.3509886e-38
-0.010762017 -0.052514613 -0.0013806021 2.3509886e-38
-0.0088508725 -0.052514613 -0.0013806021 2.3509886e-38
-0.0070136338 -0.053250134 -0.0053949747 2.3509886e-38
-0.0050954483 -0.053250134 -0.0053949747 2.3509886e-38
-0.0031772666 -0.053250134 -0.0053949747 2.3509886e-38
-0.0012997128 -0.053816259 -0.0084847603 2.3509886e-38
0.00057890639 -0.054539397 -0.012431541 2.3509886e-38
0.0024710894 -0.055267781 -0.016406933 2.3509886e-38
0.0043846685 -0.055823088 -0.01943771 2.3509886e-38
0.0063274726 -0.055823088 -0.01943771 2.3509886e-38
0.0082526281 -0.056560799 -0.023464004 2.3509886e-38
0.010202494 -0.056560799 -0.023464004 2.3509886e-38
0.012149774 -0.057100698 -0.026410619 2.3509886e-38
0.014108378 -0.057847708 -0.030487696 2.3509886e-38
0.016070558 -0.057847708 -0.030487696 2.3509886e-38
0.018032737 -0.057847708 -0.030487696 2.3509886e-38
0.020019354 -0.058577344 -0.034469884 2.3509886e-38
0.022012226 -0.059127972 -0.03747515 2.3509886e-38
0.023986656 -0.059127972 -0.03747515 2.3509886e-38
0.0260056 -0.059843585 -0.041380804 2.3509886e-38
0.027986877 -0.059843585 -0.041380804 2.3509886e-38
0.030028667 -0.06058751 -0.045441072 2.3509886e-38
0.032017063 -0.06058751 -0.045441072 2.3509886e-38
0.034005463 -0.06058751 -0.045441072 2.3509886e-38
0.035993859 -0.06058751 -0.045441072 2.3509886e-38
0.037982255 -0.06058751 -0.045441072 2.3509886e-38
0.040064417 -0.061313301 -0.049402278 2.3509886e-38
0.042059757 -0.061313301 -0.049402278 2.3509886e-38
0.044055101 -0.061313301 -0.049402278 2.3509886e-38
0.046139717 -0.061878696 -0.05248813 2.3509527e-38
0.048383448 -0.063329637 -0.060407083 2.3509527e-38
0.050398089 -0.063329637 -0.060407083 2.3509886e-38
0.052551765 -0.064074755 -0.064473785 2.3418047e-38
0.054715976 -0.064800858 -0.068436779 2.3418047e-38
0.056744695 -0.064800858 -0.068436779 2.3234376e-38
0.05877341 -0.064800858 -0.068436779 2.3234379e-38
0.06096654 -0.065531984 -0.072427072 2.3234379e-38
0.063002251 -0.065531984 -0.072427072 2.2496824e-38
0.065037966 -0.065531984 -0.072427072 6.5469827e-39
0.067073673 -0.065531984 -0.072427072 9.2197311e-40
-0.065115601 -0.047026455 0.038620669 2.7669563e-39
-0.063274592 -0.047026455 0.038620669 1.1063841e-38
-0.06143358 -0.047026455 0.038620669 2.341805e-38
-0.059389021 -0.046482787 0.041559774 2.3325856e-38
-0.057553153 -0.046482787 0.041559774 2.341805e-38
-0.055910554 -0.047026455 0.038620669 2.3417691e-38
-0.054069545 -0.047026455 0.038620669 2.3233302e-38
-0.052228536 -0.047026455 0.038620669 2.3509527e-38
-0.050387528 -0.047026455 0.038620669 2.3509527e-38
-0.048546512 -0.047026455 0.038620669 2.332478e-38
-0.046936546 -0.047776446 0.034566123 2.3509527e-38
-0.045088429 -0.047776446 0.034566123 2.3509886e-38
-0.043399584 -0.048327386 0.031587679 2.3509886e-38
-0.041701179 -0.048881471 0.028592309 2.3509886e-38
-0.039993118 -0.049438685 0.02557989 2.3509886e-38
-0.038129244 -0.049438685 0.02557989 2.3509886e-38
-0.036453236 -0.050186619 0.02153655 2.3509886e-38
-0.034713689 -0.050730333 0.018597206 2.3509886e-38
-0.032969426 -0.051298112 0.015527686 2.3509886e-38
-0.031252962 -0.052038997 0.011522373 2.3509886e-38
-0.029364441 -0.052038997 0.011522373 2.3509886e-38
-0.02747592 -0.052038997 0.011522373 2.3509886e-38
-0.025695045 -0.052592993 0.0085274782 2.3509886e-38
-0.023801275 -0.052592993 0.0085274782 2.3509886e-38
-0.021907501 -0.052592993 0.0085274782 2.3509886e-38
-0.020013727 -0.052592993 0.0085274782 2.3509886e-38
-0.018233985 -0.053322077 0.0045859423 2.3509886e-38
-0.016415745 -0.05388324 0.001552304 2.3509886e-38
-0.014509741 -0.05388324 0.001552304 2.3509886e-38
-0.012673162 -0.054425761 -0.0013806021 2.3509886e-38
-0.010762017 -0.054425761 -0.0013806021 2.3509886e-38
-0.0088508725 -0.054425761 -0.0013806021 2.3509886e-38
-0.0070136338 -0.055168316 -0.0053949747 2.3509886e-38
-0.0050954483 -0.055168316 -0.0053949747 2.3509886e-38
-0.0031772666 -0.055168316 -0.0053949747 2.3509886e-38
-0.0012997128 -0.05573985 -0.0084847603 2.3509886e-38
0.00057890639 -0.056469917 -0.012431541 2.3509886e-38
0.0024710894 -0.057205275 -0.016406933 2.3509886e-38
0.0043846685 -0.057765901 -0.01943771 2.3509886e-38
0.0063274726 -0.057765901 -0.01943771 2.3509886e-38
0.0082526281 -0.058510661 -0.023464004 2.3509886e-38
0.010202494 -0.058510661 -0.023464004 2.3509886e-38
0.012149774 -0.059055716 -0.026410619 2.3509886e-38
0.014108378 -0.059809893 -0.030487696 2.3509886e-38
0.016070558 -0.059809893 -0.030487696 2.3509886e-38
0.018050192 -0.060546502 -0.034469884 2.3509886e-38
0.020019354 -0.060546502 -0.034469884 2.3509886e-38
0.021988515 -0.060546502 -0.034469884 2.3509886e-38
0.023986656 -0.061102405 -0.03747515 2.3509886e-38
0.025961086 -0.061102405 -0.03747515 2.3509886e-38
0.027986877 -0.061824858 -0.041380804 2.3509886e-38
0.030028667 -0.062575907 -0.045441072 2.3509886e-38
0.032017063 -0.062575907 -0.045441072 2.3509886e-38
0.034005463 -0.062575907 -0.045441072 2.3509886e-38
0.035993859 -0.062575907 -0.045441072 2.3509886e-38
0.037982255 -0.062575907 -0.045441072 2.3509886e-38
0.040064417 -0.063308641 -0.049402278 2.3509886e-38
0.042059757 -0.063308641 -0.049402278 2.3509886e-38
0.044055101 -0.063308641 -0.049402278 2.3509886e-38
0.046139717 -0.06387946 -0.05248813 2.3509168e-38
0.048263531 -0.064621329 -0.056498807 2.3509168e-38
0.050398089 -0.065344274 -0.060407083 2.3509527e-38
0.052551765 -0.066096514 -0.064473785 2.3509886e-38
0.054573532 -0.066096514 -0.064473785 2.341805e-38
0.056744695 -0.066829577 -0.068436779 2.3234379e-38
0.05877341 -0.066829577 -0.068436779 2.3234379e-38
0.060802124 -0.066829577 -0.068436779 2.3234379e-38
0.062830843 -0.066829577 -0.068436779 2.3234379e-38
0.064859554 -0.066829577 -0.068436779 1.4198864e-38
0.066888273 -0.066829577 -0.068436779 2.6733328e-39
0.068916991 -0.066829577 -0.068436779 2.4889415e-39
-0.065115601 -0.048867464 0.038620669 5.0718471e-39
-0.063274592 -0.048867464 0.038620669 1.3645319e-38
-0.06143358 -0.048867464 0.038620669 2.341805e-38
-0.059389021 -0.048318639 0.041559774 2.3417691e-38
-0.057553153 -0.048318639 0.041559774 2.3509886e-38
-0.055910554 -0.048867464 0.038620669 2.3417691e-38
-0.054069545 -0.048867464 0.038620669 2.3233302e-38
-0.052228536 -0.048867464 0.038620669 2.3509527e-38
-0.050387528 -0.048867464 0.038620669 2.3509527e-38
-0.048546512 -0.048867464 0.038620669 2.3416615e-38
-0.046705503 -0.048867464 0.038620669 2.3509527e-38
-0.045088429 -0.049624562 0.034566123 2.3509886e-38
-0.043399584 -0.050180733 0.031587679 2.3509886e-38
-0.041701179 -0.050740063 0.028592309 2.3509886e-38
-0.039993118 -0.051302567 0.02557989 2.3509886e-38
-0.038129244 -0.051302567 0.02557989 2.3509886e-38
-0.036453236 -0.052057579 0.02153655 2.3509886e-38
-0.034713689 -0.052606449 0.018597206 2.3509886e-38
-0.032969426 -0.053179607 0.015527686 2.3509886e-38
-0.031087931 -0.053179607 0.015527686 2.3509886e-38
-0.029364441 -0.053927526 0.011522373 2.3509886e-38
-0.02747592 -0.053927526 0.011522373 2.3509886e-38
-0.025695045 -0.054486766 0.0085274782 2.3509886e-38
-0.023936033 -0.055222765 0.0045859423 2.3509886e-38
-0.021907501 -0.054486766 0.0085274782 2.3509886e-38
-0.020013727 -0.054486766 0.0085274782 2.3509886e-38
-0.018233985 -0.055222765 0.0045859423 2.3509886e-38
-0.016333301 -0.055222765 0.0045859423 2.3509886e-38
-0.01443262 -0.055222765 0.0045859423 2.3509886e-38
-0.012673162 -0.056336895 -0.0013806021 2.3509886e-38
-0.010762017 -0.056336895 -0.0013806021 2.3509886e-38
-0.0088508725 -0.056336895 -0.0013806021 2.3509886e-38
-0.0069397278 -0.056336895 -0.0013806021 2.3509886e-38
-0.0050954483 -0.057086498 -0.0053949747 2.3509886e-38
-0.0031772666 -0.057086498 -0.0053949747 2.3509886e-38
-0.0012997128 -0.057663456 -0.0084847603 2.3509886e-38
0.00057890639 -0.058400437 -0.012431541 2.3509886e-38
0.0024710894 -0.059142768 -0.016406933 2.3509886e-38
0.0043846685 -0.0597087 -0.01943771 2.3509886e-38
0.0063274726 -0.0597087 -0.01943771 2.3509886e-38
0.0082526281 -0.060460538 -0.023464004 2.3509886e-38
0.010202494 -0.060460538 -0.023464004 2.3509886e-38
0.012149774 -0.061010748 -0.026410619 2.3509886e-38
0.014108378 -0.061772063 -0.030487696 2.3509886e-38
0.016070558 -0.061772063 -0.030487696 2.3509886e-38
0.018032737 -0.061772063 -0.030487696 2.3509886e-38
0.019994916 -0.061772063 -0.030487696 2.3509886e-38
0.021988515 -0.062515661 -0.034469884 2.3509886e-38
0.023957677 -0.062515661 -0.034469884 2.3509886e-38
0.025961086 -0.063076839 -0.03747515 2.3509886e-38
0.027935518 -0.063076839 -0.03747515 2.3509886e-38
0.030028667 -0.064564303 -0.045441072 2.3509886e-38
0.032017063 -0.064564303 -0.045441072 2.3509886e-38
0.034005463 -0.064564303 -0.045441072 2.3509886e-38
0.035993859 -0.064564303 -0.045441072 2.3509886e-38
0.037982255 -0.064564303 -0.045441072 2.3509886e-38
0.040064417 -0.065303981 -0.049402278 2.3509886e-38
0.042059757 -0.065303981 -0.049402278 2.3509886e-38
0.044138964 -0.065880209 -0.05248813 2.3509886e-38
0.046139717 -0.065880209 -0.05248813 2.3509527e-38
0.048263531 -0.066629127 -0.056498807 2.3509527e-38
0.050398089 -0.067358911 -0.060407083 2.3509527e-38
0.052551765 -0.068118289 -0.064473785 2.3509886e-38
0.054573532 -0.068118289 -0.064473785 2.341805e-38
0.056744695 -0.068858296 -0.068436779 2.341805e-38
0.05877341 -0.068858296 -0.068436779 2.3234379e-38
0.060638838 -0.068118289 -0.064473785 2.3234379e-38
0.062660605 -0.068118289 -0.064473785 2.323402e-38
0.064682372 -0.068118289 -0.064473785 2.1574516e-38
0.066704139 -0.068118289 -0.064473785 5.7157913e-39
0.068725914 -0.068118289 -0.064473785 2.1197988e-39
-0.065115601 -0.050708473 0.038620669 7.1927039e-39
-0.063274592 -0.050708473 0.038620669 1.567362e-38
-0.06143358 -0.050708473 0.038620669 2.1758532e-38
-0.059592571 -0.050708473 0.038620669 2.3233299e-38
-0.057751562 -0.050708473 0.038620669 2.3509886e-38
-0.055910554 -0.050708473 0.038620669 2.341769e-38
-0.054069545 -0.050708473 0.038620669 2.3233299e-38
-0.052228536 -0.050708473 0.038620669 2.3509527e-38
-0.050387528 -0.050708473 0.038620669 2.3509527e-38
-0.048546512 -0.050708473 0.038620669 2.3509168e-38
-0.046705503 -0.050708473 0.038620669 2.3509527e-38
-0.045088429 -0.051472679 0.034566123 2.3509886e-38
-0.043399584 -0.052034065 0.031587679 2.3509886e-38
-0.041701179 -0.052598655 0.028592309 2.3509886e-38
-0.039842587 -0.052598655 0.028592309 2.3509886e-38
-0.038129244 -0.053166434 0.02557989 2.3509886e-38
-0.03626537 -0.053166434 0.02557989 2.3509886e-38
-0.034582268 -0.053928539 0.02153655 2.3509886e-38
-0.032837573 -0.054482564 0.018597206 2.3509886e-38
-0.030961458 -0.054482564 0.018597206 2.3509886e-38
-0.029206436 -0.055061117 0.015527686 2.3509886e-38
-0.02747592 -0.055816054 0.011522373 2.3509886e-38
-0.025695045 -0.05638054 0.0085274782 2.3509886e-38
-0.023936033 -0.057123452 0.0045859423 2.3509886e-38
-0.021907501 -0.05638054 0.0085274782 2.3509886e-38
-0.020013727 -0.05638054 0.0085274782 2.3509886e-38
-0.018233985 -0.057123452 0.0045859423 2.3509886e-38
-0.016333301 -0.057123452 0.0045859423 2.3509886e-38
-0.01443262 -0.057123452 0.0045859423 2.3509886e-38
-0.012673162 -0.058248043 -0.0013806021 2.3509886e-38
-0.010762017 -0.058248043 -0.0013806021 2.3509886e-38
-0.0088508725 -0.058248043 -0.0013806021 2.3509886e-38
-0.0069397278 -0.058248043 -0.0013806021 2.3509886e-38
-0.0050954483 -0.059004679 -0.0053949747 2.3509886e-38
-0.0031772666 -0.059004679 -0.0053949747 2.3509886e-38
-0.0012997128 -0.059587061 -0.0084847603 2.3509886e-38
0.00057890639 -0.060330957 -0.012431541 2.3509886e-38
0.0024710894 -0.061080262 -0.016406933 2.3509886e-38
0.0043846685 -0.061651513 -0.01943771 2.3509886e-38
0.0063274726 -0.061651513 -0.01943771 2.3509886e-38
0.0082702786 -0.061651513 -0.01943771 2.3509886e-38
0.010202494 -0.062410399 -0.023464004 2.3509886e-38
0.012149774 -0.06296578 -0.026410619 2.3509886e-38
0.014104806 -0.06296578 -0.026410619 2.3509886e-38
0.016059836 -0.06296578 -0.026410619 2.3509886e-38
0.018032737 -0.063734248 -0.030487696 2.3509886e-38
0.019994916 -0.063734248 -0.030487696 2.3509886e-38
0.021988515 -0.06448482 -0.034469884 2.3509886e-38
0.023957677 -0.06448482 -0.034469884 2.3509886e-38
0.025926836 -0.06448482 -0.034469884 2.3509886e-38
0.027895998 -0.06448482 -0.034469884 2.3509886e-38
0.029968156 -0.06578742 -0.041380804 2.3509886e-38
0.031949434 -0.06578742 -0.041380804 2.3509886e-38
0.033930711 -0.06578742 -0.041380804 2.3509886e-38
0.035993859 -0.066552714 -0.045441072 2.3509886e-38
0.037982255 -0.066552714 -0.045441072 2.3509886e-38
0.039970651 -0.066552714 -0.045441072 2.3509886e-38
0.042059757 -0.067299321 -0.049402278 2.3509886e-38
0.044055101 -0.067299321 -0.049402278 2.3509886e-38
0.046050444 -0.067299321 -0.049402278 2.3509527e-38
0.04814047 -0.067880958 -0.05248813 2.3509527e-38
0.050398089 -0.069373548 -0.060407083 2.3509527e-38
0.052412726 -0.069373548 -0.060407083 2.3509886e-38
0.054573532 -0.070140064 -0.064473785 2.341805e-38
0.056595303 -0.070140064 -0.064473785 2.341805e-38
0.05861707 -0.070140064 -0.064473785 2.3234379e-38
0.060638838 -0.070140064 -0.064473785 2.3234379e-38
0.062660605 -0.070140064 -0.064473785 2.2773408e-38
0.064682372 -0.070140064 -0.064473785 2.3417691e-38
0.066704139 -0.070140064 -0.064473785 1.1154971e-38
0.068725914 -0.070140064 -0.064473785 6.4466876e-40
-0.064896584 -0.05199036 0.041559774 9.1288065e-39
-0.063060731 -0.05199036 0.041559774 1.7517886e-38
-0.061224874 -0.05199036 0.041559774 2.185108e-38
-0.059389021 -0.05199036 0.041559774 2.2680478e-38
-0.057553153 -0.05199036 0.041559774 2.350988e-38
-0.055717301 -0.05199036 0.041559774 2.3509883e-38
-0.053881448 -0.05199036 0.041559774 2.3417327e-38
-0.052228536 -0.052549481 0.038620669 2.3509527e-38
-0.050387528 -0.052549481 0.038620669 2.3509527e-38
-0.048546512 -0.052549481 0.038620669 2.3508809e-38
-0.046705503 -0.052549481 0.038620669 2.3509527e-38
-0.045088429 -0.053320795 0.034566123 2.3509886e-38
-0.043399584 -0.053887412 0.031587679 2.3509886e-38
-0.041701179 -0.054457247 0.028592309 2.3509886e-38
-0.039842587 -0.054457247 0.028592309 2.3509886e-38
-0.038129244 -0.055030316 0.02557989 2.3509886e-38
-0.03626537 -0.055030316 0.02557989 2.3509886e-38
-0.034401495 -0.055030316 0.02557989 2.3509886e-38
-0.032711308 -0.055799499 0.02153655 2.3509886e-38
-0.030840348 -0.055799499 0.02153655 2.3509886e-38
-0.029085334 -0.05635868 0.018597206 2.3509886e-38
-0.02747592 -0.057704568 0.011522373 2.3509886e-38
-0.025587399 -0.057704568 0.011522373 2.3509886e-38
-0.023801275 -0.058274314 0.0085274782 2.3509886e-38
-0.021907501 -0.058274314 0.0085274782 2.3509886e-38
-0.020134669 -0.059024125 0.0045859423 2.3509886e-38
-0.018233985 -0.059024125 0.0045859423 2.3509886e-38
-0.016333301 -0.059024125 0.0045859423 2.3509886e-38
-0.01443262 -0.059024125 0.0045859423 2.3509886e-38
-0.012673162 -0.060159191 -0.0013806021 2.3509886e-38
-0.010762017 -0.060159191 -0.0013806021 2.3509886e-38
-0.0088508725 -0.060159191 -0.0013806021 2.3509886e-38
-0.0069397278 -0.060159191 -0.0013806021 2.3509886e-38
-0.0050954483 -0.060922861 -0.0053949747 2.3509886e-38
-0.0031772666 -0.060922861 -0.0053949747 2.3509886e-38
-0.0012997128 -0.061510652 -0.0084847603 2.3509886e-38
0.00057890639 -0.062261477 -0.012431541 2.3509886e-38
0.0024710894 -0.063017741 -0.016406933 2.3509886e-38
0.0043846685 -0.063594311 -0.01943771 2.3509886e-38
0.0063274726 -0.063594311 -0.01943771 2.3509886e-38
0.0082702786 -0.063594311 -0.01943771 2.3509886e-38
0.010202494 -0.064360261 -0.023464004 2.3509886e-38
0.012152357 -0.064360261 -0.023464004 2.3509886e-38
0.014104806 -0.064920813 -0.026410619 2.3509886e-38
0.016059836 -0.064920813 -0.026410619 2.3509886e-38
0.018032737 -0.065696418 -0.030487696 2.3509886e-38
0.019994916 -0.065696418 -0.030487696 2.3509886e-38
0.021957096 -0.065696418 -0.030487696 2.3509886e-38
0.023919273 -0.065696418 -0.030487696 2.3509886e-38
0.025926836 -0.066453978 -0.034469884 2.3509886e-38
0.027895998 -0.066453978 -0.034469884 2.3509886e-38
0.029909948 -0.067025691 -0.03747515 2.3509886e-38
0.031949434 -0.067768693 -0.041380804 2.3509886e-38
0.033930711 -0.067768693 -0.041380804 2.3509886e-38
0.035911992 -0.067768693 -0.041380804 2.3509886e-38
0.037982255 -0.06854111 -0.045441072 2.3509886e-38
0.039970651 -0.06854111 -0.045441072 2.3509886e-38
0.041959051 -0.06854111 -0.045441072 2.3509886e-38
0.044055101 -0.069294676 -0.049402278 2.3509886e-38
0.046050444 -0.069294676 -0.049402278 2.3509527e-38
0.04814047 -0.069881707 -0.05248813 2.3509527e-38
0.050271317 -0.070644692 -0.056498807 2.341805e-38
0.052412726 -0.071388185 -0.060407083 2.341805e-38
0.054427363 -0.071388185 -0.060407083 2.3418045e-38
0.056595303 -0.072161824 -0.064473785 2.3418045e-38
0.05861707 -0.072161824 -0.064473785 2.3234376e-38
0.060638838 -0.072161824 -0.064473785 2.3234379e-38
0.062660605 -0.072161824 -0.064473785 2.3141467e-38
0.064682372 -0.072161824 -0.064473785 2.3417691e-38
0.066704139 -0.072161824 -0.064473785 1.825403e-38
0.068725914 -0.072161824 -0.064473785 1.2611686e-44
-0.064896584 -0.053826213 0.041559774 1.3001375e-38
-0.063060731 -0.053826213 0.041559774 1.8901175e-38
-0.061224874 -0.053826213 0.041559774 2.1667044e-38
-0.059389021 -0.053826213 0.041559774 2.1942909e-38
-0.057553153 -0.053826213 0.041559774 2.3418039e-38
-0.055717301 -0.053826213 0.041559774 2.3509879e-38
-0.053881448 -0.053826213 0.041559774 2.3509518e-38
-0.052045595 -0.053826213 0.041559774 2.3509521e-38
-0.050209742 -0.053826213 0.041559774 2.3509521e-38
-0.048546512 -0.05439049 0.038620669 2.3509164e-38
-0.046705503 -0.05439049 0.038620669 2.3509883e-38
-0.045088429 -0.055168927 0.034566123 2.3509527e-38
-0.043399584 -0.055740759 0.031587679 2.3509886e-38
-0.041701179 -0.056315839 0.028592309 2.3509886e-38
-0.039842587 -0.056315839 0.028592309 2.3509886e-38
-0.038129244 -0.056894183 0.02557989 2.3509886e-38
-0.03626537 -0.056894183 0.02557989 2.3509886e-38
-0.034401495 -0.056894183 0.02557989 2.3509886e-38
-0.032537621 -0.056894183 0.02557989 2.3509886e-38
-0.030840348 -0.057670474 0.02153655 2.3509886e-38
-0.029085334 -0.058234796 0.018597206 2.3509886e-38
-0.027324934 -0.058824107 0.015527686 2.3509886e-38
-0.025587399 -0.059593096 0.011522373 2.3509886e-38
-0.023698878 -0.059593096 0.011522373 2.3509886e-38
-0.021907501 -0.060168073 0.0085274782 2.3509886e-38
-0.020013727 -0.060168073 0.0085274782 2.3509886e-38
-0.018233985 -0.060924813 0.0045859423 2.3509886e-38
-0.016333301 -0.060924813 0.0045859423 2.3509886e-38
-0.01443262 -0.060924813 0.0045859423 2.3509886e-38
-0.012673162 -0.062070325 -0.0013806021 2.3509886e-38
-0.010762017 -0.062070325 -0.0013806021 2.3509886e-38
-0.0088508725 -0.062070325 -0.0013806021 2.3509886e-38
-0.0069397278 -0.062070325 -0.0013806021 2.3509886e-38
-0.0050954483 -0.062841058 -0.0053949747 2.3509886e-38
-0.0031772666 -0.062841058 -0.0053949747 2.3509886e-38
-0.0012997128 -0.063434258 -0.0084847603 2.3509886e-38
0.00057890639 -0.064191997 -0.012431541 2.3509886e-38
0.0024710894 -0.064955235 -0.016406933 2.3509886e-38
0.0043846685 -0.06553711 -0.01943771 2.3509886e-38
0.0063274726 -0.06553711 -0.01943771 2.3509886e-38
0.0082702786 -0.06553711 -0.01943771 2.3509886e-38
0.010202494 -0.066310123 -0.023464004 2.3509886e-38
0.012152357 -0.066310123 -0.023464004 2.3509886e-38
0.014104806 -0.066875845 -0.026410619 2.3509886e-38
0.016059836 -0.066875845 -0.026410619 2.3509886e-38
0.018014867 -0.066875845 -0.026410619 2.3509886e-38
0.019969897 -0.066875845 -0.026410619 2.3509886e-38
0.021957096 -0.067658603 -0.030487696 2.3509886e-38
0.023919273 -0.067658603 -0.030487696 2.3509886e-38
0.025881454 -0.067658603 -0.030487696 2.3509886e-38
0.027895998 -0.068423137 -0.034469884 2.3509886e-38
0.029865159 -0.068423137 -0.034469884 2.3509886e-38
0.03188438 -0.069000125 -0.03747515 2.3509886e-38
0.03385881 -0.069000125 -0.03747515 2.3509886e-38
0.035911992 -0.069749966 -0.041380804 2.3509886e-38
0.037982255 -0.070529506 -0.045441072 2.3509886e-38
0.039970651 -0.070529506 -0.045441072 2.3509886e-38
0.041959051 -0.070529506 -0.045441072 2.3509886e-38
0.043947447 -0.070529506 -0.045441072 2.3509886e-38
0.046050444 -0.071290016 -0.049402278 2.3509527e-38
0.04814047 -0.071882471 -0.05248813 2.3509886e-38
0.050271317 -0.072652474 -0.056498807 2.341805e-38
0.052412726 -0.073402822 -0.060407083 2.3418045e-38
0.054427363 -0.073402822 -0.060407083 2.3418043e-38
0.056595303 -0.074183598 -0.064473785 2.3418043e-38
0.058456637 -0.073402822 -0.060407083 2.3234374e-38
0.060471274 -0.073402822 -0.060407083 2.3234376e-38
0.062485915 -0.073402822 -0.060407083 2.341805e-38
0.064500555 -0.073402822 -0.060407083 2.2864883e-38
0.066515192 -0.073402822 -0.060407083 2.314075e-38
0.068529829 -0.073402822 -0.060407083 3.6771473e-40
-0.064896584 -0.055662066 0.041559774 1.6412966e-38
-0.063060731 -0.055662066 0.041559774 1.9362147e-38
-0.06143358 -0.056231499 0.038620669 2.0468851e-38
-0.059389021 -0.055662066 0.041559774 2.1205697e-38
-0.057553153 -0.055662066 0.041559774 2.3141805e-38
-0.055717301 -0.055662066 0.041559774 2.3509873e-38
-0.053881448 -0.055662066 0.041559774 2.3509873e-38
-0.052045595 -0.055662066 0.041559774 2.3509876e-38
-0.050209742 -0.055662066 0.041559774 2.3509876e-38
-0.048546512 -0.056231499 0.038620669 2.3509158e-38
-0.046705503 -0.056231499 0.038620669 2.350988e-38
-0.045088429 -0.057017043 0.034566123 2.3509883e-38
-0.043399584 -0.057594091 0.031587679 2.3509886e-38
-0.041701179 -0.058174431 0.028592309 2.3509886e-38
-0.039842587 -0.058174431 0.028592309 2.3509886e-38
-0.037983995 -0.058174431 0.028592309 2.3509886e-38
-0.03626537 -0.058758065 0.02557989 2.3509886e-38
-0.034401495 -0.058758065 0.02557989 2.3509886e-38
-0.032537621 -0.058758065 0.02557989 2.3509886e-38
-0.030673746 -0.058758065 0.02557989 2.3509886e-38
-0.028969381 -0.059541434 0.02153655 2.3509886e-38
-0.027209222 -0.060110912 0.018597206 2.3509886e-38
-0.025443435 -0.060705602 0.015527686 2.3509886e-38
-0.023698878 -0.06148161 0.011522373 2.3509886e-38
-0.021810357 -0.06148161 0.011522373 2.3509886e-38
-0.020013727 -0.062061846 0.0085274782 2.3509886e-38
-0.018233985 -0.062825501 0.0045859423 2.3509886e-38
-0.016333301 -0.062825501 0.0045859423 2.3509886e-38
-0.01443262 -0.062825501 0.0045859423 2.3509886e-38
-0.012673162 -0.063981473 -0.0013806021 2.3509886e-38
-0.010762017 -0.063981473 -0.0013806021 2.3509886e-38
-0.0088508725 -0.063981473 -0.0013806021 2.3509886e-38
-0.0069397278 -0.063981473 -0.0013806021 2.3509886e-38
-0.0050954483 -0.06475924 -0.0053949747 2.3509886e-38
-0.0031772666 -0.06475924 -0.0053949747 2.3509886e-38
-0.0012997128 -0.065357864 -0.0084847603 2.3509886e-38
0.00057890639 -0.066122517 -0.012431541 2.3509886e-38
0.0025094263 -0.066122517 -0.012431541 2.3509886e-38
0.0044085812 -0.066892728 -0.016406933 2.3509886e-38
0.0063274726 -0.067479923 -0.01943771 2.3509886e-38
0.0082702786 -0.067479923 -0.01943771 2.3509886e-38
0.010202494 -0.068259984 -0.023464004 2.3509886e-38
0.012152357 -0.068259984 -0.023464004 2.3509886e-38
0.014102222 -0.068259984 -0.023464004 2.3509886e-38
0.016059836 -0.068830878 -0.026410619 2.3509886e-38
0.018014867 -0.068830878 -0.026410619 2.3509886e-38
0.019969897 -0.068830878 -0.026410619 2.3509886e-38
0.021957096 -0.069620788 -0.030487696 2.3509886e-38
0.023919273 -0.069620788 -0.030487696 2.3509886e-38
0.025881454 -0.069620788 -0.030487696 2.3509886e-38
0.027895998 -0.070392311 -0.034469884 2.3509886e-38
0.029865159 -0.070392311 -0.034469884 2.3509886e-38
0.03188438 -0.070974559 -0.03747515 2.3509886e-38
0.03385881 -0.070974559 -0.03747515 2.3509886e-38
0.035911992 -0.071731254 -0.041380804 2.3509886e-38
0.037893269 -0.071731254 -0.041380804 2.3509886e-38
0.039970651 -0.072517902 -0.045441072 2.3509886e-38
0.041959051 -0.072517902 -0.045441072 2.3509886e-38
0.043947447 -0.072517902 -0.045441072 2.3509886e-38
0.045935847 -0.072517902 -0.045441072 2.3509886e-38
0.04814047 -0.073883221 -0.05248813 2.3509886e-38
0.050141223 -0.073883221 -0.05248813 2.3418047e-38
0.052412726 -0.075417459 -0.060407083 2.3418043e-38
0.054427363 -0.075417459 -0.060407083 2.341804e-38
0.056442 -0.075417459 -0.060407083 2.3418038e-38
0.058456637 -0.075417459 -0.060407083 2.3234369e-38
0.060471274 -0.075417459 -0.060407083 2.3234372e-38
0.062485915 -0.075417459 -0.060407083 2.3326213e-38
0.064500555 -0.075417459 -0.060407083 2.341805e-38
0.066515192 -0.075417459 -0.060407083 2.3509527e-38
0.068529829 -0.075417459 -0.060407083 1.0134387e-39
-0.063274592 -0.058072507 0.038620669 1.9362503e-38
-0.06143358 -0.058072507 0.038620669 2.0191545e-38
-0.059592571 -0.058072507 0.038620669 2.0652523e-38
-0.057751562 -0.058072507 0.038620669 2.2957414e-38
-0.055910554 -0.058072507 0.038620669 2.3509873e-38
-0.054069545 -0.058072507 0.038620669 2.3509873e-38
-0.052228536 -0.058072507 0.038620669 2.3509876e-38
-0.050387528 -0.058072507 0.038620669 2.3509518e-38
-0.048546512 -0.058072507 0.038620669 2.3509158e-38
-0.046705503 -0.058072507 0.038620669 2.350988e-38
-0.045088429 -0.05886516 0.034566123 2.3509883e-38
-0.043240305 -0.05886516 0.034566123 2.3509886e-38
-0.041546252 -0.059447438 0.031587679 2.3509886e-38
-0.039842587 -0.060033023 0.028592309 2.3509886e-38
-0.037983995 -0.060033023 0.028592309 2.3509886e-38
-0.03626537 -0.060621932 0.02557989 2.3509886e-38
-0.034401495 -0.060621932 0.02557989 2.3509886e-38
-0.032537621 -0.060621932 0.02557989 2.3509886e-38
-0.030673746 -0.060621932 0.02557989 2.3509886e-38
-0.028809872 -0.060621932 0.02557989 2.3509886e-38
-0.027098421 -0.061412394 0.02153655 2.3509886e-38
-0.025333107 -0.061987028 0.018597206 2.3509886e-38
-0.023561936 -0.062587112 0.015527686 2.3509886e-38
-0.021810357 -0.063370138 0.011522373 2.3509886e-38
-0.020013727 -0.06395562 0.0085274782 2.3509886e-38
-0.018233985 -0.064726189 0.0045859423 2.3509886e-38
-0.016333301 -0.064726189 0.0045859423 2.3509886e-38
-0.01443262 -0.064726189 0.0045859423 2.3509886e-38
-0.012673162 -0.065892622 -0.0013806021 2.3509886e-38
-0.010762017 -0.065892622 -0.0013806021 2.3509886e-38
-0.0088508725 -0.065892622 -0.0013806021 2.3509886e-38
-0.0069397278 -0.065892622 -0.0013806021 2.3509886e-38
-0.0050285868 -0.065892622 -0.0013806021 2.3509886e-38
-0.0031772666 -0.066677421 -0.0053949747 2.3509886e-38
-0.0012997128 -0.067281455 -0.0084847603 2.3509886e-38
0.00062388554 -0.067281455 -0.0084847603 2.3509886e-38
0.0025474876 -0.067281455 -0.0084847603 2.3509886e-38
0.0044399463 -0.068053037 -0.012431541 2.3509886e-38
0.006346073 -0.068830222 -0.016406933 2.3509886e-38
0.0082702786 -0.069422722 -0.01943771 2.3509886e-38
0.010202494 -0.070209846 -0.023464004 2.3509886e-38
0.012152357 -0.070209846 -0.023464004 2.3509886e-38
0.014102222 -0.070209846 -0.023464004 2.3509886e-38
0.016059836 -0.07078591 -0.026410619 2.3509886e-38
0.018014867 -0.07078591 -0.026410619 2.3509886e-38
0.019969897 -0.07078591 -0.026410619 2.3509886e-38
0.021924928 -0.07078591 -0.026410619 2.3509886e-38
0.023919273 -0.071582958 -0.030487696 2.3509886e-38
0.025881454 -0.071582958 -0.030487696 2.3509886e-38
0.027895998 -0.072361469 -0.034469884 2.3509886e-38
0.029865159 -0.072361469 -0.034469884 2.3509886e-38
0.03188438 -0.072948977 -0.03747515 2.3509886e-38
0.03385881 -0.072948977 -0.03747515 2.3509886e-38
0.03583324 -0.072948977 -0.03747515 2.3509886e-38
0.037893269 -0.073712528 -0.041380804 2.3509886e-38
0.039874546 -0.073712528 -0.041380804 2.3509886e-38
0.041855827 -0.073712528 -0.041380804 2.3509886e-38
0.043947447 -0.074506298 -0.045441072 2.3509886e-38
0.045935847 -0.074506298 -0.045441072 2.3509886e-38
0.048045784 -0.075280696 -0.049402278 2.3509886e-38
0.050141223 -0.07588397 -0.05248813 2.3418045e-38
0.052141976 -0.07588397 -0.05248813 2.3418043e-38
0.054286886 -0.076668039 -0.056498807 2.341804e-38
0.056442 -0.077432096 -0.060407083 2.341804e-38
0.058456637 -0.077432096 -0.060407083 2.341804e-38
0.060471274 -0.077432096 -0.060407083 2.3418043e-38
0.062485915 -0.077432096 -0.060407083 2.2588645e-38
0.064500555 -0.077432096 -0.060407083 2.3509886e-38
0.066515192 -0.077432096 -0.060407083 2.2587576e-38
0.068529829 -0.077432096 -0.060407083 1.6588081e-39
-0.063569605 -0.060713276 0.034566123 1.8716418e-38
-0.061721485 -0.060713276 0.034566123 2.0006438e-38
-0.059873369 -0.060713276 0.034566123 2.0098633e-38
-0.057751562 -0.059913516 0.038620669 2.3509876e-38
-0.055910554 -0.059913516 0.038620669 2.3509879e-38
-0.054069545 -0.059913516 0.038620669 2.350988e-38
-0.052228536 -0.059913516 0.038620669 2.3509883e-38
-0.050209742 -0.059333771 0.041559774 2.3325494e-38
-0.048373882 -0.059333771 0.041559774 2.3509527e-38
-0.046705503 -0.059913516 0.038620669 2.3233302e-38
-0.044864494 -0.059913516 0.038620669 2.3509886e-38
-0.043240305 -0.060713276 0.034566123 2.3509886e-38
-0.041546252 -0.061300769 0.031587679 2.3509886e-38
-0.039842587 -0.061891615 0.028592309 2.3509886e-38
-0.037983995 -0.061891615 0.028592309 2.3509886e-38
-0.036125403 -0.061891615 0.028592309 2.3509886e-38
-0.034401495 -0.062485814 0.02557989 2.3509886e-38
-0.032537621 -0.062485814 0.02557989 2.3509886e-38
-0.030673746 -0.062485814 0.02557989 2.3509886e-38
-0.028809872 -0.062485814 0.02557989 2.3509886e-38
-0.027098421 -0.063283354 0.02153655 2.3509886e-38
-0.025333107 -0.063863143 0.018597206 2.3509886e-38
-0.023561936 -0.064468607 0.015527686 2.3509886e-38
-0.021810357 -0.065258652 0.011522373 2.3509886e-38
-0.020013727 -0.065849394 0.0085274782 2.3509886e-38
-0.018233985 -0.066626862 0.0045859423 2.3509886e-38
-0.016333301 -0.066626862 0.0045859423 2.3509886e-38
-0.01443262 -0.066626862 0.0045859423 2.3509886e-38
-0.012673162 -0.06780377 -0.0013806021 2.3509886e-38
-0.010762017 -0.06780377 -0.0013806021 2.3509886e-38
-0.0088508725 -0.06780377 -0.0013806021 2.3509886e-38
-0.0069397278 -0.06780377 -0.0013806021 2.3509886e-38
-0.0050285868 -0.06780377 -0.0013806021 2.3509886e-38
-0.0031772666 -0.068595603 -0.0053949747 2.3509886e-38
-0.0012590848 -0.068595603 -0.0053949747 2.3509886e-38
0.00065909699 -0.068595603 -0.0053949747 2.3509886e-38
0.0025772825 -0.068595603 -0.0053949747 2.3509886e-38
0.004471086 -0.069205061 -0.0084847603 2.3509886e-38
0.0063704681 -0.069983557 -0.012431541 2.3509886e-38
0.0082702786 -0.071365535 -0.01943771 2.3509886e-38
0.010213083 -0.071365535 -0.01943771 2.3509886e-38
0.012155887 -0.071365535 -0.01943771 2.3509886e-38
0.014102222 -0.072159722 -0.023464004 2.3509886e-38
0.016059836 -0.072740942 -0.026410619 2.3509886e-38
0.018014867 -0.072740942 -0.026410619 2.3509886e-38
0.019969897 -0.072740942 -0.026410619 2.3509886e-38
0.021924928 -0.072740942 -0.026410619 2.3509886e-38
0.023919273 -0.073545143 -0.030487696 2.3509886e-38
0.025881454 -0.073545143 -0.030487696 2.3509886e-38
0.027895998 -0.074330628 -0.034469884 2.3509886e-38
0.029865159 -0.074330628 -0.034469884 2.3509886e-38
0.031834319 -0.074330628 -0.034469884 2.3509886e-38
0.033803482 -0.074330628 -0.034469884 2.3509886e-38
0.03583324 -0.074923411 -0.03747515 2.3509886e-38
0.037893269 -0.075693801 -0.041380804 2.3509886e-38
0.039874546 -0.075693801 -0.041380804 2.3509886e-38
0.041855827 -0.075693801 -0.041380804 2.3509886e-38
0.043837104 -0.075693801 -0.041380804 2.3509886e-38
0.045935847 -0.076494694 -0.045441072 2.341805e-38
0.048045784 -0.077276036 -0.049402278 2.341805e-38
0.050041128 -0.077276036 -0.049402278 2.341805e-38
0.052141976 -0.077884719 -0.05248813 2.3418047e-38
0.054286886 -0.078675836 -0.056498807 2.3509883e-38
0.056442 -0.079446733 -0.060407083 2.3509883e-38
