# .PCD v0.7 - Point Cloud Data file format
VERSION 0.7
FIELDS x y z rgb
SIZE 4 4 4 4
TYPE F F F F
COUNT 1 1 1 1
WIDTH 942
HEIGHT 1
VIEWPOINT 0 0 0 1 0 0 0
POINTS 942
DATA ascii
-0.024192519 -0.11678131 -0.0082078231 2.3509886e-38
-0.022286512 -0.11678131 -0.0082078231 2.3509886e-38
-0.020239554 -0.11604463 -0.0051741851 2.3509886e-38
-0.018338874 -0.11604463 -0.0051741851 2.3509886e-38
-0.016268872 -0.11508749 -0.0012326492 2.3509886e-38
-0.014251702 -0.1143602 0.0017622458 2.3509886e-38
-0.012363181 -0.1143602 0.0017622458 2.3509886e-38
-0.010323673 -0.11338757 0.0057675587 2.3509886e-38
-0.0084421746 -0.11338757 0.0057675587 2.3509886e-38
-0.0064557306 -0.11264218 0.0088370787 2.3509886e-38
-0.0045796111 -0.11264218 0.0088370787 2.3509886e-38
-0.0024892427 -0.11094652 0.015819762 2.3509886e-38
-0.00062537193 -0.11094652 0.015819762 2.3509886e-38
0.0012385026 -0.11094652 0.015819762 2.3509886e-38
0.0031023771 -0.11094652 0.015819762 2.3509886e-38
0.0050375536 -0.11021499 0.018832181 2.3509886e-38
0.0068961456 -0.11021499 0.018832181 2.3509886e-38
0.0088151395 -0.10948761 0.021827552 2.3509886e-38
0.010723311 -0.10876434 0.024805997 2.3509886e-38
0.012571428 -0.10876434 0.024805997 2.3509886e-38
0.014419548 -0.10876434 0.024805997 2.3509886e-38
0.016359631 -0.10706602 0.031799648 2.3509886e-38
0.018195488 -0.10706602 0.031799648 2.3509886e-38
0.020089623 -0.10559841 0.037843321 2.3509886e-38
0.021914884 -0.10559841 0.037843321 2.3509886e-38
0.023758527 -0.10487093 0.04083905 2.3509886e-38
0.025595769 -0.10391603 0.044771288 2.3509886e-38
0.027408881 -0.10391603 0.044771288 2.3509886e-38
0.029221993 -0.10391603 0.044771288 2.3509886e-38
0.031032423 -0.10317262 0.047832701 2.3417327e-38
0.032832436 -0.10245901 0.05077133 2.3509883e-38
0.03460858 -0.10099369 0.056805465 2.3509527e-38
0.036382239 -0.10026747 0.059796069 2.3509527e-38
0.038169011 -0.10026747 0.059796069 2.3509527e-38
0.040476792 -0.11338757 0.0057675587 2.3509883e-38
0.04232331 -0.11264218 0.0088370787 2.350988e-38
0.044160776 -0.11192839 0.011776422 2.0836201e-38
0.046031736 -0.11192839 0.011776422 2.0744357e-38
0.04783535 -0.11094652 0.015819762 2.0467765e-38
0.049643766 -0.11021499 0.018832181 2.0744352e-38
0.05144196 -0.10948761 0.021827552 2.1574112e-38
0.053230025 -0.10876434 0.024805997 2.1942898e-38
0.055078141 -0.10876434 0.024805997 2.2034739e-38
0.056823179 -0.10777976 0.028860543 2.2587918e-38
0.058584318 -0.10706602 0.031799648 2.350952e-38
0.06042017 -0.10706602 0.031799648 2.3509883e-38
0.06216304 -0.10633011 0.034830187 2.341769e-38
0.063993581 -0.10633011 0.034830187 2.3141467e-38
0.065824121 -0.10633011 0.034830187 2.341805e-38
0.067546368 -0.10559841 0.037843321 2.341805e-38
0.069371626 -0.10559841 0.037843321 9.7731025e-39
0.071196884 -0.10559841 0.037843321 8.5756355e-39
-0.081683837 -0.13384195 -0.070167206 1.5414283e-44
-0.0796692 -0.13384195 -0.070167206 2.3325138e-38
-0.077654563 -0.13384195 -0.070167206 2.3141466e-38
-0.075639926 -0.13384195 -0.070167206 2.332621e-38
-0.073272385 -0.13288604 -0.06625893 2.3509527e-38
-0.070909478 -0.13190506 -0.062248256 2.3325138e-38
-0.068908729 -0.13190506 -0.062248256 2.3325131e-38
-0.06664557 -0.13115029 -0.059162404 2.350988e-38
-0.06465023 -0.13115029 -0.059162404 2.3509883e-38
-0.062331922 -0.13018142 -0.055201199 2.3509886e-38
-0.06001962 -0.12918831 -0.051140931 2.3509886e-38
-0.057733603 -0.12823303 -0.047235277 2.3509886e-38
-0.055759169 -0.12823303 -0.047235277 2.3509886e-38
-0.053264059 -0.12652399 -0.040247824 2.3509886e-38
-0.051301874 -0.12652399 -0.040247824 2.3509886e-38
-0.04905019 -0.12552677 -0.036170747 2.3509886e-38
-0.046891086 -0.12480606 -0.033224132 2.3509886e-38
-0.044669427 -0.12382124 -0.029197838 2.3509886e-38
-0.042527355 -0.12307997 -0.026167061 2.3509886e-38
-0.040589862 -0.12307997 -0.026167061 2.3509886e-38
-0.038404934 -0.12210761 -0.02219167 2.3509886e-38
-0.036474414 -0.12210761 -0.02219167 2.3509886e-38
-0.034312062 -0.12114228 -0.018244889 2.3509886e-38
-0.032212399 -0.12038656 -0.015155102 2.3509886e-38
-0.030072503 -0.11940466 -0.011140729 2.3509886e-38
-0.028161362 -0.11940466 -0.011140729 2.3509886e-38
-0.026098512 -0.11868732 -0.0082078231 2.3509886e-38
-0.024192519 -0.11868732 -0.0082078231 2.3509886e-38
-0.022140242 -0.11794533 -0.0051741851 2.3509886e-38
-0.020239554 -0.11794533 -0.0051741851 2.3509886e-38
-0.018338874 -0.11794533 -0.0051741851 2.3509886e-38
-0.016268872 -0.11698125 -0.0012326492 2.3509886e-38
-0.014251702 -0.11624874 0.0017622458 2.3509886e-38
-0.012363181 -0.11624874 0.0017622458 2.3509886e-38
-0.010323673 -0.11526908 0.0057675587 2.3509886e-38
-0.0084421746 -0.11526908 0.0057675587 2.3509886e-38
-0.0064557306 -0.1145183 0.0088370787 2.3509886e-38
-0.0045796111 -0.1145183 0.0088370787 2.3509886e-38
-0.0024892427 -0.11281042 0.015819762 2.3509886e-38
-0.00062537193 -0.11281042 0.015819762 2.3509886e-38
0.0012385026 -0.11281042 0.015819762 2.3509886e-38
0.0031023771 -0.11281042 0.015819762 2.3509886e-38
0.0050375536 -0.11207359 0.018832181 2.3509886e-38
0.0068961456 -0.11207359 0.018832181 2.3509886e-38
0.0088151395 -0.11134095 0.021827552 2.3509886e-38
0.010723311 -0.11061247 0.024805997 2.3509886e-38
0.012571428 -0.11061247 0.024805997 2.3509886e-38
0.014479972 -0.10962076 0.028860543 2.3509886e-38
0.016359631 -0.10890187 0.031799648 2.3509886e-38
0.018195488 -0.10890187 0.031799648 2.3509886e-38
0.020089623 -0.10742365 0.037843321 2.3509886e-38
0.021914884 -0.10742365 0.037843321 2.3509886e-38
0.023758527 -0.10669093 0.04083905 2.3509886e-38
0.025595769 -0.10572915 0.044771288 2.3509886e-38
0.027408881 -0.10572915 0.044771288 2.3509886e-38
0.029221993 -0.10572915 0.044771288 2.3509883e-38
0.031032423 -0.10498036 0.047832701 2.3325131e-38
0.032832436 -0.10426159 0.05077133 2.350988e-38
0.03460858 -0.10278571 0.056805465 2.3509527e-38
0.036382239 -0.10205424 0.059796069 2.3509527e-38
0.038169011 -0.10205424 0.059796069 2.3509527e-38
0.040476792 -0.11526908 0.0057675587 2.3509883e-38
0.04232331 -0.1145183 0.0088370787 2.3325129e-38
0.044160776 -0.11379938 0.011776422 2.1481568e-38
0.046031736 -0.11379938 0.011776422 2.1389727e-38
0.04783535 -0.11281042 0.015819762 2.0928743e-38
0.049643766 -0.11207359 0.018832181 2.0929099e-38
0.05144196 -0.11134095 0.021827552 2.1666664e-38
0.053295303 -0.11134095 0.021827552 2.2127289e-38
0.055078141 -0.11061247 0.024805997 2.2126934e-38
0.056823179 -0.10962076 0.028860543 2.2495722e-38
0.058664188 -0.10962076 0.028860543 2.3140736e-38
0.060505196 -0.10962076 0.028860543 2.350988e-38
0.062256027 -0.10890187 0.031799648 2.3417687e-38
0.063993581 -0.10816063 0.034830187 2.3509886e-38
0.065824121 -0.10816063 0.034830187 2.3141467e-38
0.067654669 -0.10816063 0.034830187 2.3325856e-38
0.06948521 -0.10816063 0.034830187 1.0418472e-38
0.07131575 -0.10816063 0.034830187 8.5756327e-39
0.073392257 -0.10962076 0.028860543 9.036964e-39
0.075233273 -0.10962076 0.028860543 9.2206308e-39
-0.083698474 -0.13585658 -0.070167206 3.7057758e-40
-0.081683837 -0.13585658 -0.070167206 1.6815582e-44
-0.0796692 -0.13585658 -0.070167206 2.323402e-38
-0.077654563 -0.13585658 -0.070167206 2.2404257e-38
-0.075639926 -0.13585658 -0.070167206 2.3418047e-38
-0.073272385 -0.13489382 -0.06625893 2.3417333e-38
-0.070909478 -0.13390581 -0.062248256 2.3324421e-38
-0.06864091 -0.13314565 -0.059162404 2.3509524e-38
-0.066308714 -0.13216983 -0.055201199 2.3325129e-38
-0.064320318 -0.13216983 -0.055201199 2.3509883e-38
-0.062000893 -0.1311696 -0.051140931 2.3509886e-38
-0.06001962 -0.1311696 -0.051140931 2.3509886e-38
-0.057733603 -0.13020746 -0.047235277 2.3509886e-38
-0.055529959 -0.12946714 -0.04423001 2.3509886e-38
-0.053264059 -0.12848614 -0.040247824 2.3509886e-38
-0.051005222 -0.1274818 -0.036170747 2.3509886e-38
-0.04905019 -0.1274818 -0.036170747 2.3509886e-38
-0.046891086 -0.12675591 -0.033224132 2.3509886e-38
-0.044669427 -0.12576406 -0.029197838 2.3509886e-38
-0.042527355 -0.12501745 -0.026167061 2.3509886e-38
-0.040589862 -0.12501745 -0.026167061 2.3509886e-38
-0.038404934 -0.12403814 -0.02219167 2.3509886e-38
-0.036474414 -0.12403814 -0.02219167 2.3509886e-38
-0.034312062 -0.12306587 -0.018244889 2.3509886e-38
-0.032212399 -0.12230472 -0.015155102 2.3509886e-38
-0.030072503 -0.12131582 -0.011140729 2.3509886e-38
-0.028161362 -0.12131582 -0.011140729 2.3509886e-38
-0.026098512 -0.12059332 -0.0082078231 2.3509886e-38
-0.024040923 -0.119846 -0.0051741851 2.3509886e-38
-0.022140242 -0.119846 -0.0051741851 2.3509886e-38
-0.020056419 -0.11887501 -0.0012326492 2.3509886e-38
-0.018162645 -0.11887501 -0.0012326492 2.3509886e-38
-0.01614023 -0.11813726 0.0017622458 2.3509886e-38
-0.014251702 -0.11813726 0.0017622458 2.3509886e-38
-0.012363181 -0.11813726 0.0017622458 2.3509886e-38
-0.010323673 -0.11715056 0.0057675587 2.3509886e-38
-0.0084421746 -0.11715056 0.0057675587 2.3509886e-38
-0.0064557306 -0.11639442 0.0088370787 2.3509886e-38
-0.0044842698 -0.11567034 0.011776422 2.3509886e-38
-0.0024892427 -0.11467429 0.015819762 2.3509886e-38
-0.00062537193 -0.11467429 0.015819762 2.3509886e-38
0.0012385026 -0.11467429 0.015819762 2.3509886e-38
0.0031023771 -0.11467429 0.015819762 2.3509886e-38
0.0050375536 -0.11393218 0.018832181 2.3509886e-38
0.0069617964 -0.1131943 0.021827552 2.3509886e-38
0.0088151395 -0.1131943 0.021827552 2.3509886e-38
0.010723311 -0.11246057 0.024805997 2.3509886e-38
0.012571428 -0.11246057 0.024805997 2.3509886e-38
0.014523774 -0.11073773 0.031799648 2.3509886e-38
0.016359631 -0.11073773 0.031799648 2.3509886e-38
0.018230025 -0.10999118 0.034830187 2.3509886e-38
0.020089623 -0.10924892 0.037843321 2.3509886e-38
0.02193852 -0.10851096 0.04083905 2.3509886e-38
0.023758527 -0.10851096 0.04083905 2.3509886e-38
0.025595769 -0.10754226 0.044771288 2.3509886e-38
0.027416933 -0.10678811 0.047832701 2.3509886e-38
0.029224677 -0.10678811 0.047832701 2.3509883e-38
0.031029847 -0.10606419 0.05077133 2.3509523e-38
0.032824479 -0.1053188 0.053797219 2.350988e-38
0.03460858 -0.10457774 0.056805465 2.3509527e-38
0.036382239 -0.10384102 0.059796069 2.3509167e-38
0.038169011 -0.10384102 0.059796069 2.3509527e-38
0.040476792 -0.11715056 0.0057675587 2.3509883e-38
0.04232331 -0.11639442 0.0088370787 2.2403171e-38
0.044199426 -0.11639442 0.0088370787 2.1389372e-38
0.046031736 -0.11567034 0.011776422 2.1758509e-38
0.04783535 -0.11467429 0.015819762 2.120533e-38
0.049699225 -0.11467429 0.015819762 2.1205686e-38
0.051502358 -0.11393218 0.018832181 2.1943251e-38
0.053295303 -0.1131943 0.021827552 2.2403876e-38
0.055148643 -0.1131943 0.021827552 2.2403879e-38
0.056926262 -0.11246057 0.024805997 2.2680111e-38
0.058774382 -0.11246057 0.024805997 2.3140736e-38
0.060505196 -0.11146177 0.028860543 2.350952e-38
0.062346209 -0.11146177 0.028860543 2.3509883e-38
0.064091884 -0.11073773 0.031799648 2.3509886e-38
0.065927736 -0.11073773 0.031799648 2.304891e-38
0.067763597 -0.11073773 0.031799648 2.304927e-38
0.06959945 -0.11073773 0.031799648 1.2446773e-38
0.071551248 -0.11146177 0.028860543 8.5759886e-39
0.073392257 -0.11146177 0.028860543 8.2993975e-39
-0.081303529 -0.1369016 -0.06625893 7.3830633e-40
-0.079295747 -0.1369016 -0.06625893 2.323402e-38
-0.077654563 -0.13787122 -0.070167206 2.3326213e-38
-0.075280167 -0.1369016 -0.06625893 2.350988e-38
-0.073272385 -0.1369016 -0.06625893 2.277125e-38
-0.070909478 -0.13590656 -0.062248256 2.3508809e-38
-0.06864091 -0.13514097 -0.059162404 2.3509524e-38
-0.066308714 -0.13415821 -0.055201199 2.332405e-38
-0.064320318 -0.13415821 -0.055201199 2.3509883e-38
-0.062000893 -0.13315089 -0.051140931 2.3509886e-38
-0.059708036 -0.1321819 -0.047235277 2.3509886e-38
-0.057499118 -0.1314363 -0.04423001 2.3509886e-38
-0.055529959 -0.1314363 -0.04423001 2.3509886e-38
-0.052960254 -0.12943684 -0.036170747 2.3509886e-38
-0.051005222 -0.12943684 -0.036170747 2.3509886e-38
-0.048840947 -0.12870578 -0.033224132 2.3509886e-38
-0.04661224 -0.12770687 -0.029197838 2.3509886e-38
-0.044464849 -0.12695493 -0.026167061 2.3509886e-38
-0.042527355 -0.12695493 -0.026167061 2.3509886e-38
-0.040335454 -0.12596865 -0.02219167 2.3509886e-38
-0.038404934 -0.12596865 -0.02219167 2.3509886e-38
-0.036235668 -0.12498946 -0.018244889 2.3509886e-38
-0.034130581 -0.12422292 -0.015155102 2.3509886e-38
-0.032212399 -0.12422292 -0.015155102 2.3509886e-38
-0.030072503 -0.12322696 -0.011140729 2.3509886e-38
-0.02800452 -0.1224993 -0.0082078231 2.3509886e-38
-0.026098512 -0.1224993 -0.0082078231 2.3509886e-38
-0.024040923 -0.12174667 -0.0051741851 2.3509886e-38
-0.021950193 -0.1207688 -0.0012326492 2.3509886e-38
-0.020056419 -0.1207688 -0.0012326492 2.3509886e-38
-0.018028744 -0.12002577 0.0017622458 2.3509886e-38
-0.01614023 -0.12002577 0.0017622458 2.3509886e-38
-0.014251702 -0.12002577 0.0017622458 2.3509886e-38
-0.012205176 -0.11903207 0.0057675587 2.3509886e-38
-0.010323673 -0.11903207 0.0057675587 2.3509886e-38
-0.0083318464 -0.11827053 0.0088370787 2.3509886e-38
-0.0062169917 -0.11653815 0.015819762 2.3509886e-38
-0.0043531172 -0.11653815 0.015819762 2.3509886e-38
-0.0023968108 -0.11579077 0.018832181 2.3509886e-38
-0.00053822249 -0.11579077 0.018832181 2.3509886e-38
0.0013203695 -0.11579077 0.018832181 2.3509886e-38
0.0031789616 -0.11579077 0.018832181 2.3509886e-38
0.0051084571 -0.11504765 0.021827552 2.3509886e-38
0.0069617964 -0.11504765 0.021827552 2.3509886e-38
0.0088751912 -0.1143087 0.024805997 2.3509886e-38
0.010723311 -0.1143087 0.024805997 2.3509886e-38
0.012638964 -0.11330278 0.028860543 2.3509886e-38
0.014523774 -0.11257361 0.031799648 2.3509886e-38
0.016359631 -0.11257361 0.031799648 2.3509886e-38
0.018230025 -0.11182173 0.034830187 2.3509886e-38
0.020089623 -0.11107419 0.037843321 2.3509886e-38
0.02193852 -0.11033095 0.04083905 2.3509886e-38
0.023758527 -0.11033095 0.04083905 2.3509886e-38
0.025595769 -0.10935538 0.044771288 2.3509886e-38
0.027416933 -0.10859586 0.047832701 2.3509886e-38
0.029224677 -0.10859586 0.047832701 2.3509883e-38
0.031029847 -0.10786678 0.05077133 2.3509883e-38
0.032824479 -0.10711606 0.053797219 2.350988e-38
0.034595471 -0.10562779 0.059796069 2.3509527e-38
0.036363997 -0.10489015 0.062769152 2.323258e-38
0.03814555 -0.10489015 0.062769152 2.3509527e-38
0.040515415 -0.12002577 0.0017622458 2.3325131e-38
0.04235829 -0.11903207 0.0057675587 2.1204628e-38
0.044199426 -0.11827053 0.0088370787 2.0928394e-38
0.046031736 -0.1175413 0.011776422 2.1666311e-38
0.0479027 -0.1175413 0.011776422 2.1205686e-38
0.049699225 -0.11653815 0.015819762 2.1390077e-38
0.051502358 -0.11579077 0.018832181 2.2312033e-38
0.053360954 -0.11579077 0.018832181 2.2772655e-38
0.055219546 -0.11579077 0.018832181 2.2772661e-38
0.057001986 -0.11504765 0.021827552 2.3048893e-38
0.058774382 -0.1143087 0.024805997 2.3509876e-38
0.060622498 -0.1143087 0.024805997 2.3509879e-38
0.062346209 -0.11330278 0.028860543 2.350988e-38
0.064187214 -0.11330278 0.028860543 2.3417687e-38
0.066028222 -0.11330278 0.028860543 2.3233299e-38
0.067869231 -0.11330278 0.028860543 2.341805e-38
0.06971024 -0.11330278 0.028860543 1.6503737e-38
0.071551248 -0.11330278 0.028860543 9.5901406e-39
0.073392257 -0.11330278 0.028860543 6.4558409e-39
0.075233273 -0.11330278 0.028860543 8.3919435e-39
-0.081303529 -0.13890938 -0.06625893 4.4264945e-39
-0.079295747 -0.13890938 -0.06625893 2.3233662e-38
-0.077287965 -0.13890938 -0.06625893 2.341805e-38
-0.075280167 -0.13890938 -0.06625893 2.350988e-38
-0.072910242 -0.13790731 -0.062248256 2.3140033e-38
-0.07063625 -0.13713633 -0.059162404 2.3508809e-38
-0.06829711 -0.13614662 -0.055201199 2.3509165e-38
-0.065963455 -0.13513215 -0.051140931 2.3508801e-38
-0.063982166 -0.13513215 -0.051140931 2.3509883e-38
-0.06168247 -0.13415633 -0.047235277 2.3509886e-38
-0.059468277 -0.13340546 -0.04423001 2.3509886e-38
-0.057499118 -0.13340546 -0.04423001 2.3509886e-38
-0.055226244 -0.13241051 -0.040247824 2.3509886e-38
-0.052960254 -0.13139187 -0.036170747 2.3509886e-38
-0.051005222 -0.13139187 -0.036170747 2.3509886e-38
-0.048840947 -0.13065563 -0.033224132 2.3509886e-38
-0.04661224 -0.12964968 -0.029197838 2.3509886e-38
-0.044464849 -0.12889244 -0.026167061 2.3509886e-38
-0.042527355 -0.12889244 -0.026167061 2.3509886e-38
-0.040335454 -0.12789918 -0.02219167 2.3509886e-38
-0.038404934 -0.12789918 -0.02219167 2.3509886e-38
-0.036235668 -0.12691309 -0.018244889 2.3509886e-38
-0.034130581 -0.12614109 -0.015155102 2.3509886e-38
-0.032212399 -0.12614109 -0.015155102 2.3509886e-38
-0.030072503 -0.12513812 -0.011140729 2.3509886e-38
-0.02800452 -0.12440531 -0.0082078231 2.3509886e-38
-0.026098512 -0.12440531 -0.0082078231 2.3509886e-38
-0.024040923 -0.12364738 -0.0051741851 2.3509886e-38
-0.021950193 -0.12266256 -0.0012326492 2.3509886e-38
-0.020056419 -0.12266256 -0.0012326492 2.3509886e-38
-0.018028744 -0.12191428 0.0017622458 2.3509886e-38
-0.01614023 -0.12191428 0.0017622458 2.3509886e-38
-0.014086671 -0.12091358 0.0057675587 2.3509886e-38
-0.012205176 -0.12091358 0.0057675587 2.3509886e-38
-0.010207962 -0.12014665 0.0088370787 2.3509886e-38
-0.0083318464 -0.12014665 0.0088370787 2.3509886e-38
-0.0062169917 -0.11840202 0.015819762 2.3509886e-38
-0.0043531172 -0.11840202 0.015819762 2.3509886e-38
-0.0023968108 -0.11764936 0.018832181 2.3509886e-38
-0.00053822249 -0.11764936 0.018832181 2.3509886e-38
0.0013203695 -0.11764936 0.018832181 2.3509886e-38
0.003255114 -0.11690097 0.021827552 2.3509886e-38
0.0051789582 -0.1161568 0.024805997 2.3509886e-38
0.0070270747 -0.1161568 0.024805997 2.3509886e-38
0.0089569464 -0.11514379 0.028860543 2.3509886e-38
0.010797955 -0.11514379 0.028860543 2.3509886e-38
0.012638964 -0.11514379 0.028860543 2.3509886e-38
0.014523774 -0.11440946 0.031799648 2.3509886e-38
0.01639948 -0.11365227 0.034830187 2.3509886e-38
0.018230025 -0.11365227 0.034830187 2.3509886e-38
0.020089623 -0.11289944 0.037843321 2.3509886e-38
0.02193852 -0.11215095 0.04083905 2.3509886e-38
0.023758527 -0.11215095 0.04083905 2.3509886e-38
0.025595769 -0.11116849 0.044771288 2.3509886e-38
0.027416933 -0.11040358 0.047832701 2.3509886e-38
0.029224677 -0.11040358 0.047832701 2.3509883e-38
0.031029847 -0.10966937 0.05077133 2.3509883e-38
0.032824479 -0.10891335 0.053797219 2.350988e-38
0.034595471 -0.10741456 0.059796069 2.3509527e-38
0.036363997 -0.10667174 0.062769152 2.3140384e-38
0.03814555 -0.10667174 0.062769152 2.3509527e-38
0.040515415 -0.12191428 0.0017622458 2.3232936e-38
0.04235829 -0.12091358 0.0057675587 2.074365e-38
0.044239789 -0.12091358 0.0057675587 2.1204981e-38
0.046075545 -0.12014665 0.0088370787 2.1666311e-38
0.0479027 -0.11941226 0.011776422 2.1482273e-38
0.049699225 -0.11840202 0.015819762 2.1851055e-38
0.051563099 -0.11840202 0.015819762 2.2680816e-38
0.053360954 -0.11764936 0.018832181 2.3049242e-38
0.055219546 -0.11764936 0.018832181 2.2864857e-38
0.057078138 -0.11764936 0.018832181 2.3141089e-38
0.058855325 -0.11690097 0.021827552 2.3509876e-38
0.060622498 -0.1161568 0.024805997 2.3509879e-38
0.062470615 -0.1161568 0.024805997 2.350988e-38
0.064318731 -0.1161568 0.024805997 2.31411e-38
0.066028222 -0.11514379 0.028860543 2.3509883e-38
0.067869231 -0.11514379 0.028860543 2.341805e-38
0.06971024 -0.11514379 0.028860543 2.0653616e-38
0.071551248 -0.11514379 0.028860543 1.207942e-38
0.073392257 -0.11514379 0.028860543 6.7324278e-39
0.075233273 -0.11514379 0.028860543 9.2217042e-39
-0.080913253 -0.13990806 -0.062248256 8.0221212e-39
-0.078912489 -0.13990806 -0.062248256 2.3049632e-38
-0.077287965 -0.14091717 -0.06625893 2.2957431e-38
-0.074910991 -0.13990806 -0.062248256 2.31411e-38
-0.07263159 -0.13913165 -0.059162404 2.3509168e-38
-0.070285507 -0.138135 -0.055201199 2.3509168e-38
-0.067944728 -0.13711344 -0.051140931 2.2770163e-38
-0.065963455 -0.13711344 -0.051140931 2.3509521e-38
-0.063982166 -0.13711344 -0.051140931 2.3509883e-38
-0.06168247 -0.13613077 -0.047235277 2.3509886e-38
-0.059468277 -0.13537462 -0.04423001 2.3509886e-38
-0.057499118 -0.13537462 -0.04423001 2.3509886e-38
-0.055226244 -0.1343727 -0.040247824 2.3509886e-38
-0.052960254 -0.13334687 -0.036170747 2.3509886e-38
-0.050790809 -0.13260551 -0.033224132 2.3509886e-38
-0.048555039 -0.13159247 -0.029197838 2.3509886e-38
-0.04661224 -0.13159247 -0.029197838 2.3509886e-38
-0.044464849 -0.13082992 -0.026167061 2.3509886e-38
-0.042527355 -0.13082992 -0.026167061 2.3509886e-38
-0.040335454 -0.12982969 -0.02219167 2.3509886e-38
-0.038404934 -0.12982969 -0.02219167 2.3509886e-38
-0.036235668 -0.12883668 -0.018244889 2.3509886e-38
-0.034130581 -0.12805928 -0.015155102 2.3509886e-38
-0.032212399 -0.12805928 -0.015155102 2.3509886e-38
-0.030072503 -0.12704925 -0.011140729 2.3509886e-38
-0.02800452 -0.12631132 -0.0082078231 2.3509886e-38
-0.026098512 -0.12631132 -0.0082078231 2.3509886e-38
-0.024040923 -0.12554805 -0.0051741851 2.3509886e-38
-0.021950193 -0.12455635 -0.0012326492 2.3509886e-38
-0.019917272 -0.12380283 0.0017622458 2.3509886e-38
-0.018028744 -0.12380283 0.0017622458 2.3509886e-38
-0.01614023 -0.12380283 0.0017622458 2.3509886e-38
-0.014086671 -0.12279506 0.0057675587 2.3509886e-38
-0.012205176 -0.12279506 0.0057675587 2.3509886e-38
-0.010207962 -0.12202276 0.0088370787 2.3509886e-38
-0.0080808662 -0.12026589 0.015819762 2.3509886e-38
-0.0062169917 -0.12026589 0.015819762 2.3509886e-38
-0.0042554028 -0.11950795 0.018832181 2.3509886e-38
-0.0023968108 -0.11950795 0.018832181 2.3509886e-38
-0.00053822249 -0.11950795 0.018832181 2.3509886e-38
0.0014017746 -0.11875431 0.021827552 2.3509886e-38
0.0033308379 -0.11800493 0.024805997 2.3509886e-38
0.0051789582 -0.11800493 0.024805997 2.3509886e-38
0.0070270747 -0.11800493 0.024805997 2.3509886e-38
0.0089569464 -0.1169848 0.028860543 2.3509886e-38
0.010797955 -0.1169848 0.028860543 2.3509886e-38
0.012687922 -0.11624531 0.031799648 2.3509886e-38
0.014523774 -0.11624531 0.031799648 2.3509886e-38
0.01639948 -0.11548282 0.034830187 2.3509886e-38
0.018264364 -0.11472471 0.037843321 2.3509886e-38
0.020089623 -0.11472471 0.037843321 2.3509886e-38
0.02193852 -0.11397095 0.04083905 2.3509886e-38
0.023782657 -0.1129816 0.044771288 2.3509886e-38
0.025595769 -0.1129816 0.044771288 2.3509886e-38
0.027424661 -0.11147197 0.05077133 2.3509886e-38
0.029227253 -0.11147197 0.05077133 2.3509886e-38
0.031029847 -0.11147197 0.05077133 2.3509883e-38
0.032824479 -0.11071064 0.053797219 2.3417327e-38
0.03460858 -0.10995375 0.056805465 2.3509527e-38
0.036382239 -0.10920133 0.059796069 2.323258e-38
0.038169011 -0.10920133 0.059796069 2.3509883e-38
0.040515415 -0.12380283 0.0017622458 2.350988e-38
0.04235829 -0.12279506 0.0057675587 2.1020236e-38
0.044239789 -0.12279506 0.0057675587 2.185035e-38
0.046075545 -0.12202276 0.0088370787 2.19429e-38
0.0479027 -0.12128322 0.011776422 2.1850699e-38
0.049773663 -0.12128322 0.011776422 2.2311677e-38
0.051563099 -0.12026589 0.015819762 2.3049242e-38
0.053426974 -0.12026589 0.015819762 2.3141441e-38
0.055219546 -0.11950795 0.018832181 2.2772304e-38
0.057078138 -0.11950795 0.018832181 2.2956701e-38
0.05893673 -0.11950795 0.018832181 2.3509518e-38
0.060708664 -0.11875431 0.021827552 2.3509879e-38
0.062470615 -0.11800493 0.024805997 2.350988e-38
0.064318731 -0.11800493 0.024805997 2.3232936e-38
0.066028222 -0.1169848 0.028860543 2.3509883e-38
0.067869231 -0.1169848 0.028860543 2.3234018e-38
0.06971024 -0.1169848 0.028860543 2.3234015e-38
0.071551248 -0.1169848 0.028860543 1.4659818e-38
0.073392257 -0.1169848 0.028860543 8.6674598e-39
0.075233273 -0.1169848 0.028860543 8.1142804e-39
-0.080913253 -0.14190884 -0.062248256 2.0284132e-38
-0.078912489 -0.14190884 -0.062248256 2.2128041e-38
-0.07691174 -0.14190884 -0.062248256 2.341805e-38
-0.07462693 -0.14112701 -0.059162404 2.3509886e-38
-0.072273917 -0.14012341 -0.055201199 2.332478e-38
-0.070285507 -0.14012341 -0.055201199 2.3416974e-38
-0.067944728 -0.13909473 -0.051140931 2.3509527e-38
-0.065963455 -0.13909473 -0.051140931 2.3509164e-38
-0.063656889 -0.1381052 -0.047235277 2.3509527e-38
-0.06168247 -0.1381052 -0.047235277 2.3509886e-38
-0.059468277 -0.13734378 -0.04423001 2.3509886e-38
-0.057499118 -0.13734378 -0.04423001 2.3509886e-38
-0.054915287 -0.1353019 -0.036170747 2.3509886e-38
-0.052960254 -0.1353019 -0.036170747 2.3509886e-38
-0.050790809 -0.13455538 -0.033224132 2.3509886e-38
-0.048555039 -0.13353528 -0.029197838 2.3509886e-38
-0.04661224 -0.13353528 -0.029197838 2.3509886e-38
-0.044464849 -0.13276742 -0.026167061 2.3509886e-38
-0.042527355 -0.13276742 -0.026167061 2.3509886e-38
-0.040335454 -0.13176022 -0.02219167 2.3509886e-38
-0.038404934 -0.13176022 -0.02219167 2.3509886e-38
-0.036235668 -0.13076027 -0.018244889 2.3509886e-38
-0.034312062 -0.13076027 -0.018244889 2.3509886e-38
-0.032212399 -0.12997745 -0.015155102 2.3509886e-38
-0.030072503 -0.12896039 -0.011140729 2.3509886e-38
-0.02800452 -0.12821732 -0.0082078231 2.3509886e-38
-0.026098512 -0.12821732 -0.0082078231 2.3509886e-38
-0.024040923 -0.12744872 -0.0051741851 2.3509886e-38
-0.021950193 -0.12645011 -0.0012326492 2.3509886e-38
-0.019917272 -0.12569134 0.0017622458 2.3509886e-38
-0.018028744 -0.12569134 0.0017622458 2.3509886e-38
-0.01614023 -0.12569134 0.0017622458 2.3509886e-38
-0.014086671 -0.12467657 0.0057675587 2.3509886e-38
-0.012084074 -0.12389888 0.0088370787 2.3509886e-38
-0.010097161 -0.12315418 0.011776422 2.3509886e-38
-0.0080808662 -0.12212978 0.015819762 2.3509886e-38
-0.0062169917 -0.12212978 0.015819762 2.3509886e-38
-0.0042554028 -0.12136655 0.018832181 2.3509886e-38
-0.0023049042 -0.12060766 0.021827552 2.3509886e-38
-0.00045156479 -0.12060766 0.021827552 2.3509886e-38
0.0014017746 -0.12060766 0.021827552 2.3509886e-38
0.0033308379 -0.11985306 0.024805997 2.3509886e-38
0.0051789582 -0.11985306 0.024805997 2.3509886e-38
0.0071159378 -0.11882581 0.028860543 2.3509886e-38
0.0089569464 -0.11882581 0.028860543 2.3509886e-38
0.010852061 -0.11808117 0.031799648 2.3509886e-38
0.012687922 -0.11808117 0.031799648 2.3509886e-38
0.01456894 -0.11731337 0.034830187 2.3509886e-38
0.01639948 -0.11731337 0.034830187 2.3509886e-38
0.018264364 -0.11654995 0.037843321 2.3509886e-38
0.020118512 -0.11579098 0.04083905 2.3509886e-38
0.02193852 -0.11579098 0.04083905 2.3509886e-38
0.023782657 -0.11479472 0.044771288 2.3509886e-38
0.025595769 -0.11479472 0.044771288 2.3509886e-38
0.027424661 -0.11327456 0.05077133 2.3509886e-38
0.029227253 -0.11327456 0.05077133 2.3509886e-38
0.031027194 -0.11250792 0.053797219 2.3509167e-38
0.032824479 -0.11250792 0.053797219 2.3509527e-38
0.03460858 -0.11174576 0.056805465 2.3509167e-38
0.036400594 -0.11174576 0.056805465 2.3509883e-38
0.038192604 -0.11174576 0.056805465 2.350988e-38
0.040515415 -0.12569134 0.0017622458 2.2403171e-38
0.04235829 -0.12467657 0.0057675587 2.1665962e-38
0.044239789 -0.12467657 0.0057675587 2.2311328e-38
0.046075545 -0.12389888 0.0088370787 2.2403521e-38
0.0479027 -0.12315418 0.011776422 2.1758509e-38
0.049773663 -0.12315418 0.011776422 2.1850705e-38
0.051563099 -0.12212978 0.015819762 2.2772304e-38
0.053426974 -0.12212978 0.015819762 2.3233285e-38
0.055290848 -0.12212978 0.015819762 2.3141092e-38
0.057078138 -0.12136655 0.018832181 2.3232932e-38
0.05893673 -0.12136655 0.018832181 2.350988e-38
0.060708664 -0.12060766 0.021827552 2.3509521e-38
0.062470615 -0.11985306 0.024805997 2.3417327e-38
0.064318731 -0.11985306 0.024805997 2.3509883e-38
0.066028222 -0.11882581 0.028860543 2.3509883e-38
0.067869231 -0.11882581 0.028860543 2.3233296e-38
0.06971024 -0.11882581 0.028860543 2.3325492e-38
0.071551248 -0.11882581 0.028860543 2.0928405e-38
0.073392257 -0.11882581 0.028860543 7.0994166e-39
0.075233273 -0.11882581 0.028860543 7.2838079e-39
-0.080612965 -0.14312236 -0.059162404 2.1943647e-38
-0.078617625 -0.14312236 -0.059162404 2.3050349e-38
-0.076622285 -0.14312236 -0.059162404 2.341805e-38
-0.07462693 -0.14312236 -0.059162404 2.341805e-38
-0.072273917 -0.14211179 -0.055201199 2.3509168e-38
-0.069926001 -0.14107598 -0.051140931 2.3509527e-38
-0.067944728 -0.14107598 -0.051140931 2.3509527e-38
-0.065963455 -0.14107598 -0.051140931 2.323258e-38
-0.063656889 -0.14007963 -0.047235277 2.3509527e-38
-0.06168247 -0.14007963 -0.047235277 2.3509886e-38
-0.059468277 -0.13931294 -0.04423001 2.3509886e-38
-0.057499118 -0.13931294 -0.04423001 2.3509886e-38
-0.054915287 -0.13725694 -0.036170747 2.3509886e-38
-0.052960254 -0.13725694 -0.036170747 2.3509886e-38
-0.050790809 -0.13650523 -0.033224132 2.3509886e-38
-0.048555039 -0.13547809 -0.029197838 2.3509886e-38
-0.04661224 -0.13547809 -0.029197838 2.3509886e-38
-0.044464849 -0.1347049 -0.026167061 2.3509886e-38
-0.042527355 -0.1347049 -0.026167061 2.3509886e-38
-0.040335454 -0.13369073 -0.02219167 2.3509886e-38
-0.038404934 -0.13369073 -0.02219167 2.3509886e-38
-0.036235668 -0.13268389 -0.018244889 2.3509886e-38
-0.034312062 -0.13268389 -0.018244889 2.3509886e-38
-0.032212399 -0.13189565 -0.015155102 2.3509886e-38
-0.030072503 -0.13087155 -0.011140729 2.3509886e-38
-0.02800452 -0.13012333 -0.0082078231 2.3509886e-38
-0.025941603 -0.12934943 -0.0051741851 2.3509886e-38
-0.023843966 -0.1283439 -0.0012326492 2.3509886e-38
-0.021805786 -0.12757985 0.0017622458 2.3509886e-38
-0.019917272 -0.12757985 0.0017622458 2.3509886e-38
-0.017849669 -0.12655805 0.0057675587 2.3509886e-38
-0.015968166 -0.12655805 0.0057675587 2.3509886e-38
-0.013960198 -0.12577499 0.0088370787 2.3509886e-38
-0.011968121 -0.12502514 0.011776422 2.3509886e-38
-0.010097161 -0.12502514 0.011776422 2.3509886e-38
-0.0080808662 -0.12399365 0.015819762 2.3509886e-38
-0.0061139949 -0.12322514 0.018832181 2.3509886e-38
-0.0042554028 -0.12322514 0.018832181 2.3509886e-38
-0.0023049042 -0.12246101 0.021827552 2.3509886e-38
-0.00045156479 -0.12246101 0.021827552 2.3509886e-38
0.0014827177 -0.12170117 0.024805997 2.3509886e-38
0.0033308379 -0.12170117 0.024805997 2.3509886e-38
0.0051789582 -0.12170117 0.024805997 2.3509886e-38
0.0071159378 -0.12066682 0.028860543 2.3509886e-38
0.0089569464 -0.12066682 0.028860543 2.3509886e-38
0.010852061 -0.11991702 0.031799648 2.3509886e-38
0.012687922 -0.11991702 0.031799648 2.3509886e-38
0.01456894 -0.11914389 0.034830187 2.3509886e-38
0.016439106 -0.11837523 0.037843321 2.3509886e-38
0.018264364 -0.11837523 0.037843321 2.3509886e-38
0.020118512 -0.11761098 0.04083905 2.3509886e-38
0.02193852 -0.11761098 0.04083905 2.3509886e-38
0.023801444 -0.11582683 0.047832701 2.3509886e-38
0.025609188 -0.11582683 0.047832701 2.3509886e-38
0.027424661 -0.11507715 0.05077133 2.3509886e-38
0.029227253 -0.11507715 0.05077133 2.3509886e-38
0.031027194 -0.11430521 0.053797219 2.3509527e-38
0.032824479 -0.11430521 0.053797219 2.3509527e-38
0.03460858 -0.11353777 0.056805465 2.3509167e-38
0.036400594 -0.11353777 0.056805465 2.3509883e-38
0.038192604 -0.11353777 0.056805465 2.350988e-38
0.040639844 -0.13087155 -0.011140729 2.2311331e-38
0.04240394 -0.12757985 0.0017622458 2.1481568e-38
0.044292461 -0.12757985 0.0017622458 2.2034739e-38
0.046121292 -0.12655805 0.0057675587 2.2126934e-38
0.047951661 -0.12577499 0.0088370787 2.1665956e-38
0.049773663 -0.12502514 0.011776422 2.2034742e-38
0.051563099 -0.12399365 0.015819762 2.3048893e-38
0.053426974 -0.12399365 0.015819762 2.3509874e-38
0.055290848 -0.12399365 0.015819762 2.3325483e-38
0.057154723 -0.12399365 0.015819762 2.3325129e-38
0.05893673 -0.12322514 0.018832181 2.350988e-38
0.060795322 -0.12322514 0.018832181 2.3509524e-38
0.062470615 -0.12170117 0.024805997 2.3509524e-38
0.064318731 -0.12170117 0.024805997 2.3417327e-38
0.066166848 -0.12170117 0.024805997 2.3509883e-38
0.068014964 -0.12170117 0.024805997 2.3232936e-38
0.069863088 -0.12170117 0.024805997 2.3509883e-38
0.071551248 -0.12066682 0.028860543 2.2495371e-38
0.073392257 -0.12066682 0.028860543 8.481635e-39
0.075233273 -0.12066682 0.028860543 6.9146694e-39
0.077074282 -0.12066682 0.028860543 9.1273646e-39
-0.080612965 -0.14511769 -0.059162404 2.3234379e-38
-0.078617625 -0.14511769 -0.059162404 2.3234379e-38
-0.076622285 -0.14511769 -0.059162404 2.341805e-38
-0.074262314 -0.1441002 -0.055201199 2.3141466e-38
-0.071907289 -0.14305727 -0.051140931 2.3509168e-38
-0.069926001 -0.14305727 -0.051140931 2.3509527e-38
-0.067944728 -0.14305727 -0.051140931 2.3509527e-38
-0.065963455 -0.14305727 -0.051140931 2.3232936e-38
-0.063656889 -0.14205404 -0.047235277 2.3509527e-38
-0.06168247 -0.14205404 -0.047235277 2.3509886e-38
-0.059468277 -0.1412821 -0.04423001 2.3509886e-38
-0.057188414 -0.14025922 -0.040247824 2.3509886e-38
-0.054915287 -0.13921197 -0.036170747 2.3509886e-38
-0.052960254 -0.13921197 -0.036170747 2.3509886e-38
-0.050790809 -0.13845511 -0.033224132 2.3509886e-38
-0.048555039 -0.13742088 -0.029197838 2.3509886e-38
-0.046402343 -0.13664238 -0.026167061 2.3509886e-38
-0.044464849 -0.13664238 -0.026167061 2.3509886e-38
-0.042527355 -0.13664238 -0.026167061 2.3509886e-38
-0.040335454 -0.13562126 -0.02219167 2.3509886e-38
-0.038404934 -0.13562126 -0.02219167 2.3509886e-38
-0.036235668 -0.13460748 -0.018244889 2.3509886e-38
-0.034312062 -0.13460748 -0.018244889 2.3509886e-38
-0.032212399 -0.13381381 -0.015155102 2.3509886e-38
-0.030072503 -0.13278268 -0.011140729 2.3509886e-38
-0.027842291 -0.1312501 -0.0051741851 2.3509886e-38
-0.02573774 -0.13023765 -0.0012326492 2.3509886e-38
-0.023843966 -0.13023765 -0.0012326492 2.3509886e-38
-0.021805786 -0.1294684 0.0017622458 2.3509886e-38
-0.019731171 -0.12843956 0.0057675587 2.3509886e-38
-0.017849669 -0.12843956 0.0057675587 2.3509886e-38
-0.015836313 -0.12765111 0.0088370787 2.3509886e-38
-0.013839088 -0.1268961 0.011776422 2.3509886e-38
-0.011808611 -0.12585752 0.015819762 2.3509886e-38
-0.009944737 -0.12585752 0.015819762 2.3509886e-38
-0.0080808662 -0.12585752 0.015819762 2.3509886e-38
-0.0061139949 -0.12508373 0.018832181 2.3509886e-38
-0.0041582435 -0.12431435 0.021827552 2.3509886e-38
-0.0023049042 -0.12431435 0.021827552 2.3509886e-38
-0.00045156479 -0.12431435 0.021827552 2.3509886e-38
0.0014827177 -0.1235493 0.024805997 2.3509886e-38
0.0033308379 -0.1235493 0.024805997 2.3509886e-38
0.0052749291 -0.12250783 0.028860543 2.3509886e-38
0.0071159378 -0.12250783 0.028860543 2.3509886e-38
0.0089569464 -0.12250783 0.028860543 2.3509886e-38
0.010852061 -0.12175287 0.031799648 2.3509886e-38
0.012738399 -0.12097444 0.034830187 2.3509886e-38
0.01456894 -0.12097444 0.034830187 2.3509886e-38
0.016439106 -0.12020047 0.037843321 2.3509886e-38
0.018298507 -0.11943097 0.04083905 2.3509886e-38
0.020118512 -0.11943097 0.04083905 2.3509886e-38
0.021969546 -0.11842094 0.044771288 2.3509886e-38
0.023801444 -0.11763458 0.047832701 2.3509886e-38
0.025609188 -0.11763458 0.047832701 2.3509886e-38
0.027424661 -0.11687975 0.05077133 2.3509886e-38
0.029229905 -0.1161025 0.053797219 2.3509886e-38
0.031027194 -0.1161025 0.053797219 2.3509527e-38
0.032824479 -0.1161025 0.053797219 2.3509527e-38
0.03460858 -0.11532979 0.056805465 2.3416971e-38
0.036400594 -0.11532979 0.056805465 2.350988e-38
0.038192604 -0.11532979 0.056805465 2.3509879e-38
0.040639844 -0.13278268 -0.011140729 2.2311331e-38
0.042482991 -0.1312501 -0.0051741851 2.1389372e-38
0.044331841 -0.13023765 -0.0012326492 2.1758152e-38
0.046225615 -0.13023765 -0.0012326492 2.1942543e-38
0.048002787 -0.12843956 0.0057675587 2.1758509e-38
0.049827777 -0.12765111 0.0088370787 2.2311326e-38
0.051644627 -0.1268961 0.011776422 2.332548e-38
0.053426974 -0.12585752 0.015819762 2.3509876e-38
0.055290848 -0.12585752 0.015819762 2.3509874e-38
0.057154723 -0.12585752 0.015819762 2.3417324e-38
0.05893673 -0.12508373 0.018832181 2.350988e-38
0.060795322 -0.12508373 0.018832181 2.3509883e-38
0.062562004 -0.12431435 0.021827552 2.3509883e-38
0.064318731 -0.1235493 0.024805997 2.3048545e-38
0.066166848 -0.1235493 0.024805997 2.3509883e-38
0.068014964 -0.1235493 0.024805997 2.3417327e-38
0.069863088 -0.1235493 0.024805997 2.3509883e-38
0.071551248 -0.12250783 0.028860543 2.3509883e-38
0.073392257 -0.12250783 0.028860543 9.3117558e-39
0.075233273 -0.12250783 0.028860543 7.0068651e-39
0.077074282 -0.12250783 0.028860543 9.2195602e-39
-0.082608305 -0.14711304 -0.059162404 2.3234379e-38
-0.080612965 -0.14711304 -0.059162404 2.3234379e-38
-0.078617625 -0.14711304 -0.059162404 2.3234379e-38
-0.076622285 -0.14711304 -0.059162404 2.3233662e-38
-0.074262314 -0.14608859 -0.055201199 2.2865235e-38
-0.071907289 -0.14503856 -0.051140931 2.3324775e-38
-0.069926001 -0.14503856 -0.051140931 2.3509883e-38
-0.067605756 -0.14402847 -0.047235277 2.3509524e-38
-0.065631323 -0.14402847 -0.047235277 2.3417327e-38
-0.063656889 -0.14402847 -0.047235277 2.3509886e-38
-0.06168247 -0.14402847 -0.047235277 2.3509886e-38
-0.059468277 -0.14325126 -0.04423001 2.3509886e-38
-0.057188414 -0.14222141 -0.040247824 2.3509886e-38
-0.054915287 -0.141167 -0.036170747 2.3509886e-38
-0.052960254 -0.141167 -0.036170747 2.3509886e-38
-0.050790809 -0.14040495 -0.033224132 2.3509886e-38
-0.048555039 -0.13936369 -0.029197838 2.3509886e-38
-0.046402343 -0.13857989 -0.026167061 2.3509886e-38
-0.044464849 -0.13857989 -0.026167061 2.3509886e-38
-0.042527355 -0.13857989 -0.026167061 2.3509886e-38
-0.040335454 -0.1375518 -0.02219167 2.3509886e-38
-0.038404934 -0.1375518 -0.02219167 2.3509886e-38
-0.036235668 -0.13653107 -0.018244889 2.3509886e-38
-0.034312062 -0.13653107 -0.018244889 2.3509886e-38
-0.032212399 -0.13573201 -0.015155102 2.3509886e-38
-0.030072503 -0.13469382 -0.011140729 2.3509886e-38
-0.027842291 -0.13315077 -0.0051741851 2.3509886e-38
-0.02573774 -0.13213144 -0.0012326492 2.3509886e-38
-0.023694314 -0.13135691 0.0017622458 2.3509886e-38
-0.021805786 -0.13135691 0.0017622458 2.3509886e-38
-0.019731171 -0.13032107 0.0057675587 2.3509886e-38
-0.017712429 -0.12952723 0.0088370787 2.3509886e-38
-0.015836313 -0.12952723 0.0088370787 2.3509886e-38
-0.013839088 -0.12876706 0.011776422 2.3509886e-38
-0.011808611 -0.12772138 0.015819762 2.3509886e-38
-0.009944737 -0.12772138 0.015819762 2.3509886e-38
-0.0080808662 -0.12772138 0.015819762 2.3509886e-38
-0.0061139949 -0.12694232 0.018832181 2.3509886e-38
-0.0041582435 -0.12616767 0.021827552 2.3509886e-38
-0.0023049042 -0.12616767 0.021827552 2.3509886e-38
-0.00045156479 -0.12616767 0.021827552 2.3509886e-38
0.0014827177 -0.1253974 0.024805997 2.3509886e-38
0.0034339204 -0.12434883 0.028860543 2.3509886e-38
0.0052749291 -0.12434883 0.028860543 2.3509886e-38
0.0071159378 -0.12434883 0.028860543 2.3509886e-38
0.0089569464 -0.12434883 0.028860543 2.3509886e-38
0.010907859 -0.12280498 0.034830187 2.3509886e-38
0.012738399 -0.12280498 0.034830187 2.3509886e-38
0.014613844 -0.12202574 0.037843321 2.3509886e-38
0.016478501 -0.121251 0.04083905 2.3509886e-38
0.018298507 -0.121251 0.04083905 2.3509886e-38
0.020156432 -0.12023406 0.044771288 2.3509886e-38
0.021969546 -0.12023406 0.044771288 2.3509886e-38
0.023801444 -0.11944233 0.047832701 2.3509886e-38
0.02562207 -0.11868234 0.05077133 2.3509886e-38
0.027424661 -0.11868234 0.05077133 2.3509886e-38
0.029229905 -0.11789979 0.053797219 2.3509886e-38
0.031027194 -0.11789979 0.053797219 2.3509527e-38
0.032824479 -0.11789979 0.053797219 2.3509527e-38
0.03460858 -0.1171218 0.056805465 2.3416971e-38
0.036400594 -0.1171218 0.056805465 2.350988e-38
0.038192604 -0.1171218 0.056805465 2.3509879e-38
0.040639844 -0.13469382 -0.011140729 2.2403524e-38
0.042517565 -0.13393532 -0.0082078231 2.1481565e-38
0.044383675 -0.13315077 -0.0051741851 2.19429e-38
0.046225615 -0.13213144 -0.0012326492 2.2127292e-38
0.048069503 -0.13135691 0.0017622458 2.2127292e-38
0.049884286 -0.13032107 0.0057675587 2.2587913e-38
0.051703893 -0.12952723 0.0088370787 2.3417676e-38
0.053515591 -0.12876706 0.011776422 2.3509876e-38
0.055290848 -0.12772138 0.015819762 2.3509518e-38
0.057154723 -0.12772138 0.015819762 2.3417324e-38
0.05893673 -0.12694232 0.018832181 2.350988e-38
0.060795322 -0.12694232 0.018832181 2.3509523e-38
0.062562004 -0.12616767 0.021827552 2.3509883e-38
0.064318731 -0.1253974 0.024805997 2.3048545e-38
0.066166848 -0.1253974 0.024805997 2.3509883e-38
0.068014964 -0.1253974 0.024805997 2.3509883e-38
0.069863088 -0.1253974 0.024805997 2.3417327e-38
0.071711205 -0.1253974 0.024805997 2.3509883e-38
0.073392257 -0.12434883 0.028860543 1.0141516e-38
0.075233273 -0.12434883 0.028860543 7.6522345e-39
0.077074282 -0.12434883 0.028860543 9.772734e-39
-0.084603645 -0.14910837 -0.059162404 1.1432974e-38
-0.082608305 -0.14910837 -0.059162404 2.212767e-38
-0.080612965 -0.14910837 -0.059162404 2.3141822e-38
-0.078617625 -0.14910837 -0.059162404 2.3326213e-38
-0.07625071 -0.148077 -0.055201199 2.3326213e-38
-0.074262314 -0.148077 -0.055201199 2.3141822e-38
-0.071907289 -0.14701982 -0.051140931 2.3416971e-38
-0.069926001 -0.14701982 -0.051140931 2.3509883e-38
-0.067605756 -0.1460029 -0.047235277 2.3509883e-38
-0.065631323 -0.1460029 -0.047235277 2.3509883e-38
-0.063656889 -0.1460029 -0.047235277 2.3509886e-38
-0.06168247 -0.1460029 -0.047235277 2.3509886e-38
-0.059468277 -0.14522041 -0.04423001 2.3509886e-38
-0.057188414 -0.14418359 -0.040247824 2.3509886e-38
-0.054915287 -0.14312203 -0.036170747 2.3509886e-38
-0.052960254 -0.14312203 -0.036170747 2.3509886e-38
-0.050497852 -0.1413065 -0.029197838 2.3509886e-38
-0.048555039 -0.1413065 -0.029197838 2.3509886e-38
-0.046402343 -0.14051737 -0.026167061 2.3509886e-38
-0.044464849 -0.14051737 -0.026167061 2.3509886e-38
-0.042265974 -0.1394823 -0.02219167 2.3509886e-38
-0.040335454 -0.1394823 -0.02219167 2.3509886e-38
-0.038404934 -0.1394823 -0.02219167 2.3509886e-38
-0.036235668 -0.13845469 -0.018244889 2.3509886e-38
-0.034312062 -0.13845469 -0.018244889 2.3509886e-38
-0.031983651 -0.13660498 -0.011140729 2.3509886e-38
-0.02991052 -0.13584132 -0.0082078231 2.3509886e-38
-0.027842291 -0.13505147 -0.0051741851 2.3509886e-38
-0.025582828 -0.13324542 0.0017622458 2.3509886e-38
-0.023694314 -0.13324542 0.0017622458 2.3509886e-38
-0.021805786 -0.13324542 0.0017622458 2.3509886e-38
-0.019731171 -0.13220255 0.0057675587 2.3509886e-38
-0.017712429 -0.13140334 0.0088370787 2.3509886e-38
-0.015836313 -0.13140334 0.0088370787 2.3509886e-38
-0.013672486 -0.12958528 0.015819762 2.3509886e-38
-0.011808611 -0.12958528 0.015819762 2.3509886e-38
-0.009944737 -0.12958528 0.015819762 2.3509886e-38
-0.0079725869 -0.12880091 0.018832181 2.3509886e-38
-0.0061139949 -0.12880091 0.018832181 2.3509886e-38
-0.0041582435 -0.12802102 0.021827552 2.3509886e-38
-0.0023049042 -0.12802102 0.021827552 2.3509886e-38
-0.00045156479 -0.12802102 0.021827552 2.3509886e-38
0.0014827177 -0.12724553 0.024805997 2.3509886e-38
0.0034339204 -0.12618984 0.028860543 2.3509886e-38
0.0052749291 -0.12618984 0.028860543 2.3509886e-38
0.0071159378 -0.12618984 0.028860543 2.3509886e-38
0.0089569464 -0.12618984 0.028860543 2.3509886e-38
0.010907859 -0.12463553 0.034830187 2.3509886e-38
0.012788586 -0.12385099 0.037843321 2.3509886e-38
0.014613844 -0.12385099 0.037843321 2.3509886e-38
0.016478501 -0.123071 0.04083905 2.3509886e-38
0.018343322 -0.12204717 0.044771288 2.3509886e-38
0.020156432 -0.12204717 0.044771288 2.3509886e-38
0.0219937 -0.12125005 0.047832701 2.3509886e-38
0.023819476 -0.12048493 0.05077133 2.3509886e-38
0.02562207 -0.12048493 0.05077133 2.3509886e-38
0.027432621 -0.11969708 0.053797219 2.3509886e-38
0.029229905 -0.11969708 0.053797219 2.3509886e-38
0.031027194 -0.11969708 0.053797219 2.3509168e-38
0.032816567 -0.11891381 0.056805465 2.3509527e-38
0.03460858 -0.11891381 0.056805465 2.3509167e-38
0.036400594 -0.11891381 0.056805465 2.350988e-38
0.038760375 -0.13765021 -0.015155102 2.3509874e-38
0.040639844 -0.13660498 -0.011140729 2.2311328e-38
0.042517565 -0.13584132 -0.0082078231 2.1665956e-38
0.044423565 -0.13584132 -0.0082078231 2.2311683e-38
0.046225615 -0.1340252 -0.0012326492 2.2496074e-38
0.048069503 -0.13324542 0.0017622458 2.2496074e-38
0.049884286 -0.13220255 0.0057675587 2.2864499e-38
0.051703893 -0.13140334 0.0088370787 2.332548e-38
0.053580008 -0.13140334 0.0088370787 2.3509874e-38
0.055386551 -0.13063805 0.011776422 2.3417323e-38
0.057154723 -0.12958528 0.015819762 2.3417324e-38
0.05893673 -0.12880091 0.018832181 2.3509883e-38
0.060795322 -0.12880091 0.018832181 2.3509523e-38
0.062562004 -0.12802102 0.021827552 2.3509883e-38
0.064318731 -0.12724553 0.024805997 2.3048545e-38
0.066166848 -0.12724553 0.024805997 2.3509883e-38
0.068014964 -0.12724553 0.024805997 2.3509883e-38
0.069863088 -0.12724553 0.024805997 2.3232936e-38
0.071551248 -0.12618984 0.028860543 2.3509883e-38
0.073392257 -0.12618984 0.028860543 1.281519e-38
0.075233273 -0.12618984 0.028860543 8.2054083e-39
0.077074282 -0.12618984 0.028860543 9.5883427e-39
-0.071907289 -0.14900111 -0.051140931 2.3417687e-38
-0.069926001 -0.14900111 -0.051140931 2.3417327e-38
-0.067605756 -0.14797734 -0.047235277 2.350952e-38
-0.065631323 -0.14797734 -0.047235277 2.350988e-38
-0.063656889 -0.14797734 -0.047235277 2.3509886e-38
-0.06143745 -0.1471896 -0.04423001 2.3509886e-38
-0.059468277 -0.1471896 -0.04423001 2.3509886e-38
-0.057188414 -0.14614578 -0.040247824 2.3509886e-38
-0.054690547 -0.14430468 -0.033224132 2.3509886e-38
-0.052740671 -0.14430468 -0.033224132 2.3509886e-38
-0.050497852 -0.14324932 -0.029197838 2.3509886e-38
-0.048555039 -0.14324932 -0.029197838 2.3509886e-38
-0.046402343 -0.14245488 -0.026167061 2.3509886e-38
-0.044464849 -0.14245488 -0.026167061 2.3509886e-38
-0.042265974 -0.14141284 -0.02219167 2.3509886e-38
-0.040335454 -0.14141284 -0.02219167 2.3509886e-38
-0.038404934 -0.14141284 -0.02219167 2.3509886e-38
-0.036235668 -0.14037828 -0.018244889 2.3509886e-38
-0.034130581 -0.13956837 -0.015155102 2.3509886e-38
-0.031983651 -0.13851611 -0.011140729 2.3509886e-38
-0.02991052 -0.13774733 -0.0082078231 2.3509886e-38
-0.027842291 -0.13695215 -0.0051741851 2.3509886e-38
-0.025582828 -0.13513394 0.0017622458 2.3509886e-38
-0.023694314 -0.13513394 0.0017622458 2.3509886e-38
-0.021805786 -0.13513394 0.0017622458 2.3509886e-38
-0.019731171 -0.13408406 0.0057675587 2.3509886e-38
-0.017712429 -0.13327946 0.0088370787 2.3509886e-38
-0.015836313 -0.13327946 0.0088370787 2.3509886e-38
-0.013672486 -0.13144915 0.015819762 2.3509886e-38
-0.011808611 -0.13144915 0.015819762 2.3509886e-38
-0.009944737 -0.13144915 0.015819762 2.3509886e-38
-0.0079725869 -0.13065951 0.018832181 2.3509886e-38
-0.0061139949 -0.13065951 0.018832181 2.3509886e-38
-0.0041582435 -0.12987436 0.021827552 2.3509886e-38
-0.0022135153 -0.12909363 0.024805997 2.3509886e-38
-0.00036539882 -0.12909363 0.024805997 2.3509886e-38
0.0014827177 -0.12909363 0.024805997 2.3509886e-38
0.0033308379 -0.12909363 0.024805997 2.3509886e-38
0.0052749291 -0.12803085 0.028860543 2.3509886e-38
0.0071159378 -0.12803085 0.028860543 2.3509886e-38
0.0089569464 -0.12803085 0.028860543 2.3509886e-38
0.010907859 -0.12646608 0.034830187 2.3509886e-38
0.012788586 -0.12567626 0.037843321 2.3509886e-38
0.014613844 -0.12567626 0.037843321 2.3509886e-38
0.016478501 -0.124891 0.04083905 2.3509886e-38
0.018343322 -0.12386028 0.044771288 2.3509886e-38
0.020156432 -0.12386028 0.044771288 2.3509886e-38
0.0219937 -0.1230578 0.047832701 2.3509886e-38
0.023819476 -0.12228753 0.05077133 2.3509886e-38
0.02562207 -0.12228753 0.05077133 2.3509886e-38
0.027432621 -0.12149437 0.053797219 2.3509886e-38
0.029229905 -0.12149437 0.053797219 2.3509886e-38
0.031027194 -0.12149437 0.053797219 2.3416974e-38
0.032816567 -0.12070583 0.056805465 2.3509527e-38
0.034595471 -0.11992194 0.059796069 2.3509883e-38
0.036382239 -0.11992194 0.059796069 2.350952e-38
0.038169011 -0.11992194 0.059796069 2.3141092e-38
0.040678557 -0.13956837 -0.015155102 2.1942543e-38
0.042517565 -0.13774733 -0.0082078231 2.1574118e-38
0.044423565 -0.13774733 -0.0082078231 2.2588267e-38
0.046225615 -0.13591899 -0.0012326492 2.2496071e-38
0.048069503 -0.13513394 0.0017622458 2.2680463e-38
0.049958024 -0.13513394 0.0017622458 2.2957052e-38
0.051765785 -0.13408406 0.0057675587 2.3233285e-38
0.053647283 -0.13408406 0.0057675587 2.3325483e-38
0.055456128 -0.13327946 0.0088370787 2.3325129e-38
0.057257518 -0.13250901 0.011776422 2.3509523e-38
0.059018597 -0.13144915 0.015819762 2.3509883e-38
0.060795322 -0.13065951 0.018832181 2.3509883e-38
0.062562004 -0.12987436 0.021827552 2.3509883e-38
0.064415343 -0.12987436 0.021827552 2.3232936e-38
0.066166848 -0.12909363 0.024805997 2.3417327e-38
0.068014964 -0.12909363 0.024805997 2.3509883e-38
