# .PCD v0.7 - Point Cloud Data file format
VERSION 0.7
FIELDS x y z rgb
SIZE 4 4 4 4
TYPE F F F F
COUNT 1 1 1 1
WIDTH 931
HEIGHT 1
VIEWPOINT 0 0 0 1 0 0 0
POINTS 931
DATA ascii
0.0092910752 -0.086241767 -0.032428775 2.3509886e-38
0.010938436 -0.088624671 -0.04440299 2.3509886e-38
0.012757391 -0.090212435 -0.052381549 2.3509886e-38
0.014446966 -0.092820734 -0.065488368 2.341769e-38
0.016448822 -0.093597114 -0.069389731 2.341769e-38
0.018570382 -0.093597114 -0.069389731 2.3509527e-38
0.020691942 -0.093597114 -0.069389731 2.3509527e-38
0.022813503 -0.093597114 -0.069389731 1.9267448e-38
0.024736606 -0.095399097 -0.078444749 1.4749856e-38
0.026874043 -0.095399097 -0.078444749 1.4196318e-38
0.029011481 -0.095399097 -0.078444749 1.3273636e-38
-0.02528622 -0.075251147 0.032562222 1.0876901e-38
-0.023138829 -0.074642688 0.035592999 2.3508416e-38
-0.021201335 -0.074642688 0.035592999 2.3508414e-38
-0.019263841 -0.074642688 0.035592999 2.3507334e-38
-0.017326348 -0.074642688 0.035592999 2.240099e-38
-0.015388869 -0.074642688 0.035592999 2.3509142e-38
-0.013629384 -0.075251147 0.032562222 2.3509869e-38
-0.012316249 -0.077469498 0.021512236 2.341804e-38
-0.010354064 -0.077469498 0.021512236 2.3509883e-38
-0.0091915503 -0.080471486 0.0065588616 2.3509886e-38
-0.0075676516 -0.081886232 -0.00048819557 2.3325494e-38
-0.0057673082 -0.082691401 -0.0044988729 2.3509886e-38
-0.0037595257 -0.082691401 -0.0044988729 2.341769e-38
-0.0019333288 -0.083476007 -0.0084071495 2.3141103e-38
8.1308186e-05 -0.083476007 -0.0084071495 2.341769e-38
0.0017510131 -0.08508803 -0.016436849 2.3509886e-38
0.0037797317 -0.08508803 -0.016436849 2.3509886e-38
0.0058084503 -0.08508803 -0.016436849 2.3509886e-38
0.0075352862 -0.086695731 -0.02444509 2.3509886e-38
0.0094326138 -0.087507993 -0.028491054 2.3509886e-38
0.010665651 -0.09230417 -0.052381549 2.3509886e-38
0.012332249 -0.094935447 -0.065488368 2.3509886e-38
0.014327262 -0.095718667 -0.069389731 2.3509886e-38
0.016448822 -0.095718667 -0.069389731 2.3509886e-38
0.018570382 -0.095718667 -0.069389731 2.314075e-38
0.020691942 -0.095718667 -0.069389731 2.2772323e-38
0.022813503 -0.095718667 -0.069389731 1.9544755e-38
0.024845805 -0.096536294 -0.073462397 1.3551313e-38
0.026974507 -0.096536294 -0.073462397 1.4657296e-38
-0.025076322 -0.076580182 0.035592999 6.635542e-39
-0.023138829 -0.076580182 0.035592999 2.35095e-38
-0.020939954 -0.075775132 0.039568391 2.3509139e-38
-0.019009434 -0.075775132 0.039568391 2.3509497e-38
-0.017078914 -0.075775132 0.039568391 2.3507339e-38
-0.015388869 -0.076580182 0.035592999 2.3509866e-38
-0.013629384 -0.077193946 0.032562222 2.350987e-38
-0.012083925 -0.078606024 0.025589313 2.3326206e-38
-0.010354064 -0.079431683 0.021512236 2.3509883e-38
-0.0087655559 -0.080846712 0.014524784 2.3048907e-38
-0.0074080378 -0.083262071 0.0025976561 2.2956712e-38
-0.005566895 -0.083886981 -0.00048819557 2.3509886e-38
-0.0035661384 -0.083886981 -0.00048819557 2.3509886e-38
-0.0019333288 -0.085490659 -0.0084071495 2.3325494e-38
8.1308186e-05 -0.085490659 -0.0084071495 2.341769e-38
0.0017510131 -0.087116748 -0.016436849 2.3509886e-38
0.0037797317 -0.087116748 -0.016436849 2.341769e-38
0.0058084503 -0.087116748 -0.016436849 2.341769e-38
0.0075352862 -0.088738501 -0.02444509 2.341769e-38
0.0095780417 -0.088738501 -0.02444509 2.3509886e-38
0.010525446 -0.095226333 -0.056482229 2.3509886e-38
0.012332249 -0.097050175 -0.065488368 2.3509886e-38
0.014327262 -0.097840235 -0.069389731 2.3509886e-38
0.016448822 -0.097840235 -0.069389731 2.3509886e-38
0.018570382 -0.097840235 -0.069389731 2.2034758e-38
0.020691942 -0.097840235 -0.069389731 2.221915e-38
0.022813503 -0.097840235 -0.069389731 2.0744017e-38
0.024845805 -0.098664984 -0.073462397 1.2722631e-38
0.026974507 -0.098664984 -0.073462397 1.4473624e-38
-0.024800994 -0.077705652 0.039568391 3.4998158e-39
-0.022870474 -0.077705652 0.039568391 2.1477238e-38
-0.020939954 -0.077705652 0.039568391 2.3508781e-38
-0.019009434 -0.077705652 0.039568391 2.35095e-38
-0.017078914 -0.077705652 0.039568391 2.3415507e-38
-0.015388869 -0.078517675 0.035592999 2.3509507e-38
-0.013629384 -0.079136744 0.032562222 2.3509873e-38
-0.012083925 -0.080561057 0.025589313 2.3142174e-38
-0.010128893 -0.080561057 0.025589313 2.3417687e-38
-0.0083918944 -0.081393853 0.021512236 2.3509886e-38
-0.0069931373 -0.083618924 0.01061913 2.3509886e-38
-0.005566895 -0.085887745 -0.00048819557 2.3509886e-38
-0.0035661384 -0.085887745 -0.00048819557 2.3509886e-38
-0.0017517358 -0.086706966 -0.0044988729 2.3509886e-38
8.1308186e-05 -0.087505296 -0.0084071495 2.341769e-38
0.0017510131 -0.089145467 -0.016436849 2.3325494e-38
0.0037797317 -0.089145467 -0.016436849 2.3509886e-38
0.0058084503 -0.089145467 -0.016436849 2.3509886e-38
0.0075352862 -0.090781257 -0.02444509 2.3509886e-38
0.0095780417 -0.090781257 -0.02444509 2.341769e-38
0.011075832 -0.094037086 -0.040384445 2.341769e-38
0.012462623 -0.098343879 -0.061468992 2.341769e-38
0.014446966 -0.099164888 -0.065488368 2.3509886e-38
0.016448822 -0.099961802 -0.069389731 2.3509886e-38
0.018570382 -0.099961802 -0.069389731 2.1481945e-38
0.020691942 -0.099961802 -0.069389731 2.3325856e-38
0.022813503 -0.099961802 -0.069389731 2.341805e-38
0.024845805 -0.10079369 -0.073462397 1.3368719e-38
0.026974507 -0.10079369 -0.073462397 1.2630434e-38
-0.024800994 -0.079636171 0.039568391 3.6842098e-39
-0.022870474 -0.079636171 0.039568391 1.6959655e-38
-0.020939954 -0.079636171 0.039568391 2.3506622e-38
-0.019009434 -0.079636171 0.039568391 2.3509146e-38
-0.017078914 -0.079636171 0.039568391 2.3509869e-38
-0.015388869 -0.080455169 0.035592999 2.3509873e-38
-0.013451375 -0.080455169 0.035592999 2.3418043e-38
-0.012083925 -0.082516089 0.025589313 2.3234374e-38
-0.010128893 -0.082516089 0.025589313 2.3233296e-38
-0.0083918944 -0.083356038 0.021512236 2.3509886e-38
-0.0067911223 -0.084795564 0.014524784 2.3509886e-38
-0.0054126903 -0.087252751 0.0025976561 2.341769e-38
-0.0035661384 -0.087888494 -0.00048819557 2.3141103e-38
-0.0017517358 -0.088714764 -0.0044988729 2.3509886e-38
8.1308186e-05 -0.089519933 -0.0084071495 2.3509886e-38
0.0019212589 -0.090357736 -0.012473855 2.341769e-38
0.0039430186 -0.090357736 -0.012473855 2.3509886e-38
0.0059647933 -0.090357736 -0.012473855 2.3509886e-38
0.007382758 -0.093657553 -0.028491054 2.3509886e-38
0.0094326138 -0.093657553 -0.028491054 2.3325494e-38
0.011075832 -0.096107781 -0.040384445 2.3141103e-38
0.012624376 -0.099424198 -0.056482229 2.3141103e-38
0.014570296 -0.10045154 -0.061468992 2.3141103e-38
0.016561687 -0.10127962 -0.065488368 2.3049626e-38
0.018676408 -0.10127962 -0.065488368 2.2497176e-38
0.020791128 -0.10127962 -0.065488368 2.3234379e-38
0.022905849 -0.10127962 -0.065488368 2.341805e-38
0.024935063 -0.10208336 -0.069389731 1.4291036e-38
0.027056627 -0.10208336 -0.069389731 1.1893588e-38
0.029103205 -0.10292239 -0.073462397 1.2446399e-38
-0.024527647 -0.080746666 0.043515172 3.4987396e-39
-0.022604056 -0.080746666 0.043515172 9.9520707e-39
-0.02068045 -0.080746666 0.043515172 2.1199935e-38
-0.018756844 -0.080746666 0.043515172 2.3509149e-38
-0.016833253 -0.080746666 0.043515172 2.3509151e-38
-0.015148394 -0.081566691 0.039568391 2.3509876e-38
-0.013217874 -0.081566691 0.039568391 2.3234012e-38
-0.012083925 -0.084471121 0.025589313 2.3050703e-38
-0.010128893 -0.084471121 0.025589313 2.3141103e-38
-0.0083918944 -0.085318208 0.021512236 2.341769e-38
-0.0066356882 -0.086145595 0.01753005 2.341769e-38
-0.0052147582 -0.08842507 0.0065588616 2.3141103e-38
-0.0034173504 -0.089248091 0.0025976561 2.3141103e-38
-0.0017517358 -0.090722546 -0.0044988729 2.3509886e-38
8.1308186e-05 -0.09153457 -0.0084071495 2.3509886e-38
0.0019212589 -0.09237951 -0.012473855 2.3509886e-38
0.0039430186 -0.09237951 -0.012473855 2.3509886e-38
0.0059647933 -0.09237951 -0.012473855 2.341769e-38
0.007382758 -0.095707402 -0.028491054 2.3233299e-38
0.0091485903 -0.097349226 -0.036393199 2.3141103e-38
0.011075832 -0.098178491 -0.040384445 2.3048907e-38
0.012757391 -0.10067113 -0.052381549 2.3141103e-38
0.014723308 -0.10152313 -0.056482229 2.3233299e-38
0.016677968 -0.10255922 -0.061468992 2.3141822e-38
0.018785641 -0.10255922 -0.061468992 2.3234379e-38
0.020791128 -0.10339434 -0.065488368 2.3142544e-38
0.022905849 -0.10339434 -0.065488368 2.2497173e-38
0.024935063 -0.10420491 -0.069389731 1.631934e-38
0.026974507 -0.10505109 -0.073462397 1.2355285e-38
0.029103205 -0.10505109 -0.073462397 1.2170172e-38
-0.024527647 -0.082670271 0.043515172 2.6689803e-39
-0.022604056 -0.082670271 0.043515172 4.5125286e-39
-0.02068045 -0.082670271 0.043515172 1.8802851e-38
-0.018756844 -0.082670271 0.043515172 2.3506272e-38
-0.016833253 -0.082670271 0.043515172 2.3509154e-38
-0.014909647 -0.082670271 0.043515172 2.3509879e-38
-0.012986042 -0.082670271 0.043515172 2.3418047e-38
-0.011916019 -0.085808769 0.028535929 2.3234379e-38
-0.010128893 -0.086426154 0.025589313 2.341805e-38
-0.0083918944 -0.087280393 0.021512236 2.3509886e-38
-0.0066356882 -0.088114753 0.01753005 2.3509886e-38
-0.0052147582 -0.090413481 0.0065588616 2.3509886e-38
-0.0032263547 -0.090413481 0.0065588616 2.3509886e-38
-0.0015653893 -0.091889992 -0.00048819557 2.3509886e-38
0.00025604665 -0.092730328 -0.0044988729 2.3509886e-38
0.0020959452 -0.093549207 -0.0084071495 2.341769e-38
0.0039430186 -0.09440127 -0.012473855 2.2956712e-38
0.0059647933 -0.09440127 -0.012473855 2.2956712e-38
0.007382758 -0.09775725 -0.028491054 2.2864516e-38
0.0091485903 -0.099412933 -0.036393199 2.2864516e-38
0.011075832 -0.10024919 -0.040384445 2.3048907e-38
0.012757391 -0.10276286 -0.052381549 2.3325494e-38
0.014723308 -0.10362206 -0.056482229 2.3509886e-38
0.016677968 -0.1046669 -0.061468992 2.341805e-38
0.018785641 -0.1046669 -0.061468992 2.3234379e-38
0.020893313 -0.1046669 -0.061468992 2.3142544e-38
0.022905849 -0.10550906 -0.065488368 2.3234376e-38
0.024935063 -0.10632648 -0.069389731 1.8994095e-38
0.027056627 -0.10632648 -0.069389731 1.2447123e-38
0.029178187 -0.10632648 -0.069389731 9.9581986e-39
-0.026731513 -0.085427731 0.039568391 2.8540974e-39
-0.024527647 -0.084593862 0.043515172 1.0101905e-39
-0.022604056 -0.084593862 0.043515172 1.8377861e-39
-0.02068045 -0.084593862 0.043515172 1.4930638e-38
-0.018756844 -0.084593862 0.043515172 2.3508434e-38
-0.016833253 -0.084593862 0.043515172 2.3415161e-38
-0.014909647 -0.084593862 0.043515172 2.3509521e-38
-0.012986042 -0.084593862 0.043515172 2.341805e-38
-0.011513881 -0.086267635 0.035592999 2.2865958e-38
-0.0097437799 -0.086907968 0.032562222 2.341805e-38
-0.0081738606 -0.088381186 0.025589313 2.3509886e-38
-0.0064297095 -0.089242578 0.021512236 2.3509886e-38
-0.005011864 -0.091544032 0.01061913 2.3509886e-38
-0.0032263547 -0.092401877 0.0065588616 2.3509886e-38
-0.0015653893 -0.093890756 -0.00048819557 2.341769e-38
0.00025604665 -0.094738111 -0.0044988729 2.341769e-38
0.0020959452 -0.095563844 -0.0084071495 2.341769e-38
0.0039430186 -0.096423045 -0.012473855 2.2956712e-38
0.0056510344 -0.098103389 -0.020427141 2.2956712e-38
0.007382758 -0.099807099 -0.028491054 2.3048907e-38
0.0091485903 -0.10147664 -0.036393199 2.3141103e-38
0.011075832 -0.1023199 -0.040384445 2.3325494e-38
0.012757391 -0.1048546 -0.052381549 2.341769e-38
0.014723308 -0.10572098 -0.056482229 2.3509886e-38
0.016677968 -0.10677458 -0.061468992 2.341805e-38
0.018785641 -0.10677458 -0.061468992 2.2681564e-38
0.020893313 -0.10677458 -0.061468992 2.3234379e-38
0.022905849 -0.10762377 -0.065488368 2.3234376e-38
0.024935063 -0.10844804 -0.069389731 2.2774116e-38
0.027056627 -0.10844804 -0.069389731 1.3277963e-38
0.029178187 -0.10844804 -0.069389731 9.3128292e-39
0.031299748 -0.10844804 -0.069389731 9.3128292e-39
0.033360608 -0.1093085 -0.073462397 9.4043032e-39
-0.028662033 -0.087358251 0.039568391 5.1600714e-39
-0.026731513 -0.087358251 0.039568391 2.3009237e-39
-0.024527647 -0.086517468 0.043515172 1.5619209e-39
-0.022604056 -0.086517468 0.043515172 1.5612034e-39
-0.02068045 -0.086517468 0.043515172 1.1058064e-38
-0.018756844 -0.086517468 0.043515172 2.3508794e-38
-0.016833253 -0.086517468 0.043515172 2.3509517e-38
-0.014909647 -0.086517468 0.043515172 2.350988e-38
-0.012986042 -0.086517468 0.043515172 2.341805e-38
-0.011513881 -0.088205129 0.035592999 2.3234379e-38
-0.0095763877 -0.088205129 0.035592999 2.341805e-38
-0.0080162883 -0.089708492 0.028535929 2.3509886e-38
-0.0064297095 -0.091204748 0.021512236 2.3509886e-38
-0.005011864 -0.093525305 0.01061913 2.3509886e-38
-0.0030305833 -0.093525305 0.01061913 2.3509886e-38
-0.0015653893 -0.095891505 -0.00048819557 2.341769e-38
0.00025604665 -0.096745893 -0.0044988729 2.341769e-38
0.0020959452 -0.097578481 -0.0084071495 2.341769e-38
0.0039430186 -0.098444805 -0.012473855 2.3233299e-38
0.0056510344 -0.1001391 -0.020427141 2.3233299e-38
0.007382758 -0.10185695 -0.028491054 2.3325494e-38
0.0091485903 -0.10354035 -0.036393199 2.3325494e-38
0.011075832 -0.10439061 -0.040384445 2.341769e-38
0.012757391 -0.10694633 -0.052381549 2.3509886e-38
0.01484913 -0.10694633 -0.052381549 2.3509886e-38
0.016822238 -0.1078199 -0.056482229 2.3509886e-38
0.018921167 -0.1078199 -0.056482229 2.341805e-38
0.020893313 -0.10888223 -0.061468992 2.3142542e-38
0.022905849 -0.10973848 -0.065488368 2.2958507e-38
0.024935063 -0.11056961 -0.069389731 2.3234376e-38
0.027056627 -0.11056961 -0.069389731 1.6597006e-38
0.029178187 -0.11056961 -0.069389731 8.1150077e-39
0.03123191 -0.11143719 -0.073462397 8.1139287e-39
0.033360608 -0.11143719 -0.073462397 9.0362423e-39
-0.028662033 -0.089288771 0.039568391 5.6210495e-39
-0.026731513 -0.089288771 0.039568391 1.6559172e-39
-0.024527647 -0.088441074 0.043515172 9.1835496e-40
-0.022604056 -0.088441074 0.043515172 1.0101905e-39
-0.02068045 -0.088441074 0.043515172 5.8951085e-39
-0.018756844 -0.088441074 0.043515172 2.3508797e-38
-0.016833253 -0.088441074 0.043515172 2.3509161e-38
-0.014909647 -0.088441074 0.043515172 2.3232936e-38
-0.012986042 -0.088441074 0.043515172 2.3141822e-38
-0.011287354 -0.089288771 0.039568391 2.2773763e-38
-0.0095763877 -0.090142623 0.035592999 2.341805e-38
-0.007800974 -0.09079358 0.032562222 2.3509886e-38
-0.0060664192 -0.091658354 0.028535929 2.3509886e-38
-0.005011864 -0.095506594 0.01061913 2.3509886e-38
-0.0030305833 -0.095506594 0.01061913 2.3509886e-38
-0.0014220104 -0.097229466 0.0025976561 2.341769e-38
0.00025604665 -0.098753676 -0.0044988729 2.341769e-38
0.0022638366 -0.098753676 -0.0044988729 2.341769e-38
0.0041105822 -0.099593118 -0.0084071495 2.3509886e-38
0.0058084503 -0.10131776 -0.016436849 2.3509886e-38
0.0075352862 -0.10303779 -0.02444509 2.3509886e-38
0.0092910752 -0.10475256 -0.032428775 2.3509886e-38
0.011212293 -0.10560407 -0.036393199 2.3509886e-38
0.012884952 -0.10819341 -0.048448835 2.3509886e-38
0.01484913 -0.10903807 -0.052381549 2.3509886e-38
0.016940869 -0.10903807 -0.052381549 2.3509886e-38
0.018921167 -0.10991885 -0.056482229 2.3418047e-38
0.020893313 -0.11098991 -0.061468992 2.2957428e-38
0.023000985 -0.11098991 -0.061468992 2.2680841e-38
0.02502057 -0.1118532 -0.065488368 2.3418047e-38
0.02713529 -0.1118532 -0.065488368 1.9916051e-38
0.029178187 -0.11269115 -0.069389731 6.9164645e-39
0.03123191 -0.11356591 -0.073462397 6.9164645e-39
0.033360608 -0.11356591 -0.073462397 8.0217331e-39
-0.028662033 -0.091219291 0.039568391 5.6221285e-39
-0.026731513 -0.091219291 0.039568391 8.2651947e-40
-0.024527647 -0.090364665 0.043515172 9.1835496e-40
-0.022604056 -0.090364665 0.043515172 1.8385036e-39
-0.020939954 -0.091219291 0.039568391 2.8526527e-39
-0.019009434 -0.091219291 0.039568391 2.3508437e-38
-0.017078914 -0.091219291 0.039568391 2.3509161e-38
-0.014909647 -0.090364665 0.043515172 2.3509524e-38
-0.012986042 -0.090364665 0.043515172 2.341805e-38
-0.011287354 -0.091219291 0.039568391 2.2958154e-38
-0.0095763877 -0.092080101 0.035592999 2.341805e-38
-0.007638894 -0.092080101 0.035592999 2.3509886e-38
-0.0057014078 -0.092080101 0.035592999 2.3509886e-38
-0.004816696 -0.096642151 0.014524784 2.3509886e-38
-0.0030305833 -0.097487867 0.01061913 2.3509886e-38
-0.0014220104 -0.099224806 0.0025976561 2.341769e-38
0.00043535978 -0.099893004 -0.00048819557 2.341769e-38
0.0022638366 -0.10076147 -0.0044988729 2.341769e-38
0.004271619 -0.10076147 -0.0044988729 2.3509886e-38
0.0061252192 -0.10160775 -0.0084071495 2.3509886e-38
0.0078371689 -0.10334648 -0.016436849 2.3509886e-38
0.0095780417 -0.10508056 -0.02444509 2.3509886e-38
0.011620797 -0.10508056 -0.02444509 2.3509886e-38
0.013146535 -0.108532 -0.040384445 2.3509886e-38
0.0149698 -0.11027823 -0.048448835 2.3509886e-38
0.016940869 -0.11112984 -0.052381549 2.3509886e-38
0.018921167 -0.11201777 -0.056482229 2.3048905e-38
0.020893313 -0.11309759 -0.061468992 2.3509883e-38
0.023000985 -0.11309759 -0.061468992 2.3234015e-38
0.02502057 -0.11396794 -0.065488368 2.3141819e-38
0.02713529 -0.11396794 -0.065488368 2.185108e-38
0.029178187 -0.11481272 -0.069389731 6.3632935e-39
0.03123191 -0.1156946 -0.073462397 6.9164673e-39
0.033360608 -0.1156946 -0.073462397 7.3774426e-39
-0.030298449 -0.092288271 0.043515172 4.79417e-39
-0.028374858 -0.092288271 0.043515172 5.2537062e-39
-0.026731513 -0.093149811 0.039568391 5.5101298e-40
-0.024527647 -0.092288271 0.043515172 1.102026e-39
-0.022604056 -0.092288271 0.043515172 1.9306992e-39
-0.020939954 -0.093149811 0.039568391 1.0101905e-39
-0.019009434 -0.093149811 0.039568391 2.3136413e-38
-0.017078914 -0.093149811 0.039568391 2.3509517e-38
-0.015148394 -0.093149811 0.039568391 2.3509521e-38
-0.013217874 -0.093149811 0.039568391 2.3326213e-38
-0.011287354 -0.093149811 0.039568391 2.3234379e-38
-0.009356834 -0.093149811 0.039568391 2.341805e-38
-0.007638894 -0.094017595 0.035592999 2.3509886e-38
-0.0057014078 -0.094017595 0.035592999 2.3509886e-38
-0.004816696 -0.098616585 0.014524784 2.3509886e-38
-0.0028422698 -0.098616585 0.014524784 2.3509886e-38
-0.0012379587 -0.10035546 0.0065588616 2.341769e-38
0.00057332963 -0.10122015 0.0025976561 2.341769e-38
0.0024361163 -0.10189377 -0.00048819557 2.341769e-38
0.004271619 -0.10276926 -0.0044988729 2.3509886e-38
0.0061252192 -0.10362239 -0.0084071495 2.3509886e-38
0.0078371689 -0.10537519 -0.016436849 2.3509886e-38
0.0097224601 -0.10624625 -0.020427141 2.3509886e-38
0.011758171 -0.10624625 -0.020427141 2.3509886e-38
0.013532318 -0.10800649 -0.028491054 2.3509886e-38
0.0149698 -0.11236309 -0.048448835 2.3509886e-38
0.017054643 -0.11236309 -0.048448835 2.3509886e-38
0.018921167 -0.11411671 -0.056482229 2.3232936e-38
0.020893313 -0.11520527 -0.061468992 2.3509883e-38
0.023000985 -0.11520527 -0.061468992 2.3509883e-38
0.02502057 -0.11608265 -0.065488368 2.3141819e-38
0.02713529 -0.11608265 -0.065488368 2.2773037e-38
0.029250011 -0.11608265 -0.065488368 6.5466058e-39
0.031364731 -0.11608265 -0.065488368 6.6398804e-39
0.033479448 -0.11608265 -0.065488368 7.746228e-39
-0.030068211 -0.093531981 0.046604957 4.5175831e-39
-0.028150029 -0.093531981 0.046604957 5.2537062e-39
-0.026731513 -0.095080331 0.039568391 5.5101298e-40
-0.024800994 -0.095080331 0.039568391 9.1835496e-40
-0.022870474 -0.095080331 0.039568391 1.0101905e-39
-0.020939954 -0.095080331 0.039568391 1.0101905e-39
-0.019009434 -0.095080331 0.039568391 2.1569087e-38
-0.017078914 -0.095080331 0.039568391 2.3509517e-38
-0.015148394 -0.095080331 0.039568391 2.3508801e-38
-0.013217874 -0.095080331 0.039568391 2.212767e-38
-0.011287354 -0.095080331 0.039568391 2.2958154e-38
-0.009356834 -0.095080331 0.039568391 2.3509886e-38
-0.007638894 -0.095955089 0.035592999 2.3509886e-38
-0.005858168 -0.09662199 0.032562222 2.3509886e-38
-0.004467532 -0.099053472 0.021512236 2.3509886e-38
-0.0028422698 -0.100591 0.014524784 2.3509886e-38
-0.0012379587 -0.10234386 0.0065588616 2.341769e-38
0.00057332963 -0.1032155 0.0025976561 2.341769e-38
0.0025686771 -0.1032155 0.0025976561 2.341769e-38
0.0044368729 -0.10389452 -0.00048819557 2.3509886e-38
0.0061252192 -0.10563703 -0.0084071495 2.3509886e-38
0.007986553 -0.10653187 -0.012473855 2.3509886e-38
0.0098658837 -0.10740392 -0.016436849 2.3509886e-38
0.011758171 -0.10828196 -0.020427141 2.341769e-38
0.013663556 -0.10916607 -0.02444509 2.341769e-38
0.0149698 -0.11444794 -0.048448835 2.341769e-38
0.017054643 -0.11444794 -0.048448835 2.3509167e-38
0.018921167 -0.11621563 -0.056482229 2.3509524e-38
0.020893313 -0.11731292 -0.061468992 2.3509524e-38
0.023000985 -0.11731292 -0.061468992 2.3325131e-38
0.02502057 -0.11819737 -0.065488368 2.3509883e-38
0.02713529 -0.11819737 -0.065488368 2.3049624e-38
0.029250011 -0.11819737 -0.065488368 7.5607577e-39
0.031364731 -0.11819737 -0.065488368 5.8097638e-39
0.033479448 -0.11819737 -0.065488368 7.6536764e-39
-0.031680219 -0.094559789 0.05061933 1.1081398e-39
-0.02976907 -0.094559789 0.05061933 3.8729325e-39
-0.028150029 -0.095450163 0.046604957 4.8860054e-39
-0.026731513 -0.097010851 0.039568391 8.279558e-40
-0.024800994 -0.097010851 0.039568391 7.3468397e-40
-0.023138829 -0.097892582 0.035592999 1.3782499e-39
-0.020939954 -0.097010851 0.039568391 2.022892e-39
-0.019009434 -0.097010851 0.039568391 1.6682719e-38
-0.017078914 -0.097010851 0.039568391 2.111027e-38
-0.015148394 -0.097010851 0.039568391 2.3509521e-38
-0.013217874 -0.097010851 0.039568391 2.3141819e-38
-0.011287354 -0.097010851 0.039568391 2.3142542e-38
-0.009356834 -0.097010851 0.039568391 2.3509886e-38
-0.007638894 -0.097892582 0.035592999 2.3509886e-38
-0.005858168 -0.098564804 0.032562222 2.3509886e-38
-0.0042637959 -0.10011137 0.025589313 2.3509886e-38
-0.002697356 -0.10189888 0.01753005 2.3509886e-38
-0.0010493025 -0.10343169 0.01061913 2.341769e-38
0.00075043738 -0.10433225 0.0065588616 2.341769e-38
0.0025686771 -0.10521083 0.0025976561 2.341769e-38
0.0044368729 -0.10589527 -0.00048819557 2.3509886e-38
0.0062794015 -0.10678484 -0.0044988729 2.3509886e-38
0.007986553 -0.10855366 -0.012473855 2.3509886e-38
0.0098658837 -0.10943262 -0.016436849 2.3509886e-38
0.011758171 -0.11031766 -0.020427141 2.3509886e-38
0.013663556 -0.11120884 -0.02444509 2.3509886e-38
0.015706312 -0.11120884 -0.02444509 2.3509886e-38
0.017171688 -0.11563541 -0.04440299 2.3509527e-38
0.018921167 -0.11831455 -0.056482229 2.3509164e-38
0.020893313 -0.1194206 -0.061468992 2.3509524e-38
0.023000985 -0.1194206 -0.061468992 2.2864153e-38
0.02502057 -0.12031208 -0.065488368 2.3509883e-38
0.02713529 -0.12031208 -0.065488368 2.3234018e-38
0.029250011 -0.12031208 -0.065488368 1.1064194e-38
0.031431679 -0.1194206 -0.061468992 6.5473289e-39
0.033539351 -0.1194206 -0.061468992 6.8239157e-39
0.035647023 -0.1194206 -0.061468992 6.8246374e-39
-0.031680219 -0.096470937 0.05061933 5.5388984e-40
-0.02976907 -0.096470937 0.05061933 2.9502602e-39
-0.028150029 -0.097368345 0.046604957 4.2402801e-39
-0.026731513 -0.098941371 0.039568391 6.4320861e-40
-0.024800994 -0.098941371 0.039568391 6.4284847e-40
-0.022870474 -0.098941371 0.039568391 1.471163e-39
-0.021201335 -0.099830076 0.035592999 9.1835496e-40
-0.019263841 -0.099830076 0.035592999 8.1092455e-39
-0.017326348 -0.099830076 0.035592999 1.4195598e-38
-0.015388869 -0.099830076 0.035592999 2.2863429e-38
-0.013217874 -0.098941371 0.039568391 2.350988e-38
-0.011287354 -0.098941371 0.039568391 2.3417687e-38
-0.009356834 -0.098941371 0.039568391 2.3509886e-38
-0.007638894 -0.099830076 0.035592999 2.3509886e-38
-0.0057014078 -0.099830076 0.035592999 2.3509886e-38
-0.0041165575 -0.10140768 0.028535929 2.3509886e-38
-0.002697356 -0.10386805 0.01753005 2.3509886e-38
-0.0010493025 -0.10541297 0.01061913 2.341769e-38
0.00075043738 -0.10632066 0.0065588616 2.341769e-38
0.0025686771 -0.10720618 0.0025976561 2.341769e-38
0.0045640171 -0.10720618 0.0025976561 2.3509886e-38
0.0062794015 -0.10879262 -0.0044988729 2.3509886e-38
0.007986553 -0.11057542 -0.012473855 2.3509886e-38
0.0098658837 -0.11146136 -0.016436849 2.3509886e-38
0.011758171 -0.11235337 -0.020427141 2.3509886e-38
0.013663556 -0.11325158 -0.02444509 2.3509883e-38
0.015706312 -0.11325158 -0.02444509 2.3509886e-38
0.017287944 -0.11681484 -0.040384445 2.3509883e-38
0.019032609 -0.11949678 -0.052381549 2.3231857e-38
0.020893313 -0.12152828 -0.061468992 2.3509524e-38
0.023000985 -0.12152828 -0.061468992 2.3509523e-38
0.02502057 -0.12242682 -0.065488368 2.3509883e-38
0.02713529 -0.12242682 -0.065488368 2.341805e-38
0.029250011 -0.12242682 -0.065488368 1.5029327e-38
0.031431679 -0.12152828 -0.061468992 8.4841559e-39
0.033539351 -0.12152828 -0.061468992 6.1792652e-39
0.035647023 -0.12152828 -0.061468992 5.9959557e-39
0.037754696 -0.12152828 -0.061468992 6.3636593e-39
-0.030068211 -0.099286526 0.046604957 4.1480873e-39
-0.028150029 -0.099286526 0.046604957 3.962617e-39
-0.026731513 -0.10087189 0.039568391 2.7550929e-40
-0.024800994 -0.10087189 0.039568391 7.3468677e-40
-0.022870474 -0.10087189 0.039568391 8.2652087e-40
-0.021201335 -0.10176755 0.035592999 6.4284847e-40
-0.019009434 -0.10087189 0.039568391 6.4284847e-40
-0.017078914 -0.10087189 0.039568391 1.4195598e-38
-0.015148394 -0.10087189 0.039568391 2.3508794e-38
-0.013217874 -0.10087189 0.039568391 2.3509873e-38
-0.011287354 -0.10087189 0.039568391 2.3508795e-38
-0.009356834 -0.10087189 0.039568391 2.3509527e-38
-0.007638894 -0.10176755 0.035592999 2.3509886e-38
-0.0057014078 -0.10176755 0.035592999 2.3509527e-38
-0.0041165575 -0.10335754 0.028535929 2.3509886e-38
-0.0025053546 -0.10494001 0.021512236 2.3509886e-38
-0.0010493025 -0.10739426 0.01061913 2.3509886e-38
0.00075043738 -0.10830905 0.0065588616 2.3509886e-38
0.0027388409 -0.10830905 0.0065588616 2.3509886e-38
0.0045640171 -0.10920154 0.0025976561 2.3509886e-38
0.0062794015 -0.1108004 -0.0044988729 2.3509886e-38
0.0081398562 -0.11168094 -0.0084071495 2.3509883e-38
0.0098658837 -0.11349006 -0.016436849 2.3509883e-38
0.011758171 -0.11438908 -0.020427141 2.3509883e-38
0.013663556 -0.11529435 -0.02444509 2.350988e-38
0.015706312 -0.11529435 -0.02444509 2.3509883e-38
0.017632023 -0.11620592 -0.028491054 2.3509883e-38
0.019032609 -0.12158851 -0.052381549 2.3509524e-38
0.020893313 -0.12363596 -0.061468992 2.3416248e-38
0.023000985 -0.12363596 -0.061468992 2.314074e-38
0.02502057 -0.12454154 -0.065488368 2.3418047e-38
0.02713529 -0.12454154 -0.065488368 2.2589368e-38
0.029250011 -0.12454154 -0.065488368 1.9548711e-38
0.031364731 -0.12454154 -0.065488368 9.2231629e-39
0.033421308 -0.12542053 -0.069389731 3.5992295e-39
0.035542868 -0.12542053 -0.069389731 4.8899683e-39
0.037664428 -0.12542053 -0.069389731 5.4431421e-39
-0.030298449 -0.10190627 0.043515172 4.9778479e-39
-0.028374858 -0.10190627 0.043515172 3.2250548e-39
-0.026731513 -0.10280241 0.039568391 2.7551209e-40
-0.025076322 -0.10370506 0.035592999 4.5918168e-40
-0.023138829 -0.10370506 0.035592999 3.6734198e-40
-0.021201335 -0.10370506 0.035592999 4.5917748e-40
-0.019009434 -0.10280241 0.039568391 3.6734198e-40
-0.017078914 -0.10280241 0.039568391 1.2812663e-38
-0.015148394 -0.10280241 0.039568391 2.3322959e-38
-0.012986042 -0.10190627 0.043515172 2.350951e-38
-0.011062451 -0.10190627 0.043515172 2.3509514e-38
-0.009356834 -0.10280241 0.039568391 2.3509527e-38
-0.007638894 -0.10370506 0.035592999 2.3509527e-38
-0.0057014078 -0.10370506 0.035592999 2.3509527e-38
-0.0041165575 -0.10530742 0.028535929 2.3509527e-38
-0.0025053546 -0.1069022 0.021512236 2.3509886e-38
-0.00086783618 -0.10848872 0.014524784 2.3509886e-38
0.00093197078 -0.10937552 0.01061913 2.3509886e-38
0.0027388409 -0.11029746 0.0065588616 2.3509886e-38
0.0045640171 -0.11119686 0.0025976561 2.3509886e-38
0.006437622 -0.11189754 -0.00048819557 2.3509886e-38
0.0081398562 -0.11369558 -0.0084071495 2.3509883e-38
0.010008328 -0.11461894 -0.012473855 2.3509883e-38
0.011894599 -0.11551876 -0.016436849 2.350988e-38
0.013663556 -0.11733709 -0.02444509 2.350988e-38
0.015706312 -0.11733709 -0.02444509 2.350988e-38
0.017632023 -0.11825575 -0.028491054 2.350988e-38
0.019032609 -0.12368025 -0.052381549 2.3509524e-38
0.020893313 -0.12574361 -0.061468992 2.3509883e-38
0.023000985 -0.12574361 -0.061468992 2.3509883e-38
0.025108658 -0.12574361 -0.061468992 2.3418047e-38
0.02721633 -0.12574361 -0.061468992 2.3142544e-38
0.029250011 -0.12665625 -0.065488368 2.2130188e-38
0.031364731 -0.12665625 -0.065488368 1.3279771e-38
0.033479448 -0.12665625 -0.065488368 2.5857964e-39
0.035594169 -0.12665625 -0.065488368 3.5077527e-39
0.03770889 -0.12665625 -0.065488368 5.2591068e-39
-0.030592553 -0.10473295 0.039568391 4.5168698e-39
-0.028662033 -0.10473295 0.039568391 1.7510037e-39
-0.027013801 -0.10564254 0.035592999 4.6026489e-40
-0.02528622 -0.10633601 0.032562222 6.4357435e-40
-0.023343407 -0.10633601 0.032562222 2.7550649e-40
-0.021201335 -0.10564254 0.035592999 8.2759987e-40
-0.019009434 -0.10473295 0.039568391 3.6734198e-40
-0.017078914 -0.10473295 0.039568391 1.0323378e-38
-0.015148394 -0.10473295 0.039568391 2.3507351e-38
-0.012986042 -0.10382988 0.043515172 2.3508788e-38
-0.011062451 -0.10382988 0.043515172 2.3509873e-38
-0.009356834 -0.10473295 0.039568391 2.3509527e-38
-0.007638894 -0.10564254 0.035592999 2.3509527e-38
-0.005858168 -0.10633601 0.032562222 2.3509886e-38
-0.0041165575 -0.10725726 0.028535929 2.3509886e-38
-0.0025053546 -0.10886435 0.021512236 2.3509886e-38
-0.00086783618 -0.11046316 0.014524784 2.3509886e-38
0.00093197078 -0.11135681 0.01061913 2.3509886e-38
0.0029132515 -0.11135681 0.01061913 2.3509886e-38
0.0047272369 -0.11228584 0.0065588616 2.3509886e-38
0.006437622 -0.11389829 -0.00048819557 2.3509886e-38
0.0081398562 -0.11571021 -0.0084071495 2.3509883e-38
0.010154497 -0.11571021 -0.0084071495 2.3509883e-38
0.011894599 -0.1175475 -0.016436849 2.3509883e-38
0.013793886 -0.11846052 -0.020427141 2.3509883e-38
0.015706312 -0.11937986 -0.02444509 2.350988e-38
0.017632023 -0.12030561 -0.028491054 2.350988e-38
0.019032609 -0.12577201 -0.052381549 2.3509524e-38
0.021020092 -0.12671028 -0.056482229 2.3509883e-38
0.023000985 -0.12785129 -0.061468992 2.3509883e-38
0.025108658 -0.12785129 -0.061468992 2.3234015e-38
0.02721633 -0.12785129 -0.061468992 2.3234379e-38
0.029324006 -0.12785129 -0.061468992 2.2958873e-38
0.031431679 -0.12785129 -0.061468992 1.8166139e-38
0.033479448 -0.12877096 -0.065488368 3.7836208e-39
0.035594169 -0.12877096 -0.065488368 3.230447e-39
0.03770889 -0.12877096 -0.065488368 5.9044762e-39
-0.030888788 -0.10758002 0.035592999 3.6871091e-39
-0.028951295 -0.10758002 0.035592999 3.6806926e-40
-0.027229019 -0.10827883 0.032562222 6.4465615e-40
-0.02528622 -0.10827883 0.032562222 6.4357435e-40
-0.023343407 -0.10827883 0.032562222 2.7550649e-40
-0.021201335 -0.10758002 0.035592999 6.4320861e-40
-0.019263841 -0.10758002 0.035592999 3.6734198e-40
-0.017078914 -0.10666345 0.039568391 6.7277488e-39
-0.015148394 -0.10666345 0.039568391 2.3509509e-38
-0.012986042 -0.10575347 0.043515172 2.3508065e-38
-0.011062451 -0.10575347 0.043515172 2.350987e-38
-0.0091388449 -0.10575347 0.043515172 2.3509883e-38
-0.0074263066 -0.10666345 0.039568391 2.3509527e-38
-0.005858168 -0.10827883 0.032562222 2.3509886e-38
-0.0041165575 -0.10920714 0.028535929 2.3509886e-38
-0.0025053546 -0.11082654 0.021512236 2.3509886e-38
-0.00086783618 -0.11243759 0.014524784 2.3509886e-38
0.00093197078 -0.1133381 0.01061913 2.3509886e-38
0.0029132515 -0.1133381 0.01061913 2.3509886e-38
0.0047272369 -0.11427425 0.0065588616 2.3509886e-38
0.006437622 -0.11589904 -0.00048819557 2.3509886e-38
0.0082871839 -0.11682375 -0.0044988729 2.3509883e-38
0.010294974 -0.11682375 -0.0044988729 2.3509883e-38
0.012169134 -0.11772485 -0.0084071495 2.3509883e-38
0.013793886 -0.12049623 -0.020427141 2.3509883e-38
0.015829597 -0.12049623 -0.020427141 2.350988e-38
0.017632023 -0.12235548 -0.028491054 2.350988e-38
0.019032609 -0.12786375 -0.052381549 2.3509883e-38
0.021020092 -0.1288092 -0.056482229 2.2864153e-38
0.023119025 -0.1288092 -0.056482229 2.3509883e-38
0.025108658 -0.12995897 -0.061468992 2.3418047e-38
0.02721633 -0.12995897 -0.061468992 2.3234379e-38
0.029324006 -0.12995897 -0.061468992 2.3142544e-38
0.031431679 -0.12995897 -0.061468992 2.19458e-38
0.033479448 -0.13088571 -0.065488368 6.7338809e-39
0.035594169 -0.13088571 -0.065488368 4.3367945e-39
-0.029171832 -0.11022164 0.032562222 9.1841101e-41
-0.027229019 -0.11022164 0.032562222 9.1841101e-41
-0.025565065 -0.11115701 0.028535929 2.7550929e-40
-0.023343407 -0.11022164 0.032562222 4.5953902e-40
-0.021400608 -0.11022164 0.032562222 3.6734198e-40
-0.019263841 -0.10951753 0.035592999 3.6734198e-40
-0.017078914 -0.10859399 0.039568391 3.0399208e-39
-0.015148394 -0.10859399 0.039568391 2.3508788e-38
-0.012986042 -0.10767709 0.043515172 2.3508065e-38
-0.011062451 -0.10767709 0.043515172 2.350987e-38
-0.0091388449 -0.10767709 0.043515172 2.3509883e-38
-0.0074263066 -0.10859399 0.039568391 2.3509886e-38
-0.0057014078 -0.10951753 0.035592999 2.3509886e-38
-0.0041165575 -0.11115701 0.028535929 2.3509886e-38
-0.0025053546 -0.11278872 0.021512236 2.3509886e-38
-0.00086783618 -0.11441202 0.014524784 2.3509886e-38
0.00093197078 -0.11531936 0.01061913 2.3509886e-38
0.0029132515 -0.11531936 0.01061913 2.3509886e-38
0.0047272369 -0.11626263 0.0065588616 2.3509886e-38
0.0065593645 -0.1171829 0.0025976561 2.3509886e-38
0.0082871839 -0.11883153 -0.0044988729 2.3509883e-38
0.010294974 -0.11883153 -0.0044988729 2.3509883e-38
0.01230276 -0.11883153 -0.0044988729 2.3509883e-38
0.013793886 -0.12253194 -0.020427141 2.3509883e-38
0.015829597 -0.12253194 -0.020427141 2.3509883e-38
0.017632023 -0.12440531 -0.028491054 2.3509883e-38
0.019032609 -0.12995549 -0.052381549 2.3509883e-38
0.021020092 -0.13090815 -0.056482229 2.314074e-38
0.023119025 -0.13090815 -0.056482229 2.3509883e-38
0.025108658 -0.13206665 -0.061468992 2.3418047e-38
0.02721633 -0.13206665 -0.061468992 2.3234379e-38
0.029324006 -0.13206665 -0.061468992 2.3050707e-38
0.031431679 -0.13206665 -0.061468992 2.2958873e-38
0.033479448 -0.13300042 -0.065488368 7.932064e-39
0.035542868 -0.13390677 -0.069389731 5.6271732e-39
0.037664428 -0.13390677 -0.069389731 8.1164524e-39
-0.03141465 -0.11310686 0.028535929 1.8435595e-39
-0.029464789 -0.11310686 0.028535929 9.1841101e-41
-0.027514927 -0.11310686 0.028535929 3.6806926e-40
-0.025565065 -0.11310686 0.028535929 2.7550929e-40
-0.023615204 -0.11310686 0.028535929 5.5173465e-40
-0.021665342 -0.11310686 0.028535929 3.6734198e-40
-0.01945781 -0.11216442 0.032562222 5.5137171e-40
-0.017326348 -0.11145501 0.035592999 1.2882081e-39
-0.015388869 -0.11145501 0.035592999 2.1940379e-38
-0.012986042 -0.10960068 0.043515172 2.3509863e-38
-0.011062451 -0.10960068 0.043515172 2.3509869e-38
-0.0091388449 -0.10960068 0.043515172 2.350988e-38
-0.0074263066 -0.11052449 0.039568391 2.3509886e-38
-0.0054957867 -0.11052449 0.039568391 2.3509886e-38
-0.0041165575 -0.11310686 0.028535929 2.3509886e-38
-0.002308771 -0.11379658 0.025589313 2.3509886e-38
-0.00086783618 -0.11638646 0.014524784 2.3509886e-38
0.00093197078 -0.11730064 0.01061913 2.3509886e-38
0.0029132515 -0.11730064 0.01061913 2.3509886e-38
0.0047272369 -0.11825104 0.0065588616 2.3509886e-38
0.0065593645 -0.11917825 0.0025976561 2.3509886e-38
0.0084383786 -0.11990054 -0.00048819557 2.3509883e-38
0.010439131 -0.11990054 -0.00048819557 2.3509883e-38
0.01230276 -0.12083931 -0.0044988729 2.3509883e-38
0.013793886 -0.12456764 -0.020427141 2.3509883e-38
0.015829597 -0.12456764 -0.020427141 2.3509883e-38
0.016940869 -0.13204722 -0.052381549 2.3509883e-38
0.019032609 -0.13204722 -0.052381549 2.3509883e-38
0.021020092 -0.13300706 -0.056482229 2.3509883e-38
0.023119025 -0.13300706 -0.056482229 2.3509883e-38
0.025108658 -0.1341743 -0.061468992 2.2773037e-38
0.02721633 -0.1341743 -0.061468992 2.3050347e-38
0.029250011 -0.13511513 -0.065488368 2.3142544e-38
0.031364731 -0.13511513 -0.065488368 2.3142544e-38
0.033421308 -0.13602833 -0.069389731 7.7476727e-39
0.035542868 -0.13602833 -0.069389731 6.3647383e-39
0.037618011 -0.13698162 -0.073462397 7.8398655e-39
0.039746713 -0.13698162 -0.073462397 8.8529385e-39
-0.035000242 -0.11410724 0.032562222 4.7945357e-39
-0.033057429 -0.11410724 0.032562222 5.2547978e-39
-0.03111463 -0.11410724 0.032562222 9.1842503e-41
-0.029464789 -0.11505674 0.028535929 3.6771193e-40
-0.027514927 -0.11505674 0.028535929 5.5246052e-40
-0.025565065 -0.11505674 0.028535929 5.5137872e-40
-0.023814104 -0.11575161 0.025589313 2.7550649e-40
-0.021859072 -0.11575161 0.025589313 9.2015143e-40
-0.01990404 -0.11575161 0.025589313 5.5137171e-40
-0.018637709 -0.11836089 0.014524784 7.361189e-40
-0.015388869 -0.11339252 0.035592999 1.7516068e-38
-0.01280456 -0.11079563 0.046604957 2.3508063e-38
-0.010886379 -0.11079563 0.046604957 2.3509869e-38
-0.0089681968 -0.11079563 0.046604957 2.350988e-38
-0.0074263066 -0.11245503 0.039568391 2.3509886e-38
-0.0054957867 -0.11245503 0.039568391 2.3509886e-38
-0.0041165575 -0.11505674 0.028535929 2.3509886e-38
-0.0021666959 -0.11505674 0.028535929 2.3509886e-38
-0.00054316968 -0.11671309 0.021512236 2.3509886e-38
0.0014190003 -0.11671309 0.021512236 2.3509886e-38
0.0029132515 -0.11928193 0.01061913 2.3509886e-38
0.0047272369 -0.12023942 0.0065588616 2.3509886e-38
0.0065593645 -0.12117358 0.0025976561 2.3509886e-38
0.0084383786 -0.12190129 -0.00048819557 2.3509886e-38
0.010439131 -0.12190129 -0.00048819557 2.3509886e-38
0.01230276 -0.1228471 -0.0044988729 2.3509886e-38
0.013923317 -0.12566237 -0.016436849 2.3509886e-38
0.015952032 -0.12566237 -0.016436849 2.3509886e-38
0.017054643 -0.13321154 -0.048448835 2.3509886e-38
0.019139487 -0.13321154 -0.048448835 2.3509523e-38
0.021124348 -0.13413896 -0.052381549 2.3509523e-38
0.023119025 -0.13510598 -0.056482229 2.3417687e-38
0.025108658 -0.13628198 -0.061468992 2.2588645e-38
0.02713529 -0.13722984 -0.065488368 2.3142542e-38
0.029250011 -0.13722984 -0.065488368 2.3142544e-38
0.031364731 -0.13722984 -0.065488368 2.2682286e-38
0.033421308 -0.13814987 -0.069389731 1.1434419e-38
0.035489313 -0.13911031 -0.073462397 7.8387893e-39
0.037618011 -0.13911031 -0.073462397 7.7465909e-39
0.039746713 -0.13911031 -0.073462397 9.1288065e-39
-0.035000242 -0.11605005 0.032562222 6.3618614e-39
-0.033057429 -0.11605005 0.032562222 6.0845584e-39
-0.03111463 -0.11605005 0.032562222 5.6051939e-45
-0.029464789 -0.11700659 0.028535929 5.5210319e-40
-0.027724169 -0.11770664 0.025589313 9.1841101e-41
-0.025769137 -0.11770664 0.025589313 9.2016124e-40
-0.023814104 -0.11770664 0.025589313 2.7550649e-40
-0.022127144 -0.11867525 0.021512236 1.1967383e-39
-0.020612143 -0.12033533 0.014524784 3.6734198e-40
-0.018880807 -0.12126322 0.01061913 3.6734198e-40
-0.016240604 -0.11867525 0.021512236 1.3367265e-38
-0.01280456 -0.1127138 0.046604957 2.2216964e-38
-0.010886379 -0.1127138 0.046604957 2.3231841e-38
-0.0089681968 -0.1127138 0.046604957 2.350988e-38
-0.0080162883 -0.11700659 0.028535929 2.3509886e-38
-0.0060664192 -0.11700659 0.028535929 2.3509886e-38
-0.0041165575 -0.11700659 0.028535929 2.3509886e-38
-0.0021666959 -0.11700659 0.028535929 2.3509886e-38
-0.00035373867 -0.11770664 0.025589313 2.3509886e-38
0.0014190003 -0.11867525 0.021512236 2.3509886e-38
0.0032101199 -0.11962132 0.01753005 2.3509886e-38
0.0047272369 -0.12222783 0.0065588616 2.3509886e-38
0.006715633 -0.12222783 0.0065588616 2.3509886e-38
0.0084383786 -0.12390204 -0.00048819557 2.3509886e-38
0.010439131 -0.12390204 -0.00048819557 2.3509886e-38
0.01230276 -0.12485488 -0.0044988729 2.3509886e-38
0.014183771 -0.1257834 -0.0084071495 2.3509886e-38
0.015952032 -0.12769108 -0.016436849 2.3509886e-38
0.017171688 -0.13433518 -0.04440299 2.3509886e-38
0.019249439 -0.13433518 -0.04440299 2.3509883e-38
0.021224331 -0.13529639 -0.048448835 2.314074e-38
0.023216087 -0.13623069 -0.052381549 2.3233296e-38
0.025217954 -0.13720493 -0.056482229 2.3509883e-38
0.02721633 -0.13838966 -0.061468992 2.341805e-38
0.029250011 -0.13934456 -0.065488368 2.3050347e-38
0.031364731 -0.13934456 -0.065488368 2.3050349e-38
0.033421308 -0.14027144 -0.069389731 1.7058352e-38
0.035594169 -0.13934456 -0.065488368 9.3139194e-39
0.03770889 -0.13934456 -0.065488368 7.8387865e-39
0.03982361 -0.13934456 -0.065488368 9.2210021e-39
-0.035000242 -0.11799283 0.032562222 6.2696658e-39
-0.033057429 -0.11799283 0.032562222 4.8867341e-39
-0.03111463 -0.11799283 0.032562222 1.84757e-40
-0.029464789 -0.11895646 0.028535929 5.6051939e-45
-0.027514927 -0.11895646 0.028535929 5.6051939e-45
-0.025565065 -0.11895646 0.028535929 2.7587083e-40
-0.023814104 -0.11966167 0.025589313 9.1835496e-41
-0.022127144 -0.12063743 0.021512236 9.2051156e-40
-0.020612143 -0.12230973 0.014524784 2.7550649e-40
-0.018880807 -0.12324448 0.01061913 5.5173044e-40
-0.016663276 -0.12230973 0.014524784 3.3179413e-39
-0.012568779 -0.11367123 0.05061933 1.8345826e-38
-0.010657631 -0.11367123 0.05061933 2.3416952e-38
-0.0087464824 -0.11367123 0.05061933 2.350988e-38
-0.0068353415 -0.11367123 0.05061933 2.3509886e-38
-0.005858168 -0.11799283 0.032562222 2.3509886e-38
-0.0039153621 -0.11799283 0.032562222 2.3509886e-38
-0.0019725636 -0.11799283 0.032562222 2.3509886e-38
-0.00035373867 -0.11966167 0.025589313 2.3509886e-38
0.0016012862 -0.11966167 0.025589313 2.3509886e-38
0.0032101199 -0.12159048 0.01753005 2.3325494e-38
0.0047272369 -0.12421621 0.0065588616 2.3509886e-38
0.006715633 -0.12421621 0.0065588616 2.3509886e-38
0.0085547045 -0.12516426 0.0025976561 2.3509886e-38
0.010439131 -0.12590279 -0.00048819557 2.3509886e-38
0.01230276 -0.12686269 -0.0044988729 2.3509886e-38
0.014183771 -0.12779804 -0.0084071495 2.3509886e-38
0.016073629 -0.12877132 -0.012473855 2.3509886e-38
0.017171688 -0.13641293 -0.04440299 2.3509886e-38
0.019249439 -0.13641293 -0.04440299 2.3509523e-38
0.021224331 -0.13738121 -0.048448835 2.3417327e-38
0.023216087 -0.13832243 -0.052381549 2.3417687e-38
0.025217954 -0.13930385 -0.056482229 2.3509883e-38
0.02721633 -0.14049734 -0.061468992 2.341805e-38
0.029250011 -0.1414593 -0.065488368 2.3234379e-38
0.031364731 -0.1414593 -0.065488368 2.2497176e-38
0.033479448 -0.1414593 -0.065488368 2.1851806e-38
0.035647023 -0.14049734 -0.061468992 1.0696135e-38
0.037754696 -0.14049734 -0.061468992 8.0224589e-39
0.039862372 -0.14049734 -0.061468992 7.929543e-39
-0.035000242 -0.11993565 0.032562222 7.3760133e-39
-0.033057429 -0.11993565 0.032562222 5.6242964e-39
-0.03111463 -0.11993565 0.032562222 3.657389e-43
-0.029171832 -0.11993565 0.032562222 2.7623376e-40
-0.027514927 -0.12090631 0.028535929 5.6051939e-45
-0.025565065 -0.12090631 0.028535929 4.6026209e-40
-0.023814104 -0.12161671 0.025589313 9.1835496e-41
-0.022127144 -0.12259962 0.021512236 4.5953621e-40
-0.020612143 -0.12428416 0.014524784 3.6770072e-40
-0.018880807 -0.12522577 0.01061913 3.6734198e-40
-0.016663276 -0.12428416 0.014524784 6.4392467e-40
-0.012568779 -0.11558239 0.05061933 1.3275069e-38
-0.010657631 -0.11558239 0.05061933 2.3416953e-38
-0.0087464824 -0.11558239 0.05061933 2.350988e-38
-0.0068353415 -0.11558239 0.05061933 2.341769e-38
-0.0052916482 -0.11729507 0.043515172 2.341769e-38
-0.0035652667 -0.11824657 0.039568391 2.341769e-38
-0.0019725636 -0.11993565 0.032562222 2.3509886e-38
-0.00021683425 -0.12090631 0.028535929 2.3509886e-38
0.0016012862 -0.12161671 0.025589313 2.3509886e-38
0.0033811852 -0.12259962 0.021512236 2.3509886e-38
0.0047272369 -0.12620462 0.0065588616 2.3509886e-38
0.006715633 -0.12620462 0.0065588616 2.3509886e-38
0.0085547045 -0.12715961 0.0025976561 2.3509886e-38
0.010439131 -0.12790357 -0.00048819557 2.3509886e-38
0.01230276 -0.12887047 -0.0044988729 2.3509886e-38
0.014183771 -0.12981267 -0.0084071495 2.3509886e-38
0.016073629 -0.13079311 -0.012473855 2.3509886e-38
0.017865311 -0.1327105 -0.020427141 2.3509886e-38
0.019791827 -0.13367917 -0.02444509 2.3509883e-38
0.021429352 -0.13752188 -0.040384445 2.3509523e-38
0.023500059 -0.13752188 -0.040384445 2.3325492e-38
0.025217954 -0.1414028 -0.056482229 2.3509883e-38
0.02721633 -0.14260502 -0.061468992 2.341805e-38
0.029324006 -0.14260502 -0.061468992 2.341805e-38
0.031431679 -0.14260502 -0.061468992 2.3141466e-38
0.033479448 -0.14357401 -0.065488368 2.2589371e-38
0.035647023 -0.14260502 -0.061468992 1.6320068e-38
0.037754696 -0.14260502 -0.061468992 9.4053934e-39
0.039862372 -0.14260502 -0.061468992 8.5749124e-39
-0.035000242 -0.12187846 0.032562222 7.8380677e-39
-0.033057429 -0.12187846 0.032562222 5.5321007e-39
-0.03111463 -0.12187846 0.032562222 2.8025969e-45
-0.029171832 -0.12187846 0.032562222 8.2940754e-40
-0.027514927 -0.12285618 0.028535929 5.6051939e-45
-0.025769137 -0.12357174 0.025589313 2.7587083e-40
-0.024089329 -0.1245618 0.021512236 9.1835496e-41
-0.022388972 -0.12552883 0.01753005 2.7550649e-40
-0.020612143 -0.1262586 0.014524784 5.5208917e-40
-0.018880807 -0.12720706 0.01061913 2.7550649e-40
-0.016899534 -0.12720706 0.01061913 2.7586522e-40
-0.012568779 -0.11749353 0.05061933 8.7571275e-39
-0.010657631 -0.11749353 0.05061933 2.350987e-38
-0.0087464824 -0.11749353 0.05061933 2.350952e-38
-0.0068353415 -0.11749353 0.05061933 2.3417687e-38
-0.0051318333 -0.11846836 0.046604957 2.3417687e-38
-0.0035652667 -0.12017711 0.039568391 2.3417687e-38
-0.0019725636 -0.12187846 0.032562222 2.3417687e-38
-0.00021683425 -0.12285618 0.028535929 2.3509883e-38
0.0016012862 -0.12357174 0.025589313 2.3509886e-38
0.0033811852 -0.1245618 0.021512236 2.3509886e-38
0.0048945323 -0.12720706 0.01061913 2.3509886e-38
0.0068758056 -0.12720706 0.01061913 2.3509886e-38
0.0088570863 -0.12720706 0.01061913 2.3509886e-38
0.010439131 -0.12990431 -0.00048819557 2.3509886e-38
0.01230276 -0.13087825 -0.0044988729 2.3509886e-38
0.014183771 -0.13182731 -0.0084071495 2.3509886e-38
0.016073629 -0.13281487 -0.012473855 2.3509886e-38
0.017865311 -0.13474621 -0.020427141 2.3509886e-38
0.019791827 -0.13572191 -0.02444509 2.3509883e-38
0.021631613 -0.13766064 -0.032428775 2.3509883e-38
0.023688368 -0.13766064 -0.032428775 2.3325492e-38
0.025307827 -0.14250593 -0.052381549 2.3325492e-38
0.027316883 -0.14350171 -0.056482229 2.3509886e-38
0.029324006 -0.14471267 -0.061468992 2.341805e-38
0.031431679 -0.14471267 -0.061468992 2.341805e-38
0.033539351 -0.14471267 -0.061468992 2.341805e-38
0.035647023 -0.14471267 -0.061468992 2.1020967e-38
0.037754696 -0.14471267 -0.061468992 9.8656513e-39
0.039862372 -0.14471267 -0.061468992 8.6663892e-39
-0.036943041 -0.12382124 0.032562222 1.0973072e-38
-0.035000242 -0.12382124 0.032562222 8.3915974e-39
-0.033057429 -0.12382124 0.032562222 4.6105004e-39
-0.03111463 -0.12382124 0.032562222 2.8025969e-45
-0.029171832 -0.12382124 0.032562222 5.5282065e-40
-0.027514927 -0.12480606 0.028535929 5.6051939e-45
-0.025769137 -0.12552677 0.025589313 9.1838299e-41
-0.024089329 -0.12652399 0.021512236 6.4465335e-40
-0.022388972 -0.12749799 0.01753005 2.7550649e-40
-0.020612143 -0.12823303 0.014524784 2.7550649e-40
-0.018880807 -0.12918831 0.01061913 2.7550649e-40
-0.017145135 -0.13018142 0.0065588616 1.1052545e-39
-0.012568779 -0.11940466 0.05061933 5.7146731e-39
-0.010657631 -0.11940466 0.05061933 2.3509873e-38
-0.0087464824 -0.11940466 0.05061933 2.3509879e-38
-0.0068353415 -0.11940466 0.05061933 2.3509883e-38
-0.0051318333 -0.12038656 0.046604957 2.3509883e-38
-0.0035652667 -0.12210761 0.039568391 2.3509883e-38
-0.0021666959 -0.12480606 0.028535929 2.3417687e-38
-0.00021683425 -0.12480606 0.028535929 2.3417687e-38
0.0016012862 -0.12552677 0.025589313 2.3509886e-38
0.0033811852 -0.12652399 0.021512236 2.3509886e-38
0.0051792786 -0.12749799 0.01753005 2.3509886e-38
0.0071484447 -0.12749799 0.01753005 2.3509886e-38
0.0088570863 -0.12918831 0.01061913 2.3509886e-38
0.010439131 -0.13190506 -0.00048819557 2.3509886e-38
0.01230276 -0.13288604 -0.0044988729 2.3509886e-38
0.014183771 -0.13384195 -0.0084071495 2.3509886e-38
0.015952032 -0.13580595 -0.016436849 2.3509886e-38
0.017865311 -0.13678192 -0.020427141 2.3509886e-38
0.019791827 -0.13776468 -0.02444509 2.3509886e-38
0.021631613 -0.13971741 -0.032428775 2.3509883e-38
0.023688368 -0.13971741 -0.032428775 2.3325492e-38
0.025482692 -0.14264618 -0.04440299 2.3417687e-38
0.027399566 -0.14459766 -0.052381549 2.3509886e-38
0.029415812 -0.14560063 -0.056482229 2.3509886e-38
0.031431679 -0.14682035 -0.061468992 2.341805e-38
0.033539351 -0.14682035 -0.061468992 2.341805e-38
0.035647023 -0.14682035 -0.061468992 2.3233662e-38
0.037754696 -0.14682035 -0.061468992 9.9578469e-39
0.039862372 -0.14682035 -0.061468992 8.9429761e-39
-0.03726425 -0.12675591 0.028535929 1.2448201e-38
