# .PCD v0.7 - Point Cloud Data file format
VERSION 0.7
FIELDS x y z rgb
SIZE 4 4 4 4
TYPE F F F F
COUNT 1 1 1 1
WIDTH 625
HEIGHT 1
VIEWPOINT 0 0 0 1 0 0 0
POINTS 625
DATA ascii
0.043307953 -0.13515557 -0.060107216 6.8199305e-39
0.049474798 -0.13781275 -0.070176944 4.9774738e-39
-0.018054336 -0.12189357 -0.0031176656 1.4930949e-38
0.035682373 -0.13625093 -0.057167873 2.0087793e-38
0.037553336 -0.13625093 -0.057167873 1.7138975e-38
0.0394243 -0.13625093 -0.057167873 1.6863474e-38
0.041431837 -0.13703169 -0.060107216 1.2901229e-38
0.043307953 -0.13703169 -0.060107216 7.2791023e-39
0.045687255 -0.13970654 -0.070176944 7.0043245e-39
0.047581024 -0.13970654 -0.070176944 4.6083241e-39
-0.01627814 -0.12366976 -0.0031176656 2.0001358e-38
-0.014483294 -0.12285714 -7.8544021e-05 2.0093568e-38
-0.012712427 -0.12285714 -7.8544021e-05 1.1888532e-38
0.037553336 -0.13812189 -0.057167873 1.741412e-38
0.0394243 -0.13812189 -0.057167873 1.6032627e-38
0.041431837 -0.13890781 -0.060107216 1.4282716e-38
0.043307953 -0.13890781 -0.060107216 9.7669396e-39
0.045337453 -0.13972856 -0.063176736 7.8326418e-39
0.047426119 -0.14079951 -0.067182049 3.132471e-39
0.049474798 -0.1416003 -0.070176944 3.9633191e-39
-0.023428489 -0.12626885 -0.0061751455 1.9262742e-38
-0.021646932 -0.12626885 -0.0061751455 1.6866003e-38
-0.019865375 -0.12626885 -0.0061751455 1.5391225e-38
-0.018054336 -0.12544595 -0.0031176656 1.6589765e-38
-0.01627814 -0.12544595 -0.0031176656 1.7328052e-38
-0.014465372 -0.12384202 0.0028419644 1.7420622e-38
-0.012699625 -0.12384202 0.0028419644 8.1081553e-39
-0.01094156 -0.12462802 -7.8544021e-05 6.8174305e-39
0.0032948526 -0.12626885 -0.0061751455 1.1963852e-39
0.0050764093 -0.12626885 -0.0061751455 7.3468397e-40
0.0068123983 -0.12544595 -0.0031176656 1.1938615e-39
0.0085885944 -0.12544595 -0.0031176656 2.0203809e-39
0.027614415 -0.13539489 -0.040083751 1.4833383e-38
0.029455423 -0.13539489 -0.040083751 1.1790923e-38
0.031296432 -0.13539489 -0.040083751 1.0131033e-38
0.033297393 -0.13648613 -0.044138297 1.261995e-38
0.035268232 -0.13728772 -0.047116742 1.7690704e-38
0.037379649 -0.13890465 -0.053124532 1.7967291e-38
0.0394243 -0.13999285 -0.057167873 1.7046056e-38
0.041431837 -0.14078392 -0.060107216 1.5387979e-38
0.043307953 -0.14078392 -0.060107216 1.0779648e-38
0.045337453 -0.14161004 -0.063176736 7.8322761e-39
0.047218952 -0.14161004 -0.063176736 2.1176002e-39
0.04931464 -0.14268802 -0.067182049 2.0272108e-39
0.051203161 -0.14268802 -0.067182049 1.1059804e-39
-0.023428489 -0.1280504 -0.0061751455 1.889541e-38
-0.021646932 -0.1280504 -0.0061751455 1.2626457e-38
-0.019830529 -0.12722217 -0.0031176656 9.3077691e-39
-0.018054336 -0.12722217 -0.0031176656 8.9389866e-39
-0.016254161 -0.12639888 -7.8544021e-05 8.0170303e-39
-0.014465372 -0.12560774 0.0028419644 9.5850833e-39
-0.012699625 -0.12560774 0.0028419644 4.5139705e-39
-0.01094156 -0.12639888 -7.8544021e-05 4.69801e-39
0.0032948526 -0.1280504 -0.0061751455 3.0410167e-39
0.0050764093 -0.1280504 -0.0061751455 1.010552e-39
0.0068123983 -0.12722217 -0.0031176656 1.0101905e-39
0.0085885944 -0.12722217 -0.0031176656 1.7448744e-39
0.027614415 -0.13723589 -0.040083751 1.3082745e-38
0.029455423 -0.13723589 -0.040083751 1.0870407e-38
0.031296432 -0.13723589 -0.040083751 8.1038141e-39
0.033137441 -0.13723589 -0.040083751 9.5789358e-39
0.035145514 -0.13833423 -0.044138297 1.547873e-38
0.037250247 -0.13995247 -0.050112113 1.6399965e-38
0.0394243 -0.14186381 -0.057167873 1.6124097e-38
0.041431837 -0.14266007 -0.060107216 1.4834803e-38
0.043307953 -0.14266007 -0.060107216 1.1055872e-38
0.045337453 -0.14349155 -0.063176736 7.9233927e-39
0.047218952 -0.14349155 -0.063176736 1.3796848e-39
0.049100451 -0.14349155 -0.063176736 6.4392467e-40
0.05098195 -0.14349155 -0.063176736 1.8402972e-40
-0.032406639 -0.13064255 -0.0091482252 1.7699381e-38
-0.025210042 -0.12983195 -0.0061751455 9.2177567e-39
-0.023428489 -0.12983195 -0.0061751455 5.4384548e-39
-0.021646932 -0.12983195 -0.0061751455 5.1611462e-39
-0.019830529 -0.12899835 -0.0031176656 4.9767549e-39
-0.018054336 -0.12899835 -0.0031176656 6.1756541e-39
-0.016254161 -0.12816976 -7.8544021e-05 5.438089e-39
-0.014483294 -0.12816976 -7.8544021e-05 5.438089e-39
-0.012712427 -0.12816976 -7.8544021e-05 3.9629589e-39
-0.01094156 -0.12816976 -7.8544021e-05 4.8845593e-39
-0.0091655003 -0.12655462 0.0058454424 7.3752847e-39
-0.0074050212 -0.12655462 0.0058454424 5.9966718e-39
-0.0056366427 -0.1273735 0.0028419644 4.9839618e-39
-0.0038708961 -0.1273735 0.0028419644 5.443861e-39
-0.0020872271 -0.12816976 -7.8544021e-05 7.0104678e-39
-0.0002923822 -0.12899835 -0.0031176656 8.4841587e-39
0.0014838129 -0.12899835 -0.0031176656 8.943339e-39
0.0032948526 -0.12983195 -0.0061751455 7.4664069e-39
0.0050764093 -0.12983195 -0.0061751455 5.1593553e-39
0.0068123983 -0.12899835 -0.0031176656 2.944498e-39
0.0085885944 -0.12899835 -0.0031176656 3.4947879e-39
0.029455423 -0.1390769 -0.040083751 8.9357398e-39
0.031296432 -0.1390769 -0.040083751 9.3967137e-39
0.033137441 -0.1390769 -0.040083751 9.3956263e-39
0.035145514 -0.14018236 -0.044138297 1.1700151e-38
0.037250247 -0.14181106 -0.050112113 1.2989445e-38
0.0394243 -0.14373477 -0.057167873 1.3634815e-38
0.041431837 -0.14453618 -0.060107216 1.2990171e-38
0.043307953 -0.14453618 -0.060107216 1.04105e-38
0.045337453 -0.14537306 -0.063176736 7.9230298e-39
0.047218952 -0.14537306 -0.063176736 1.840656e-39
0.049100451 -0.14537306 -0.063176736 7.361189e-40
0.05098195 -0.14537306 -0.063176736 1.0130645e-39
0.052863449 -0.14537306 -0.063176736 2.1186904e-39
-0.028833102 -0.13242932 -0.0091482252 1.6688114e-38
-0.026991602 -0.13161351 -0.0061751455 9.4050248e-39
-0.025159117 -0.13077454 -0.0031176656 8.7603799e-39
-0.023337629 -0.12994061 -7.8544021e-05 6.179268e-39
-0.02156676 -0.12994061 -7.8544021e-05 5.0736449e-39
-0.019795895 -0.12994061 -7.8544021e-05 3.7825502e-39
-0.018025026 -0.12994061 -7.8544021e-05 3.0442649e-39
-0.016254161 -0.12994061 -7.8544021e-05 4.5193921e-39
-0.014465372 -0.12913923 0.0028419644 4.1502425e-39
-0.01268646 -0.12831511 0.0058454424 4.3339079e-39
-0.010925981 -0.12831511 0.0058454424 3.3201105e-39
-0.0091655003 -0.12831511 0.0058454424 5.9945068e-39
-0.0074076382 -0.12749584 0.0088311583 6.2729028e-39
-0.0056523932 -0.12749584 0.0088311583 6.3658201e-39
-0.0038840612 -0.12831511 0.0058454424 6.918275e-39
-0.0020872271 -0.12994061 -7.8544021e-05 7.2863386e-39
-0.0002923822 -0.13077454 -0.0031176656 7.930629e-39
0.0014838129 -0.13077454 -0.0031176656 8.8511434e-39
0.0032948526 -0.13161351 -0.0061751455 8.0195807e-39
0.0050764093 -0.13161351 -0.0061751455 5.8969204e-39
0.0068123983 -0.13077454 -0.0031176656 5.8025625e-39
0.0085885944 -0.13077454 -0.0031176656 6.261733e-39
0.010421078 -0.13161351 -0.0061751455 1.1422522e-38
0.027513925 -0.14011143 -0.037144646 6.1705912e-39
0.029349782 -0.14011143 -0.037144646 8.1081371e-39
0.031296432 -0.14091791 -0.040083751 9.2144833e-39
0.033137441 -0.14091791 -0.040083751 7.9230158e-39
0.035145514 -0.14203046 -0.044138297 8.5669419e-39
0.037121575 -0.14284773 -0.047116742 1.0593801e-38
0.039243523 -0.14449625 -0.053124532 1.2252603e-38
0.041295264 -0.14560573 -0.057167873 1.1792347e-38
0.043307953 -0.1464123 -0.060107216 1.0041717e-38
0.045337453 -0.14725454 -0.063176736 8.0152254e-39
0.047218952 -0.14725454 -0.063176736 2.669332e-39
0.048936304 -0.1464123 -0.060107216 1.1038196e-39
0.05081242 -0.1464123 -0.060107216 1.4740427e-39
0.052688535 -0.1464123 -0.060107216 2.4878289e-39
0.054564655 -0.1464123 -0.060107216 5.9901838e-39
-0.028711509 -0.13255073 -0.0031176656 1.6044184e-38
-0.026935313 -0.13255073 -0.0031176656 1.5216229e-38
-0.025059849 -0.13090499 0.0028419644 1.5770851e-38
-0.023294102 -0.13090499 0.0028419644 1.5864136e-38
-0.021528356 -0.13090499 0.0028419644 1.2359995e-38
-0.019762609 -0.13090499 0.0028419644 1.0239499e-38
-0.017996863 -0.13090499 0.0028419644 4.7077617e-39
-0.016207419 -0.13007559 0.0058454424 3.2319071e-39
-0.014446939 -0.13007559 0.0058454424 2.770559e-39
-0.01268646 -0.13007559 0.0058454424 6.0888674e-39
-0.010925981 -0.13007559 0.0058454424 7.0104566e-39
-0.0091628833 -0.12925108 0.0088311583 8.5777823e-39
-0.007410326 -0.12840421 0.011897758 8.1164552e-39
-0.0056604585 -0.12840421 0.011897758 9.5912308e-39
-0.0038971482 -0.12925108 0.0088311583 1.0235521e-38
-0.0020872271 -0.1317115 -7.8544021e-05 9.2213693e-39
-0.0002923822 -0.13255073 -0.0031176656 8.575281e-39
0.0014838129 -0.13255073 -0.0031176656 8.6660361e-39
0.0032600081 -0.13255073 -0.0031176656 7.9270291e-39
0.0050362032 -0.13255073 -0.0031176656 6.9114324e-39
0.0068123983 -0.13255073 -0.0031176656 6.7252349e-39
0.0085885944 -0.13255073 -0.0031176656 7.1844068e-39
0.010421078 -0.13339506 -0.0061751455 1.3451902e-38
0.012202633 -0.13339506 -0.0061751455 1.8060596e-38
0.027513925 -0.14194728 -0.037144646 5.4344625e-39
0.029349782 -0.14194728 -0.037144646 6.3578593e-39
0.031296432 -0.14275892 -0.040083751 8.8474986e-39
0.033137441 -0.14275892 -0.040083751 7.8326222e-39
0.035145514 -0.14387859 -0.044138297 6.8173857e-39
0.037121575 -0.14470108 -0.047116742 9.3045041e-39
0.039108839 -0.14552824 -0.050112113 1.2438435e-38
0.041107398 -0.14636014 -0.053124532 1.2068937e-38
0.043307953 -0.14828841 -0.060107216 1.0318304e-38
0.045184068 -0.14828841 -0.060107216 7.9230298e-39
0.047060184 -0.14828841 -0.060107216 2.8537205e-39
0.048936304 -0.14828841 -0.060107216 7.350427e-40
0.05081242 -0.14828841 -0.060107216 1.2896514e-39
0.052688535 -0.14828841 -0.060107216 2.1179673e-39
0.054564655 -0.14828841 -0.060107216 5.8979854e-39
-0.028711509 -0.13432692 -0.0031176656 2.093271e-38
-0.026935313 -0.13432692 -0.0031176656 2.249969e-38
-0.025059849 -0.13267075 0.0028419644 2.2132353e-38
-0.023249339 -0.13183604 0.0058454424 2.1397669e-38
-0.02148886 -0.13183604 0.0058454424 2.1121804e-38
-0.019728381 -0.13183604 0.0058454424 2.1673176e-38
-0.017967902 -0.13183604 0.0058454424 1.6419502e-38
-0.016207419 -0.13183604 0.0058454424 9.6884935e-39
-0.014446939 -0.13183604 0.0058454424 5.7233443e-39
-0.012673373 -0.13100632 0.0088311583 4.6166212e-39
-0.010918128 -0.13100632 0.0088311583 6.3679641e-39
-0.0091628833 -0.13100632 0.0088311583 6.0899352e-39
-0.007410326 -0.13015409 0.011897758 8.7607456e-39
-0.0056604585 -0.13015409 0.011897758 1.0603588e-38
-0.0038971482 -0.13100632 0.0088311583 1.0325922e-38
-0.0021235812 -0.13183604 0.0058454424 8.3901695e-39
-0.00033940375 -0.13267075 0.0028419644 7.283103e-39
0.0014545051 -0.13348235 -7.8544021e-05 6.5451765e-39
0.0032600081 -0.13432692 -0.0031176656 6.8206815e-39
0.0050362032 -0.13432692 -0.0031176656 8.5709538e-39
0.0068123983 -0.13432692 -0.0031176656 7.5560746e-39
0.0085885944 -0.13432692 -0.0031176656 6.0787781e-39
0.010421078 -0.13517661 -0.0061751455 1.2531744e-38
0.012202633 -0.13517661 -0.0061751455 1.8523013e-38
0.013984189 -0.13517661 -0.0061751455 1.437312e-38
0.015765745 -0.13517661 -0.0061751455 1.215898e-38
0.017775398 -0.13766994 -0.015147075 1.2158616e-38
0.019572683 -0.13766994 -0.015147075 1.4279471e-38
0.023564856 -0.14127107 -0.028105244 1.2253688e-38
0.025384862 -0.14127107 -0.028105244 1.1887428e-38
0.027410313 -0.14294095 -0.034114107 4.5135824e-39
0.029349782 -0.14378314 -0.037144646 4.2391577e-39
0.031296432 -0.14459993 -0.040083751 8.6645479e-39
0.033137441 -0.14459993 -0.040083751 8.2032054e-39
0.035145514 -0.1457267 -0.044138297 4.9749136e-39
0.037121575 -0.14655443 -0.047116742 6.5400771e-39
0.039108839 -0.14738683 -0.050112113 1.1609395e-38
0.041107398 -0.14822401 -0.053124532 1.2069297e-38
0.043166228 -0.14934768 -0.057167873 1.0226109e-38
-0.030554712 -0.13695817 -0.0061751455 2.314253e-38
-0.028711509 -0.13610314 -0.0031176656 2.2867025e-38
-0.026770301 -0.13359652 0.0058454424 2.1671721e-38
-0.025009822 -0.13359652 0.0058454424 2.2040518e-38
-0.023249339 -0.13359652 0.0058454424 2.1948682e-38
-0.02148886 -0.13359652 0.0058454424 2.1765011e-38
-0.019728381 -0.13359652 0.0058454424 2.1856847e-38
-0.017939109 -0.13276155 0.0088311583 2.1673176e-38
-0.016183864 -0.13276155 0.0088311583 2.1396952e-38
-0.014428618 -0.13276155 0.0088311583 2.2224189e-38
-0.012673373 -0.13276155 0.0088311583 1.6878637e-38
-0.010918128 -0.13276155 0.0088311583 1.49418e-38
-0.0091628833 -0.13276155 0.0088311583 1.0330578e-38
-0.007410326 -0.13190396 0.011897758 1.1343297e-38
-0.0056604585 -0.13190396 0.011897758 1.2356375e-38
-0.0039105909 -0.13190396 0.011897758 1.060359e-38
-0.0021419032 -0.13276155 0.0088311583 8.2054223e-39
-0.00036310125 -0.13359652 0.0058454424 7.2827359e-39
0.0014545051 -0.13525321 -7.8544021e-05 6.4526067e-39
0.0032600081 -0.13610314 -0.0031176656 8.387273e-39
0.0050362032 -0.13610314 -0.0031176656 1.2626831e-38
0.0068123983 -0.13610314 -0.0031176656 1.0043912e-38
0.0085885944 -0.13610314 -0.0031176656 5.3408473e-39
0.010421078 -0.13695817 -0.0061751455 1.0687104e-38
0.012202633 -0.13695817 -0.0061751455 1.8153859e-38
0.013984189 -0.13695817 -0.0061751455 1.55713e-38
0.015765745 -0.13695817 -0.0061751455 1.3910697e-38
0.017775398 -0.13946722 -0.015147075 1.4740096e-38
0.019572683 -0.13946722 -0.015147075 1.8152048e-38
0.021457508 -0.14031343 -0.018172964 1.8244595e-38
0.023350269 -0.14113526 -0.021111593 1.6771263e-38
0.025257315 -0.14199139 -0.024173006 1.6127702e-38
0.027307294 -0.14392884 -0.031100973 7.9240976e-39
0.029132552 -0.14392884 -0.031100973 5.8050428e-39
0.031185638 -0.14561899 -0.037144646 7.8340684e-39
0.033021495 -0.14561899 -0.037144646 6.0816269e-39
0.034978449 -0.14644094 -0.040083751 1.9314153e-39
0.03699363 -0.14757483 -0.044138297 3.681312e-39
0.038841747 -0.14757483 -0.044138297 1.0225737e-38
0.040967431 -0.14924543 -0.050112113 1.1423564e-38
-0.032191958 -0.13702409 -7.8544021e-05 2.3508804e-38
-0.030357089 -0.13620223 0.0028419644 2.3509879e-38
-0.02853078 -0.13535701 0.0058454424 2.2865587e-38
-0.026715335 -0.13451682 0.0088311583 2.2958863e-38
-0.024909008 -0.13365383 0.011897758 2.295887e-38
-0.023159143 -0.13365383 0.011897758 2.2867032e-38
-0.021370482 -0.13282375 0.014847532 2.1947581e-38
-0.019625787 -0.13282375 0.014847532 2.2775195e-38
-0.017909534 -0.13365383 0.011897758 2.2314948e-38
-0.016159669 -0.13365383 0.011897758 2.2867037e-38
-0.014409798 -0.13365383 0.011897758 2.2683356e-38
-0.012659931 -0.13365383 0.011897758 2.2958863e-38
-0.010910063 -0.13365383 0.011897758 2.1575935e-38
-0.0091601955 -0.13365383 0.011897758 1.6875034e-38
-0.0074129133 -0.13282375 0.014847532 1.0055419e-38
-0.0056682164 -0.13282375 0.014847532 1.0240178e-38
-0.0039235195 -0.13282375 0.014847532 1.0329164e-38
-0.0021788245 -0.13282375 0.014847532 5.8101338e-39
-0.00036310125 -0.13535701 0.0058454424 5.4405987e-39
0.0013973787 -0.13535701 0.0058454424 7.0064685e-39
0.0031920876 -0.13620223 0.0028419644 7.5564053e-39
0.0049962383 -0.13702409 -7.8544021e-05 1.6128088e-38
0.0068123983 -0.13787933 -0.0031176656 1.5111789e-38
0.0085885944 -0.13787933 -0.0031176656 6.9967673e-39
0.010421078 -0.13873972 -0.0061751455 8.7477416e-39
0.012202633 -0.13873972 -0.0061751455 1.8151687e-38
0.013984189 -0.13873972 -0.0061751455 1.8058061e-38
0.015765745 -0.13873972 -0.0061751455 1.3263172e-38
0.017622888 -0.13957639 -0.0091482252 1.556771e-38
0.019572683 -0.14126451 -0.015147075 1.9994168e-38
0.021457508 -0.14211603 -0.018172964 1.9351296e-38
0.023350269 -0.14294298 -0.021111593 1.7970155e-38
0.025257315 -0.14380451 -0.024173006 1.6034417e-38
0.027204871 -0.14491107 -0.028105244 9.6740083e-39
0.029132552 -0.14575411 -0.031100973 6.5386492e-39
0.031071398 -0.14660202 -0.034114107 7.0918258e-39
0.033021495 -0.14745484 -0.037144646 7.7368323e-39
0.034978449 -0.14828195 -0.040083751 3.6795183e-39
0.03699363 -0.14942293 -0.044138297 4.2316075e-39
0.038841747 -0.14942293 -0.044138297 1.077675e-38
-0.032051738 -0.13711749 0.0058454424 2.3415884e-38
-0.030291259 -0.13711749 0.0058454424 2.350987e-38
-0.02847058 -0.13627206 0.0088311583 2.2311326e-38
-0.026658878 -0.13540371 0.011897758 2.2035456e-38
-0.024909008 -0.13540371 0.011897758 2.2404955e-38
-0.02311518 -0.13456844 0.014847532 2.3234357e-38
-0.021370482 -0.13456844 0.014847532 2.305068e-38
-0.019625787 -0.13456844 0.014847532 2.3234364e-38
-0.017881092 -0.13456844 0.014847532 2.3049991e-38
-0.016136393 -0.13456844 0.014847532 2.3234379e-38
-0.014391697 -0.13456844 0.014847532 2.2773391e-38
-0.012647002 -0.13456844 0.014847532 2.3234364e-38
-0.010910063 -0.13540371 0.011897758 2.2312061e-38
-0.0091601955 -0.13540371 0.011897758 2.1760324e-38
-0.0074129133 -0.13456844 0.014847532 1.5680069e-38
-0.0056682164 -0.13456844 0.014847532 8.490253e-39
-0.0039235195 -0.13456844 0.014847532 7.2881477e-39
-0.0021788245 -0.13456844 0.014847532 7.1015928e-39
-0.00038665906 -0.13627206 0.0088311583 6.5472924e-39
0.0013973787 -0.13711749 0.0058454424 7.0060901e-39
0.0031920876 -0.13796796 0.0028419644 1.1889584e-38
0.0049578343 -0.13796796 0.0028419644 1.7142228e-38
0.0067671053 -0.13879494 -7.8544021e-05 1.5386934e-38
0.0085379714 -0.13879494 -7.8544021e-05 9.5768058e-39
0.010364789 -0.13965552 -0.0031176656 8.2853229e-39
0.012140985 -0.13965552 -0.0031176656 1.4554616e-38
0.013917179 -0.13965552 -0.0031176656 1.3908179e-38
0.015693374 -0.13965552 -0.0031176656 1.1971717e-38
0.017547302 -0.14052127 -0.0061751455 1.3815633e-38
0.019490931 -0.14220999 -0.012138829 1.9164047e-38
0.021369971 -0.1430618 -0.015147075 1.8337141e-38
0.023260102 -0.14391862 -0.018172964 1.7878312e-38
0.02515801 -0.14475073 -0.021111593 1.6679783e-38
0.027204871 -0.14673109 -0.028105244 1.179271e-38
0.029132552 -0.14757936 -0.031100973 9.6718615e-39
0.031071398 -0.14843257 -0.034114107 9.3030818e-39
0.032901939 -0.14843257 -0.034114107 8.4725994e-39
0.034857351 -0.14929073 -0.037144646 4.1390545e-39
-0.032051738 -0.13887797 0.0058454424 2.3509856e-38
-0.030291259 -0.13887797 0.0058454424 2.3509844e-38
-0.02847058 -0.1380273 0.0088311583 1.8071386e-38
-0.026658878 -0.13715358 0.011897758 1.4015494e-38
-0.024909008 -0.13715358 0.011897758 1.484632e-38
-0.02311518 -0.13631313 0.014847532 2.0839042e-38
-0.021370482 -0.13631313 0.014847532 2.3142527e-38
-0.019625787 -0.13631313 0.014847532 2.3234379e-38
-0.017881092 -0.13631313 0.014847532 2.2312078e-38
-0.016136393 -0.13631313 0.014847532 2.2312078e-38
-0.014391697 -0.13631313 0.014847532 2.3141467e-38
-0.012647002 -0.13631313 0.014847532 2.3418045e-38
-0.010910063 -0.13715358 0.011897758 2.323365e-38
-0.0091601955 -0.13715358 0.011897758 2.3142534e-38
-0.007410326 -0.13715358 0.011897758 1.8999116e-38
-0.0056604585 -0.13715358 0.011897758 7.0140551e-39
-0.0039105909 -0.13715358 0.011897758 5.8130176e-39
-0.0021607224 -0.13715358 0.011897758 5.9037601e-39
-0.00038665906 -0.1380273 0.0088311583 4.4278635e-39
0.0013973787 -0.13887797 0.0058454424 7.0075195e-39
0.0031578587 -0.13887797 0.0058454424 1.4011156e-38
0.0049183378 -0.13887797 0.0058454424 1.6128074e-38
0.0066788178 -0.13887797 0.0058454424 1.7599632e-38
0.0085379714 -0.14056583 -7.8544021e-05 1.2434519e-38
0.010364789 -0.1414317 -0.0031176656 8.5626399e-39
0.012140985 -0.1414317 -0.0031176656 1.4185126e-38
0.013917179 -0.1414317 -0.0031176656 1.3907826e-38
0.015693374 -0.1414317 -0.0031176656 1.1234152e-38
0.017547302 -0.14230286 -0.0061751455 1.1418541e-38
0.019409657 -0.14314993 -0.0091482252 1.9809411e-38
0.021282941 -0.14400201 -0.012138829 1.9074706e-38
0.023167256 -0.14485909 -0.015147075 1.8615524e-38
0.025062691 -0.14572121 -0.018172964 1.7509189e-38
0.027070425 -0.14743073 -0.024173006 1.3545509e-38
0.029132552 -0.14940463 -0.031100973 1.2069671e-38
0.030957811 -0.14940463 -0.031100973 9.9480939e-39
0.032783072 -0.14940463 -0.031100973 7.3666162e-39
-0.032122832 -0.14149947 0.0028419644 1.1615876e-38
-0.030357089 -0.14149947 0.0028419644 1.6411477e-38
-0.02847058 -0.13978253 0.0088311583 1.2262334e-38
-0.026604574 -0.13805781 0.014847532 1.1525845e-38
-0.024859875 -0.13805781 0.014847532 1.1251034e-38
-0.023070026 -0.13718925 0.017877415 8.4851761e-39
-0.02133064 -0.13718925 0.017877415 1.2447831e-38
-0.019625787 -0.13805781 0.014847532 2.0284126e-38
-0.017881092 -0.13805781 0.014847532 2.323402e-38
-0.016136393 -0.13805781 0.014847532 2.323402e-38
-0.014391697 -0.13805781 0.014847532 2.341805e-38
-0.012647002 -0.13805781 0.014847532 2.341805e-38
-0.010910063 -0.13890342 0.011897758 2.2864869e-38
-0.0091601955 -0.13890342 0.011897758 2.2958503e-38
-0.007410326 -0.13890342 0.011897758 2.2040504e-38
-0.0056604585 -0.13890342 0.011897758 5.4463791e-39
-0.0039105909 -0.13890342 0.011897758 3.3237328e-39
-0.0021607224 -0.13890342 0.011897758 5.9037545e-39
-0.00036310125 -0.14063846 0.0058454424 4.336021e-39
0.001368586 -0.13978253 0.0088311583 3.6888453e-39
0.003123831 -0.13978253 0.0088311583 8.4794154e-39
0.0049183378 -0.14063846 0.0058454424 1.7142223e-38
0.0066788178 -0.14063846 0.0058454424 1.5663524e-38
0.0085379714 -0.14233668 -7.8544021e-05 1.5293308e-38
0.010364789 -0.14320792 -0.0031176656 1.0774627e-38
0.012140985 -0.14320792 -0.0031176656 9.3913229e-39
0.013917179 -0.14320792 -0.0031176656 1.1050124e-38
0.015693374 -0.14320792 -0.0031176656 1.169513e-38
0.017547302 -0.14408441 -0.0061751455 1.0957914e-38
0.019409657 -0.1449367 -0.0091482252 1.6214134e-38
0.021282941 -0.14579402 -0.012138829 1.5847862e-38
0.023167256 -0.14665638 -0.015147075 1.4281978e-38
0.024964545 -0.14665638 -0.015147075 1.3176721e-38
0.027070425 -0.14924385 -0.024173006 1.1793437e-38
-0.030225825 -0.14153777 0.0088311583 9.4049576e-39
-0.02847058 -0.14153777 0.0088311583 1.1616962e-38
-0.026401103 -0.13661484 0.025899604 1.04195e-38
-0.024675783 -0.13661484 0.025899604 7.839078e-39
-0.022950467 -0.13661484 0.025899604 9.5911607e-39
-0.02129104 -0.13806005 0.020888939 8.9447459e-39
-0.019591257 -0.13892864 0.017877415 1.8532035e-38
-0.017851871 -0.13892864 0.017877415 2.1390105e-38
-0.016112488 -0.13892864 0.017877415 2.341805e-38
-0.014373104 -0.13892864 0.017877415 2.3233302e-38
-0.012647002 -0.13980253 0.014847532 2.2864519e-38
-0.010894337 -0.13892864 0.017877415 2.3509527e-38
-0.0091549521 -0.13892864 0.017877415 2.3234379e-38
-0.0074076382 -0.14153777 0.0088311583 2.2591531e-38
-0.0056523932 -0.14153777 0.0088311583 1.2175585e-38
-0.0038971482 -0.14153777 0.0088311583 4.1527732e-39
-0.0021419032 -0.14153777 0.0088311583 4.3367833e-39
-0.00038665906 -0.14153777 0.0088311583 4.3360182e-39
0.001368586 -0.14153777 0.0088311583 2.3059319e-39
0.003123831 -0.14153777 0.0088311583 5.0681742e-39
0.0049183378 -0.14239894 0.0058454424 1.5852203e-38
0.0066788178 -0.14239894 0.0058454424 1.7415961e-38
0.0085885944 -0.14498411 -0.0031176656 1.5293671e-38
0.010364789 -0.14498411 -0.0031176656 1.0774994e-38
0.012140985 -0.14498411 -0.0031176656 7.54706e-39
0.013917179 -0.14498411 -0.0031176656 1.1234519e-38
0.015693374 -0.14498411 -0.0031176656 9.6675427e-39
0.017547302 -0.14586596 -0.0061751455 9.6675287e-39
0.019409657 -0.14672346 -0.0091482252 1.6214849e-38
0.021282941 -0.14758603 -0.012138829 1.5848588e-38
0.023074955 -0.14758603 -0.012138829 1.2807212e-38
0.024964545 -0.14845367 -0.015147075 1.1701596e-38
-0.029786799 -0.13748036 0.02886267 1.770184e-38
-0.028066676 -0.13748036 0.02886267 1.3552707e-38
-0.026290584 -0.13659821 0.031902686 9.035487e-39
-0.024575796 -0.13659821 0.031902686 1.0787909e-38
-0.022950467 -0.13834016 0.025899604 1.8072443e-38
-0.021225151 -0.13834016 0.025899604 1.8256491e-38
-0.019533802 -0.13920517 0.022918597 2.1206768e-38
-0.017822832 -0.13979416 0.020888939 2.0099352e-38
-0.016088728 -0.13979416 0.020888939 2.2219499e-38
-0.014354623 -0.13979416 0.020888939 2.3509876e-38
-0.012633721 -0.14066802 0.017877415 2.350988e-38
-0.010886417 -0.13979416 0.020888939 2.3509168e-38
-0.0091523128 -0.13979416 0.020888939 2.3048914e-38
-0.0074155694 -0.14066802 0.017877415 2.2038724e-38
-0.0056761848 -0.14066802 0.017877415 2.185577e-38
0.010364789 -0.1467603 -0.0031176656 1.2157932e-38
0.012140985 -0.1467603 -0.0031176656 3.1224069e-39
0.013917179 -0.1467603 -0.0031176656 6.8094894e-39
0.015693374 -0.1467603 -0.0031176656 8.6533908e-39
0.017547302 -0.14764751 -0.0061751455 8.4697044e-39
0.019490931 -0.14937802 -0.012138829 9.9455491e-39
0.021282941 -0.14937802 -0.012138829 8.0123233e-39
0.023074955 -0.14937802 -0.012138829 5.0635079e-39
-0.03314976 -0.13831301 0.031902686 1.9082965e-38
-0.031434964 -0.13831301 0.031902686 1.8437596e-38
-0.029720172 -0.13831301 0.031902686 1.8714913e-38
-0.02800538 -0.13831301 0.031902686 2.0005314e-38
-0.026236702 -0.13745852 0.034829751 1.5948717e-38
-0.024527039 -0.13745852 0.034829751 1.4106244e-38
-0.022906307 -0.13920046 0.02886267 1.8440515e-38
-0.021186184 -0.13920046 0.02886267 1.7980247e-38
-0.019499831 -0.14006548 0.025899604 1.8072451e-38
-0.017803259 -0.14093573 0.022918597 1.8716051e-38
-0.016088728 -0.14152823 0.020888939 1.9084479e-38
-0.014354623 -0.14152823 0.020888939 2.0191532e-38
-0.012620519 -0.14152823 0.020888939 2.3509863e-38
-0.010886417 -0.14152823 0.020888939 2.2862721e-38
-0.0091523128 -0.14152823 0.020888939 2.2772332e-38
-0.0074155694 -0.1424074 0.017877415 2.2867037e-38
-0.0056761848 -0.1424074 0.017877415 2.2591531e-38
-0.0039368002 -0.1424074 0.017877415 1.4385758e-38
0.0084392978 -0.1459199 0.0058454424 1.4741565e-38
0.010255071 -0.14679669 0.0028419644 1.2712179e-38
0.012020818 -0.14679669 0.0028419644 4.7826303e-39
0.013786565 -0.14679669 0.0028419644 5.7964164e-39
0.015552309 -0.14679669 0.0028419644 7.1786236e-39
-0.03314976 -0.14002781 0.031902686 7.4659557e-39
-0.031434964 -0.14002781 0.031902686 1.0508054e-38
-0.029656019 -0.13916816 0.034829751 1.5026009e-38
-0.02794636 -0.13916816 0.034829751 1.6870294e-38
-0.026198652 -0.13856123 0.036896423 1.7884458e-38
-0.024492614 -0.13856123 0.036896423 1.8991896e-38
-0.022817377 -0.13916816 0.034829751 1.6134904e-38
-0.021146208 -0.14002781 0.031902686 1.2171194e-38
-0.019466061 -0.14092059 0.02886267 8.5762927e-39
-0.017745938 -0.14092059 0.02886267 9.2199007e-39
-0.016049191 -0.14179079 0.025899604 7.5603822e-39
-0.014323874 -0.14179079 0.025899604 1.2079022e-38
-0.012620519 -0.14326234 0.020888939 2.3509844e-38
-0.010886417 -0.14326234 0.020888939 2.3416597e-38
-0.0091523128 -0.14326234 0.020888939 2.3509886e-38
-0.0074182088 -0.14326234 0.020888939 2.2591169e-38
-0.0056761848 -0.14414679 0.017877415 2.2591529e-38
-0.0039368002 -0.14414679 0.017877415 2.1575933e-38
0.0084392978 -0.14768039 0.0058454424 1.5664949e-38
0.010199779 -0.14768039 0.0058454424 1.3082029e-38
0.012020818 -0.14856245 0.0028419644 3.2163948e-39
0.013786565 -0.14856245 0.0028419644 2.2040519e-39
0.015552309 -0.14856245 0.0028419644 6.073718e-39
-0.036434874 -0.14026727 0.036896423 7.2779631e-39
-0.034728836 -0.14026727 0.036896423 7.1865003e-39
-0.033022802 -0.14026727 0.036896423 7.7400384e-39
-0.031316761 -0.14026727 0.036896423 9.0318478e-39
-0.029656019 -0.14087783 0.034829751 9.0329268e-39
-0.027904689 -0.14026727 0.036896423 1.2721119e-38
-0.026143599 -0.13938378 0.039886847 1.7146879e-38
-0.024442803 -0.13938378 0.039886847 1.9267393e-38
-0.022786576 -0.14026727 0.036896423 1.5580288e-38
-0.021146208 -0.1417426 0.031902686 1.1709499e-38
-0.019431416 -0.1417426 0.031902686 7.6529057e-39
-0.01771662 -0.1417426 0.031902686 8.6652962e-39
-0.016025815 -0.14264072 0.02886267 6.9135792e-39
-0.014305691 -0.14264072 0.02886267 8.2060795e-39
-0.012598556 -0.14351611 0.025899604 2.0191144e-38
-0.010873239 -0.14351611 0.025899604 2.3509482e-38
-0.0091479206 -0.14351611 0.025899604 2.3509859e-38
-0.0074199876 -0.14439683 0.022918597 2.3234367e-38
-0.0056894431 -0.14439683 0.022918597 2.2590439e-38
-0.0039500026 -0.14499645 0.020888939 2.2496801e-38
-0.0021788245 -0.14678131 0.014847532 3.5873241e-43
0.0084392978 -0.14944084 0.0058454424 1.1333178e-38
0.010199779 -0.14944084 0.0058454424 1.0963677e-38
-0.036348362 -0.14108457 0.039886847 1.2256523e-38
-0.034647565 -0.14108457 0.039886847 1.1887403e-38
-0.032946777 -0.14108457 0.039886847 9.6754334e-39
-0.031316761 -0.1419733 0.036896423 5.8968433e-39
-0.029610727 -0.1419733 0.036896423 1.1952964e-39
-0.027904689 -0.1419733 0.036896423 2.762957e-39
-0.026143599 -0.14108457 0.039886847 1.0507719e-38
-0.024442803 -0.14108457 0.039886847 1.77919e-38
-0.022742011 -0.14108457 0.039886847 1.8991162e-38
-0.021107718 -0.1425875 0.034829751 1.3644178e-38
-0.019431416 -0.14345737 0.031902686 5.9923124e-39
-0.01771662 -0.14345737 0.031902686 5.7146717e-39
-0.016001828 -0.14345737 0.031902686 4.6086773e-39
-0.014287035 -0.14345737 0.031902686 5.4398462e-39
-0.012585568 -0.14436086 0.02886267 1.4844147e-38
-0.010873239 -0.14524142 0.025899604 2.000675e-38
-0.0091479206 -0.14524142 0.025899604 2.2680437e-38
-0.0074226009 -0.14524142 0.025899604 2.3326189e-38
-0.005697283 -0.14524142 0.025899604 2.304961e-38
-0.0039588986 -0.14612736 0.022918597 2.2127292e-38
-0.0021788245 -0.148526 0.014847532 2.7550649e-40
-0.036348362 -0.14278536 0.039886847 1.3546186e-38
-0.034647565 -0.14278536 0.039886847 1.1517901e-38
-0.032946777 -0.14278536 0.039886847 1.0781058e-38
-0.031316761 -0.14367934 0.036896423 7.9233395e-39
-0.029610727 -0.14367934 0.036896423 1.3782499e-39
-0.027904689 -0.14367934 0.036896423 1.6548326e-39
-0.026143599 -0.14278536 0.039886847 7.1869011e-39
-0.024442803 -0.14278536 0.039886847 1.2352358e-38
-0.022742011 -0.14278536 0.039886847 1.4565769e-38
-0.021107718 -0.14429714 0.034829751 1.2813347e-38
-0.019398056 -0.14429714 0.034829751 2.7643919e-39
-0.017688394 -0.14429714 0.034829751 3.5941484e-39
-0.015978735 -0.14429714 0.034829751 5.2540243e-39
-0.014287035 -0.14517216 0.031902686 5.8079001e-39
-0.012585568 -0.14608096 0.02886267 1.0510232e-38
-0.010865445 -0.14608096 0.02886267 1.6410395e-38
-0.0091479206 -0.14696677 0.025899604 2.0467377e-38
-0.0074226009 -0.14696677 0.025899604 2.34173e-38
-0.005697283 -0.14696677 0.025899604 2.3509866e-38
-0.0039588986 -0.14785792 0.022918597 2.1941453e-38
-0.036434874 -0.14538537 0.036896423 1.465218e-38
-0.034728836 -0.14538537 0.036896423 1.778648e-38
-0.033022802 -0.14538537 0.036896423 1.8893906e-38
-0.031365681 -0.14600681 0.034829751 1.6589367e-38
-0.029656019 -0.14600681 0.034829751 5.3411668e-39
-0.027904689 -0.14538537 0.036896423 1.2856969e-39
-0.026143599 -0.14448614 0.039886847 2.2987573e-39
-0.024442803 -0.14448614 0.039886847 8.0177352e-39
-0.022742011 -0.14448614 0.039886847 1.5671403e-38
-0.021107718 -0.14600681 0.034829751 1.198287e-38
-0.019398056 -0.14600681 0.034829751 1.7498967e-39
-0.017688394 -0.14600681 0.034829751 3.7788872e-39
-0.015978735 -0.14600681 0.034829751 7.7440055e-39
-0.014287035 -0.14688696 0.031902686 7.74436e-39
-0.012585568 -0.14780109 0.02886267 8.1131454e-39
-0.010865445 -0.14780109 0.02886267 1.4013314e-38
-0.0091453223 -0.14780109 0.02886267 1.8437999e-38
-0.0074226009 -0.14869209 0.025899604 2.1387559e-38
-0.005697283 -0.14869209 0.025899604 2.2770137e-38
-0.033075344 -0.14771648 0.034829751 1.96311e-38
-0.031365681 -0.14771648 0.034829751 1.8340005e-38
-0.029656019 -0.14771648 0.034829751 6.6311868e-39
-0.027904689 -0.1470914 0.036896423 1.3775324e-39
-0.026143599 -0.14618696 0.039886847 1.2856969e-39
-0.024442803 -0.14618696 0.039886847 3.2221415e-39
-0.022786576 -0.1470914 0.036896423 1.3088495e-38
-0.021080542 -0.1470914 0.036896423 1.3550196e-38
-0.019374501 -0.1470914 0.036896423 3.6863342e-39
-0.017668467 -0.1470914 0.036896423 4.1480228e-39
-0.015962429 -0.1470914 0.036896423 7.8361899e-39
-0.014269073 -0.14771648 0.034829751 7.0986249e-39
-0.012572243 -0.14860176 0.031902686 5.8075372e-39
-0.010865445 -0.14952122 0.02886267 1.2168334e-38
-0.0091453223 -0.14952122 0.02886267 1.6869609e-38
-0.027904689 -0.14879744 0.036896423 2.1122164e-39
-0.026143599 -0.14788775 0.039886847 1.5612076e-39
-0.024442803 -0.14788775 0.039886847 3.405102e-39
-0.022742011 -0.14788775 0.039886847 1.4562557e-38
-0.021080542 -0.14879744 0.036896423 1.410265e-38
-0.019374501 -0.14879744 0.036896423 5.3451353e-39
-0.01763963 -0.14788775 0.039886847 3.0413333e-39
-0.015938833 -0.14788775 0.039886847 6.2685139e-39
-0.014256391 -0.14879744 0.036896423 5.4391064e-39
-0.012559413 -0.14942612 0.034829751 4.240217e-39
-0.026143599 -0.14958854 0.039886847 1.3775324e-39
-0.024393298 -0.14867918 0.042859033 1.2856969e-39
-0.022697713 -0.14867918 0.042859033 1.317927e-38
-0.021041218 -0.14958854 0.039886847 1.345728e-38
-0.019340422 -0.14958854 0.039886847 5.8979587e-39
-0.01763963 -0.14958854 0.039886847 1.2882081e-39
-0.015938833 -0.14958854 0.039886847 5.2529565e-39
