# .PCD v0.7 - Point Cloud Data file format
VERSION 0.7
FIELDS x y z rgb
SIZE 4 4 4 4
TYPE F F F F
COUNT 1 1 1 1
WIDTH 751
HEIGHT 1
VIEWPOINT 0 0 0 1 0 0 0
POINTS 751
DATA ascii
-0.056434099 -0.13260551 -0.055884011 6.733141e-39
-0.054484237 -0.13260551 -0.055884011 7.6547358e-39
0.0041650496 -0.12380283 -0.020897632 7.3684127e-39
0.0060535707 -0.12380283 -0.020897632 8.6591515e-39
0.0079420917 -0.12380283 -0.020897632 1.2901943e-38
0.009833239 -0.12455635 -0.023892527 1.2718619e-38
-0.058562208 -0.1353019 -0.058830626 7.8376851e-39
-0.056434099 -0.13455538 -0.055884011 6.8242464e-39
-0.054484237 -0.13455538 -0.055884011 7.6532883e-39
-0.052144606 -0.13276742 -0.04882694 7.1894318e-39
-0.049994525 -0.13176022 -0.044851549 7.7422525e-39
-0.048064005 -0.13176022 -0.044851549 9.3110215e-39
0.004196059 -0.12389888 -0.0138228 1.0039537e-38
0.0060721766 -0.12389888 -0.0138228 1.3268182e-38
0.0079482943 -0.12389888 -0.0138228 1.3268894e-38
0.009833239 -0.12645011 -0.023892527 1.2715706e-38
0.011727011 -0.12645011 -0.023892527 1.4099359e-38
-0.067666933 -0.14211179 -0.077861078 1.5302294e-38
-0.065678537 -0.14211179 -0.077861078 1.4195947e-38
-0.063690141 -0.14211179 -0.077861078 1.0417005e-38
-0.061449025 -0.14107598 -0.07380081 1.0417365e-38
-0.058562208 -0.13725694 -0.058830626 1.2907723e-38
-0.056607176 -0.13725694 -0.058830626 1.834762e-38
-0.054484237 -0.13650523 -0.055884011 1.7978111e-38
-0.052144606 -0.1347049 -0.04882694 1.7330217e-38
-0.049783465 -0.13268389 -0.040904768 1.5209722e-38
-0.047859866 -0.13268389 -0.040904768 1.5211175e-38
-0.04593626 -0.13268389 -0.040904768 2.2957417e-38
-0.044012662 -0.13268389 -0.040904768 2.3234376e-38
-0.041758981 -0.13087155 -0.033800609 2.3049626e-38
-0.03984784 -0.13087155 -0.033800609 2.332405e-38
0.0023199432 -0.12577499 -0.0138228 1.4370914e-38
0.004196059 -0.12577499 -0.0138228 1.5293947e-38
0.0060799066 -0.12502514 -0.010883456 1.5756723e-38
0.0079508703 -0.12502514 -0.010883456 1.6864501e-38
0.0098244101 -0.12577499 -0.0138228 1.9814032e-38
0.011700528 -0.12577499 -0.0138228 1.8154514e-38
-0.070421159 -0.14694051 -0.088918813 1.3826445e-38
-0.067666933 -0.1441002 -0.077861078 1.862134e-38
-0.065678537 -0.1441002 -0.077861078 1.7238405e-38
-0.063690141 -0.1441002 -0.077861078 1.1799583e-38
-0.061449025 -0.14305727 -0.07380081 1.3182518e-38
-0.059049714 -0.1412821 -0.06688989 1.3459821e-38
-0.056607176 -0.13921197 -0.058830626 2.0191178e-38
-0.054484237 -0.13845511 -0.055884011 2.2309861e-38
-0.052144606 -0.13664238 -0.04882694 2.2491709e-38
-0.049783465 -0.13460748 -0.040904768 2.0001707e-38
-0.047859866 -0.13460748 -0.040904768 2.0004243e-38
-0.045781869 -0.13381381 -0.037814982 2.3509496e-38
-0.043670122 -0.13278268 -0.033800609 2.3142537e-38
-0.041758981 -0.13278268 -0.033800609 2.2222747e-38
-0.03984784 -0.13278268 -0.033800609 2.2037995e-38
0.0023199432 -0.12765111 -0.0138228 1.7045303e-38
0.0042089447 -0.1268961 -0.010883456 1.5664516e-38
0.0060799066 -0.1268961 -0.010883456 1.5113133e-38
0.0079508703 -0.1268961 -0.010883456 1.7971197e-38
0.009821834 -0.1268961 -0.010883456 1.9814032e-38
0.011692798 -0.1268961 -0.010883456 1.9537817e-38
0.01356376 -0.1268961 -0.010883456 1.8708436e-38
-0.072428942 -0.14894833 -0.088918813 2.2124774e-38
-0.070421159 -0.14894833 -0.088918813 2.221625e-38
-0.067934334 -0.14711304 -0.081822284 2.2769424e-38
-0.065678537 -0.14608859 -0.077861078 1.8435872e-38
-0.063690141 -0.14608859 -0.077861078 1.7975613e-38
-0.061205927 -0.14402847 -0.069895156 2.3508428e-38
-0.059049714 -0.14325126 -0.06688989 2.3508788e-38
-0.056607176 -0.141167 -0.058830626 2.3509866e-38
-0.054484237 -0.14040495 -0.055884011 2.0465949e-38
-0.052144606 -0.13857989 -0.04882694 1.9264495e-38
-0.049783465 -0.13653107 -0.040904768 2.0554867e-38
-0.047859866 -0.13653107 -0.040904768 2.2584631e-38
-0.04558127 -0.13469382 -0.033800609 2.3509848e-38
-0.043670122 -0.13469382 -0.033800609 2.3509869e-38
-0.041758981 -0.13469382 -0.033800609 2.3418045e-38
-0.03984784 -0.13469382 -0.033800609 2.2589724e-38
-0.037936691 -0.13469382 -0.033800609 1.1341855e-38
0.002337981 -0.12876706 -0.010883456 2.3502958e-38
0.0042089447 -0.12876706 -0.010883456 2.2948331e-38
0.0060799066 -0.12876706 -0.010883456 2.2397306e-38
0.0079508703 -0.12876706 -0.010883456 2.3505095e-38
0.009821834 -0.12876706 -0.010883456 2.2672826e-38
0.011682164 -0.12772138 -0.0068401154 2.2304057e-38
0.013546037 -0.12772138 -0.0068401154 1.5666707e-38
0.015409911 -0.12772138 -0.0068401154 2.6678929e-39
0.017273784 -0.12772138 -0.0068401154 3.1292228e-39
-0.069929674 -0.14910837 -0.081822284 2.2215531e-38
-0.067666933 -0.148077 -0.077861078 2.0924793e-38
-0.065411583 -0.14701982 -0.07380081 2.1385771e-38
-0.063430309 -0.14701982 -0.07380081 2.350951e-38
-0.061205927 -0.1460029 -0.069895156 2.3230402e-38
-0.059049714 -0.14522041 -0.06688989 2.3415512e-38
-0.056846652 -0.14418359 -0.062907703 2.3509869e-38
-0.054652143 -0.14312203 -0.058830626 1.613276e-38
-0.051925052 -0.1394823 -0.044851549 1.6408594e-38
-0.049783465 -0.13845469 -0.040904768 2.1847046e-38
-0.047700051 -0.13765021 -0.037814982 2.3508746e-38
-0.045434717 -0.13584132 -0.030867701 2.3509485e-38
-0.04338244 -0.13505147 -0.027834063 2.3504098e-38
-0.041481752 -0.13505147 -0.027834063 2.3508787e-38
-0.039716709 -0.13584132 -0.030867701 2.3506629e-38
-0.037810702 -0.13584132 -0.030867701 1.5115742e-38
0.00049892068 -0.12958528 -0.0068401154 2.3504056e-38
0.0023627933 -0.12958528 -0.0068401154 2.3508725e-38
0.0042266678 -0.12958528 -0.0068401154 2.3509799e-38
0.0060905404 -0.12958528 -0.0068401154 2.3509793e-38
0.0079544149 -0.12958528 -0.0068401154 2.3509069e-38
0.0098182894 -0.12958528 -0.0068401154 2.3509804e-38
0.011682164 -0.12958528 -0.0068401154 2.0921135e-38
0.013546037 -0.12958528 -0.0068401154 1.3730966e-38
0.015409911 -0.12958528 -0.0068401154 2.2072805e-39
0.017273784 -0.12958528 -0.0068401154 1.1942202e-39
0.022693921 -0.12618984 0.0062006656 3.6770072e-40
0.026010977 -0.12048493 0.028111452 5.5328028e-39
0.027813571 -0.12048493 0.028111452 5.8093897e-39
0.029616162 -0.12048493 0.028111452 4.1509501e-39
0.031483158 -0.12125005 0.025172824 5.8093953e-39
0.033290904 -0.12125005 0.025172824 8.6671025e-39
0.03509865 -0.12125005 0.025172824 2.083621e-38
0.036906391 -0.12125005 0.025172824 2.3509886e-38
0.038802706 -0.12204717 0.02211141 2.3509527e-38
0.040615816 -0.12204717 0.02211141 2.3509527e-38
0.042556476 -0.123071 0.018179173 2.2864519e-38
0.044478908 -0.12385099 0.015183443 2.3142544e-38
0.046304166 -0.12385099 0.015183443 2.2958873e-38
0.048243012 -0.12463553 0.012170309 2.1301512e-38
-0.065411583 -0.14900111 -0.07380081 1.9634051e-38
-0.063430309 -0.14900111 -0.07380081 2.3509149e-38
-0.061205927 -0.14797734 -0.069895156 2.3509149e-38
-0.059049714 -0.1471896 -0.06688989 2.3509507e-38
-0.056607176 -0.14507706 -0.058830626 2.2770143e-38
-0.054484237 -0.14430468 -0.055884011 1.3642762e-38
-0.051925052 -0.14141284 -0.044851549 1.686922e-38
-0.049618233 -0.13956837 -0.037814982 2.3412945e-38
-0.047492418 -0.13851611 -0.033800609 2.3507676e-38
-0.045434717 -0.13774733 -0.030867701 2.3506967e-38
-0.04319239 -0.13591899 -0.023892527 2.2667138e-38
-0.041298617 -0.13591899 -0.023892527 2.3497983e-38
-0.039581072 -0.13695215 -0.027834063 2.3220314e-38
-0.037680391 -0.13695215 -0.027834063 1.7782567e-38
-0.0013649538 -0.13144915 -0.0068401154 1.5759644e-38
0.00049892068 -0.13144915 -0.0068401154 1.7325877e-38
0.0023627933 -0.13144915 -0.0068401154 2.0092095e-38
0.0042266678 -0.13144915 -0.0068401154 2.1567933e-38
0.0060905404 -0.13144915 -0.0068401154 2.2951219e-38
0.0079544149 -0.13144915 -0.0068401154 2.3505837e-38
0.0098156482 -0.13065951 -0.0038276967 2.1382834e-38
0.01167424 -0.13065951 -0.0038276967 9.6743586e-39
0.013519702 -0.12987436 -0.00083232485 8.6605794e-39
0.015373043 -0.12987436 -0.00083232485 7.1861766e-39
0.017226383 -0.12987436 -0.00083232485 5.6199411e-39
0.019011902 -0.12803085 0.0062006656 5.3455192e-39
0.027813571 -0.12228753 0.028111452 5.9948599e-39
0.029616162 -0.12228753 0.028111452 1.7334925e-38
0.031418756 -0.12228753 0.028111452 2.1758882e-38
0.033221345 -0.12228753 0.028111452 2.2957428e-38
0.035023939 -0.12228753 0.028111452 2.3509886e-38
0.036906391 -0.1230578 0.025172824 2.2956715e-38
0.038714137 -0.1230578 0.025172824 2.2771602e-38
0.040615816 -0.12386028 0.02211141 2.3509886e-38
0.042556476 -0.124891 0.018179173 2.3326213e-38
0.044478908 -0.12567626 0.015183443 2.3234379e-38
0.046304166 -0.12567626 0.015183443 2.2958873e-38
0.048243012 -0.12646608 0.012170309 2.2775202e-38
0.050193109 -0.12726043 0.0091397706 2.093345e-38
0.052028965 -0.12726043 0.0091397706 1.8352691e-38
-0.065154791 -0.14995177 -0.069895156 1.889576e-38
-0.063180357 -0.14995177 -0.069895156 2.3137838e-38
-0.061018873 -0.14915876 -0.06688989 2.3509502e-38
-0.058808822 -0.14810793 -0.062907703 2.0740754e-38
-0.056607176 -0.1470321 -0.058830626 1.6961097e-38
-0.054254804 -0.1451921 -0.051857717 1.502498e-38
-0.051707063 -0.14230187 -0.040904768 1.8434399e-38
-0.049403559 -0.14042725 -0.033800609 2.3503357e-38
-0.04734071 -0.13965334 -0.030867701 2.3504088e-38
-0.04528312 -0.13885282 -0.027834063 2.3505542e-38
-0.04319239 -0.13781275 -0.023892527 2.3494024e-38
-0.041298617 -0.13781275 -0.023892527 2.0445808e-38
-0.039581072 -0.13885282 -0.027834063 2.0262134e-38
-0.037680391 -0.13885282 -0.027834063 1.7775366e-38
-0.0031264164 -0.13094176 0.0021461193 9.7680466e-39
-0.0012782961 -0.13094176 0.0021461193 9.6747566e-39
0.00054632127 -0.13172771 -0.00083232485 1.068925e-38
0.0023996606 -0.13172771 -0.00083232485 1.1888131e-38
0.0042398721 -0.1325181 -0.0038276967 1.1059073e-38
0.0060984641 -0.1325181 -0.0038276967 1.2811139e-38
0.0079570562 -0.1325181 -0.0038276967 1.5483738e-38
0.0098156482 -0.1325181 -0.0038276967 1.6681225e-38
0.011666363 -0.13172771 -0.00083232485 7.4620376e-39
0.013506647 -0.13094176 0.0021461193 9.0297291e-39
0.015329884 -0.12987186 0.0062006656 9.3074006e-39
0.017170893 -0.12987186 0.0062006656 7.3727371e-39
0.019011902 -0.12987186 0.0062006656 7.8358788e-39
0.026059926 -0.12486555 0.025172824 7.1934003e-39
0.027813571 -0.12409012 0.028111452 7.9309682e-39
0.029616162 -0.12409012 0.028111452 2.2681916e-38
0.031418756 -0.12409012 0.028111452 2.3418047e-38
0.033221345 -0.12409012 0.028111452 2.341805e-38
0.035023939 -0.12409012 0.028111452 2.2218795e-38
0.036906391 -0.12486555 0.025172824 2.3509527e-38
0.038714137 -0.12486555 0.025172824 2.3509886e-38
0.040615816 -0.1256734 0.02211141 2.3509883e-38
0.042556476 -0.126711 0.018179173 2.3418047e-38
0.044376485 -0.126711 0.018179173 2.23135e-38
0.046304166 -0.1275015 0.015183443 2.2958873e-38
0.048129424 -0.1275015 0.015183443 2.2775202e-38
0.050073553 -0.1282966 0.012170309 2.1210037e-38
0.052028965 -0.12909628 0.0091397706 1.8813669e-38
0.053864818 -0.12909628 0.0091397706 1.6416583e-38
-0.056434099 -0.14820443 -0.055884011 6.4504319e-39
-0.054082099 -0.14632986 -0.04882694 8.7538793e-39
-0.0513147 -0.14233841 -0.033800609 1.0226477e-38
-0.049246717 -0.14155935 -0.030867701 1.4095094e-38
-0.04734071 -0.14155935 -0.030867701 1.6395314e-38
-0.04528312 -0.14075352 -0.027834063 2.0262498e-38
-0.04319239 -0.13970654 -0.023892527 1.8139125e-38
-0.041298617 -0.13970654 -0.023892527 8.1809178e-39
-0.039404843 -0.13970654 -0.023892527 7.2600405e-39
-0.037511069 -0.13970654 -0.023892527 5.7888648e-39
-0.035328869 -0.13784705 -0.01689232 4.9644978e-39
-0.033447374 -0.13784705 -0.01689232 4.9695326e-39
-0.012487456 -0.13437669 -0.0038276967 1.3183975e-38
-0.010573719 -0.13358103 -0.00083232485 1.3368369e-38
-0.0087203793 -0.13358103 -0.00083232485 1.2261306e-38
-0.0031264164 -0.13278987 0.0021461193 1.2443162e-38
-0.0012782961 -0.13278987 0.0021461193 1.2811574e-38
0.00054632127 -0.13358103 -0.00083232485 1.3272178e-38
0.0023996606 -0.13358103 -0.00083232485 1.1981781e-38
0.0042530019 -0.13358103 -0.00083232485 8.7542044e-39
0.0061063413 -0.13358103 -0.00083232485 8.2010222e-39
0.0079570562 -0.13437669 -0.0038276967 8.3850575e-39
0.0098156482 -0.13437669 -0.0038276967 9.3981459e-39
0.011666363 -0.13358103 -0.00083232485 9.9513295e-39
0.013506647 -0.13278987 0.0021461193 1.2534248e-38
0.015329884 -0.13171287 0.0062006656 1.0230079e-38
0.017170893 -0.13171287 0.0062006656 9.6783467e-39
0.019011902 -0.13171287 0.0062006656 1.1247114e-38
0.020750538 -0.12932678 0.015183443 7.19195e-39
0.022575796 -0.12932678 0.015183443 6.7320536e-39
0.024401056 -0.12932678 0.015183443 5.4420379e-39
0.026059926 -0.1266733 0.025172824 1.014366e-38
0.027867669 -0.1266733 0.025172824 1.7888099e-38
0.029616162 -0.12589271 0.028111452 2.2036548e-38
0.031418756 -0.12589271 0.028111452 2.341805e-38
0.033221345 -0.12589271 0.028111452 2.341805e-38
0.035023939 -0.12589271 0.028111452 2.295636e-38
0.036906391 -0.1266733 0.025172824 2.3325138e-38
0.038714137 -0.1266733 0.025172824 2.3325492e-38
0.040615816 -0.12748651 0.02211141 2.3141816e-38
0.042428929 -0.12748651 0.02211141 2.3418047e-38
0.044376485 -0.12853102 0.018179173 1.5583217e-38
0.046304166 -0.12932678 0.015183443 1.1527694e-38
0.048129424 -0.12932678 0.015183443 9.2238818e-39
0.050073553 -0.13012715 0.012170309 1.1713887e-38
0.052028965 -0.13093217 0.0091397706 1.4388279e-38
0.053864818 -0.13093217 0.0091397706 1.5033648e-38
-0.056197602 -0.14907773 -0.051857717 3.1306647e-39
-0.053855572 -0.14720438 -0.044851549 5.4333947e-39
-0.0513147 -0.14424954 -0.033800609 8.7470311e-39
-0.049246717 -0.14346536 -0.030867701 7.0835511e-39
-0.0471838 -0.1426542 -0.027834063 1.1321317e-38
-0.045086164 -0.1416003 -0.023892527 1.509883e-38
-0.043047983 -0.14079951 -0.020897632 1.657181e-38
-0.04115947 -0.14079951 -0.020897632 4.8672813e-39
-0.039270941 -0.14079951 -0.020897632 3.8570908e-39
-0.037382428 -0.14079951 -0.020897632 3.0305714e-39
-0.035328869 -0.13972856 -0.01689232 2.9408953e-39
-0.033447374 -0.13972856 -0.01689232 2.6689803e-39
-0.02198454 -0.13812189 -0.010883456 5.8018423e-39
-0.020113576 -0.13812189 -0.010883456 5.8976547e-39
-0.018242616 -0.13812189 -0.010883456 6.2686008e-39
-0.016441226 -0.13890781 -0.0138228 9.4028837e-39
-0.014412072 -0.13704078 -0.0068401154 1.1339346e-38
-0.012487456 -0.13623528 -0.0038276967 1.1616284e-38
-0.010573719 -0.13543437 -0.00083232485 1.1432244e-38
-0.0086707696 -0.134638 0.0021461193 1.0326248e-38
-0.0068226494 -0.134638 0.0021461193 9.4046437e-39
-0.0049745329 -0.134638 0.0021461193 8.7585512e-39
-0.0031264164 -0.134638 0.0021461193 1.2445658e-38
-0.0012782961 -0.134638 0.0021461193 1.3919709e-38
0.0005698204 -0.134638 0.0021461193 1.3642406e-38
0.0024179388 -0.134638 0.0021461193 1.2074362e-38
0.0042530019 -0.13543437 -0.00083232485 9.1223073e-39
0.0061063413 -0.13543437 -0.00083232485 7.8304923e-39
0.0079570562 -0.13623528 -0.0038276967 8.1996307e-39
0.0098156482 -0.13623528 -0.0038276967 9.5822008e-39
0.011647865 -0.13355388 0.0062006656 1.1795609e-38
0.013488874 -0.13355388 0.0062006656 1.1612657e-38
0.015329884 -0.13355388 0.0062006656 1.1798127e-38
0.017170893 -0.13355388 0.0062006656 1.0785413e-38
0.022575796 -0.13115202 0.015183443 7.8383984e-39
0.024401056 -0.13115202 0.015183443 6.917168e-39
0.026059926 -0.12848105 0.025172824 1.5583203e-38
0.027867669 -0.12848105 0.025172824 2.2958859e-38
0.029616162 -0.12769531 0.028111452 2.3234374e-38
0.031418756 -0.12769531 0.028111452 2.341805e-38
0.033221345 -0.12769531 0.028111452 2.304891e-38
0.035023939 -0.12769531 0.028111452 2.3509527e-38
0.036826529 -0.12769531 0.028111452 2.3509527e-38
0.038714137 -0.12848105 0.025172824 2.3509883e-38
0.040521882 -0.12848105 0.025172824 2.3418045e-38
0.042428929 -0.1292996 0.02211141 2.0007168e-38
0.044376485 -0.13035102 0.018179173 7.7465881e-39
0.046304166 -0.13115202 0.015183443 6.3647383e-39
0.048129424 -0.13115202 0.015183443 7.7487517e-39
0.050073553 -0.13195769 0.012170309 7.0119097e-39
0.051904097 -0.13195769 0.012170309 1.0607539e-38
0.053734638 -0.13195769 0.012170309 1.3004627e-38
0.059226263 -0.13195769 0.012170309 6.5494925e-39
-0.053855572 -0.14913492 -0.044851549 4.8802237e-39
-0.051152717 -0.14537133 -0.030867701 4.1369021e-39
-0.049084488 -0.14455487 -0.027834063 2.8469004e-39
-0.046979938 -0.14349405 -0.023892527 4.869075e-39
-0.044936512 -0.14268802 -0.020897632 8.3703523e-39
-0.043047983 -0.14268802 -0.020897632 8.5536744e-39
-0.040973369 -0.14161004 -0.01689232 4.5917818e-39
-0.039091866 -0.14161004 -0.01689232 2.8469004e-39
-0.037210364 -0.14161004 -0.01689232 3.7681462e-39
-0.035328869 -0.14161004 -0.01689232 2.9434204e-39
-0.033326272 -0.14078392 -0.0138228 2.0254186e-39
-0.031186935 -0.13890465 -0.0068401154 1.0141379e-39
-0.029323064 -0.13890465 -0.0068401154 9.2265975e-40
-0.027459189 -0.13890465 -0.0068401154 3.871478e-39
-0.025595315 -0.13890465 -0.0068401154 2.5792972e-39
-0.02373144 -0.13890465 -0.0068401154 2.0239682e-39
-0.02186757 -0.13890465 -0.0068401154 2.6686272e-39
-0.020003695 -0.13890465 -0.0068401154 3.5005711e-39
-0.018139821 -0.13890465 -0.0068401154 2.303474e-39
-0.016275946 -0.13890465 -0.0068401154 3.5934828e-39
-0.014346052 -0.13809387 -0.0038276967 5.1615161e-39
-0.012487456 -0.13809387 -0.0038276967 5.2533446e-39
-0.010573719 -0.13728772 -0.00083232485 4.2395416e-39
-0.0086707696 -0.13648613 0.0021461193 2.9498706e-39
-0.0068226494 -0.13648613 0.0021461193 2.4903246e-39
-0.0049745329 -0.13648613 0.0021461193 5.9937557e-39
-0.0030802079 -0.13539489 0.0062006656 8.2064536e-39
-0.0012391973 -0.13539489 0.0062006656 9.2191734e-39
0.00060181133 -0.13539489 0.0062006656 9.3106572e-39
0.00244282 -0.13539489 0.0062006656 8.5709426e-39
0.0042838305 -0.13539489 0.0062006656 6.6337637e-39
0.0061248392 -0.13539489 0.0062006656 7.000754e-39
0.0079658478 -0.13539489 0.0062006656 9.1205304e-39
0.0098068565 -0.13539489 0.0062006656 1.004319e-38
0.011647865 -0.13539489 0.0062006656 1.4285617e-38
0.013475992 -0.13460387 0.0091397706 1.5853662e-38
0.015311847 -0.13460387 0.0091397706 2.1940368e-38
0.017123792 -0.13378824 0.012170309 2.350949e-38
0.018954335 -0.13378824 0.012170309 2.3509849e-38
0.020784877 -0.13378824 0.012170309 2.2312748e-38
0.022536403 -0.13217102 0.018179173 1.8901874e-38
0.02425218 -0.13028879 0.025172824 2.1576273e-38
0.026059926 -0.13028879 0.025172824 2.3050693e-38
0.027813571 -0.1294979 0.028111452 2.3234372e-38
0.029616162 -0.1294979 0.028111452 2.249645e-38
0.031418756 -0.1294979 0.028111452 2.3509886e-38
0.033221345 -0.1294979 0.028111452 2.3509168e-38
0.035023939 -0.1294979 0.028111452 2.3048191e-38
0.036826529 -0.1294979 0.028111452 2.3140384e-38
0.038629122 -0.1294979 0.028111452 2.2771958e-38
0.040431716 -0.1294979 0.028111452 9.1277205e-39
0.042329624 -0.13028879 0.025172824 5.3480626e-39
0.044376485 -0.13217102 0.018179173 4.519025e-39
0.046304166 -0.13297729 0.015183443 5.8115645e-39
0.048129424 -0.13297729 0.015183443 6.457294e-39
0.050073553 -0.13378824 0.012170309 7.6565589e-39
0.051904097 -0.13378824 0.012170309 1.1252909e-38
0.053734638 -0.13378824 0.012170309 1.3189018e-38
-0.05555426 -0.1499963 -0.040904768 3.1306647e-39
-0.052885849 -0.14645557 -0.027834063 3.4983738e-39
-0.050767485 -0.14538784 -0.023892527 3.6798868e-39
-0.048713554 -0.14457656 -0.020897632 2.2040519e-39
-0.046825025 -0.14457656 -0.020897632 2.8469004e-39
-0.044936512 -0.14457656 -0.020897632 3.3060779e-39
-0.042854864 -0.14349155 -0.01689232 2.6632294e-39
-0.040973369 -0.14349155 -0.01689232 3.7652553e-39
-0.039091866 -0.14349155 -0.01689232 2.4795584e-39
-0.037078511 -0.14266007 -0.0138228 3.4926271e-39
-0.035202395 -0.14266007 -0.0138228 3.8653655e-39
-0.033210319 -0.14186381 -0.010883456 3.4079845e-39
-0.031186935 -0.14076851 -0.0068401154 2.3963493e-39
-0.029323064 -0.14076851 -0.0068401154 6.4679453e-40
-0.027459189 -0.14076851 -0.0068401154 2.2148363e-39
-0.025595315 -0.14076851 -0.0068401154 1.2932373e-39
-0.02373144 -0.14076851 -0.0068401154 1.1077671e-39
-0.02186757 -0.14076851 -0.0068401154 1.2914437e-39
-0.019921828 -0.13995247 -0.0038276967 3.4108726e-39
-0.018063236 -0.13995247 -0.0038276967 1.8424707e-39
-0.016204644 -0.13995247 -0.0038276967 1.6577165e-39
-0.014346052 -0.13995247 -0.0038276967 3.5005487e-39
-0.012487456 -0.13995247 -0.0038276967 4.0533595e-39
-0.010573719 -0.13914107 -0.00083232485 2.7626179e-39
-0.0086707696 -0.13833423 0.0021461193 1.9335733e-39
-0.0068226494 -0.13833423 0.0021461193 2.119761e-39
-0.0049212165 -0.13723589 0.0062006656 3.5037745e-39
-0.0030802079 -0.13723589 0.0062006656 4.1495054e-39
-0.0012108535 -0.13643973 0.0091397706 4.702682e-39
0.00062500127 -0.13643973 0.0091397706 4.9785528e-39
0.002460856 -0.13643973 0.0091397706 4.7923665e-39
0.0042967126 -0.13643973 0.0091397706 4.3295919e-39
0.0061325692 -0.13643973 0.0091397706 5.8951225e-39
0.0098068565 -0.13723589 0.0062006656 1.0781834e-38
0.011647865 -0.13723589 0.0062006656 1.5022828e-38
0.013462707 -0.13561879 0.012170309 1.6130249e-38
0.01529325 -0.13561879 0.012170309 2.3323303e-38
0.017123792 -0.13561879 0.012170309 2.3509853e-38
0.018954335 -0.13561879 0.012170309 2.3509853e-38
0.020784877 -0.13561879 0.012170309 2.2773726e-38
0.022536403 -0.13399105 0.018179173 2.3418025e-38
0.02425218 -0.13209651 0.025172824 2.3234362e-38
0.026010977 -0.13130049 0.028111452 2.3234369e-38
0.027813571 -0.13130049 0.028111452 2.3418045e-38
0.029616162 -0.13130049 0.028111452 2.2680841e-38
0.031418756 -0.13130049 0.028111452 2.3509883e-38
0.033221345 -0.13130049 0.028111452 2.3509883e-38
0.035023939 -0.13130049 0.028111452 2.3509524e-38
0.036826529 -0.13130049 0.028111452 2.3509521e-38
0.038629122 -0.13130049 0.028111452 2.0743654e-38
0.040431716 -0.13130049 0.028111452 6.7302782e-39
0.042329624 -0.13209651 0.025172824 4.7948916e-39
0.044376485 -0.13399105 0.018179173 6.9161114e-39
0.046304166 -0.13480256 0.015183443 6.916833e-39
0.048243012 -0.13561879 0.012170309 5.9955998e-39
0.050073553 -0.13561879 0.012170309 6.4572982e-39
0.051904097 -0.13561879 0.012170309 8.7625491e-39
0.053734638 -0.13561879 0.012170309 1.2911352e-38
-0.052885849 -0.14835624 -0.027834063 2.8533702e-39
-0.050767485 -0.1472816 -0.023892527 2.8533716e-39
-0.048713554 -0.14646508 -0.020897632 1.6530389e-39
-0.046617862 -0.14537306 -0.01689232 2.0203809e-39
-0.044736359 -0.14537306 -0.01689232 2.2958874e-39
-0.042854864 -0.14537306 -0.01689232 6.16485e-39
-0.040973369 -0.14537306 -0.01689232 1.0404769e-38
-0.039091866 -0.14537306 -0.01689232 1.1695144e-38
-0.037078511 -0.14453618 -0.0138228 1.1788779e-38
-0.035202395 -0.14453618 -0.0138228 1.0500201e-38
-0.033210319 -0.14373477 -0.010883456 1.0502361e-38
-0.031186935 -0.14263238 -0.0068401154 7.4635076e-39
-0.029323064 -0.14263238 -0.0068401154 1.5658684e-39
-0.027459189 -0.14263238 -0.0068401154 1.8546465e-40
-0.0254976 -0.14181106 -0.0038276967 2.1523944e-42
-0.023639008 -0.14181106 -0.0038276967 5.746725e-42
-0.02186757 -0.14263238 -0.0068401154 4.3047889e-42
-0.019921828 -0.14181106 -0.0038276967 1.4758321e-39
-0.018063236 -0.14181106 -0.0038276967 1.4729553e-39
-0.016204644 -0.14181106 -0.0038276967 7.3468397e-40
-0.014280401 -0.14099441 -0.00083232485 1.9314153e-39
-0.012427058 -0.14099441 -0.00083232485 2.5767833e-39
-0.010573719 -0.14099441 -0.00083232485 1.6548326e-39
-0.0086707696 -0.14018236 0.0021461193 1.3800436e-39
-0.0068226494 -0.14018236 0.0021461193 1.6569864e-39
-0.0049212165 -0.1390769 0.0062006656 1.4751133e-39
-0.00304671 -0.13827558 0.0091397706 1.1070524e-39
-0.0012108535 -0.13827558 0.0091397706 1.5683935e-39
0.00062500127 -0.13827558 0.0091397706 1.4754818e-39
0.0024794545 -0.13744931 0.012170309 1.4736853e-39
0.004309997 -0.13744931 0.012170309 1.9325083e-39
0.0061405394 -0.13744931 0.012170309 3.037058e-39
0.0079710819 -0.13744931 0.012170309 5.5259771e-39
0.0097989812 -0.13662781 0.015183443 4.7887609e-39
0.011624241 -0.13662781 0.015183443 5.7117878e-39
0.013449501 -0.13662781 0.015183443 6.5415457e-39
0.015274759 -0.13662781 0.015183443 1.050811e-38
0.017100018 -0.13662781 0.015183443 1.0693938e-38
0.018925279 -0.13662781 0.015183443 1.0234757e-38
0.020750538 -0.13662781 0.015183443 1.1341468e-38
0.022484694 -0.13473894 0.02211141 2.0192616e-38
0.02425218 -0.13390426 0.025172824 2.3418035e-38
0.026010977 -0.13310309 0.028111452 2.3418043e-38
0.027813571 -0.13310309 0.028111452 2.3418047e-38
0.029616162 -0.13310309 0.028111452 2.3509883e-38
0.031418756 -0.13310309 0.028111452 2.3509883e-38
0.033221345 -0.13310309 0.028111452 2.3508798e-38
0.035023939 -0.13310309 0.028111452 2.2678316e-38
0.036826529 -0.13310309 0.028111452 1.4472905e-38
0.038629122 -0.13310309 0.028111452 8.3883576e-39
0.040521882 -0.13390426 0.025172824 6.8217577e-39
0.042428929 -0.13473894 0.02211141 8.1132154e-39
0.044581927 -0.13744931 0.012170309 7.3760133e-39
0.046521395 -0.13827558 0.0091397706 7.5614864e-39
0.048357252 -0.13827558 0.0091397706 7.2852596e-39
0.050073553 -0.13744931 0.012170309 6.548775e-39
0.051904097 -0.13744931 0.012170309 9.7763409e-39
-0.050767485 -0.14917539 -0.023892527 1.1027434e-39
-0.048713554 -0.14835359 -0.020897632 1.3796862e-39
-0.046617862 -0.14725454 -0.01689232 1.0101905e-39
-0.044736359 -0.14725454 -0.01689232 3.0345174e-39
-0.042854864 -0.14725454 -0.01689232 7.4566538e-39
-0.040973369 -0.14725454 -0.01689232 1.1787323e-38
-0.039091866 -0.14725454 -0.01689232 1.4458833e-38
-0.037078511 -0.1464123 -0.0138228 1.3443243e-38
-0.035202395 -0.1464123 -0.0138228 1.3904586e-38
-0.033210319 -0.14560573 -0.010883456 1.3445052e-38
-0.031186935 -0.14449625 -0.0068401154 1.0405845e-38
-0.029214785 -0.14366965 -0.0038276967 3.6806099e-39
-0.027356192 -0.14366965 -0.0038276967 3.6734198e-40
-0.0254976 -0.14366965 -0.0038276967 7.1746481e-43
-0.023639008 -0.14366965 -0.0038276967 2.1579996e-42
-0.02178042 -0.14366965 -0.0038276967 2.5125281e-42
-0.019921828 -0.14366965 -0.0038276967 4.6097114e-40
-0.018063236 -0.14366965 -0.0038276967 3.0391908e-39
-0.016133741 -0.14284773 -0.00083232485 2.0236095e-39
-0.014280401 -0.14284773 -0.00083232485 1.3775324e-39
-0.012367006 -0.14203046 0.0021461193 1.3775324e-39
-0.010518886 -0.14203046 0.0021461193 1.1938615e-39
-0.0086707696 -0.14203046 0.0021461193 1.5633558e-39
-0.0068226494 -0.14203046 0.0021461193 1.1041783e-39
-0.0049212165 -0.14091791 0.0062006656 2.4888938e-39
-0.00304671 -0.14011143 0.0091397706 6.4715326e-40
-0.0012108535 -0.14011143 0.0091397706 6.4751199e-40
0.00062500127 -0.14011143 0.0091397706 9.3270426e-41
0.0024794545 -0.13927986 0.012170309 1.8402972e-40
0.004309997 -0.13927986 0.012170309 1.3796974e-39
0.0061405394 -0.13927986 0.012170309 1.5615776e-39
0.0079710819 -0.13927986 0.012170309 2.6675594e-39
0.011616362 -0.13763104 0.018179173 2.3005509e-39
0.01343637 -0.13763104 0.018179173 4.9745773e-39
0.015232245 -0.13655205 0.02211141 5.3451549e-39
0.017045356 -0.13655205 0.02211141 6.2678273e-39
0.01889639 -0.13763104 0.018179173 5.0707232e-39
0.020716395 -0.13763104 0.018179173 7.3763398e-39
0.022484694 -0.13655205 0.02211141 2.3234355e-38
0.02425218 -0.13571201 0.025172824 2.268083e-38
0.026010977 -0.13490568 0.028111452 2.350988e-38
0.027813571 -0.13490568 0.028111452 2.2680125e-38
0.029616162 -0.13490568 0.028111452 2.3509527e-38
0.031418756 -0.13490568 0.028111452 2.3509521e-38
0.033221345 -0.13490568 0.028111452 2.3509873e-38
0.035023939 -0.13490568 0.028111452 2.3509869e-38
0.036826529 -0.13490568 0.028111452 1.023118e-38
0.038629122 -0.13490568 0.028111452 6.544445e-39
0.040615816 -0.13655205 0.02211141 8.4812819e-39
0.04265365 -0.13845308 0.015183443 9.1266513e-39
0.044685539 -0.14011143 0.0091397706 7.6518842e-39
0.046627037 -0.14091791 0.0062006656 8.2057768e-39
0.048468046 -0.14091791 0.0062006656 7.2845422e-39
0.050073553 -0.13927986 0.012170309 5.3491556e-39
0.051904097 -0.13927986 0.012170309 8.8533098e-39
-0.046617862 -0.14913605 -0.01689232 8.4751344e-39
-0.044736359 -0.14913605 -0.01689232 1.0685659e-38
-0.042854864 -0.14913605 -0.01689232 7.6410339e-39
-0.040973369 -0.14913605 -0.01689232 8.5601077e-39
-0.039091866 -0.14913605 -0.01689232 8.7416165e-39
-0.037078511 -0.14828841 -0.0138228 8.3703187e-39
-0.035202395 -0.14828841 -0.0138228 8.9209827e-39
-0.033210319 -0.14747669 -0.010883456 8.7376803e-39
-0.031186935 -0.14636014 -0.0068401154 9.1082719e-39
-0.029214785 -0.14552824 -0.0038276967 6.8080685e-39
-0.027356192 -0.14552824 -0.0038276967 4.9699208e-39
-0.0254976 -0.14552824 -0.0038276967 1.6562815e-39
-0.023547102 -0.14470108 -0.00083232485 2.5237385e-42
-0.021693762 -0.14470108 -0.00083232485 1.4349296e-42
-0.019840423 -0.14470108 -0.00083232485 3.6805945e-40
-0.017987084 -0.14470108 -0.00083232485 9.1233638e-39
-0.016063239 -0.14387859 0.0021461193 1.3823902e-38
-0.014215123 -0.14387859 0.0021461193 1.5943685e-38
-0.012367006 -0.14387859 0.0021461193 1.6219193e-38
-0.010518886 -0.14387859 0.0021461193 1.3085263e-38
-0.0086032338 -0.14275892 0.0062006656 9.6751097e-39
-0.0067184232 -0.14194728 0.0091397706 5.4366317e-39
-0.0048825666 -0.14194728 0.0091397706 4.7937846e-39
-0.00304671 -0.14194728 0.0091397706 8.3118299e-40
-0.0011816304 -0.14111041 0.012170309 2.7873508e-40
0.00064891204 -0.14111041 0.012170309 1.793662e-42
0.0024794545 -0.14111041 0.012170309 7.371979e-40
0.004309997 -0.14111041 0.012170309 2.2108902e-39
0.0061405394 -0.14111041 0.012170309 1.6552053e-39
0.0079710819 -0.14111041 0.012170309 2.3913256e-39
0.011616362 -0.13945107 0.018179173 1.2864144e-39
0.01343637 -0.13945107 0.018179173 4.6979904e-39
0.015232245 -0.13836516 0.02211141 2.4870918e-39
0.017045356 -0.13836516 0.02211141 2.4878092e-39
0.01889639 -0.13945107 0.018179173 2.7658269e-40
0.020716395 -0.13945107 0.018179173 3.8729059e-39
0.022484694 -0.13836516 0.02211141 2.3509866e-38
0.02425218 -0.13751976 0.025172824 2.3141452e-38
0.026010977 -0.13670824 0.028111452 2.3509883e-38
0.027813571 -0.13670824 0.028111452 2.3509527e-38
0.029616162 -0.13670824 0.028111452 2.3509527e-38
0.031418756 -0.13670824 0.028111452 2.3323688e-38
0.033149723 -0.13587265 0.031137342 2.267759e-38
0.034947008 -0.13587265 0.031137342 2.313856e-38
0.036744297 -0.13587265 0.031137342 8.2032306e-39
0.038541585 -0.13587265 0.031137342 8.6645843e-39
0.041013829 -0.14194728 0.0091397706 8.3880073e-39
0.042849686 -0.14194728 0.0091397706 8.9411838e-39
0.044924654 -0.14387859 0.0021461193 9.4954366e-39
0.046627037 -0.14275892 0.0062006656 9.1270156e-39
0.048468046 -0.14275892 0.0062006656 9.6809083e-39
0.050073553 -0.14111041 0.012170309 8.2986969e-39
0.051904097 -0.14111041 0.012170309 9.2213721e-39
-0.033210319 -0.14934768 -0.010883456 7.1660526e-39
-0.031339359 -0.14934768 -0.010883456 8.5489954e-39
-0.029323064 -0.14822401 -0.0068401154 8.1834541e-39
-0.027459189 -0.14822401 -0.0068401154 8.741667e-39
-0.0254976 -0.14738683 -0.0038276967 7.1797391e-39
-0.023547102 -0.14655443 -0.00083232485 4.694773e-39
-0.021693762 -0.14655443 -0.00083232485 9.1835496e-40
-0.019840423 -0.14655443 -0.00083232485 2.1175974e-39
-0.017987084 -0.14655443 -0.00083232485 1.1336744e-38
-0.016063239 -0.1457267 0.0021461193 1.5299367e-38
-0.014215123 -0.1457267 0.0021461193 1.7233328e-38
-0.012367006 -0.1457267 0.0021461193 1.8246052e-38
-0.010518886 -0.1457267 0.0021461193 1.6771652e-38
-0.0086032338 -0.14459993 0.0062006656 1.5758591e-38
-0.0067184232 -0.14378314 0.0091397706 1.28105e-38
-0.0048825666 -0.14378314 0.0091397706 6.4526039e-39
-0.0030121729 -0.14294095 0.012170309 7.1746481e-43
-0.0011816304 -0.14294095 0.012170309 1.0761972e-42
0.00067268685 -0.1421036 0.015183443 5.5531777e-40
0.002497945 -0.1421036 0.015183443 2.2133972e-39
0.0043232031 -0.1421036 0.015183443 3.5019766e-39
0.0061484631 -0.1421036 0.015183443 2.3012726e-39
0.0079737231 -0.1421036 0.015183443 3.3139826e-39
0.01889639 -0.14127107 0.018179173 5.5316537e-40
0.020716395 -0.14127107 0.018179173 4.4260811e-39
0.022484694 -0.14017828 0.02211141 2.3049248e-38
0.02425218 -0.13932751 0.025172824 2.3509879e-38
0.026010977 -0.13851084 0.028111452 2.3141103e-38
0.027757863 -0.13766994 0.031137342 2.2126235e-38
0.029555149 -0.13766994 0.031137342 2.3509524e-38
0.031352438 -0.13766994 0.031137342 2.3509517e-38
0.033149723 -0.13766994 0.031137342 2.1110622e-38
0.034947008 -0.13766994 0.031137342 1.7514622e-38
0.036744297 -0.13766994 0.031137342 7.8340852e-39
0.038541585 -0.13766994 0.031137342 9.3088747e-39
0.041228417 -0.1457267 0.0021461193 8.9411838e-39
0.043076534 -0.1457267 0.0021461193 9.7709459e-39
0.044924654 -0.1457267 0.0021461193 1.0140449e-38
0.046772771 -0.1457267 0.0021461193 8.1128665e-39
0.048620891 -0.1457267 0.0021461193 9.4961611e-39
0.050193109 -0.14378314 0.0091397706 8.758596e-39
0.052028965 -0.14378314 0.0091397706 7.6533275e-39
-0.0254976 -0.14924543 -0.0038276967 1.1878112e-38
-0.023639008 -0.14924543 -0.0038276967 1.1144856e-38
-0.02178042 -0.14924543 -0.0038276967 5.431587e-39
-0.019921828 -0.14924543 -0.0038276967 3.8657004e-39
-0.017987084 -0.14840777 -0.00083232485 1.234837e-38
-0.016133741 -0.14840777 -0.00083232485 1.5020251e-38
-0.014215123 -0.14757483 0.0021461193 1.6217723e-38
-0.012367006 -0.14757483 0.0021461193 1.7414485e-38
-0.010518886 -0.14757483 0.0021461193 1.6585815e-38
-0.0086707696 -0.14757483 0.0021461193 1.7140795e-38
-0.0067622252 -0.14644094 0.0062006656 1.539161e-38
-0.0048825666 -0.14561899 0.0091397706 8.9411712e-39
-0.0030121729 -0.1447715 0.012170309 7.3756504e-40
-0.0011816304 -0.1447715 0.012170309 4.6204874e-40
0.00067268685 -0.14392884 0.015183443 3.4119432e-39
0.002497945 -0.14392884 0.015183443 5.8075862e-39
0.0043232031 -0.14392884 0.015183443 6.4511479e-39
0.0061563421 -0.14309107 0.018179173 4.7887385e-39
0.0079763494 -0.14309107 0.018179173 6.0783955e-39
0.022484694 -0.14199139 0.02211141 2.3416949e-38
0.02425218 -0.14113526 0.025172824 2.350988e-38
0.026010977 -0.14031343 0.028111452 2.3324778e-38
0.027757863 -0.13946722 0.031137342 2.3509527e-38
0.029555149 -0.13946722 0.031137342 2.3509527e-38
0.031352438 -0.13946722 0.031137342 2.3509158e-38
0.033149723 -0.13946722 0.031137342 1.5764714e-38
0.034947008 -0.13946722 0.031137342 1.0509552e-38
0.036744297 -0.13946722 0.031137342 9.7716325e-39
0.038541585 -0.13946722 0.031137342 1.0047882e-38
0.043270305 -0.14924543 -0.0038276967 1.050851e-38
0.045026485 -0.14840777 -0.00083232485 1.1154958e-38
0.046879828 -0.14840777 -0.00083232485 1.0048971e-38
0.048620891 -0.14757483 0.0021461193 1.0971646e-38
0.050193109 -0.14561899 0.0091397706 1.0050768e-38
0.052028965 -0.14561899 0.0091397706 1.0880172e-38
0.053991076 -0.14644094 0.0062006656 9.4057605e-39
-0.016063239 -0.14942293 0.0021461193 1.4186171e-38
-0.014215123 -0.14942293 0.0021461193 1.4093975e-38
-0.012285251 -0.14828195 0.0062006656 1.4646444e-38
-0.010444243 -0.14828195 0.0062006656 1.7875452e-38
-0.0086032338 -0.14828195 0.0062006656 1.8062718e-38
-0.0067622252 -0.14828195 0.0062006656 1.4745853e-38
-0.0048825666 -0.14745484 0.0091397706 9.2163148e-39
-0.0030121729 -0.14660202 0.012170309 3.6734619e-40
-0.001152575 -0.14575411 0.015183443 4.6061241e-40
0.00067268685 -0.14575411 0.015183443 4.7927196e-39
0.0025163293 -0.14491107 0.018179173 6.9099821e-39
0.0043363348 -0.14491107 0.018179173 6.1698891e-39
0.0061563421 -0.14491107 0.018179173 5.6145321e-39
0.0079763494 -0.14491107 0.018179173 9.7622508e-39
0.0097963549 -0.14491107 0.018179173 1.2345535e-38
0.022484694 -0.14380451 0.02211141 2.3509499e-38
0.02425218 -0.14294298 0.025172824 2.3416603e-38
0.026010977 -0.14211603 0.028111452 2.3509527e-38
0.027757863 -0.14126451 0.031137342 2.3509527e-38
0.029555149 -0.14126451 0.031137342 2.2864526e-38
0.031352438 -0.14126451 0.031137342 2.3234379e-38
0.033149723 -0.14126451 0.031137342 1.2449273e-38
0.034947008 -0.14126451 0.031137342 9.6841088e-39
0.050469007 -0.14942293 0.0021461193 1.042134e-38
0.052150063 -0.14828195 0.0062006656 1.0052563e-38
0.053991076 -0.14828195 0.0062006656 9.8674617e-39
-0.0048825666 -0.14929073 0.0091397706 7.9252088e-39
-0.0030121729 -0.14843257 0.012170309 3.6734198e-40
-0.001152575 -0.14757936 0.015183443 2.7550649e-40
0.00069632195 -0.14673109 0.018179173 3.9618799e-39
0.0025163293 -0.14673109 0.018179173 6.3560894e-39
0.0043363348 -0.14673109 0.018179173 5.8918631e-39
0.0061563421 -0.14673109 0.018179173 5.7052858e-39
0.0079763494 -0.14673109 0.018179173 1.0407255e-38
0.0097876489 -0.14391862 0.028111452 1.2252255e-38
0.011590241 -0.14391862 0.028111452 1.2253692e-38
0.022366002 -0.1430618 0.031137342 2.3509499e-38
0.025960576 -0.1430618 0.031137342 2.3509527e-38
0.027757863 -0.1430618 0.031137342 2.3417691e-38
0.029555149 -0.1430618 0.031137342 2.3142544e-38
0.031352438 -0.1430618 0.031137342 2.2958873e-38
0.033149723 -0.1430618 0.031137342 1.1528761e-38
0.034947008 -0.1430618 0.031137342 9.2249328e-39
-0.001152575 -0.14940463 0.015183443 1.0123429e-39
0.00069632195 -0.14855109 0.018179173 4.0540756e-39
0.0025163293 -0.14855109 0.018179173 6.2646127e-39
0.0043363348 -0.14855109 0.018179173 5.6167153e-39
0.0061563421 -0.14855109 0.018179173 5.5223393e-39
0.0079763494 -0.14855109 0.018179173 1.0316145e-38
0.0097876489 -0.14572121 0.028111452 1.0501975e-38
0.011582281 -0.14485909 0.031137342 9.9495218e-39
0.01337957 -0.14485909 0.031137342 9.9498735e-39
0.032864988 -0.1414317 0.043166749 1.0422414e-38
0.0097876489 -0.14752381 0.028111452 8.5665901e-39
0.011582281 -0.14665638 0.031137342 5.7092417e-39
0.01337957 -0.14665638 0.031137342 5.1564224e-39
0.015195425 -0.14752381 0.028111452 8.8453238e-39
0.032864988 -0.14320792 0.043166749 1.1804991e-38
0.034641184 -0.14320792 0.043166749 1.1345081e-38
0.0097876489 -0.1493264 0.028111452 7.3694917e-39
0.011590241 -0.1493264 0.028111452 3.221417e-39
0.01337957 -0.14845367 0.031137342 2.0232508e-39
0.015176856 -0.14845367 0.031137342 5.7117542e-39
0.016974144 -0.14845367 0.031137342 6.5425939e-39
0.018771429 -0.14845367 0.031137342 5.620646e-39
0.024029579 -0.14586596 0.040109269 2.350952e-38
0.025811134 -0.14586596 0.040109269 2.2588295e-38
0.027592691 -0.14586596 0.040109269 2.1205732e-38
0.029374246 -0.14586596 0.040109269 1.6781061e-38
0.031088792 -0.14498411 0.043166749 1.613712e-38
0.032864988 -0.14498411 0.043166749 1.3095735e-38
0.034641184 -0.14498411 0.043166749 1.2359238e-38
0.020534433 -0.14937802 0.034145586 8.7567533e-39
0.022326443 -0.14937802 0.034145586 2.157232e-38
0.024073888 -0.14851023 0.03713619 2.1942194e-38
0.025811134 -0.14764751 0.040109269 1.9361448e-38
0.027592691 -0.14764751 0.040109269 1.8532415e-38
0.029374246 -0.14764751 0.040109269 1.632008e-38
0.031088792 -0.1467603 0.043166749 1.6229316e-38
0.032864988 -0.1467603 0.043166749 1.3464162e-38
0.034641184 -0.1467603 0.043166749 1.2081935e-38
0.029374246 -0.14942907 0.040109269 1.6596667e-38
0.031155802 -0.14942907 0.040109269 1.6598099e-38
0.032937355 -0.14942907 0.040109269 1.4662705e-38
