# .PCD v0.7 - Point Cloud Data file format
VERSION 0.7
FIELDS x y z rgb
SIZE 4 4 4 4
TYPE F F F F
COUNT 1 1 1 1
WIDTH 668
HEIGHT 1
VIEWPOINT 0 0 0 1 0 0 0
POINTS 668
DATA ascii
-0.034084756 -0.12843956 -0.063282445 2.2483823e-38
-0.032203257 -0.12843956 -0.063282445 1.326138e-38
-0.030321758 -0.12843956 -0.063282445 1.1326711e-38
-0.037970651 -0.13135691 -0.067287758 2.2860158e-38
-0.035966255 -0.13032107 -0.063282445 2.3504813e-38
-0.034084756 -0.13032107 -0.063282445 2.1748068e-38
-0.032203257 -0.13032107 -0.063282445 7.5492222e-39
-0.030321758 -0.13032107 -0.063282445 7.64285e-39
-0.028440259 -0.13032107 -0.063282445 4.7876623e-39
-0.043381922 -0.13140334 -0.060212925 2.0371245e-38
-0.041505806 -0.13140334 -0.060212925 2.2121157e-38
-0.039729252 -0.13220255 -0.063282445 2.2119711e-38
-0.037847754 -0.13220255 -0.063282445 2.1750562e-38
-0.035966255 -0.13220255 -0.063282445 2.3503727e-38
-0.034001339 -0.13140334 -0.060212925 2.1473639e-38
-0.03212522 -0.13140334 -0.060212925 8.7513667e-39
-0.030321758 -0.13220255 -0.063282445 7.0943593e-39
-0.028440259 -0.13220255 -0.063282445 4.2384528e-39
-0.041505806 -0.13327946 -0.060212925 1.123991e-38
-0.039629687 -0.13327946 -0.060212925 1.2805427e-38
-0.037753571 -0.13327946 -0.060212925 1.639997e-38
-0.035966255 -0.13408406 -0.063282445 2.1102311e-38
-0.034001339 -0.13327946 -0.060212925 2.0921172e-38
-0.03212522 -0.13327946 -0.060212925 1.9171985e-38
-0.030321758 -0.13408406 -0.063282445 1.9174145e-38
-0.043276273 -0.13437997 -0.057273582 1.0872571e-38
-0.041505806 -0.13515557 -0.060212925 9.6707797e-39
-0.039629687 -0.13515557 -0.060212925 1.0221065e-38
-0.037753571 -0.13515557 -0.060212925 1.6397082e-38
-0.035966255 -0.13596557 -0.063282445 2.0270378e-38
-0.034001339 -0.13515557 -0.060212925 2.1934582e-38
-0.03212522 -0.13515557 -0.060212925 2.2306613e-38
-0.030321758 -0.13596557 -0.063282445 1.9635112e-38
-0.045147236 -0.13625093 -0.057273582 9.3981711e-39
-0.043276273 -0.13625093 -0.057273582 1.3821389e-38
-0.041405309 -0.13625093 -0.057273582 1.4279118e-38
-0.039534345 -0.13625093 -0.057273582 1.1141936e-38
-0.037753571 -0.13703169 -0.060212925 1.5934299e-38
-0.035877455 -0.13703169 -0.060212925 1.6672579e-38
-0.034084756 -0.13784705 -0.063282445 1.6677258e-38
-0.050457034 -0.13623528 -0.050217822 1.0879084e-38
-0.045147236 -0.13812189 -0.057273582 1.0319409e-38
-0.043276273 -0.13812189 -0.057273582 1.3451528e-38
-0.041405309 -0.13812189 -0.057273582 1.5569134e-38
-0.039534345 -0.13812189 -0.057273582 1.3353911e-38
-0.037663382 -0.13812189 -0.057273582 9.7557516e-39
-0.035877455 -0.13890781 -0.060212925 1.0494387e-38
-0.034001339 -0.13890781 -0.060212925 1.2064942e-38
0.0064526163 -0.11965488 0.011792049 1.3368013e-38
0.0082428101 -0.12047486 0.0087254494 1.9822072e-38
0.0099980552 -0.12047486 0.0087254494 2.3142544e-38
0.011753299 -0.12047486 0.0087254494 2.2958873e-38
-0.050457034 -0.13809387 -0.050217822 1.1524091e-38
-0.048598442 -0.13809387 -0.050217822 1.1983627e-38
-0.046739846 -0.13809387 -0.050217822 1.0506688e-38
-0.044994812 -0.13890465 -0.053230241 1.0596353e-38
-0.043130942 -0.13890465 -0.053230241 1.0500906e-38
-0.041267067 -0.13890465 -0.053230241 1.1789113e-38
-0.039403193 -0.13890465 -0.053230241 1.2524506e-38
-0.037539318 -0.13890465 -0.053230241 1.1323798e-38
-0.035588298 -0.13809387 -0.050217822 1.2245383e-38
-0.033729706 -0.13809387 -0.050217822 1.1325574e-38
-0.031947698 -0.13890465 -0.053230241 1.105079e-38
0.0029528802 -0.12140475 0.011792049 2.3234018e-38
0.0047027478 -0.12140475 0.011792049 2.3234379e-38
0.0064526163 -0.12140475 0.011792049 2.231243e-38
0.0082428101 -0.1222301 0.0087254494 2.3142544e-38
0.0099980552 -0.1222301 0.0087254494 2.2589378e-38
0.011753299 -0.1222301 0.0087254494 2.2958873e-38
0.013508544 -0.1222301 0.0087254494 2.2958873e-38
0.015263789 -0.1222301 0.0087254494 2.3142544e-38
0.017019033 -0.1222301 0.0087254494 2.3142185e-38
-0.050457034 -0.13995247 -0.050217822 1.1891792e-38
-0.048598442 -0.13995247 -0.050217822 1.1337177e-38
-0.046739846 -0.13995247 -0.050217822 1.1150977e-38
-0.044994812 -0.14076851 -0.053230241 1.1701981e-38
-0.043130942 -0.14076851 -0.053230241 1.1238471e-38
-0.041267067 -0.14076851 -0.053230241 1.1328135e-38
-0.039403193 -0.14076851 -0.053230241 1.1879499e-38
-0.037539318 -0.14076851 -0.053230241 1.1508909e-38
-0.035588298 -0.13995247 -0.050217822 1.196952e-38
-0.033729706 -0.13995247 -0.050217822 1.2153188e-38
-0.031871114 -0.13995247 -0.050217822 1.1786202e-38
-0.0057991492 -0.12398534 0.0087254494 8.8514993e-39
-0.0040439041 -0.12398534 0.0087254494 7.4700012e-39
-0.00057306606 -0.12153481 0.017771706 1.9547985e-38
0.0011663167 -0.12153481 0.017771706 2.3050704e-38
0.0029057004 -0.12153481 0.017771706 2.295887e-38
0.0047027478 -0.12315463 0.011792049 2.2958873e-38
0.0064189984 -0.12235557 0.014741823 2.2406775e-38
0.0081636952 -0.12235557 0.014741823 2.2774481e-38
0.0099523524 -0.12315463 0.011792049 2.3142544e-38
0.01170222 -0.12315463 0.011792049 2.3142544e-38
0.013452089 -0.12315463 0.011792049 2.3050708e-38
0.015263789 -0.12398534 0.0087254494 2.2958155e-38
0.016951825 -0.12315463 0.011792049 2.2773763e-38
0.018701695 -0.12315463 0.011792049 2.2681567e-38
0.020529523 -0.12398534 0.0087254494 2.2958154e-38
0.022284769 -0.12398534 0.0087254494 2.3142544e-38
0.024040014 -0.12398534 0.0087254494 2.2683366e-38
0.025795259 -0.12398534 0.0087254494 2.2591531e-38
0.027550504 -0.12398534 0.0087254494 2.0288801e-38
0.028516933 -0.11773549 0.031796977 1.4203889e-38
-0.048598442 -0.14181106 -0.050217822 1.3088531e-38
-0.046739846 -0.14181106 -0.050217822 1.087403e-38
-0.044994812 -0.14263238 -0.053230241 1.0872221e-38
-0.043130942 -0.14263238 -0.053230241 1.2436657e-38
-0.041267067 -0.14263238 -0.053230241 1.1974227e-38
-0.039403193 -0.14263238 -0.053230241 1.0773873e-38
-0.037446886 -0.14181106 -0.050217822 1.1233767e-38
-0.035588298 -0.14181106 -0.050217822 1.3352822e-38
-0.033729706 -0.14181106 -0.050217822 1.3443577e-38
-0.031871114 -0.14181106 -0.050217822 1.2891479e-38
-0.0093227262 -0.12655462 0.0057397336 4.6098095e-40
-0.0075622471 -0.12655462 0.0057397336 3.8722137e-39
-0.0057991492 -0.12574057 0.0087254494 2.0836926e-38
-0.0040465919 -0.1249045 0.011792049 2.2683356e-38
-0.0023124507 -0.12327419 0.017771706 2.2867032e-38
-0.00057306606 -0.12327419 0.017771706 2.295887e-38
0.0011663167 -0.12327419 0.017771706 2.2683359e-38
0.0029057004 -0.12327419 0.017771706 2.2498968e-38
0.0046743024 -0.12410025 0.014741823 2.2407128e-38
0.0064189984 -0.12410025 0.014741823 2.3142541e-38
0.0081636952 -0.12410025 0.014741823 2.3142538e-38
0.0099083912 -0.12410025 0.014741823 2.3234374e-38
0.01170222 -0.1249045 0.011792049 2.30507e-38
0.013452089 -0.1249045 0.011792049 2.30507e-38
0.015201957 -0.1249045 0.011792049 2.3418045e-38
0.016951825 -0.1249045 0.011792049 2.3418045e-38
0.018701695 -0.1249045 0.011792049 2.3418043e-38
0.020529523 -0.12574057 0.0087254494 2.3326208e-38
0.022284769 -0.12574057 0.0087254494 2.30507e-38
0.023865961 -0.12410025 0.014741823 2.2867036e-38
0.025795259 -0.12574057 0.0087254494 2.213127e-38
0.027550504 -0.12574057 0.0087254494 2.2775202e-38
0.028516933 -0.11945029 0.031796977 2.2591531e-38
0.030231729 -0.11945029 0.031796977 1.9181733e-38
0.031946521 -0.11945029 0.031796977 6.9197141e-39
0.033661313 -0.11945029 0.031796977 7.7494748e-39
-0.048598442 -0.14366965 -0.050217822 1.3272201e-38
-0.046739846 -0.14366965 -0.050217822 1.0227579e-38
-0.044994812 -0.14449625 -0.053230241 1.1055533e-38
-0.043130942 -0.14449625 -0.053230241 1.529544e-38
-0.041267067 -0.14449625 -0.053230241 1.5017044e-38
-0.039305478 -0.14366965 -0.050217822 1.1235936e-38
-0.037446886 -0.14366965 -0.050217822 1.0313614e-38
-0.035298172 -0.14091791 -0.04018946 1.1695108e-38
-0.033457164 -0.14091791 -0.04018946 1.3445027e-38
-0.031616155 -0.14091791 -0.04018946 1.3168793e-38
-0.0093227262 -0.12831511 0.0057397336 9.9556833e-39
-0.0075622471 -0.12831511 0.0057397336 1.4842406e-38
-0.0057991492 -0.12749584 0.0087254494 2.3509876e-38
-0.0040465919 -0.12665437 0.011792049 2.3142535e-38
-0.0023124507 -0.12501357 0.017771706 2.3142538e-38
-0.00057306606 -0.12501357 0.017771706 2.2866308e-38
0.0011663167 -0.12501357 0.017771706 2.30507e-38
0.0029057004 -0.12501357 0.017771706 2.2589722e-38
0.0046743024 -0.12584494 0.014741823 2.3142535e-38
0.0064189984 -0.12584494 0.014741823 2.3234012e-38
0.0081636952 -0.12584494 0.014741823 2.2957782e-38
0.0099083912 -0.12584494 0.014741823 2.2681196e-38
0.01170222 -0.12665437 0.011792049 2.3418043e-38
0.013452089 -0.12665437 0.011792049 2.3418043e-38
0.015201957 -0.12665437 0.011792049 2.3509879e-38
0.016951825 -0.12665437 0.011792049 2.3049259e-38
0.018701695 -0.12665437 0.011792049 2.3141452e-38
0.020376567 -0.12584494 0.014741823 2.3509879e-38
0.022121266 -0.12584494 0.014741823 2.3418043e-38
0.023865961 -0.12584494 0.014741823 2.3234376e-38
0.025795259 -0.12749584 0.0087254494 2.1852522e-38
0.027550504 -0.12749584 0.0087254494 2.3142544e-38
0.028516933 -0.12116508 0.031796977 2.1761408e-38
0.030231729 -0.12116508 0.031796977 2.2867037e-38
0.031946521 -0.12116508 0.031796977 1.4293925e-38
0.033661313 -0.12116508 0.031796977 7.5643633e-39
-0.048598442 -0.14552824 -0.050217822 1.3363673e-38
-0.046739846 -0.14552824 -0.050217822 1.1242086e-38
-0.045258038 -0.14828841 -0.060212925 1.336078e-38
-0.043130942 -0.14636014 -0.053230241 1.889107e-38
-0.041267067 -0.14636014 -0.053230241 1.7784355e-38
-0.039208319 -0.14470108 -0.04722245 1.2343728e-38
-0.03735498 -0.14470108 -0.04722245 9.4856584e-39
-0.035298172 -0.14275892 -0.04018946 8.4700645e-39
-0.033294931 -0.14111041 -0.034219816 1.1234854e-38
-0.031387787 -0.14027832 -0.031206682 1.4277307e-38
-0.029562525 -0.14027832 -0.031206682 1.5292533e-38
-0.027737264 -0.14027832 -0.031206682 2.2668895e-38
-0.025912005 -0.14027832 -0.031206682 2.0642742e-38
-0.0093227262 -0.13007559 0.0057397336 2.3509514e-38
-0.0075622471 -0.13007559 0.0057397336 2.2308813e-38
-0.0057991492 -0.12925108 0.0087254494 2.350952e-38
-0.0040491791 -0.12758966 0.014741823 2.3232933e-38
-0.0023044823 -0.12758966 0.014741823 2.3509883e-38
-0.0005597854 -0.12758966 0.014741823 2.3325131e-38
0.0011849096 -0.12758966 0.014741823 2.3509883e-38
0.0029296065 -0.12758966 0.014741823 2.3509883e-38
0.0046743024 -0.12758966 0.014741823 2.350988e-38
0.0064189984 -0.12758966 0.014741823 2.3509883e-38
0.0081636952 -0.12758966 0.014741823 2.350988e-38
0.0099083912 -0.12758966 0.014741823 2.350988e-38
0.01170222 -0.12840421 0.011792049 2.350988e-38
0.013452089 -0.12840421 0.011792049 2.1849999e-38
0.015201957 -0.12840421 0.011792049 1.9638022e-38
0.016951825 -0.12840421 0.011792049 1.8808262e-38
0.018701695 -0.12840421 0.011792049 1.9084849e-38
0.020376567 -0.12758966 0.014741823 1.9638022e-38
0.022121266 -0.12758966 0.014741823 1.9914609e-38
0.023865961 -0.12758966 0.014741823 2.2495731e-38
0.025701165 -0.12840421 0.011792049 2.3509883e-38
0.027355354 -0.12758966 0.014741823 2.3509883e-38
0.02899646 -0.12675296 0.017771706 2.341805e-38
0.030231729 -0.12287988 0.031796977 2.3234379e-38
0.031946521 -0.12287988 0.031796977 2.259009e-38
0.033661313 -0.12287988 0.031796977 1.6598097e-38
-0.045147236 -0.14934768 -0.057273582 1.3545891e-38
-0.043130942 -0.14822401 -0.053230241 1.8984347e-38
-0.041061658 -0.14655443 -0.04722245 1.7324099e-38
-0.038980193 -0.14459993 -0.04018946 1.1515408e-38
-0.037139185 -0.14459993 -0.04018946 9.9480812e-39
-0.035213146 -0.14378314 -0.037250355 9.4867374e-39
-0.033294931 -0.14294095 -0.034219816 9.7626012e-39
-0.031387787 -0.1421036 -0.031206682 1.5201424e-38
-0.029562525 -0.1421036 -0.031206682 1.6769469e-38
-0.027737264 -0.1421036 -0.031206682 2.1194859e-38
-0.025912005 -0.1421036 -0.031206682 1.9720805e-38
-0.0093227262 -0.13183604 0.0057397336 2.3509149e-38
-0.007538571 -0.12933435 0.014741823 2.3508802e-38
-0.0057938742 -0.12933435 0.014741823 2.350629e-38
-0.0040491791 -0.12933435 0.014741823 2.3508451e-38
-0.0023124507 -0.12849234 0.017771706 2.3508092e-38
-0.00057306606 -0.12849234 0.017771706 2.34141e-38
0.0011663167 -0.12849234 0.017771706 2.3507374e-38
0.0029296065 -0.12933435 0.014741823 2.3508451e-38
0.0046743024 -0.12933435 0.014741823 2.2769086e-38
0.0064189984 -0.12933435 0.014741823 2.3508451e-38
0.0081636952 -0.12933435 0.014741823 2.3507733e-38
0.0099083912 -0.12933435 0.014741823 2.0003941e-38
0.011653087 -0.12933435 0.014741823 1.7976356e-38
0.013397784 -0.12933435 0.014741823 1.6040247e-38
0.015201957 -0.13015409 0.011792049 1.4934979e-38
0.016951825 -0.13015409 0.011792049 1.4658753e-38
0.018701695 -0.13015409 0.011792049 1.5027536e-38
0.020529523 -0.13100632 0.0087254494 1.576582e-38
0.022284769 -0.13100632 0.0087254494 1.6871447e-38
0.024040014 -0.13100632 0.0087254494 1.8990858e-38
0.025701165 -0.13015409 0.011792049 2.2494289e-38
0.027355354 -0.12933435 0.014741823 2.3509524e-38
0.02899646 -0.12849234 0.017771706 2.3509523e-38
0.030627597 -0.12765543 0.020783231 2.3509886e-38
0.032361701 -0.12765543 0.020783231 2.2219866e-38
0.034095805 -0.12765543 0.020783231 2.3234379e-38
-0.041061658 -0.14840777 -0.04722245 1.8061667e-38
-0.038980193 -0.14644094 -0.04018946 1.1054074e-38
-0.037049003 -0.14561899 -0.037250355 1.0132474e-38
-0.035125475 -0.1447715 -0.034219816 1.0778198e-38
-0.033213045 -0.14392884 -0.031206682 1.2068215e-38
-0.031311624 -0.14309107 -0.028210953 1.538726e-38
-0.029491615 -0.14309107 -0.028210953 1.6493252e-38
-0.027671609 -0.14309107 -0.028210953 1.5018842e-38
-0.025912005 -0.14392884 -0.031206682 1.6218104e-38
-0.0092961965 -0.13190396 0.011792049 2.3509149e-38
-0.007538571 -0.13107903 0.014741823 2.3508445e-38
-0.0057938742 -0.13107903 0.014741823 2.3508092e-38
-0.0040518353 -0.13023172 0.017771706 2.3508451e-38
-0.0023124507 -0.13023172 0.017771706 2.3507374e-38
-0.00057306606 -0.13023172 0.017771706 2.3508451e-38
0.0011663167 -0.13023172 0.017771706 2.3507374e-38
0.0029296065 -0.13107903 0.014741823 2.3508451e-38
0.004645084 -0.13023172 0.017771706 1.751358e-38
0.0063844677 -0.13023172 0.017771706 1.5300884e-38
0.0081238523 -0.13023172 0.017771706 1.1245356e-38
0.009863236 -0.13023172 0.017771706 9.7709459e-39
0.011653087 -0.13107903 0.014741823 9.7709459e-39
0.013397784 -0.13107903 0.014741823 1.0601427e-38
0.015201957 -0.13190396 0.011792049 1.1523383e-38
0.016951825 -0.13190396 0.011792049 1.0786537e-38
0.018774278 -0.13276155 0.0087254494 9.9574952e-39
0.020529523 -0.13276155 0.0087254494 1.1893247e-38
0.022284769 -0.13276155 0.0087254494 1.502789e-38
0.024040014 -0.13276155 0.0087254494 1.6686322e-38
0.025795259 -0.13276155 0.0087254494 1.8161086e-38
0.027451035 -0.13190396 0.011792049 1.9082689e-38
0.029100049 -0.13107903 0.014741823 2.2217702e-38
0.030627597 -0.12938951 0.020783231 2.3324052e-38
0.032361701 -0.12938951 0.020783231 2.3509883e-38
0.034334138 -0.13107903 0.014741823 2.194256e-38
0.036078837 -0.13107903 0.014741823 1.6595213e-38
-0.038980193 -0.14828195 -0.04018946 1.2252255e-38
-0.037049003 -0.14745484 -0.037250355 1.0868598e-38
-0.035125475 -0.14660202 -0.034219816 1.0776403e-38
-0.033213045 -0.14575411 -0.031206682 1.2804349e-38
-0.031311624 -0.14491107 -0.028210953 1.6862039e-38
-0.029491615 -0.14491107 -0.028210953 1.732338e-38
-0.027671609 -0.14491107 -0.028210953 1.3729548e-38
-0.025851604 -0.14491107 -0.028210953 1.3361126e-38
-0.0092961965 -0.13365383 0.011792049 2.3415158e-38
-0.007538571 -0.13282375 0.014741823 2.3508807e-38
-0.005791218 -0.13197111 0.017771706 2.3508451e-38
-0.0040518353 -0.13197111 0.017771706 2.3509165e-38
-0.0023124507 -0.13197111 0.017771706 2.3046747e-38
-0.00057306606 -0.13197111 0.017771706 2.3507725e-38
0.0011663167 -0.13197111 0.017771706 2.3509165e-38
0.0029296065 -0.13282375 0.014741823 2.3508807e-38
0.004645084 -0.13197111 0.017771706 1.2721558e-38
0.0063844677 -0.13197111 0.017771706 1.170705e-38
0.0081238523 -0.13197111 0.017771706 9.2188469e-39
0.009863236 -0.13197111 0.017771706 9.4961527e-39
0.011653087 -0.13282375 0.014741823 1.0418109e-38
0.013397784 -0.13282375 0.014741823 1.1248586e-38
0.015201957 -0.13365383 0.011792049 1.1248586e-38
0.016951825 -0.13365383 0.011792049 1.0511741e-38
0.018774278 -0.13451682 0.0087254494 1.051246e-38
0.020529523 -0.13451682 0.0087254494 1.1434413e-38
0.022284769 -0.13451682 0.0087254494 1.2540397e-38
0.024040014 -0.13451682 0.0087254494 1.4936033e-38
0.025795259 -0.13451682 0.0087254494 1.6410437e-38
0.027550504 -0.13451682 0.0087254494 1.8069605e-38
0.029200904 -0.13365383 0.011792049 2.0097554e-38
0.030844748 -0.13282375 0.014741823 2.1480494e-38
0.032589443 -0.13282375 0.014741823 2.3509161e-38
0.034334138 -0.13282375 0.014741823 2.314074e-38
0.035953995 -0.13197111 0.017771706 1.7793391e-38
0.037693378 -0.13197111 0.017771706 1.5580696e-38
-0.035125475 -0.14843257 -0.034219816 9.3005538e-39
-0.033131629 -0.14673109 -0.028210953 1.2158983e-38
-0.031311624 -0.14673109 -0.028210953 1.6493256e-38
-0.029398542 -0.14561762 -0.024278715 1.6032641e-38
-0.027453925 -0.14391862 -0.018278673 1.3452605e-38
-0.025651336 -0.14391862 -0.018278673 1.4561111e-38
-0.010990889 -0.13285773 0.020783231 2.3509866e-38
-0.0092567848 -0.13285773 0.020783231 2.3509157e-38
-0.0075226827 -0.13285773 0.020783231 2.3508809e-38
-0.0057885787 -0.13285773 0.020783231 2.3323339e-38
-0.0040544746 -0.13285773 0.020783231 2.2309898e-38
-0.0023203706 -0.13285773 0.020783231 2.3509879e-38
-0.00058626849 -0.13285773 0.020783231 2.350988e-38
0.0011478355 -0.13285773 0.020783231 1.3460196e-38
0.0029296065 -0.13456844 0.014741823 1.069433e-38
0.004645084 -0.13371049 0.017771706 9.8649296e-39
0.0063844677 -0.13371049 0.017771706 1.0602497e-38
0.0081636952 -0.13456844 0.014741823 1.0879803e-38
0.0099083912 -0.13456844 0.014741823 1.0787608e-38
0.011653087 -0.13456844 0.014741823 1.0972719e-38
0.013397784 -0.13456844 0.014741823 1.1249306e-38
0.015201957 -0.13540371 0.011792049 1.1157466e-38
0.016951825 -0.13540371 0.011792049 1.0697204e-38
0.018774278 -0.13627206 0.0087254494 1.0605009e-38
0.020529523 -0.13627206 0.0087254494 1.0790477e-38
0.022284769 -0.13627206 0.0087254494 1.1526598e-38
0.024040014 -0.13627206 0.0087254494 1.2816246e-38
0.025795259 -0.13627206 0.0087254494 1.4566521e-38
0.027451035 -0.13540371 0.011792049 1.6502276e-38
0.029200904 -0.13540371 0.011792049 1.8991563e-38
0.030844748 -0.13456844 0.014741823 2.0742927e-38
0.032589443 -0.13456844 0.014741823 2.2494646e-38
0.034334138 -0.13456844 0.014741823 2.2863071e-38
0.035953995 -0.13371049 0.017771706 1.9728777e-38
0.037693378 -0.13371049 0.017771706 1.6963629e-38
0.03943276 -0.13371049 0.017771706 9.5883343e-39
-0.033131629 -0.14855109 -0.028210953 1.1974589e-38
-0.031311624 -0.14855109 -0.028210953 1.6493253e-38
-0.029398542 -0.14743073 -0.024278715 1.5295073e-38
-0.027453925 -0.14572121 -0.018278673 1.3729548e-38
-0.025590323 -0.14485909 -0.015252784 1.6128437e-38
-0.023793038 -0.14485909 -0.015252784 1.032191e-38
-0.010990889 -0.13459183 0.020783231 2.2494995e-38
-0.0092567848 -0.13459183 0.020783231 2.304782e-38
-0.0075226827 -0.13459183 0.020783231 2.3509168e-38
-0.0057885787 -0.13459183 0.020783231 2.3509168e-38
-0.0040544746 -0.13459183 0.020783231 2.350988e-38
-0.0023203706 -0.13459183 0.020783231 2.3509879e-38
-0.00058626849 -0.13459183 0.020783231 2.1850717e-38
0.0011478355 -0.13459183 0.020783231 1.1617002e-38
0.0029296065 -0.13631313 0.014741823 9.6805383e-39
0.004645084 -0.13544987 0.017771706 1.1340781e-38
0.0063844677 -0.13544987 0.017771706 1.0141882e-38
0.0081636952 -0.13631313 0.014741823 1.1341504e-38
0.0099083912 -0.13631313 0.014741823 1.0880526e-38
0.01170222 -0.13715358 0.011792049 1.0880523e-38
0.013452089 -0.13715358 0.011792049 1.0880523e-38
0.015201957 -0.13715358 0.011792049 1.088124e-38
0.016951825 -0.13715358 0.011792049 1.1065987e-38
0.018774278 -0.1380273 0.0087254494 1.1250378e-38
0.020529523 -0.1380273 0.0087254494 1.1342572e-38
0.022284769 -0.1380273 0.0087254494 1.1434402e-38
0.024040014 -0.1380273 0.0087254494 1.1248921e-38
0.025795259 -0.1380273 0.0087254494 1.2815527e-38
0.027451035 -0.13715358 0.011792049 1.4475054e-38
0.029200904 -0.13715358 0.011792049 1.7793743e-38
0.03095077 -0.13715358 0.011792049 2.0006085e-38
0.032589443 -0.13631313 0.014741823 2.0743651e-38
0.034334138 -0.13631313 0.014741823 2.138902e-38
0.035953995 -0.13544987 0.017771706 2.0559258e-38
0.037693378 -0.13544987 0.017771706 1.8438759e-38
0.03943276 -0.13544987 0.017771706 9.6805299e-39
-0.031059112 -0.14752381 -0.018278673 1.6217021e-38
-0.029256519 -0.14752381 -0.018278673 1.5387623e-38
-0.027387608 -0.14665638 -0.015252784 1.4098328e-38
-0.025590323 -0.14665638 -0.015252784 1.5483067e-38
-0.023682598 -0.1449367 -0.009253934 9.7687361e-39
-0.021846306 -0.14408441 -0.0062808543 5.898679e-39
-0.020064753 -0.14408441 -0.0062808543 4.9781618e-39
-0.014488137 -0.13718925 0.017771706 1.4475401e-38
-0.012724993 -0.13632594 0.020783231 2.350986e-38
-0.010978433 -0.13574408 0.022812888 2.3325478e-38
-0.0092348224 -0.13488953 0.025793895 2.3509518e-38
-0.0075095044 -0.13488953 0.025793895 2.3509168e-38
-0.0057867998 -0.13574408 0.022812888 2.3323699e-38
-0.0040562535 -0.13574408 0.022812888 2.3509883e-38
-0.0023203706 -0.13632594 0.020783231 1.5674328e-38
-0.00058626849 -0.13632594 0.020783231 1.0143312e-38
0.0011663167 -0.13718925 0.017771706 9.4979449e-39
0.0029296065 -0.13805781 0.014741823 1.0511741e-38
0.0046743024 -0.13805781 0.014741823 1.0788328e-38
0.0064526163 -0.13890342 0.011792049 1.0880526e-38
0.0082428101 -0.13978253 0.0087254494 1.2355656e-38
0.0099980552 -0.13978253 0.0087254494 1.1064918e-38
0.011753299 -0.13978253 0.0087254494 1.0972722e-38
0.013508544 -0.13978253 0.0087254494 1.0973438e-38
0.015263789 -0.13978253 0.0087254494 1.1250025e-38
0.017019033 -0.13978253 0.0087254494 1.1711e-38
0.018774278 -0.13978253 0.0087254494 1.2080139e-38
0.020529523 -0.13978253 0.0087254494 1.2172334e-38
0.022284769 -0.13978253 0.0087254494 1.2264166e-38
0.024040014 -0.13978253 0.0087254494 1.1986133e-38
0.025795259 -0.13978253 0.0087254494 1.2908445e-38
0.027451035 -0.13890342 0.011792049 1.4013719e-38
0.029200904 -0.13890342 0.011792049 1.7609714e-38
0.03095077 -0.13890342 0.011792049 2.0651455e-38
0.032589443 -0.13805781 0.014741823 2.0467783e-38
0.034334138 -0.13805781 0.014741823 2.0374868e-38
0.035953995 -0.13718925 0.017771706 2.0006805e-38
0.037693378 -0.13718925 0.017771706 1.862315e-38
0.03943276 -0.13718925 0.017771706 1.0879433e-38
-0.030905705 -0.14758603 -0.012244537 1.5295415e-38
-0.029113691 -0.14758603 -0.012244537 1.5295784e-38
-0.027387608 -0.14845367 -0.015252784 1.4006129e-38
-0.025529668 -0.14758603 -0.012244537 1.3085981e-38
-0.023627866 -0.14586596 -0.0062808543 8.9386181e-39
-0.021795381 -0.14498411 -0.0032233745 8.1110182e-39
-0.020019185 -0.14498411 -0.0032233745 5.8075694e-39
-0.016227521 -0.13892864 0.017771706 1.0326597e-38
-0.014459097 -0.13806005 0.020783231 1.6411873e-38
-0.012724993 -0.13806005 0.020783231 2.3509866e-38
-0.010978433 -0.13747464 0.022812888 2.3509873e-38
-0.0092348224 -0.13661484 0.025793895 2.350988e-38
-0.0075095044 -0.13661484 0.025793895 2.3509527e-38
-0.0057867998 -0.13747464 0.022812888 2.3509886e-38
-0.0040562535 -0.13747464 0.022812888 2.2958507e-38
-0.0023203706 -0.13806005 0.020783231 1.1989022e-38
-0.00058626849 -0.13806005 0.020783231 8.2075663e-39
0.0011663167 -0.13892864 0.017771706 1.0420261e-38
0.0029296065 -0.13980253 0.014741823 1.0143677e-38
0.0047027478 -0.1406533 0.011792049 1.1065634e-38
0.0064526163 -0.1406533 0.011792049 1.2171984e-38
0.0082428101 -0.14153777 0.0087254494 1.2817353e-38
0.010042552 -0.14239894 0.0057397336 1.1803201e-38
0.011803032 -0.14239894 0.0057397336 1.1895397e-38
0.013508544 -0.14153777 0.0087254494 1.198759e-38
0.015263789 -0.14153777 0.0087254494 1.2079786e-38
0.017019033 -0.14153777 0.0087254494 1.2079783e-38
0.018774278 -0.14153777 0.0087254494 1.2172334e-38
0.020529523 -0.14153777 0.0087254494 1.2448202e-38
0.022284769 -0.14153777 0.0087254494 1.2632592e-38
0.024040014 -0.14153777 0.0087254494 1.30932e-38
0.025795259 -0.14153777 0.0087254494 1.3369787e-38
0.027550504 -0.14153777 0.0087254494 1.3737854e-38
0.029305749 -0.14153777 0.0087254494 1.7426045e-38
0.031060994 -0.14153777 0.0087254494 2.1204992e-38
0.032700639 -0.1406533 0.011792049 2.1390102e-38
0.034450509 -0.1406533 0.011792049 2.0375231e-38
0.036078837 -0.13980253 0.014741823 1.862423e-38
0.037823532 -0.13980253 0.014741823 1.7425326e-38
0.039568227 -0.13980253 0.014741823 1.1248935e-38
-0.030905705 -0.14937802 -0.012244537 1.4834436e-38
-0.029113691 -0.14937802 -0.012244537 1.4835522e-38
-0.027321678 -0.14937802 -0.012244537 1.3638066e-38
-0.025529668 -0.14937802 -0.012244537 1.1887438e-38
-0.023627866 -0.14764751 -0.0062808543 8.5698383e-39
-0.021795381 -0.1467603 -0.0032233745 9.8627408e-39
-0.020019185 -0.1467603 -0.0032233745 7.2827051e-39
-0.018045537 -0.14240317 0.011792049 7.2830666e-39
-0.016227521 -0.14066802 0.017771706 1.5489557e-38
-0.014459097 -0.13979416 0.020783231 1.8716767e-38
-0.012724993 -0.13979416 0.020783231 2.2404239e-38
-0.010978433 -0.13920517 0.022812888 2.3141452e-38
-0.0092348224 -0.13834016 0.025793895 2.3509883e-38
-0.0075095044 -0.13834016 0.025793895 2.3509527e-38
-0.0057867998 -0.13920517 0.022812888 2.2680491e-38
-0.0040562535 -0.13920517 0.022812888 1.908773e-38
-0.0023203706 -0.13979416 0.020783231 9.5930146e-39
-0.00058626849 -0.13979416 0.020783231 1.0422059e-38
0.0011663167 -0.14066802 0.017771706 1.1344016e-38
0.0029296065 -0.14154722 0.014741823 9.684497e-39
0.0047027478 -0.14240317 0.011792049 1.1159627e-38
0.0064526163 -0.14240317 0.011792049 1.0052924e-38
0.0082428101 -0.14329304 0.0087254494 1.0697933e-38
0.0099980552 -0.14329304 0.0087254494 1.1527694e-38
0.011753299 -0.14329304 0.0087254494 1.2079788e-38
0.013508544 -0.14329304 0.0087254494 1.2264177e-38
0.015263789 -0.14329304 0.0087254494 1.2264177e-38
0.017019033 -0.14329304 0.0087254494 1.2079783e-38
0.018774278 -0.14329304 0.0087254494 1.2171978e-38
0.020529523 -0.14329304 0.0087254494 1.2632594e-38
0.022284769 -0.14329304 0.0087254494 1.3001375e-38
0.024040014 -0.14329304 0.0087254494 1.3092847e-38
0.025886871 -0.14415942 0.0057397336 1.318504e-38
0.027647354 -0.14415942 0.0057397336 1.309285e-38
0.029407833 -0.14415942 0.0057397336 1.6042753e-38
0.031060994 -0.14329304 0.0087254494 1.9914975e-38
0.032816239 -0.14329304 0.0087254494 2.1758888e-38
0.034571484 -0.14329304 0.0087254494 2.065254e-38
0.036326729 -0.14329304 0.0087254494 1.6872514e-38
0.038081974 -0.14329304 0.0087254494 1.5858719e-38
0.039970711 -0.14415942 0.0057397336 1.0419174e-38
0.04173119 -0.14415942 0.0057397336 9.0362367e-39
-0.023627866 -0.14942907 -0.0062808543 8.0170275e-39
-0.021696113 -0.14679669 0.0027362555 9.1248198e-39
-0.019841108 -0.14504828 0.0087254494 7.5589346e-39
-0.017966904 -0.1424074 0.017771706 7.2830694e-39
-0.016227521 -0.1424074 0.017771706 1.7056529e-38
-0.014459097 -0.14152823 0.020783231 2.0744717e-38
-0.012724993 -0.14152823 0.020783231 2.3509873e-38
-0.010978433 -0.14093573 0.022812888 2.3418043e-38
-0.0092478888 -0.14093573 0.022812888 2.341805e-38
-0.0075173443 -0.14093573 0.022812888 2.2864882e-38
-0.0057867998 -0.14093573 0.022812888 1.7149832e-38
-0.0040544746 -0.14152823 0.020783231 1.5124755e-38
-0.0023203706 -0.14152823 0.020783231 9.2253111e-39
-0.00057306606 -0.1424074 0.017771706 9.9625202e-39
0.0011849096 -0.14329191 0.014741823 1.0976672e-38
0.0029296065 -0.14329191 0.014741823 1.1713161e-38
0.0047027478 -0.14415304 0.011792049 1.1989748e-38
0.0064526163 -0.14415304 0.011792049 1.1805359e-38
0.0082428101 -0.14504828 0.0087254494 1.3371966e-38
0.0099980552 -0.14504828 0.0087254494 1.1619889e-38
0.011753299 -0.14504828 0.0087254494 1.1896476e-38
0.013508544 -0.14504828 0.0087254494 1.2448568e-38
0.015263789 -0.14504828 0.0087254494 1.2725155e-38
0.017019033 -0.14504828 0.0087254494 1.2909183e-38
0.018774278 -0.14504828 0.0087254494 1.3277966e-38
0.020529523 -0.14504828 0.0087254494 1.3646745e-38
0.022284769 -0.14504828 0.0087254494 1.4015528e-38
0.024040014 -0.14504828 0.0087254494 1.3277962e-38
0.025795259 -0.14504828 0.0087254494 1.373894e-38
0.027647354 -0.1459199 0.0057397336 1.3462357e-38
0.029407833 -0.1459199 0.0057397336 1.4660544e-38
0.031168312 -0.1459199 0.0057397336 1.7610807e-38
0.032928791 -0.1459199 0.0057397336 2.1298632e-38
0.03468927 -0.1459199 0.0057397336 2.1114238e-38
0.036326729 -0.14504828 0.0087254494 1.5767248e-38
0.038081974 -0.14504828 0.0087254494 1.4752371e-38
0.039837219 -0.14504828 0.0087254494 9.9581958e-39
0.041592464 -0.14504828 0.0087254494 9.3128236e-39
-0.021596354 -0.14680351 0.0087254494 7.0043217e-39
-0.019795407 -0.14590292 0.011792049 6.4525899e-39
-0.017966904 -0.14414679 0.017771706 6.5451484e-39
-0.016227521 -0.14414679 0.017771706 1.6134573e-38
-0.014459097 -0.14326234 0.020783231 2.0099349e-38
-0.012724993 -0.14326234 0.020783231 2.3509873e-38
-0.010990889 -0.14326234 0.020783231 2.2865229e-38
-0.0092567848 -0.14326234 0.020783231 2.3326213e-38
-0.0075226827 -0.14326234 0.020783231 2.341805e-38
-0.0057885787 -0.14326234 0.020783231 1.5029693e-38
-0.0040544746 -0.14326234 0.020783231 1.1159987e-38
-0.0023124507 -0.14414679 0.017771706 1.1807149e-38
-0.0005597854 -0.14503662 0.014741823 1.0424217e-38
0.0011849096 -0.14503662 0.014741823 1.1807152e-38
0.0029528802 -0.14590292 0.011792049 1.3373761e-38
0.0047027478 -0.14590292 0.011792049 1.0423501e-38
0.0064526163 -0.14590292 0.011792049 1.1989751e-38
0.0082428101 -0.14680351 0.0087254494 1.1528773e-38
0.0099980552 -0.14680351 0.0087254494 1.2910988e-38
0.011753299 -0.14680351 0.0087254494 1.3095019e-38
0.013508544 -0.14680351 0.0087254494 1.3462723e-38
0.015263789 -0.14680351 0.0087254494 1.3739307e-38
0.016951825 -0.14590292 0.011792049 1.4199566e-38
0.018701695 -0.14590292 0.011792049 1.4568705e-38
0.020529523 -0.14680351 0.0087254494 1.4845291e-38
0.022284769 -0.14680351 0.0087254494 1.4937484e-38
0.024040014 -0.14680351 0.0087254494 1.4568702e-38
0.025795259 -0.14680351 0.0087254494 1.5398462e-38
0.027647354 -0.14768039 0.0057397336 1.5029327e-38
0.029407833 -0.14768039 0.0057397336 1.4752743e-38
0.031168312 -0.14768039 0.0057397336 1.6504462e-38
0.032928791 -0.14768039 0.0057397336 2.1298635e-38
0.03468927 -0.14768039 0.0057397336 2.1944002e-38
0.036326729 -0.14680351 0.0087254494 1.5859443e-38
0.038081974 -0.14680351 0.0087254494 1.4291393e-38
0.039837219 -0.14680351 0.0087254494 1.0142584e-38
0.041592464 -0.14680351 0.0087254494 1.0603918e-38
0.043347709 -0.14680351 0.0087254494 1.0696114e-38
-0.021596354 -0.14855875 0.0087254494 5.7135857e-39
-0.01970629 -0.14588617 0.017771706 6.360397e-39
-0.017966904 -0.14588617 0.017771706 5.6231921e-39
-0.016227521 -0.14588617 0.017771706 1.724092e-38
-0.014459097 -0.14499645 0.020783231 2.1297893e-38
-0.012724993 -0.14499645 0.020783231 2.2496439e-38
-0.010990889 -0.14499645 0.020783231 2.2773034e-38
-0.0092567848 -0.14499645 0.020783231 2.212767e-38
-0.0075226827 -0.14499645 0.020783231 2.1481949e-38
-0.0057885787 -0.14499645 0.020783231 1.5675062e-38
-0.0040518353 -0.14588617 0.017771706 1.1622044e-38
-0.0023044823 -0.14678131 0.014741823 1.1255057e-38
-0.00054685678 -0.14765279 0.011792049 1.190007e-38
0.0012030117 -0.14765279 0.011792049 1.2268853e-38
0.0029528802 -0.14765279 0.011792049 1.199119e-38
0.0047027478 -0.14765279 0.011792049 1.2175221e-38
0.0064526163 -0.14765279 0.011792049 1.2727319e-38
0.0082428101 -0.14855875 0.0087254494 1.2358536e-38
0.0099980552 -0.14855875 0.0087254494 1.3095382e-38
0.01170222 -0.14765279 0.011792049 1.3463802e-38
0.013452089 -0.14765279 0.011792049 1.4200288e-38
0.015201957 -0.14765279 0.011792049 1.4845654e-38
0.016951825 -0.14765279 0.011792049 1.5029327e-38
0.018701695 -0.14765279 0.011792049 1.4845291e-38
0.020451561 -0.14765279 0.011792049 1.5029683e-38
0.02220143 -0.14765279 0.011792049 1.5398465e-38
0.023951299 -0.14765279 0.011792049 1.530663e-38
0.025795259 -0.14855875 0.0087254494 1.5583217e-38
0.027550504 -0.14855875 0.0087254494 1.4661266e-38
0.029407833 -0.14944084 0.0057397336 1.4937497e-38
0.031168312 -0.14944084 0.0057397336 1.5398476e-38
0.032928791 -0.14944084 0.0057397336 2.0930214e-38
0.03468927 -0.14944084 0.0057397336 2.1114241e-38
0.036326729 -0.14855875 0.0087254494 1.6504457e-38
0.038081974 -0.14855875 0.0087254494 1.3277241e-38
0.03943276 -0.14588617 0.017771706 1.0880149e-38
0.041032221 -0.14499645 0.020783231 1.0603918e-38
0.042766325 -0.14499645 0.020783231 1.1157092e-38
0.044500425 -0.14499645 0.020783231 1.0418811e-38
-0.01970629 -0.14762555 0.017771706 5.9916117e-39
-0.017966904 -0.14762555 0.017771706 6.1767218e-39
-0.016227521 -0.14762555 0.017771706 1.6779942e-38
-0.014459097 -0.14673056 0.020783231 2.0559966e-38
-0.012724993 -0.14673056 0.020783231 2.1666678e-38
-0.010990889 -0.14673056 0.020783231 2.1850717e-38
-0.0092567848 -0.14673056 0.020783231 2.0744736e-38
-0.0075306026 -0.14762555 0.017771706 2.0283406e-38
-0.005791218 -0.14762555 0.017771706 1.5398476e-38
-0.0040518353 -0.14762555 0.017771706 1.2175218e-38
-0.0023044823 -0.148526 0.014741823 1.1900426e-38
-0.00054685678 -0.14940263 0.011792049 1.2637635e-38
0.0012030117 -0.14940263 0.011792049 1.3098614e-38
0.0029528802 -0.14940263 0.011792049 1.2913146e-38
0.0047027478 -0.14940263 0.011792049 1.3373764e-38
0.0064526163 -0.14940263 0.011792049 1.4110253e-38
0.01170222 -0.14940263 0.011792049 1.3832228e-38
0.013452089 -0.14940263 0.011792049 1.4661266e-38
0.015201957 -0.14940263 0.011792049 1.5491027e-38
0.016951825 -0.14940263 0.011792049 1.5859087e-38
0.018701695 -0.14940263 0.011792049 1.5859087e-38
0.020451561 -0.14940263 0.011792049 1.613603e-38
0.02220143 -0.14940263 0.011792049 1.6597008e-38
0.023951299 -0.14940263 0.011792049 1.5675412e-38
0.03943276 -0.14762555 0.017771706 1.0603562e-38
0.041032221 -0.14673056 0.020783231 9.4053752e-39
0.042766325 -0.14673056 0.020783231 9.5890476e-39
0.044500425 -0.14673056 0.020783231 9.4968547e-39
-0.01970629 -0.14936493 0.017771706 6.2681958e-39
-0.017966904 -0.14936493 0.017771706 6.8220885e-39
-0.016227521 -0.14936493 0.017771706 1.6227122e-38
-0.014459097 -0.14846466 0.020783231 1.9638007e-38
-0.012724993 -0.14846466 0.020783231 2.0468132e-38
-0.010990889 -0.14846466 0.020783231 2.0559977e-38
-0.0092567848 -0.14846466 0.020783231 1.9637669e-38
-0.0075226827 -0.14846466 0.020783231 1.9452926e-38
-0.0057885787 -0.14846466 0.020783231 1.5674344e-38
