# .PCD v0.7 - Point Cloud Data file format
VERSION 0.7
FIELDS x y z rgb
SIZE 4 4 4 4
TYPE F F F F
COUNT 1 1 1 1
WIDTH 587
HEIGHT 1
VIEWPOINT 0 0 0 1 0 0 0
POINTS 587
DATA ascii
-0.038255908 -0.12889244 -0.06755767 1.5483434e-38
-0.036231291 -0.12789918 -0.063582279 7.1847431e-39
-0.034300771 -0.12789918 -0.063582279 1.0316512e-38
-0.032370251 -0.12789918 -0.063582279 1.722974e-38
-0.030373991 -0.12691309 -0.059635498 1.6674765e-38
-0.02840434 -0.12614109 -0.056545712 9.0218061e-39
-0.026486158 -0.12614109 -0.056545712 8.3749948e-39
-0.024567977 -0.12614109 -0.056545712 8.3749976e-39
-0.022649791 -0.12614109 -0.056545712 9.2051212e-39
-0.020731609 -0.12614109 -0.056545712 8.5608322e-39
-0.040092334 -0.12982969 -0.063582279 2.3508784e-38
-0.038161814 -0.12982969 -0.063582279 1.8895763e-38
-0.036144793 -0.12883668 -0.059635498 3.682042e-39
-0.034221191 -0.12883668 -0.059635498 6.353193e-39
-0.032297589 -0.12883668 -0.059635498 1.6123766e-38
-0.030373991 -0.12883668 -0.059635498 1.6858805e-38
-0.02840434 -0.12805928 -0.056545712 7.0839043e-39
-0.026486158 -0.12805928 -0.056545712 7.6363564e-39
-0.024567977 -0.12805928 -0.056545712 6.9909842e-39
-0.022649791 -0.12805928 -0.056545712 6.2544995e-39
-0.020731609 -0.12805928 -0.056545712 4.043273e-39
-0.042022854 -0.13176022 -0.063582279 2.3508084e-38
-0.040092334 -0.13176022 -0.063582279 2.3323699e-38
-0.038161814 -0.13176022 -0.063582279 1.8900107e-38
-0.036144793 -0.13076027 -0.059635498 6.7295649e-39
-0.034158889 -0.12997745 -0.056545712 5.3433907e-39
-0.032240707 -0.12997745 -0.056545712 1.4836295e-38
-0.030322522 -0.12997745 -0.056545712 1.4739053e-38
-0.02840434 -0.12997745 -0.056545712 8.7430893e-39
-0.026486158 -0.12997745 -0.056545712 7.8211204e-39
-0.024567977 -0.12997745 -0.056545712 7.5452453e-39
-0.022649791 -0.12997745 -0.056545712 4.4131261e-39
-0.020731609 -0.12997745 -0.056545712 4.5989495e-39
-0.043953374 -0.13369073 -0.063582279 2.3507711e-38
-0.042022854 -0.13369073 -0.063582279 2.3508085e-38
-0.040092334 -0.13369073 -0.063582279 2.3508809e-38
-0.038068391 -0.13268389 -0.059635498 2.2771605e-38
-0.036077075 -0.13189565 -0.056545712 1.8530606e-38
-0.034158889 -0.13189565 -0.056545712 1.2997426e-38
-0.032240707 -0.13189565 -0.056545712 1.2900551e-38
-0.030322522 -0.13189565 -0.056545712 1.8151019e-38
-0.02840434 -0.13189565 -0.056545712 2.0728894e-38
-0.026486158 -0.13189565 -0.056545712 1.8884257e-38
-0.024567977 -0.13189565 -0.056545712 1.2340159e-38
-0.042022854 -0.13562126 -0.063582279 2.3507352e-38
-0.040092334 -0.13562126 -0.063582279 2.3506273e-38
-0.037995256 -0.13381381 -0.056545712 2.3505181e-38
-0.036077075 -0.13381381 -0.056545712 2.2031491e-38
-0.034158889 -0.13381381 -0.056545712 1.8065639e-38
-0.032240707 -0.13381381 -0.056545712 1.5942626e-38
-0.030322522 -0.13381381 -0.056545712 1.9256641e-38
-0.02840434 -0.13381381 -0.056545712 2.0913654e-38
-0.042022854 -0.1375518 -0.063582279 1.6398561e-38
-0.040092334 -0.1375518 -0.063582279 1.483303e-38
-0.037995256 -0.13573201 -0.056545712 1.6496505e-38
-0.036077075 -0.13573201 -0.056545712 1.5115005e-38
-0.034158889 -0.13573201 -0.056545712 1.6681975e-38
-0.032240707 -0.13573201 -0.056545712 2.2673259e-38
-0.030322522 -0.13573201 -0.056545712 2.3501591e-38
-0.028300803 -0.13393532 -0.049598433 2.3500885e-38
-0.026394799 -0.13393532 -0.049598433 2.0269372e-38
-0.042022854 -0.1394823 -0.063582279 1.2064646e-38
-0.039913438 -0.13765021 -0.056545712 6.0733691e-39
-0.037900236 -0.13660498 -0.052531339 5.6163468e-39
-0.035989091 -0.13660498 -0.052531339 7.5553333e-39
-0.034077946 -0.13660498 -0.052531339 1.437781e-38
-0.032166801 -0.13660498 -0.052531339 2.2582501e-38
-0.03025566 -0.13660498 -0.052531339 2.3409387e-38
-0.028300803 -0.13584132 -0.049598433 2.3131004e-38
-0.026394799 -0.13584132 -0.049598433 2.3505193e-38
-0.043953374 -0.14141284 -0.063582279 5.1510582e-39
-0.042022854 -0.14141284 -0.063582279 4.413496e-39
-0.039913438 -0.13956837 -0.056545712 2.7561411e-39
-0.037900236 -0.13851611 -0.052531339 2.6675398e-39
-0.035989091 -0.13851611 -0.052531339 4.8834719e-39
-0.034077946 -0.13851611 -0.052531339 4.3320932e-39
-0.032166801 -0.13851611 -0.052531339 4.4228469e-39
-0.03025566 -0.13851611 -0.052531339 8.3840178e-39
-0.028344512 -0.13851611 -0.052531339 1.0779299e-38
0.010234826 -0.11992194 0.01840546 1.6132408e-38
0.012021595 -0.11992194 0.01840546 2.3415144e-38
0.013808365 -0.11992194 0.01840546 2.3509503e-38
0.015595133 -0.11992194 0.01840546 2.3509866e-38
0.021248169 -0.12228753 0.0093807206 2.3234372e-38
0.023050763 -0.12228753 0.0093807206 2.2866674e-38
0.024853356 -0.12228753 0.0093807206 2.3142544e-38
0.026655946 -0.12228753 0.0093807206 2.2958873e-38
-0.043839194 -0.14230187 -0.059635498 3.4922628e-39
-0.04183162 -0.14148657 -0.056545712 2.7568698e-39
-0.039913438 -0.14148657 -0.056545712 1.5619307e-39
-0.037995256 -0.14148657 -0.056545712 2.1187044e-39
-0.036077075 -0.14148657 -0.056545712 3.8736556e-39
-0.034158889 -0.14148657 -0.056545712 2.3992416e-39
0.0066065555 -0.12092416 0.02137854 5.6285913e-39
0.0083881104 -0.12092416 0.02137854 9.3156963e-39
0.010234826 -0.12170871 0.01840546 1.7796252e-38
0.012021595 -0.12170871 0.01840546 2.3234354e-38
0.013808365 -0.12170871 0.01840546 2.3509866e-38
0.015595133 -0.12170871 0.01840546 2.3509869e-38
0.017381903 -0.12170871 0.01840546 2.2497155e-38
0.019260433 -0.12249784 0.015414856 2.341804e-38
0.021150023 -0.12329166 0.01240661 2.3418045e-38
0.022947308 -0.12329166 0.01240661 2.2404977e-38
0.024744596 -0.12329166 0.01240661 2.2681931e-38
0.026655946 -0.12409012 0.0093807206 2.2958873e-38
0.028458539 -0.12409012 0.0093807206 2.2958873e-38
-0.043461058 -0.14075352 -0.046564795 4.3220263e-39
-0.041560374 -0.14075352 -0.046564795 4.4178372e-39
-0.039659694 -0.14075352 -0.046564795 5.5102279e-40
-0.037995256 -0.14340474 -0.056545712 1.3840219e-39
-0.036077075 -0.14340474 -0.056545712 1.5716473e-39
-0.033878166 -0.13970654 -0.042623259 5.5856878e-40
-0.031984396 -0.13970654 -0.042623259 1.0184567e-39
0.0030877516 -0.12349547 0.01840546 1.7596357e-39
0.0048745209 -0.12349547 0.01840546 1.4482267e-38
0.0066065555 -0.12270571 0.02137854 2.1673159e-38
0.0083881104 -0.12270571 0.02137854 2.2316009e-38
0.010169667 -0.12270571 0.02137854 2.2775186e-38
0.011951222 -0.12270571 0.02137854 2.2130889e-38
0.013808365 -0.12349547 0.01840546 2.2867016e-38
0.015595133 -0.12349547 0.01840546 2.314253e-38
0.017381903 -0.12349547 0.01840546 2.3418045e-38
0.019168671 -0.12349547 0.01840546 2.3418047e-38
0.021150023 -0.12508895 0.01240661 2.341805e-38
0.022947308 -0.12508895 0.01240661 2.3234018e-38
0.024744596 -0.12508895 0.01240661 2.3234379e-38
0.026541881 -0.12508895 0.01240661 2.3142544e-38
0.028458539 -0.12589271 0.0093807206 2.2681931e-38
0.030261133 -0.12589271 0.0093807206 2.2682649e-38
-0.043461058 -0.1426542 -0.046564795 7.0878923e-39
-0.041560374 -0.1426542 -0.046564795 7.9212712e-39
-0.039659694 -0.1426542 -0.046564795 5.1593665e-39
-0.03766571 -0.1416003 -0.042623259 7.1746481e-43
-0.03577194 -0.1416003 -0.042623259 4.6564728e-40
-0.033878166 -0.1416003 -0.042623259 6.5182939e-40
0.003043443 -0.1244873 0.02137854 3.3269628e-39
0.0048249988 -0.1244873 0.02137854 1.9553748e-38
0.0066065555 -0.1244873 0.02137854 2.1489132e-38
0.0083881104 -0.1244873 0.02137854 2.2316017e-38
0.010169667 -0.1244873 0.02137854 2.2591521e-38
0.011951222 -0.1244873 0.02137854 2.2775192e-38
0.013808365 -0.12528224 0.01840546 2.2131256e-38
0.015514334 -0.1244873 0.02137854 2.3142538e-38
0.01729589 -0.1244873 0.02137854 2.3234379e-38
0.019168671 -0.12528224 0.01840546 2.2864526e-38
0.021150023 -0.12688623 0.01240661 2.3325856e-38
0.022947308 -0.12688623 0.01240661 2.3325856e-38
0.024744596 -0.12688623 0.01240661 2.3234379e-38
0.026541881 -0.12688623 0.01240661 2.3142541e-38
0.028458539 -0.12769531 0.0093807206 2.2867027e-38
0.030382212 -0.12848105 0.0064420924 2.2958866e-38
0.032189958 -0.12848105 0.0064420924 2.2130541e-38
0.033997703 -0.12848105 0.0064420924 2.2867034e-38
-0.043461058 -0.14455487 -0.046564795 1.1419645e-38
-0.041560374 -0.14455487 -0.046564795 1.1054116e-38
-0.039659694 -0.14455487 -0.046564795 8.1996531e-39
-0.03766571 -0.14349405 -0.042623259 2.1204883e-39
-0.035706304 -0.14268802 -0.039628364 1.793662e-42
-0.033817779 -0.14268802 -0.039628364 2.8698593e-42
-0.031929258 -0.14268802 -0.039628364 2.1523944e-42
-0.00051966961 -0.12626885 0.02137854 2.2867037e-38
0.0012618871 -0.12626885 0.02137854 2.240786e-38
0.003043443 -0.12626885 0.02137854 2.1947603e-38
0.0048249988 -0.12626885 0.02137854 2.2499695e-38
0.0066065555 -0.12626885 0.02137854 2.2224183e-38
0.0083881104 -0.12626885 0.02137854 2.2775199e-38
0.010102657 -0.12544595 0.024436019 2.1669923e-38
0.011878853 -0.12544595 0.024436019 2.2958867e-38
0.013732779 -0.12626885 0.02137854 2.3142538e-38
0.015514334 -0.12626885 0.02137854 2.2682286e-38
0.01729589 -0.12626885 0.02137854 2.2588661e-38
0.019260433 -0.12787388 0.015414856 2.323402e-38
0.021052442 -0.12787388 0.015414856 2.3417691e-38
0.022947308 -0.12868352 0.01240661 2.0653266e-38
0.024744596 -0.12868352 0.01240661 1.7979943e-38
0.026655946 -0.1294979 0.0093807206 1.8441273e-38
0.028458539 -0.1294979 0.0093807206 2.0192984e-38
0.030382212 -0.13028879 0.0064420924 2.2498951e-38
0.032189958 -0.13028879 0.0064420924 2.3142527e-38
0.033997703 -0.13028879 0.0064420924 2.295886e-38
-0.043461058 -0.14645557 -0.046564795 1.1510753e-38
-0.041453257 -0.14538784 -0.042623259 1.1879903e-38
-0.039559484 -0.14538784 -0.042623259 1.0867913e-38
-0.037594825 -0.14457656 -0.039628364 6.7244978e-39
-0.035706304 -0.14457656 -0.039628364 1.7498967e-39
-0.033737019 -0.14349155 -0.035623051 5.5424157e-40
-0.031744897 -0.14186381 -0.029614188 9.3270426e-41
-0.029873934 -0.14186381 -0.029614188 1.013419e-39
-0.0022725547 -0.12885578 0.01840546 2.3509163e-38
-0.00051966961 -0.1280504 0.02137854 2.3509168e-38
0.0012618871 -0.1280504 0.02137854 2.3509527e-38
0.003043443 -0.1280504 0.02137854 2.341805e-38
0.0048249988 -0.1280504 0.02137854 2.2957075e-38
0.0066065555 -0.1280504 0.02137854 2.341805e-38
0.0083881104 -0.1280504 0.02137854 2.341805e-38
0.010102657 -0.12722217 0.024436019 2.2864513e-38
0.011878853 -0.12722217 0.024436019 2.2955993e-38
0.013732779 -0.1280504 0.02137854 2.3509527e-38
0.015595133 -0.12885578 0.01840546 2.3509527e-38
0.017381903 -0.12885578 0.01840546 2.3233662e-38
0.019260433 -0.1296659 0.015414856 2.258902e-38
0.021052442 -0.1296659 0.015414856 2.0652558e-38
0.022947308 -0.13048081 0.01240661 1.613568e-38
0.024744596 -0.13048081 0.01240661 1.2816985e-38
0.026655946 -0.13130049 0.0093807206 1.2632942e-38
0.028458539 -0.13130049 0.0093807206 1.3924392e-38
0.030382212 -0.13209651 0.0064420924 1.6321475e-38
0.032189958 -0.13209651 0.0064420924 1.9824909e-38
0.033997703 -0.13209651 0.0064420924 2.0930904e-38
0.035805445 -0.13209651 0.0064420924 2.2222012e-38
-0.043461058 -0.14835624 -0.046564795 9.1122221e-39
-0.041453257 -0.1472816 -0.042623259 9.2948183e-39
-0.039559484 -0.1472816 -0.042623259 9.2051408e-39
-0.037594825 -0.14646508 -0.039628364 6.5368584e-39
-0.035706304 -0.14646508 -0.039628364 3.3132525e-39
-0.033737019 -0.14537306 -0.035623051 2.7625983e-39
-0.031744897 -0.14373477 -0.029614188 5.4373365e-39
-0.029806584 -0.14263238 -0.025570847 1.04141e-38
-0.02794271 -0.14263238 -0.025570847 1.3272164e-38
-0.026078839 -0.14263238 -0.025570847 8.8485748e-39
-0.024214964 -0.14263238 -0.025570847 2.3974087e-39
-0.0023307092 -0.12899835 0.024436019 2.2490327e-38
-0.00055451412 -0.12899835 0.024436019 2.3504488e-38
0.001221681 -0.12899835 0.024436019 2.3508451e-38
0.0029978761 -0.12899835 0.024436019 2.3230062e-38
0.0047740722 -0.12899835 0.024436019 2.3508808e-38
0.0066065555 -0.12983195 0.02137854 2.3509168e-38
0.0083881104 -0.12983195 0.02137854 2.3508088e-38
0.010169667 -0.12983195 0.02137854 2.3509168e-38
0.011951222 -0.12983195 0.02137854 2.3509168e-38
0.013732779 -0.12983195 0.02137854 2.2954201e-38
0.015595133 -0.13064255 0.01840546 1.7055127e-38
0.017381903 -0.13064255 0.01840546 1.3645339e-38
0.019260433 -0.13145791 0.015414856 9.8667597e-39
0.021052442 -0.13145791 0.015414856 8.4834539e-39
0.022947308 -0.1322781 0.01240661 8.1150203e-39
0.024853356 -0.13310309 0.0093807206 8.5759858e-39
0.026655946 -0.13310309 0.0093807206 9.1295085e-39
0.028574467 -0.13390426 0.0064420924 1.0235488e-38
0.030382212 -0.13390426 0.0064420924 1.3001352e-38
0.032189958 -0.13390426 0.0064420924 1.5582112e-38
0.033997703 -0.13390426 0.0064420924 1.7610422e-38
-0.039559484 -0.14917539 -0.042623259 9.2944526e-39
-0.03766571 -0.14917539 -0.042623259 6.902764e-39
-0.035706304 -0.14835359 -0.039628364 6.3524643e-39
-0.033737019 -0.14725454 -0.035623051 3.496206e-39
-0.031744897 -0.14560573 -0.029614188 7.369842e-39
-0.029806584 -0.14449625 -0.025570847 1.1978533e-38
-0.02794271 -0.14449625 -0.025570847 1.7418427e-38
-0.026078839 -0.14449625 -0.025570847 1.6129481e-38
-0.024214964 -0.14449625 -0.025570847 1.0785734e-38
-0.0041308831 -0.12994061 0.027475141 1.0135383e-38
-0.002360017 -0.12994061 0.027475141 2.3506999e-38
-0.00058915 -0.12994061 0.027475141 2.3507006e-38
0.0011817161 -0.12994061 0.027475141 2.3508089e-38
0.0029978761 -0.13077454 0.024436019 2.3507728e-38
0.0047740722 -0.13077454 0.024436019 2.3508448e-38
0.0065502664 -0.13077454 0.024436019 2.3508807e-38
0.0083264625 -0.13077454 0.024436019 2.3506286e-38
0.010169667 -0.13161351 0.02137854 2.3508451e-38
0.011951222 -0.13161351 0.02137854 2.3508809e-38
0.013808365 -0.13242932 0.01840546 2.3507733e-38
0.015595133 -0.13242932 0.01840546 1.3182907e-38
0.017381903 -0.13242932 0.01840546 1.0419564e-38
0.019260433 -0.13324992 0.015414856 7.7473294e-39
0.021052442 -0.13324992 0.015414856 7.7469651e-39
0.023050763 -0.13490568 0.0093807206 8.5759984e-39
0.024853356 -0.13490568 0.0093807206 8.9447684e-39
0.026766725 -0.13571201 0.0064420924 8.4841419e-39
0.028574467 -0.13571201 0.0064420924 8.5756131e-39
0.030382212 -0.13571201 0.0064420924 1.0603554e-38
0.032189958 -0.13571201 0.0064420924 1.5120421e-38
0.033997703 -0.13571201 0.0064420924 1.6318967e-38
0.035805445 -0.13571201 0.0064420924 1.5765441e-38
0.039274093 -0.13490568 0.0093807206 2.0835861e-38
-0.035618518 -0.14913605 -0.035623051 1.2621406e-38
-0.033675127 -0.14828841 -0.032553531 9.3952718e-39
-0.031744897 -0.14747669 -0.029614188 1.2161492e-38
-0.029873934 -0.14747669 -0.029614188 1.39114e-38
-0.02794271 -0.14636014 -0.025570847 1.9258736e-38
-0.026078839 -0.14636014 -0.025570847 1.815418e-38
-0.024214964 -0.14636014 -0.025570847 1.815778e-38
-0.022225332 -0.14275892 -0.012530066 1.3183539e-38
-0.020384323 -0.14275892 -0.012530066 2.7873508e-40
-0.0058831004 -0.13255073 0.024436019 8.2723693e-40
-0.0041308831 -0.1317115 0.027475141 7.6493408e-39
-0.002360017 -0.1317115 0.027475141 2.3509156e-38
-0.00058915 -0.1317115 0.027475141 2.3508802e-38
0.0011817161 -0.1317115 0.027475141 2.3508804e-38
0.0029525831 -0.1317115 0.027475141 2.3507363e-38
0.0047234492 -0.1317115 0.027475141 2.3508802e-38
0.0065502664 -0.13255073 0.024436019 2.3509161e-38
0.0083264625 -0.13255073 0.024436019 2.3509163e-38
0.010102657 -0.13255073 0.024436019 2.3137863e-38
0.011951222 -0.13339506 0.02137854 1.1522296e-38
0.013732779 -0.13339506 0.02137854 9.9546169e-39
0.015514334 -0.13339506 0.02137854 7.0987118e-39
0.017381903 -0.13421609 0.01840546 8.300136e-39
0.019260433 -0.13504194 0.015414856 8.0249869e-39
0.021052442 -0.13504194 0.015414856 9.0387759e-39
0.022947308 -0.13587265 0.01240661 8.8540203e-39
0.024853356 -0.13670824 0.0093807206 9.4061094e-39
0.026766725 -0.13751976 0.0064420924 1.0234786e-38
0.028574467 -0.13751976 0.0064420924 9.3121075e-39
0.030382212 -0.13751976 0.0064420924 9.219549e-39
0.032063723 -0.13670824 0.0093807206 1.216873e-38
0.033866316 -0.13670824 0.0093807206 1.6594123e-38
0.03566891 -0.13670824 0.0093807206 1.7884147e-38
0.037471499 -0.13670824 0.0093807206 1.9267445e-38
-0.031744897 -0.14934768 -0.029614188 1.2253678e-38
-0.029873934 -0.14934768 -0.029614188 1.4002154e-38
-0.02800297 -0.14934768 -0.029614188 1.8979639e-38
-0.02613201 -0.14934768 -0.029614188 1.9717204e-38
-0.024261042 -0.14934768 -0.029614188 1.7875814e-38
-0.022225332 -0.14459993 -0.012530066 1.3086323e-38
-0.020384323 -0.14459993 -0.012530066 1.748103e-39
-0.01300108 -0.13851084 0.0093807206 6.7241223e-39
-0.011198486 -0.13851084 0.0093807206 6.0870247e-39
-0.0076592946 -0.13432692 0.024436019 3.2285917e-42
-0.0058831004 -0.13432692 0.024436019 1.93932e-39
-0.0041308831 -0.13348235 0.027475141 9.0373129e-39
-0.002360017 -0.13348235 0.027475141 2.295778e-38
-0.00058915 -0.13348235 0.027475141 2.3325846e-38
0.0011817161 -0.13348235 0.027475141 2.3509879e-38
0.0029525831 -0.13348235 0.027475141 2.3417323e-38
0.0047234492 -0.13348235 0.027475141 2.3509876e-38
0.0065502664 -0.13432692 0.024436019 2.3233288e-38
0.0083264625 -0.13432692 0.024436019 2.2403887e-38
0.010102657 -0.13432692 0.024436019 2.2772674e-38
0.011951222 -0.13517661 0.02137854 9.0358878e-39
0.013732779 -0.13517661 0.02137854 6.5462527e-39
0.015514334 -0.13517661 0.02137854 9.2213679e-39
0.01729589 -0.13517661 0.02137854 9.408273e-39
0.019168671 -0.13600285 0.01840546 9.0405667e-39
0.02095544 -0.13600285 0.01840546 9.6848571e-39
0.022947308 -0.13766994 0.01240661 8.946932e-39
0.024853356 -0.13851084 0.0093807206 9.6826963e-39
0.026766725 -0.13932751 0.0064420924 1.0971996e-38
0.028574467 -0.13932751 0.0064420924 9.9571252e-39
0.030382212 -0.13932751 0.0064420924 9.3113957e-39
0.032063723 -0.13851084 0.0093807206 9.4017934e-39
0.033866316 -0.13851084 0.0093807206 1.4288162e-38
0.035528313 -0.13766994 0.01240661 1.7237343e-38
0.037325602 -0.13766994 0.01240661 1.9635508e-38
-0.022225332 -0.14644094 -0.012530066 1.216222e-38
-0.020313449 -0.14392884 -0.0035472885 1.2856969e-39
-0.018488191 -0.14392884 -0.0035472885 5.8950749e-39
-0.016619146 -0.14113526 0.0064420924 8.4751092e-39
-0.014803671 -0.14031343 0.0093807206 9.7622452e-39
-0.01300108 -0.14031343 0.0093807206 1.2992329e-38
-0.011201139 -0.13946722 0.01240661 9.4046185e-39
-0.0094117643 -0.13862596 0.015414856 5.9980633e-39
-0.0076592946 -0.13610314 0.024436019 5.9966298e-39
-0.0058831004 -0.13610314 0.024436019 1.0882651e-38
-0.0041308831 -0.13525321 0.027475141 1.4846356e-38
-0.002360017 -0.13525321 0.027475141 2.3050698e-38
-0.00058915 -0.13525321 0.027475141 2.3234374e-38
0.0011817161 -0.13525321 0.027475141 2.3234372e-38
0.0029090578 -0.13443647 0.030395649 2.3418038e-38
0.0046748044 -0.13443647 0.030395649 2.3234362e-38
0.0065502664 -0.13610314 0.024436019 2.323436e-38
0.0083264625 -0.13610314 0.024436019 1.3831486e-38
0.010102657 -0.13610314 0.024436019 1.0604288e-38
0.011878853 -0.13610314 0.024436019 6.5476848e-39
0.013732779 -0.13695817 0.02137854 1.0050766e-38
0.015514334 -0.13695817 0.02137854 1.0052561e-38
0.01729589 -0.13695817 0.02137854 9.5922986e-39
0.019168671 -0.13778962 0.01840546 8.8554496e-39
0.02095544 -0.13778962 0.01840546 9.5922986e-39
0.023050763 -0.14031343 0.0093807206 9.4071884e-39
0.024853356 -0.14031343 0.0093807206 9.4061122e-39
0.026766725 -0.14113526 0.0064420924 1.0050043e-38
0.028574467 -0.14113526 0.0064420924 1.0418109e-38
0.030382212 -0.14113526 0.0064420924 1.2076911e-38
0.032063723 -0.14031343 0.0093807206 1.170705e-38
0.033866316 -0.14031343 0.0093807206 1.0324471e-38
0.035528313 -0.13946722 0.01240661 1.207547e-38
0.037325602 -0.13946722 0.01240661 1.9820618e-38
-0.027808785 -0.14942293 -0.016584612 1.8427181e-38
-0.025907353 -0.14828195 -0.012530066 1.8060928e-38
-0.024032846 -0.14745484 -0.009590961 1.1794153e-38
-0.02219699 -0.14745484 -0.009590961 7.6478792e-39
-0.020313449 -0.14575411 -0.0035472885 4.6979848e-39
-0.018445674 -0.14380451 0.0033806786 5.5270322e-39
-0.016619146 -0.14294298 0.0064420924 7.2765912e-39
-0.014803671 -0.14211603 0.0093807206 8.0109164e-39
-0.01300108 -0.14211603 0.0093807206 1.3266775e-38
-0.011201139 -0.14126451 0.01240661 1.2810449e-38
-0.0094117643 -0.14041798 0.015414856 1.2166873e-38
-0.0076458929 -0.13873972 0.02137854 1.0968695e-38
-0.0058643371 -0.13873972 0.02137854 1.6132746e-38
-0.0041069044 -0.13787933 0.024436019 2.2955608e-38
-0.0023307092 -0.13787933 0.024436019 2.3509879e-38
-0.00058915 -0.13702409 0.027475141 2.3509886e-38
0.0011817161 -0.13702409 0.027475141 2.2957425e-38
0.0029090578 -0.13620223 0.030395649 2.314252e-38
0.0046748044 -0.13620223 0.030395649 2.3142514e-38
0.0064943163 -0.13702409 0.027475141 2.2590777e-38
0.0082651833 -0.13702409 0.027475141 9.8674281e-39
0.01003605 -0.13702409 0.027475141 8.2072019e-39
0.011806916 -0.13702409 0.027475141 8.3912415e-39
0.013655047 -0.13787933 0.024436019 1.0603937e-38
0.015431243 -0.13787933 0.024436019 1.0051119e-38
0.01729589 -0.13873972 0.02137854 1.0051479e-38
0.019168671 -0.13957639 0.01840546 9.9592832e-39
0.021150023 -0.14126451 0.01240661 9.959286e-39
0.023050763 -0.14211603 0.0093807206 9.959286e-39
0.024958979 -0.14294298 0.0064420924 1.0142958e-38
0.026766725 -0.14294298 0.0064420924 1.0419545e-38
0.028574467 -0.14294298 0.0064420924 1.0879803e-38
0.030382212 -0.14294298 0.0064420924 1.0971999e-38
0.032063723 -0.14211603 0.0093807206 1.1155671e-38
0.033866316 -0.14211603 0.0093807206 9.4968659e-39
0.03566891 -0.14211603 0.0093807206 1.0971277e-38
0.037471499 -0.14211603 0.0093807206 2.0652534e-38
0.039274093 -0.14211603 0.0093807206 2.1297904e-38
0.041076683 -0.14211603 0.0093807206 2.0099718e-38
0.042879276 -0.14211603 0.0093807206 1.5490657e-38
-0.025868703 -0.14929073 -0.009590961 1.6034062e-38
-0.023963969 -0.14757936 -0.0035472885 9.6758118e-39
-0.022138711 -0.14757936 -0.0035472885 4.9756507e-39
-0.020313449 -0.14757936 -0.0035472885 4.4228441e-39
-0.018445674 -0.14561762 0.0033806786 5.3430081e-39
-0.016606264 -0.14391862 0.0093807206 5.9858636e-39
-0.014795712 -0.1430618 0.01240661 8.5641042e-39
-0.012998427 -0.1430618 0.01240661 1.2897641e-38
-0.011203776 -0.14220999 0.015414856 1.3821721e-38
-0.0094117643 -0.14220999 0.015414856 1.2624603e-38
-0.0076328618 -0.14136316 0.01840546 1.1335308e-38
-0.0058643371 -0.14052127 0.02137854 1.9172316e-38
-0.0041069044 -0.13965552 0.024436019 2.3509502e-38
-0.0023307092 -0.13965552 0.024436019 2.3507362e-38
-0.00058915 -0.13879494 0.027475141 2.3232585e-38
0.0011817161 -0.13879494 0.027475141 2.3234015e-38
0.0029090578 -0.13796796 0.030395649 2.3234354e-38
0.0046748044 -0.13796796 0.030395649 2.3142509e-38
0.0064943163 -0.13879494 0.027475141 2.0379154e-38
0.0082651833 -0.13879494 0.027475141 9.3149704e-39
0.01003605 -0.13879494 0.027475141 9.4979421e-39
0.011806916 -0.13879494 0.027475141 1.0603939e-38
0.013655047 -0.13965552 0.024436019 1.1340779e-38
0.015431243 -0.13965552 0.024436019 1.0512097e-38
0.01729589 -0.14052127 0.02137854 1.1065271e-38
0.01962968 -0.14561762 0.0033806786 1.1157466e-38
0.021442793 -0.14561762 0.0033806786 1.1249306e-38
0.023255903 -0.14561762 0.0033806786 1.1433697e-38
0.025069017 -0.14561762 0.0033806786 1.1710284e-38
0.026882127 -0.14561762 0.0033806786 1.1894675e-38
0.028574467 -0.14475073 0.0064420924 1.1986871e-38
0.030382212 -0.14475073 0.0064420924 1.2079067e-38
0.032063723 -0.14391862 0.0093807206 1.0880523e-38
0.033866316 -0.14391862 0.0093807206 9.6823362e-39
0.03566891 -0.14391862 0.0093807206 1.1065271e-38
0.037471499 -0.14391862 0.0093807206 1.9731657e-38
0.039274093 -0.14391862 0.0093807206 2.1576289e-38
0.041076683 -0.14391862 0.0093807206 2.1484091e-38
0.042879276 -0.14391862 0.0093807206 1.7428563e-38
-0.023963969 -0.14940463 -0.0035472885 8.8460511e-39
-0.022138711 -0.14940463 -0.0035472885 5.3444332e-39
-0.020313449 -0.14940463 -0.0035472885 7.0043217e-39
-0.018445674 -0.14743073 0.0033806786 6.8181382e-39
-0.016606264 -0.14572121 0.0093807206 5.893668e-39
-0.014795712 -0.14485909 0.01240661 9.3027497e-39
-0.012998427 -0.14485909 0.01240661 1.1976047e-38
-0.011203776 -0.14400201 0.015414856 1.1240968e-38
-0.0094196303 -0.14314993 0.01840546 1.1242033e-38
-0.0076328618 -0.14314993 0.01840546 1.0598106e-38
-0.0058643371 -0.14230286 0.02137854 2.0740365e-38
-0.0041069044 -0.1414317 0.024436019 2.3509504e-38
-0.0023307092 -0.1414317 0.024436019 2.3509161e-38
-0.00058915 -0.14056583 0.027475141 2.314039e-38
0.0011817161 -0.14056583 0.027475141 2.3418047e-38
0.0029090578 -0.13973372 0.030395649 2.2590781e-38
0.0046748044 -0.13973372 0.030395649 1.8811828e-38
0.0064943163 -0.14056583 0.027475141 1.4571549e-38
0.0082651833 -0.14056583 0.027475141 8.5784844e-39
0.01003605 -0.14056583 0.027475141 1.0605009e-38
0.011951222 -0.14230286 0.02137854 1.1803201e-38
0.014190345 -0.14743073 0.0033806786 1.0973075e-38
0.016003456 -0.14743073 0.0033806786 1.1526246e-38
0.01781657 -0.14743073 0.0033806786 1.0788684e-38
0.01962968 -0.14743073 0.0033806786 1.088124e-38
0.021442793 -0.14743073 0.0033806786 1.1157826e-38
0.023255903 -0.14743073 0.0033806786 1.1434413e-38
0.025069017 -0.14743073 0.0033806786 1.1711003e-38
0.026882127 -0.14743073 0.0033806786 1.1803199e-38
0.028574467 -0.14655848 0.0064420924 1.1895397e-38
0.030382212 -0.14655848 0.0064420924 1.1895397e-38
0.032189958 -0.14655848 0.0064420924 1.1895397e-38
0.033997703 -0.14655848 0.0064420924 1.1065634e-38
0.03566891 -0.14572121 0.0093807206 1.198759e-38
0.037471499 -0.14572121 0.0093807206 1.7980303e-38
0.039274093 -0.14572121 0.0093807206 2.1023115e-38
0.041076683 -0.14572121 0.0093807206 2.2221658e-38
0.042879276 -0.14572121 0.0093807206 1.8719303e-38
0.044681869 -0.14572121 0.0093807206 9.8685211e-39
-0.018445674 -0.14924385 0.0033806786 7.7400945e-39
-0.016606264 -0.14752381 0.0093807206 5.1568218e-39
-0.014795712 -0.14665638 0.01240661 6.4450453e-39
-0.012998427 -0.14665638 0.01240661 7.2751521e-39
-0.011206399 -0.1449367 0.01840546 7.5535088e-39
-0.0094196303 -0.1449367 0.01840546 9.491761e-39
-0.0076328618 -0.1449367 0.01840546 9.5843196e-39
-0.0058643371 -0.14408441 0.02137854 2.0925476e-38
-0.0041069044 -0.14320792 0.024436019 2.3508427e-38
-0.0023307092 -0.14320792 0.024436019 2.3509524e-38
-0.00058915 -0.14233668 0.027475141 2.3509168e-38
0.0011817161 -0.14233668 0.027475141 2.341805e-38
0.0029090578 -0.14149947 0.030395649 2.2775176e-38
0.0046748044 -0.14149947 0.030395649 1.3740712e-38
0.0064943163 -0.14233668 0.027475141 9.7773793e-39
0.0082651833 -0.14233668 0.027475141 9.9614216e-39
0.01003605 -0.14233668 0.027475141 1.1342218e-38
0.011951222 -0.14408441 0.02137854 1.161881e-38
0.013732779 -0.14408441 0.02137854 1.0696488e-38
0.015514334 -0.14408441 0.02137854 1.226453e-38
0.017555449 -0.14665638 0.01240661 1.1987587e-38
0.019445579 -0.14752381 0.0093807206 1.2171978e-38
0.021248169 -0.14752381 0.0093807206 1.2448565e-38
0.023255903 -0.14924385 0.0033806786 1.2725152e-38
0.025069017 -0.14924385 0.0033806786 1.2909546e-38
0.026882127 -0.14924385 0.0033806786 1.3001742e-38
0.028574467 -0.14836623 0.0064420924 1.3001745e-38
0.030382212 -0.14836623 0.0064420924 1.3001745e-38
0.032189958 -0.14836623 0.0064420924 1.3001745e-38
0.033997703 -0.14836623 0.0064420924 1.2632962e-38
0.035805445 -0.14836623 0.0064420924 1.2909549e-38
0.037613191 -0.14836623 0.0064420924 1.6320784e-38
0.039420936 -0.14836623 0.0064420924 1.973202e-38
0.041076683 -0.14752381 0.0093807206 2.2037267e-38
0.042879276 -0.14752381 0.0093807206 1.9549064e-38
-0.014803671 -0.1493264 0.0093807206 4.6029305e-39
-0.012998427 -0.14845367 0.01240661 5.1560931e-39
-0.011206399 -0.14672346 0.01840546 5.6184852e-39
-0.0094196303 -0.14672346 0.01840546 8.2010306e-39
-0.0076328618 -0.14672346 0.01840546 8.3865037e-39
-0.0058643371 -0.14586596 0.02137854 2.1018398e-38
-0.0041069044 -0.14498411 0.024436019 2.3507708e-38
-0.0023307092 -0.14498411 0.024436019 2.3509883e-38
-0.00055451412 -0.14498411 0.024436019 2.3509527e-38
0.001221681 -0.14498411 0.024436019 2.2958154e-38
0.0029525831 -0.14410757 0.027475141 2.3142527e-38
0.0047234492 -0.14410757 0.027475141 1.171349e-38
0.0064943163 -0.14410757 0.027475141 9.5929908e-39
0.0082651833 -0.14410757 0.027475141 1.2542543e-38
0.01003605 -0.14410757 0.027475141 1.1435492e-38
0.011951222 -0.14586596 0.02137854 1.1619889e-38
0.013732779 -0.14586596 0.02137854 1.1711356e-38
0.015514334 -0.14586596 0.02137854 1.2264528e-38
0.017555449 -0.14845367 0.01240661 1.1987943e-38
0.019445579 -0.1493264 0.0093807206 1.1896826e-38
0.021248169 -0.1493264 0.0093807206 1.1988666e-38
-0.011206399 -0.14851023 0.01840546 5.1578728e-39
-0.0094196303 -0.14851023 0.01840546 6.5429568e-39
-0.0076197525 -0.14937802 0.015414856 6.9128183e-39
-0.0058643371 -0.14764751 0.02137854 2.1296067e-38
-0.0041069044 -0.1467603 0.024436019 2.350987e-38
-0.0023307092 -0.1467603 0.024436019 2.3324775e-38
-0.00058915 -0.14587842 0.027475141 2.341805e-38
0.0011817161 -0.14587842 0.027475141 2.3142544e-38
0.0029525831 -0.14587842 0.027475141 2.1485519e-38
0.0047234492 -0.14587842 0.027475141 1.1252155e-38
0.0065502664 -0.1467603 0.024436019 1.0883372e-38
0.0083264625 -0.1467603 0.024436019 1.3095718e-38
0.010102657 -0.1467603 0.024436019 1.106671e-38
0.011951222 -0.14764751 0.02137854 1.244965e-38
0.013732779 -0.14764751 0.02137854 1.3370877e-38
-0.011209005 -0.14942907 0.02137854 4.6061451e-39
-0.0094274497 -0.14942907 0.02137854 5.8986748e-39
-0.0058831004 -0.14853649 0.024436019 2.0651422e-38
-0.0041308831 -0.14764927 0.027475141 2.350987e-38
-0.002360017 -0.14764927 0.027475141 2.3048907e-38
-0.00058915 -0.14764927 0.027475141 2.3234379e-38
0.0011817161 -0.14764927 0.027475141 2.2221308e-38
0.0029525831 -0.14764927 0.027475141 1.8535261e-38
0.0047234492 -0.14764927 0.027475141 1.1252155e-38
0.0065502664 -0.14853649 0.024436019 1.1529107e-38
0.0083264625 -0.14853649 0.024436019 1.2450712e-38
0.010102657 -0.14853649 0.024436019 1.1896473e-38
0.011951222 -0.14942907 0.02137854 1.2910628e-38
-0.0041539259 -0.14856245 0.030395649 2.2773023e-38
-0.0023881802 -0.14856245 0.030395649 2.2588648e-38
-0.00062243454 -0.14856245 0.030395649 2.3234379e-38
0.0011433121 -0.14856245 0.030395649 1.9547634e-38
0.0029525831 -0.14942016 0.027475141 1.8166478e-38
0.0047234492 -0.14942016 0.027475141 1.2358505e-38
0.0064943163 -0.14942016 0.027475141 1.2451067e-38
