# .PCD v0.7 - Point Cloud Data file format
VERSION 0.7
FIELDS x y z rgb
SIZE 4 4 4 4
TYPE F F F F
COUNT 1 1 1 1
WIDTH 920
HEIGHT 1
VIEWPOINT 0 0 0 1 0 0 0
POINTS 920
DATA ascii
-0.026078776 -0.093051672 -0.015901435 5.5137171e-40
-0.024266111 -0.092379183 -0.01296233 1.2856969e-39
-0.022499133 -0.090996325 -0.0069186576 2.4795584e-39
-0.020673873 -0.090996325 -0.0069186576 6.0690643e-39
-0.018951863 -0.089411139 9.3095005e-06 6.5296907e-39
-0.017138753 -0.089411139 9.3095005e-06 3.4897545e-39
-0.015325638 -0.089411139 9.3095005e-06 2.6632322e-39
-0.013574255 -0.088710666 0.0030707233 5.8933078e-39
-0.011897233 -0.087345913 0.0090352409 9.0272292e-39
-0.010099947 -0.087345913 0.0090352409 1.3542288e-38
-0.0082257306 -0.088038266 0.0060093515 1.1785528e-38
-0.006423139 -0.088038266 0.0060093515 5.9775595e-39
-0.0046205474 -0.088038266 0.0060093515 5.5219735e-39
-0.0028179539 -0.088038266 0.0060093515 1.2900504e-38
-0.0011135107 -0.087345913 0.0090352409 1.207183e-38
0.00068377424 -0.087345913 0.0090352409 1.1519022e-38
0.0025898227 -0.088038266 0.0060093515 1.3548049e-38
0.0043924125 -0.088038266 0.0060093515 1.1795606e-38
0.006195006 -0.088038266 0.0060093515 1.2346974e-38
0.0082448209 -0.089411139 9.3095005e-06 1.5480175e-38
0.010057931 -0.089411139 9.3095005e-06 1.8704487e-38
0.011871045 -0.089411139 9.3095005e-06 1.9256575e-38
0.013684158 -0.089411139 9.3095005e-06 1.8794876e-38
0.015497268 -0.089411139 9.3095005e-06 1.5476558e-38
0.017310381 -0.089411139 9.3095005e-06 1.2066773e-38
0.019123491 -0.089411139 9.3095005e-06 7.0896622e-39
0.020772889 -0.088710666 0.0030707233 7.9212375e-39
0.022580635 -0.088710666 0.0030707233 8.8442812e-39
0.02438838 -0.088710666 0.0030707233 7.9216061e-39
-0.026078776 -0.094892681 -0.015901435 7.371951e-40
-0.024266111 -0.094215035 -0.01296233 1.5640733e-39
-0.022430254 -0.094215035 -0.01296233 2.1122164e-39
-0.020673873 -0.092821583 -0.0069186576 3.674866e-39
-0.018951863 -0.091224253 9.3095005e-06 4.3188005e-39
-0.017138753 -0.091224253 9.3095005e-06 2.2958874e-39
-0.015325638 -0.091224253 9.3095005e-06 2.0203809e-39
-0.013574255 -0.0905184 0.0030707233 8.4744113e-39
-0.011897233 -0.089143202 0.0090352409 9.85698e-39
-0.010099947 -0.089143202 0.0090352409 8.8395883e-39
-0.0082257306 -0.089840859 0.0060093515 8.1884708e-39
-0.006423139 -0.089840859 0.0060093515 6.8058922e-39
-0.0046205474 -0.089840859 0.0060093515 5.9818755e-39
-0.0028179539 -0.089840859 0.0060093515 1.4375278e-38
-0.0011135107 -0.089143202 0.0090352409 1.3085629e-38
0.00068377424 -0.089143202 0.0090352409 7.4620629e-39
0.0025898227 -0.089840859 0.0060093515 4.6969198e-39
0.0043924125 -0.089840859 0.0060093515 1.9310565e-39
0.006195006 -0.089840859 0.0060093515 5.2493565e-39
0.0081186788 -0.0905184 0.0030707233 1.3361117e-38
0.010057931 -0.091224253 9.3095005e-06 1.6033329e-38
0.011871045 -0.091224253 9.3095005e-06 1.8705191e-38
0.013684158 -0.091224253 9.3095005e-06 1.9073607e-38
0.015497268 -0.091224253 9.3095005e-06 1.5385429e-38
0.017310381 -0.091224253 9.3095005e-06 1.4279817e-38
0.019123491 -0.091224253 9.3095005e-06 9.2097973e-39
0.020772889 -0.0905184 0.0030707233 8.0127115e-39
0.022580635 -0.0905184 0.0030707233 8.5662552e-39
0.02438838 -0.0905184 0.0030707233 8.1059973e-39
-0.026078776 -0.096733689 -0.015901435 5.5424157e-40
-0.024237767 -0.096733689 -0.015901435 7.361189e-40
-0.022430254 -0.096050888 -0.01296233 1.1938615e-39
-0.020673873 -0.094646841 -0.0069186576 2.1122234e-39
-0.018951863 -0.093037367 9.3095005e-06 2.2040533e-39
-0.017138753 -0.093037367 9.3095005e-06 1.9285454e-39
-0.015325638 -0.093037367 9.3095005e-06 2.4817108e-39
-0.013574255 -0.092326149 0.0030707233 1.0134635e-38
-0.011897233 -0.09094049 0.0090352409 1.0133193e-38
-0.010099947 -0.09094049 0.0090352409 5.9811622e-39
-0.0082257306 -0.091643453 0.0060093515 5.8832311e-39
-0.006423139 -0.091643453 0.0060093515 6.9892157e-39
-0.0046205474 -0.091643453 0.0060093515 8.9281854e-39
-0.0028179539 -0.091643453 0.0060093515 1.4185491e-38
-0.0011135107 -0.09094049 0.0090352409 1.5200739e-38
0.00068377424 -0.09094049 0.0090352409 8.840331e-39
0.0025898227 -0.091643453 0.0060093515 3.0330937e-39
0.0043924125 -0.091643453 0.0060093515 1.6530389e-39
0.0063109333 -0.092326149 0.0030707233 5.0613779e-39
0.0081186788 -0.092326149 0.0030707233 1.5847884e-38
0.0099264244 -0.092326149 0.0030707233 1.6215201e-38
0.011871045 -0.093037367 9.3095005e-06 1.897997e-38
0.013684158 -0.093037367 9.3095005e-06 1.9440581e-38
0.015497268 -0.093037367 9.3095005e-06 1.5290703e-38
0.017310381 -0.093037367 9.3095005e-06 1.5475115e-38
0.019123491 -0.093037367 9.3095005e-06 1.0404018e-38
0.020772889 -0.092326149 0.0030707233 8.5597714e-39
0.022580635 -0.092326149 0.0030707233 9.3913412e-39
0.02438838 -0.092326149 0.0030707233 7.5513844e-39
0.026196122 -0.092326149 0.0030707233 4.6036452e-39
-0.026078776 -0.098574698 -0.015901435 5.556765e-40
-0.024237767 -0.098574698 -0.015901435 9.2194229e-41
-0.022430254 -0.097886756 -0.01296233 6.4285548e-40
-0.020673873 -0.096472099 -0.0069186576 1.469382e-39
-0.018893261 -0.095770895 -0.0039229281 1.3775324e-39
-0.017073255 -0.095770895 -0.0039229281 2.1122164e-39
-0.015325638 -0.094850481 9.3095005e-06 3.9575359e-39
-0.013574255 -0.094133899 0.0030707233 9.8580338e-39
-0.011830916 -0.093446046 0.0060093515 9.2108665e-39
-0.010028324 -0.093446046 0.0060093515 6.9020367e-39
-0.0082257306 -0.093446046 0.0060093515 7.2658138e-39
-0.006423139 -0.093446046 0.0060093515 8.0026628e-39
-0.0046205474 -0.093446046 0.0060093515 8.0980702e-39
-0.0028179539 -0.093446046 0.0060093515 9.0218202e-39
-0.0011135107 -0.092737779 0.0090352409 1.271074e-38
0.00068377424 -0.092737779 0.0090352409 1.1697678e-38
0.0025898227 -0.093446046 0.0060093515 6.5354514e-39
0.0043924125 -0.093446046 0.0060093515 2.2040519e-39
0.006195006 -0.093446046 0.0060093515 4.6003998e-39
0.0081186788 -0.094133899 0.0030707233 1.4649341e-38
0.0099264244 -0.094133899 0.0030707233 1.621628e-38
0.01173417 -0.094133899 0.0030707233 1.7414083e-38
0.013684158 -0.094850481 9.3095005e-06 1.7781778e-38
0.015497268 -0.094850481 9.3095005e-06 1.261775e-38
0.017310381 -0.094850481 9.3095005e-06 1.3445732e-38
0.018965144 -0.094133899 0.0030707233 8.4661114e-39
0.020772889 -0.094133899 0.0030707233 8.0973513e-39
0.022580635 -0.094133899 0.0030707233 1.1141619e-38
0.02438838 -0.094133899 0.0030707233 7.7357757e-39
0.026196122 -0.094133899 0.0030707233 4.9735067e-39
-0.026078776 -0.10041572 -0.015901435 9.542282e-41
-0.024237767 -0.10041572 -0.015901435 7.1746481e-43
-0.022430254 -0.099722609 -0.01296233 8.2726215e-40
-0.020673873 -0.098297372 -0.0069186576 1.3782807e-39
-0.018893261 -0.097590908 -0.0039229281 9.1835776e-40
-0.017073255 -0.097590908 -0.0039229281 2.2069218e-39
-0.015325638 -0.096663594 9.3095005e-06 4.9731074e-39
-0.013633507 -0.09524864 0.0060093515 8.7520324e-39
-0.011830916 -0.09524864 0.0060093515 6.9059674e-39
-0.010028324 -0.09524864 0.0060093515 6.2566673e-39
-0.0082257306 -0.09524864 0.0060093515 6.9903171e-39
-0.006423139 -0.09524864 0.0060093515 7.5431378e-39
-0.0046205474 -0.09524864 0.0060093515 5.7949871e-39
-0.0028179539 -0.09524864 0.0060093515 5.6138203e-39
-0.0011135107 -0.094535068 0.0090352409 1.0868984e-38
0.00068377424 -0.094535068 0.0090352409 1.5479853e-38
0.0025898227 -0.09524864 0.0060093515 1.0318341e-38
0.0043924125 -0.09524864 0.0060093515 1.4693679e-39
0.006195006 -0.09524864 0.0060093515 3.8660662e-39
0.0081186788 -0.095941633 0.0030707233 1.4745853e-38
0.0099264244 -0.095941633 0.0030707233 1.6036209e-38
0.01173417 -0.095941633 0.0030707233 1.7233658e-38
0.013684158 -0.096663594 9.3095005e-06 1.7786105e-38
0.015497268 -0.096663594 9.3095005e-06 1.1422815e-38
0.017310381 -0.096663594 9.3095005e-06 1.2342989e-38
0.018965144 -0.095941633 0.0030707233 8.1927643e-39
0.020615742 -0.09524864 0.0060093515 7.9147579e-39
0.022418335 -0.09524864 0.0060093515 9.8526752e-39
0.024220925 -0.09524864 0.0060093515 7.5521033e-39
0.026023518 -0.09524864 0.0060093515 3.7749663e-39
0.029628705 -0.09524864 0.0060093515 3.9626058e-39
-0.026078776 -0.10225673 -0.015901435 3.2285917e-42
-0.024266111 -0.10155846 -0.01296233 3.239802e-42
-0.022430254 -0.10155846 -0.01296233 5.5283887e-40
-0.020673873 -0.10012263 -0.0069186576 9.186072e-41
-0.018893261 -0.099410906 -0.0039229281 1.0102017e-39
-0.017138753 -0.098476708 9.3095005e-06 3.0377516e-39
-0.015382 -0.097749382 0.0030707233 7.4627411e-39
-0.013633507 -0.097051233 0.0060093515 1.0595576e-38
-0.011830916 -0.097051233 0.0060093515 6.7204929e-39
-0.010028324 -0.097051233 0.0060093515 5.2425154e-39
-0.0082257306 -0.097051233 0.0060093515 5.2400449e-39
-0.006423139 -0.097051233 0.0060093515 6.069814e-39
-0.0046205474 -0.097051233 0.0060093515 4.8744742e-39
-0.0028179539 -0.097051233 0.0060093515 2.2958874e-39
-0.0011135107 -0.096332356 0.0090352409 4.8780629e-39
0.00068377424 -0.096332356 0.0090352409 1.4190184e-38
0.0024810629 -0.096332356 0.0090352409 1.2809048e-38
0.0043924125 -0.097051233 0.0060093515 2.391669e-39
0.006195006 -0.097051233 0.0060093515 4.1448026e-39
0.0079975994 -0.097051233 0.0060093515 1.4194475e-38
0.0099264244 -0.097749382 0.0030707233 1.5023862e-38
0.01173417 -0.097749382 0.0030707233 1.5760698e-38
0.013684158 -0.098476708 9.3095005e-06 1.4929497e-38
0.015497268 -0.098476708 9.3095005e-06 6.1691212e-39
0.017310381 -0.098476708 9.3095005e-06 8.3796667e-39
0.018965144 -0.097749382 0.0030707233 8.1009358e-39
0.020615742 -0.097051233 0.0060093515 9.11402e-39
0.022418335 -0.097051233 0.0060093515 9.7604782e-39
0.024220925 -0.097051233 0.0060093515 8.0130814e-39
0.026023518 -0.097051233 0.0060093515 2.5764232e-39
0.027826112 -0.097051233 0.0060093515 3.9611611e-39
-0.024266111 -0.10339431 -0.01296233 2.8018963e-40
-0.022430254 -0.10339431 -0.01296233 6.471967e-40
-0.020713266 -0.10123092 -0.0039229281 2.5223372e-44
-0.018951863 -0.10028981 9.3095005e-06 1.5648146e-39
-0.017138753 -0.10028981 9.3095005e-06 3.7756768e-39
-0.015382 -0.099557132 0.0030707233 8.1070287e-39
-0.013633507 -0.098853827 0.0060093515 1.0133877e-38
-0.011830916 -0.098853827 0.0060093515 6.2595218e-39
-0.010028324 -0.098853827 0.0060093515 3.7684839e-39
-0.0082257306 -0.098853827 0.0060093515 4.6890319e-39
-0.006423139 -0.098853827 0.0060093515 3.1224335e-39
-0.0046205474 -0.098853827 0.0060093515 3.8610495e-39
-0.0028179539 -0.098853827 0.0060093515 1.9285454e-39
-0.0011135107 -0.098129645 0.0090352409 2.3880816e-39
0.00068377424 -0.098129645 0.0090352409 1.4927737e-38
0.0024810629 -0.098129645 0.0090352409 1.4190886e-38
0.0042783478 -0.098129645 0.0090352409 5.618125e-39
0.006195006 -0.098853827 0.0060093515 5.3422556e-39
0.0079975994 -0.098853827 0.0060093515 1.3917165e-38
0.0099264244 -0.099557132 0.0030707233 1.5207182e-38
0.01173417 -0.099557132 0.0030707233 1.4929879e-38
0.013684158 -0.10028981 9.3095005e-06 1.3268922e-38
0.015497268 -0.10028981 9.3095005e-06 6.5364884e-39
0.017310381 -0.10028981 9.3095005e-06 5.1514016e-39
0.018965144 -0.099557132 0.0030707233 7.4544958e-39
0.020615742 -0.098853827 0.0060093515 9.7575943e-39
0.022418335 -0.098853827 0.0060093515 9.6672036e-39
0.024220925 -0.098853827 0.0060093515 7.5521033e-39
0.026023518 -0.098853827 0.0060093515 5.3426522e-39
0.027826112 -0.098853827 0.0060093515 4.5143349e-39
-0.020713266 -0.10305093 -0.0039229281 2.5223372e-44
-0.018951863 -0.10210292 9.3095005e-06 1.1967509e-39
-0.017138753 -0.10210292 9.3095005e-06 3.4068943e-39
-0.015382 -0.10136487 0.0030707233 7.9219214e-39
-0.013633507 -0.10065642 0.0060093515 1.0133163e-38
-0.011830916 -0.10065642 0.0060093515 6.4431928e-39
-0.010028324 -0.10065642 0.0060093515 3.7692014e-39
-0.0082257306 -0.10065642 0.0060093515 4.7833828e-39
-0.006423139 -0.10065642 0.0060093515 3.9539934e-39
-0.0046205474 -0.10065642 0.0060093515 4.5067847e-39
-0.0028179539 -0.10065642 0.0060093515 9.94631e-39
-0.0011135107 -0.099926919 0.0090352409 1.1329593e-38
0.00068377424 -0.099926919 0.0090352409 1.4373117e-38
0.0024810629 -0.099926919 0.0090352409 1.5387977e-38
0.0042783478 -0.099926919 0.0090352409 1.5112103e-38
0.0060756328 -0.099926919 0.0090352409 1.5666358e-38
0.0079975994 -0.10065642 0.0060093515 1.5205024e-38
0.0098001892 -0.10065642 0.0060093515 1.5850761e-38
0.011602783 -0.10065642 0.0060093515 1.5941887e-38
0.013684158 -0.10210292 9.3095005e-06 1.5202531e-38
0.015497268 -0.10210292 9.3095005e-06 1.243487e-38
0.017310381 -0.10210292 9.3095005e-06 1.0128182e-38
0.018965144 -0.10136487 0.0030707233 7.7289345e-39
0.020615742 -0.10065642 0.0060093515 9.2022626e-39
0.022418335 -0.10065642 0.0060093515 8.4675786e-39
0.024220925 -0.10065642 0.0060093515 7.5521033e-39
0.026023518 -0.10065642 0.0060093515 5.2504566e-39
0.027826112 -0.10065642 0.0060093515 4.6065305e-39
-0.017138753 -0.10391603 9.3095005e-06 3.4990927e-39
-0.015382 -0.10317262 0.0030707233 8.9342824e-39
-0.013633507 -0.10245901 0.0060093515 1.0960774e-38
-0.011830916 -0.10245901 0.0060093515 6.903815e-39
-0.010028324 -0.10245901 0.0060093515 3.5862479e-39
-0.0082257306 -0.10245901 0.0060093515 3.4962341e-39
-0.006423139 -0.10245901 0.0060093515 2.2969846e-39
-0.0046205474 -0.10245901 0.0060093515 5.1517981e-39
-0.0028179539 -0.10245901 0.0060093515 1.0128909e-38
-0.0011135107 -0.10172421 0.0090352409 1.3355379e-38
0.00068377424 -0.10172421 0.0090352409 1.6214148e-38
0.0024810629 -0.10172421 0.0090352409 1.7597069e-38
0.0042783478 -0.10172421 0.0090352409 1.6030098e-38
0.0060756328 -0.10172421 0.0090352409 1.7044613e-38
0.0078729214 -0.10172421 0.0090352409 1.6676557e-38
0.0098001892 -0.10245901 0.0060093515 1.5201085e-38
0.011602783 -0.10245901 0.0060093515 1.5108541e-38
0.013684158 -0.10391603 9.3095005e-06 1.4646495e-38
0.015497268 -0.10391603 9.3095005e-06 1.46447e-38
0.017310381 -0.10391603 9.3095005e-06 1.2706434e-38
0.018965144 -0.10317262 0.0030707233 8.187403e-39
0.020615742 -0.10245901 0.0060093515 9.4763355e-39
0.022418335 -0.10245901 0.0060093515 8.0962779e-39
0.024220925 -0.10245901 0.0060093515 6.8138194e-39
0.026023518 -0.10245901 0.0060093515 4.5139705e-39
-0.015382 -0.10498036 0.0030707233 9.1176059e-39
-0.013633507 -0.10426159 0.0060093515 1.1143741e-38
-0.011830916 -0.10426159 0.0060093515 7.27225e-39
-0.010028324 -0.10426159 0.0060093515 3.5866066e-39
-0.0082257306 -0.10426159 0.0060093515 2.3009237e-39
-0.006423139 -0.10426159 0.0060093515 7.3468397e-40
-0.0047080861 -0.10352151 0.0090352409 4.7869729e-39
-0.0029107993 -0.10352151 0.0090352409 7.4588371e-39
-0.0011135107 -0.10352151 0.0090352409 7.7343295e-39
0.00068377424 -0.10352151 0.0090352409 7.9179837e-39
0.0024810629 -0.10352151 0.0090352409 6.6272337e-39
0.0042783478 -0.10352151 0.0090352409 6.6265064e-39
0.0060756328 -0.10352151 0.0090352409 9.7611592e-39
0.0078729214 -0.10352151 0.0090352409 1.1882029e-38
0.0098001892 -0.10426159 0.0060093515 8.0109066e-39
0.011602783 -0.10426159 0.0060093515 5.0606591e-39
0.013684158 -0.10572915 9.3095005e-06 3.9539626e-39
0.015497268 -0.10572915 9.3095005e-06 3.7677749e-39
0.017310381 -0.10572915 9.3095005e-06 4.6879333e-39
0.019123491 -0.10572915 9.3095005e-06 5.0549124e-39
0.020772889 -0.10498036 0.0030707233 8.0033662e-39
0.022418335 -0.10426159 0.0060093515 7.4534295e-39
0.024220925 -0.10426159 0.0060093515 6.5379514e-39
0.026606906 -0.10669093 -0.0039229281 5.1593399e-39
-0.015253247 -0.10851096 -0.0039229281 7.4559378e-39
-0.013633507 -0.10606419 0.0060093515 1.0957565e-38
-0.011830916 -0.10606419 0.0060093515 7.9172705e-39
-0.010028324 -0.10606419 0.0060093515 2.6660992e-39
-0.0082257306 -0.10606419 0.0060093515 1.1056133e-39
-0.006423139 -0.10606419 0.0060093515 8.3190746e-40
-0.0047080861 -0.1053188 0.0090352409 7.1746481e-43
-0.0029107993 -0.1053188 0.0090352409 1.3829204e-39
-0.0011135107 -0.1053188 0.0090352409 6.4284847e-40
0.00068377424 -0.1053188 0.0090352409 9.1835496e-40
0.0024810629 -0.1053188 0.0090352409 1.2856969e-39
0.0042783478 -0.1053188 0.0090352409 5.2482635e-39
0.0060756328 -0.1053188 0.0090352409 9.765848e-39
0.0078729214 -0.1053188 0.0090352409 1.2532441e-38
0.0098001892 -0.10606419 0.0060093515 7.2783765e-39
0.011602783 -0.10606419 0.0060093515 9.1835496e-40
0.013541912 -0.10678811 0.0030707233 9.1835496e-40
0.015349657 -0.10678811 0.0030707233 9.1835496e-40
0.017157402 -0.10678811 0.0030707233 3.4972976e-39
0.018965144 -0.10678811 0.0030707233 5.9854979e-39
0.020772889 -0.10678811 0.0030707233 6.6287037e-39
0.022580635 -0.10678811 0.0030707233 6.537587e-39
0.02438838 -0.10678811 0.0030707233 5.1571749e-39
0.026606906 -0.10851096 -0.0039229281 4.9749487e-39
-0.022499133 -0.11107419 -0.0069186576 3.7201952e-40
-0.020673873 -0.11107419 -0.0069186576 1.8618632e-40
-0.015253247 -0.11033095 -0.0039229281 5.3332915e-39
-0.013574255 -0.10859586 0.0030707233 1.1047977e-38
-0.011830916 -0.10786678 0.0060093515 9.1154619e-39
-0.010028324 -0.10786678 0.0060093515 1.9299803e-39
-0.0082257306 -0.10786678 0.0060093515 1.4349296e-42
-0.006423139 -0.10786678 0.0060093515 4.6635213e-42
-0.0046205474 -0.10786678 0.0060093515 3.7380617e-40
-0.0028179539 -0.10786678 0.0060093515 5.567625e-40
-0.0011135107 -0.10711606 0.0090352409 7.1746481e-43
0.00068377424 -0.10711606 0.0090352409 2.3027103e-39
0.0024810629 -0.10711606 0.0090352409 2.1158037e-39
0.0042783478 -0.10711606 0.0090352409 7.646087e-39
0.0060756328 -0.10711606 0.0090352409 1.0227918e-38
0.0078729214 -0.10711606 0.0090352409 1.2717917e-38
0.0098001892 -0.10786678 0.0060093515 9.4925107e-39
0.011602783 -0.10786678 0.0060093515 6.4356594e-40
0.013541912 -0.10859586 0.0030707233 8.2831313e-40
0.015349657 -0.10859586 0.0030707233 1.0123429e-39
0.017157402 -0.10859586 0.0030707233 3.3164951e-39
0.018965144 -0.10859586 0.0030707233 5.3430025e-39
-0.022499133 -0.11289944 -0.0069186576 2.1523944e-42
-0.020713266 -0.11215095 -0.0039229281 9.3270426e-41
-0.018893261 -0.11215095 -0.0039229281 7.3468397e-40
-0.015253247 -0.11215095 -0.0039229281 4.3180704e-39
-0.013433239 -0.11215095 -0.0039229281 9.1111571e-39
-0.011830916 -0.10966937 0.0060093515 8.7463277e-39
-0.010028324 -0.10966937 0.0060093515 3.7745922e-39
-0.0082257306 -0.10966937 0.0060093515 6.4894692e-40
-0.006423139 -0.10966937 0.0060093515 6.8159157e-42
-0.0046205474 -0.10966937 0.0060093515 5.023655e-42
-0.0028179539 -0.10966937 0.0060093515 8.322718e-40
-0.0011135107 -0.10891335 0.0090352409 1.0127072e-39
0.00068377424 -0.10891335 0.0090352409 1.3789702e-39
0.0024810629 -0.10891335 0.0090352409 1.9292629e-39
0.0043924125 -0.10966937 0.0060093515 8.0120094e-39
0.006195006 -0.10966937 0.0060093515 1.1053737e-38
0.0079975994 -0.10966937 0.0060093515 1.1700537e-38
0.0098001892 -0.10966937 0.0060093515 9.1215688e-39
-0.024324391 -0.11472471 -0.0069186576 1.793662e-42
-0.022499133 -0.11472471 -0.0069186576 3.2285917e-42
-0.020713266 -0.11397095 -0.0039229281 2.5111268e-42
-0.018893261 -0.11397095 -0.0039229281 3.6734198e-40
-0.010028324 -0.11147197 0.0060093515 6.9092436e-39
-0.0082257306 -0.11147197 0.0060093515 5.9022761e-39
-0.006423139 -0.11147197 0.0060093515 3.5087897e-39
-0.0046205474 -0.11147197 0.0060093515 1.3875882e-39
-0.0028179539 -0.11147197 0.0060093515 7.4042789e-40
-0.0011135107 -0.11071064 0.0090352409 3.5023465e-39
0.00068377424 -0.11071064 0.0090352409 4.5132643e-39
0.0024810629 -0.11071064 0.0090352409 3.9564933e-39
0.0043924125 -0.11147197 0.0060093515 4.2316369e-39
0.006195006 -0.11147197 0.0060093515 6.2588505e-39
0.0079975994 -0.11147197 0.0060093515 7.9190767e-39
0.0098001892 -0.11147197 0.0060093515 7.1836557e-39
-0.026149651 -0.11654995 -0.0069186576 4.63841e-40
-0.024324391 -0.11654995 -0.0069186576 2.8698593e-42
-0.022499133 -0.11654995 -0.0069186576 5.0250563e-42
-0.020713266 -0.11579098 -0.0039229281 3.2285917e-42
-0.018893261 -0.11579098 -0.0039229281 9.4353629e-41
-0.017073255 -0.11579098 -0.0039229281 2.7586802e-40
-0.015198096 -0.11654995 -0.0069186576 1.5619279e-39
-0.010028324 -0.11327456 0.0060093515 1.0042813e-38
-0.0081510218 -0.11401908 0.0030707233 1.0044597e-38
-0.0063432762 -0.11401908 0.0030707233 9.3102662e-39
-0.0046205474 -0.11327456 0.0060093515 2.9527334e-39
-0.0028179539 -0.11327456 0.0060093515 3.2307665e-39
-0.0010153642 -0.11327456 0.0060093515 5.9015741e-39
0.00078722928 -0.11327456 0.0060093515 8.0184848e-39
0.0025898227 -0.11327456 0.0060093515 7.1858529e-39
0.0043924125 -0.11327456 0.0060093515 5.8929533e-39
0.006195006 -0.11327456 0.0060093515 6.5361535e-39
0.0079975994 -0.11327456 0.0060093515 7.3658974e-39
0.0098001892 -0.11327456 0.0060093515 5.5223267e-39
-0.026149651 -0.11837523 -0.0069186576 9.6140285e-41
-0.024324391 -0.11837523 -0.0069186576 5.7397185e-42
-0.022499133 -0.11837523 -0.0069186576 6.4613872e-42
-0.020713266 -0.11761098 -0.0039229281 2.1523944e-42
-0.018893261 -0.11761098 -0.0039229281 2.5223372e-42
-0.017023355 -0.11837523 -0.0069186576 2.7803163e-40
-0.015198096 -0.11837523 -0.0069186576 1.1045525e-39
-0.013312082 -0.11914389 -0.0099317916 1.0101905e-39
-0.011481539 -0.11914389 -0.0099317916 4.9724277e-39
-0.010028324 -0.11507715 0.0060093515 1.0318321e-38
-0.0082257306 -0.11507715 0.0060093515 1.1055872e-38
-0.006423139 -0.11507715 0.0060093515 1.0413015e-38
-0.0045355326 -0.11582683 0.0030707233 6.9160609e-39
-0.0028179539 -0.11507715 0.0060093515 5.9044341e-39
-0.0010153642 -0.11507715 0.0060093515 7.1004718e-39
0.00078722928 -0.11507715 0.0060093515 8.388345e-39
0.0025898227 -0.11507715 0.0060093515 8.0170527e-39
0.0043924125 -0.11507715 0.0060093515 8.1067274e-39
0.006195006 -0.11507715 0.0060093515 9.856994e-39
0.0079975994 -0.11507715 0.0060093515 1.151542e-38
0.0099264244 -0.11582683 0.0030707233 1.0316501e-38
0.01173417 -0.11582683 0.0030707233 9.6714803e-39
-0.027974911 -0.12020047 -0.0069186576 2.0293576e-39
-0.026149651 -0.12020047 -0.0069186576 9.6499017e-41
-0.024324391 -0.12020047 -0.0069186576 2.8196367e-40
-0.022499133 -0.12020047 -0.0069186576 5.3837887e-42
-0.020713266 -0.11943097 -0.0039229281 1.793662e-42
-0.018893261 -0.11943097 -0.0039229281 7.2026741e-43
-0.017023355 -0.12020047 -0.0069186576 4.6062502e-40
-0.015198096 -0.12020047 -0.0069186576 1.2875046e-39
-0.013312082 -0.12097444 -0.0099317916 1.1938615e-39
-0.011481539 -0.12097444 -0.0099317916 4.0504742e-39
-0.0097932266 -0.11943097 -0.0039229281 9.3048923e-39
-0.0082257306 -0.11687975 0.0060093515 1.0503061e-38
-0.006423139 -0.11687975 0.0060093515 9.5843392e-39
-0.0045355326 -0.11763458 0.0030707233 8.2068053e-39
-0.0028179539 -0.11687975 0.0060093515 7.1944597e-39
-0.0010153642 -0.11687975 0.0060093515 8.1149881e-39
0.00078722928 -0.11687975 0.0060093515 9.1266303e-39
0.0025898227 -0.11687975 0.0060093515 8.663141e-39
0.0043924125 -0.11687975 0.0060093515 8.2007209e-39
0.006195006 -0.11687975 0.0060093515 8.9368398e-39
0.0079975994 -0.11687975 0.0060093515 9.4892835e-39
0.0099264244 -0.11763458 0.0030707233 8.3822017e-39
-0.027974911 -0.12202574 -0.0069186576 3.9658204e-39
-0.026149651 -0.12202574 -0.0069186576 4.6455847e-40
-0.024324391 -0.12202574 -0.0069186576 3.9460565e-42
-0.022533273 -0.121251 -0.0039229281 2.5111268e-42
-0.020713266 -0.121251 -0.0039229281 2.5111268e-42
-0.018893261 -0.121251 -0.0039229281 3.5873241e-43
-0.017073255 -0.121251 -0.0039229281 9.2016124e-40
-0.015253247 -0.121251 -0.0039229281 1.1945901e-39
-0.013312082 -0.12280498 -0.0099317916 1.2856969e-39
-0.011481539 -0.12280498 -0.0099317916 2.2987573e-39
-0.0099587655 -0.11944233 0.0030707233 6.1709625e-39
-0.0082257306 -0.11868234 0.0060093515 6.816678e-39
-0.006423139 -0.11868234 0.0060093515 5.6206516e-39
-0.0045355326 -0.11944233 0.0030707233 3.5966721e-39
-0.0028179539 -0.11868234 0.0060093515 3.4130067e-39
-0.0010153642 -0.11868234 0.0060093515 4.6108353e-39
0.00078722928 -0.11868234 0.0060093515 5.347687e-39
0.0025898227 -0.11868234 0.0060093515 4.3317415e-39
0.0043924125 -0.11868234 0.0060093515 3.1313976e-39
0.006195006 -0.11868234 0.0060093515 2.7615305e-39
0.0079975994 -0.11868234 0.0060093515 2.3001922e-39
0.0098001892 -0.11868234 0.0060093515 3.8660662e-39
0.011602783 -0.11868234 0.0060093515 3.4054467e-39
-0.027974911 -0.12385099 -0.0069186576 5.0714463e-39
-0.026149651 -0.12385099 -0.0069186576 4.63841e-40
-0.024353281 -0.123071 -0.0039229281 2.1523944e-42
-0.022533273 -0.123071 -0.0039229281 1.4349296e-42
-0.020713266 -0.123071 -0.0039229281 1.8546465e-40
-0.018951863 -0.12204717 9.3095005e-06 4.6061521e-40
-0.017189745 -0.12125005 0.0030707233 1.3796974e-39
-0.015436099 -0.12048493 0.0060093515 1.28642e-39
-0.013633507 -0.12048493 0.0060093515 2.6679111e-39
-0.011830916 -0.12048493 0.0060093515 1.3778912e-39
-0.010028324 -0.12048493 0.0060093515 2.8533576e-39
-0.0082257306 -0.12048493 0.0060093515 2.4849394e-39
-0.006423139 -0.12048493 0.0060093515 1.1038196e-39
-0.0046205474 -0.12048493 0.0060093515 7.3755383e-40
-0.0028179539 -0.12048493 0.0060093515 3.6985311e-40
-0.0010153642 -0.12048493 0.0060093515 1.1066895e-39
0.00078722928 -0.12048493 0.0060093515 1.2900017e-39
0.0025898227 -0.12048493 0.0060093515 2.7586522e-40
0.0043924125 -0.12048493 0.0060093515 3.6770072e-40
0.006195006 -0.12048493 0.0060093515 8.2723693e-40
0.0079975994 -0.12048493 0.0060093515 1.0109079e-39
0.0098001892 -0.12048493 0.0060093515 7.3468397e-40
0.011602783 -0.12048493 0.0060093515 1.3789674e-39
0.013541912 -0.12125005 0.0030707233 1.1942202e-39
0.019123491 -0.12204717 9.3095005e-06 1.1938615e-39
0.020936605 -0.12204717 9.3095005e-06 2.7597284e-39
0.022580635 -0.12125005 0.0030707233 3.6834728e-39
0.02438838 -0.12125005 0.0030707233 5.7139374e-39
0.026196122 -0.12125005 0.0030707233 4.5989495e-40
-0.027974911 -0.12567626 -0.0069186576 4.7948622e-39
-0.026149651 -0.12567626 -0.0069186576 4.627648e-40
-0.024353281 -0.124891 -0.0039229281 2.7801762e-40
-0.022533273 -0.124891 -0.0039229281 7.1746481e-43
-0.020713266 -0.124891 -0.0039229281 2.7622395e-40
-0.018951863 -0.12386028 9.3095005e-06 5.5101298e-40
-0.017238691 -0.12228753 0.0060093515 8.2651947e-40
-0.015436099 -0.12228753 0.0060093515 1.8381505e-39
-0.01369452 -0.12149437 0.0090352409 6.0794998e-39
-0.011897233 -0.12149437 0.0090352409 4.3284904e-39
-0.010099947 -0.12149437 0.0090352409 4.0522553e-39
-0.0083026597 -0.12149437 0.0090352409 3.039181e-39
-0.0065053729 -0.12149437 0.0090352409 1.9342851e-39
-0.0046205474 -0.12228753 0.0060093515 3.1328199e-39
-0.0028179539 -0.12228753 0.0060093515 2.8573148e-39
-0.0010153642 -0.12228753 0.0060093515 3.2260974e-39
0.00078722928 -0.12228753 0.0060093515 2.8573148e-39
0.0025898227 -0.12228753 0.0060093515 2.0275556e-39
0.0043924125 -0.12228753 0.0060093515 2.5807251e-39
0.006195006 -0.12228753 0.0060093515 4.054779e-39
0.0079975994 -0.12228753 0.0060093515 4.3313673e-39
0.0098001892 -0.12228753 0.0060093515 4.4228441e-39
0.011602783 -0.12228753 0.0060093515 5.5291916e-39
0.013541912 -0.1230578 0.0030707233 5.1600476e-39
0.015349657 -0.1230578 0.0030707233 6.3567901e-39
0.017310381 -0.12386028 9.3095005e-06 8.5691153e-39
0.019123491 -0.12386028 9.3095005e-06 1.0136077e-38
0.020936605 -0.12386028 9.3095005e-06 1.225621e-38
0.022580635 -0.1230578 0.0030707233 1.2994857e-38
0.02438838 -0.1230578 0.0030707233 1.0415909e-38
0.026196122 -0.1230578 0.0030707233 1.1974488e-39
0.028003868 -0.1230578 0.0030707233 1.0130645e-39
-0.027956419 -0.1282966 -0.0099317916 5.4398771e-39
-0.026149651 -0.1275015 -0.0069186576 9.2301848e-40
-0.024353281 -0.126711 -0.0039229281 7.3827129e-40
-0.022533273 -0.126711 -0.0039229281 9.2194229e-41
-0.020713266 -0.126711 -0.0039229281 4.5917748e-40
-0.018951863 -0.1256734 9.3095005e-06 7.3468397e-40
-0.017238691 -0.12409012 0.0060093515 1.0101905e-39
-0.015436099 -0.12409012 0.0060093515 3.4973019e-39
-0.01369452 -0.12329166 0.0090352409 1.1610869e-38
-0.011897233 -0.12329166 0.0090352409 1.0413754e-38
-0.010099947 -0.12329166 0.0090352409 9.1240827e-39
-0.0083026597 -0.12329166 0.0090352409 8.0191659e-39
-0.0065053729 -0.12329166 0.0090352409 7.8351348e-39
-0.0046205474 -0.12409012 0.0060093515 8.5705544e-39
-0.0028179539 -0.12409012 0.0060093515 8.6627528e-39
-0.0010153642 -0.12409012 0.0060093515 9.2159238e-39
0.00078722928 -0.12409012 0.0060093515 8.7560233e-39
0.0025898227 -0.12409012 0.0060093515 7.834783e-39
0.0043924125 -0.12409012 0.0060093515 7.7433063e-39
0.006195006 -0.12409012 0.0060093515 7.7429517e-39
0.0079975994 -0.12409012 0.0060093515 6.7295257e-39
0.0098001892 -0.12409012 0.0060093515 8.2035824e-39
0.011602783 -0.12409012 0.0060093515 9.2170154e-39
0.013541912 -0.12486555 0.0030707233 8.2025034e-39
0.015349657 -0.12486555 0.0030707233 9.3074034e-39
0.017310381 -0.1256734 9.3095005e-06 1.1611207e-38
0.019123491 -0.1256734 9.3095005e-06 1.2532073e-38
0.020936605 -0.1256734 9.3095005e-06 1.3361464e-38
0.022580635 -0.12486555 0.0030707233 1.327143e-38
0.02438838 -0.12486555 0.0030707233 1.1521892e-38
0.026196122 -0.12486555 0.0030707233 1.3818372e-39
0.028003868 -0.12486555 0.0030707233 1.381847e-39
-0.027956419 -0.13012715 -0.0099317916 6.9146554e-39
-0.026149651 -0.12932678 -0.0069186576 1.5680306e-39
-0.024324391 -0.12932678 -0.0069186576 9.2194509e-40
-0.022533273 -0.12853102 -0.0039229281 3.6734198e-40
-0.020713266 -0.12853102 -0.0039229281 8.2651947e-40
-0.018951863 -0.12748651 9.3095005e-06 1.7466709e-39
-0.017238691 -0.12589271 0.0060093515 2.0221746e-39
-0.015436099 -0.12589271 0.0060093515 5.6174342e-39
-0.013633507 -0.12589271 0.0060093515 1.6220281e-38
-0.011830916 -0.12589271 0.0060093515 1.5668175e-38
-0.010028324 -0.12589271 0.0060093515 1.3457626e-38
-0.0082257306 -0.12589271 0.0060093515 1.216868e-38
-0.006423139 -0.12589271 0.0060093515 1.2721493e-38
-0.0046205474 -0.12589271 0.0060093515 1.4653657e-38
-0.0028179539 -0.12589271 0.0060093515 1.4837332e-38
-0.0010153642 -0.12589271 0.0060093515 1.5022797e-38
0.00078722928 -0.12589271 0.0060093515 1.465473e-38
0.0025898227 -0.12589271 0.0060093515 1.3457982e-38
0.0043924125 -0.12589271 0.0060093515 1.2905531e-38
0.006195006 -0.12589271 0.0060093515 1.1799548e-38
0.0079975994 -0.12589271 0.0060093515 9.9560014e-39
0.0098001892 -0.12589271 0.0060093515 9.5861483e-39
0.011602783 -0.12589271 0.0060093515 1.0783975e-38
0.013541912 -0.1266733 0.0030707233 9.9534917e-39
0.015497268 -0.12748651 9.3095005e-06 1.0781809e-38
0.017310381 -0.12748651 9.3095005e-06 1.1886703e-38
0.019123491 -0.12748651 9.3095005e-06 1.0411203e-38
0.020936605 -0.12748651 9.3095005e-06 9.9498511e-39
0.022749718 -0.12748651 9.3095005e-06 9.8590988e-39
0.02438838 -0.1266733 0.0030707233 9.2173573e-39
0.026196122 -0.1266733 0.0030707233 5.5208917e-40
0.028003868 -0.1266733 0.0030707233 2.4874757e-39
-0.026149651 -0.13115202 -0.0069186576 3.4108754e-39
-0.024324391 -0.13115202 -0.0069186576 2.7550649e-40
-0.022533273 -0.13035102 -0.0039229281 1.1953034e-39
-0.020713266 -0.13035102 -0.0039229281 7.3468397e-40
-0.018951863 -0.1292996 9.3095005e-06 1.0101905e-39
-0.017238691 -0.12769531 0.0060093515 2.2062043e-39
-0.015436099 -0.12769531 0.0060093515 6.7237705e-39
-0.013633507 -0.12769531 0.0060093515 1.6496856e-38
-0.011830916 -0.12769531 0.0060093515 1.7236205e-38
-0.010028324 -0.12769531 0.0060093515 1.3273224e-38
-0.0082257306 -0.12769531 0.0060093515 7.9276695e-39
-0.006423139 -0.12769531 0.0060093515 9.2169692e-39
-0.0046205474 -0.12769531 0.0060093515 1.3361465e-38
-0.0028179539 -0.12769531 0.0060093515 1.5848952e-38
-0.0010153642 -0.12769531 0.0060093515 1.5389047e-38
0.00078722928 -0.12769531 0.0060093515 1.5206448e-38
0.0025898227 -0.12769531 0.0060093515 1.4378127e-38
0.0043924125 -0.12769531 0.0060093515 1.5024218e-38
0.0060756328 -0.12688623 0.0090352409 1.170626e-38
0.0078729214 -0.12688623 0.0090352409 9.5854098e-39
0.0098001892 -0.12769531 0.0060093515 9.4006668e-39
0.011602783 -0.12769531 0.0060093515 7.7404294e-39
0.013684158 -0.1292996 9.3095005e-06 7.1865325e-39
0.015497268 -0.1292996 9.3095005e-06 9.1215576e-39
0.017310381 -0.1292996 9.3095005e-06 1.0779986e-38
0.019123491 -0.1292996 9.3095005e-06 9.949135e-39
0.020936605 -0.1292996 9.3095005e-06 9.3037516e-39
0.022749718 -0.1292996 9.3095005e-06 1.0318634e-38
0.02438838 -0.12848105 0.0030707233 8.7552974e-39
0.026196122 -0.12848105 0.0030707233 9.2086609e-40
0.028003868 -0.12848105 0.0030707233 2.3952801e-39
-0.026149651 -0.13297729 -0.0069186576 2.6733201e-39
-0.024324391 -0.13297729 -0.0069186576 9.1841101e-41
-0.022533273 -0.13217102 -0.0039229281 1.1031106e-39
-0.020713266 -0.13217102 -0.0039229281 7.3468397e-40
-0.018951863 -0.13111271 9.3095005e-06 1.5612034e-39
-0.017238691 -0.1294979 0.0060093515 1.5612034e-39
-0.015436099 -0.1294979 0.0060093515 5.9854782e-39
-0.013633507 -0.1294979 0.0060093515 1.6311738e-38
-0.011830916 -0.1294979 0.0060093515 1.6221326e-38
-0.010028324 -0.1294979 0.0060093515 1.0137844e-38
-0.0082257306 -0.1294979 0.0060093515 7.0042699e-39
-0.006423139 -0.1294979 0.0060093515 9.0311346e-39
-0.0046205474 -0.1294979 0.0060093515 1.1054768e-38
-0.0028179539 -0.1294979 0.0060093515 1.3357861e-38
-0.0010153642 -0.1294979 0.0060093515 1.2990152e-38
0.00078722928 -0.1294979 0.0060093515 1.2991591e-38
0.0025898227 -0.1294979 0.0060093515 1.2993386e-38
0.0043924125 -0.1294979 0.0060093515 1.4377762e-38
0.0060756328 -0.12868352 0.0090352409 1.2534214e-38
0.0078729214 -0.12868352 0.0090352409 1.1059451e-38
0.0096702063 -0.12868352 0.0090352409 1.059812e-38
0.011602783 -0.1294979 0.0060093515 1.0136426e-38
0.013684158 -0.13111271 9.3095005e-06 1.0504489e-38
0.015497268 -0.13111271 9.3095005e-06 1.1978893e-38
0.017157402 -0.13028879 0.0030707233 1.2069999e-38
0.018965144 -0.13028879 0.0030707233 1.0040965e-38
0.020772889 -0.13028879 0.0030707233 1.0132792e-38
0.022749718 -0.13111271 9.3095005e-06 1.2254742e-38
0.02438838 -0.13028879 0.0030707233 8.9396887e-39
0.026023518 -0.1294979 0.0060093515 1.0119841e-39
0.027826112 -0.1294979 0.0060093515 2.3952801e-39
0.029628705 -0.1294979 0.0060093515 8.1110574e-39
-0.024324391 -0.13480256 -0.0069186576 3.684336e-40
-0.022533273 -0.13399105 -0.0039229281 7.3505391e-40
-0.020713266 -0.13399105 -0.0039229281 6.4284847e-40
-0.018951863 -0.13292582 9.3095005e-06 1.102026e-39
-0.017189745 -0.13209651 0.0030707233 1.3775324e-39
-0.015382 -0.13209651 0.0030707233 5.4319415e-39
-0.013633507 -0.13130049 0.0060093515 1.6495763e-38
-0.011830916 -0.13130049 0.0060093515 1.5758906e-38
-0.010028324 -0.13130049 0.0060093515 9.5825105e-39
-0.0082257306 -0.13130049 0.0060093515 8.4772391e-39
-0.006423139 -0.13130049 0.0060093515 9.2140839e-39
-0.0046205474 -0.13130049 0.0060093515 1.1883082e-38
-0.0028179539 -0.13130049 0.0060093515 1.3725556e-38
-0.0010153642 -0.13130049 0.0060093515 1.298871e-38
0.00078722928 -0.13130049 0.0060093515 1.2436975e-38
0.0025898227 -0.13130049 0.0060093515 1.2806839e-38
0.0043924125 -0.13130049 0.0060093515 1.4375244e-38
0.0060756328 -0.13048081 0.0090352409 1.3361817e-38
0.0078729214 -0.13048081 0.0090352409 1.2532419e-38
0.0096702063 -0.13048081 0.0090352409 1.4377413e-38
0.011602783 -0.13130049 0.0060093515 1.2901926e-38
0.013541912 -0.13209651 0.0030707233 1.1887054e-38
0.015349657 -0.13209651 0.0030707233 1.216292e-38
0.017157402 -0.13209651 0.0030707233 1.2069999e-38
0.018965144 -0.13209651 0.0030707233 1.0594144e-38
0.020772889 -0.13209651 0.0030707233 1.0869649e-38
0.022580635 -0.13209651 0.0030707233 1.2715371e-38
0.02438838 -0.13209651 0.0030707233 9.7694521e-39
0.025845788 -0.13048081 0.0090352409 1.4729553e-39
0.027643073 -0.13048081 0.0090352409 2.1186932e-39
0.029440362 -0.13048081 0.0090352409 8.4798399e-39
-0.024324391 -0.13662781 -0.0069186576 9.2209643e-41
-0.022533273 -0.13581105 -0.0039229281 4.5990756e-40
-0.020713266 -0.13581105 -0.0039229281 5.5101298e-40
-0.018951863 -0.13473894 9.3095005e-06 1.0101905e-39
-0.017189745 -0.13390426 0.0030707233 1.8370687e-39
-0.015382 -0.13390426 0.0030707233 5.0631562e-39
-0.013633507 -0.13310309 0.0060093515 1.7324804e-38
-0.011830916 -0.13310309 0.0060093515 1.6494673e-38
-0.010028324 -0.13310309 0.0060093515 1.4375246e-38
-0.0082257306 -0.13310309 0.0060093515 1.4745106e-38
-0.006423139 -0.13310309 0.0060093515 1.3545121e-38
-0.0046205474 -0.13310309 0.0060093515 1.4648951e-38
-0.0028179539 -0.13310309 0.0060093515 1.6122642e-38
-0.0010153642 -0.13310309 0.0060093515 1.520105e-38
0.00078722928 -0.13310309 0.0060093515 1.400323e-38
0.0025898227 -0.13310309 0.0060093515 1.4188343e-38
0.0043924125 -0.13310309 0.0060093515 1.4835152e-38
0.006195006 -0.13310309 0.0060093515 1.4190504e-38
0.0079975994 -0.13310309 0.0060093515 1.3269268e-38
0.0098001892 -0.13310309 0.0060093515 1.3361819e-38
0.011602783 -0.13310309 0.0060093515 1.2808646e-38
0.013541912 -0.13390426 0.0030707233 1.1886689e-38
0.015349657 -0.13390426 0.0030707233 1.1794494e-38
0.017157402 -0.13390426 0.0030707233 1.2346591e-38
0.018965144 -0.13390426 0.0030707233 1.1609026e-38
0.020772889 -0.13390426 0.0030707233 1.0870744e-38
0.022418335 -0.13310309 0.0060093515 1.0871833e-38
0.024220925 -0.13310309 0.0060093515 1.0230076e-38
0.025845788 -0.1322781 0.0090352409 2.3949032e-39
0.027461104 -0.13145791 0.012043487 2.2098098e-39
0.029253121 -0.13145791 0.012043487 7.9266662e-39
-0.024324391 -0.13845308 -0.0069186576 1.2611686e-44
-0.022533273 -0.13763104 -0.0039229281 1.8404234e-40
-0.020713266 -0.13763104 -0.0039229281 6.4321141e-40
-0.018893261 -0.13763104 -0.0039229281 9.1835496e-40
-0.017189745 -0.13571201 0.0030707233 1.6533977e-39
-0.015382 -0.13571201 0.0030707233 3.4958473e-39
-0.013574255 -0.13571201 0.0030707233 1.6586523e-38
-0.011830916 -0.13490568 0.0060093515 1.5387255e-38
-0.010028324 -0.13490568 0.0060093515 1.6308487e-38
-0.0082257306 -0.13490568 0.0060093515 1.6125174e-38
-0.006423139 -0.13490568 0.0060093515 1.4003949e-38
-0.0046205474 -0.13490568 0.0060093515 1.4372369e-38
-0.0028179539 -0.13490568 0.0060093515 1.5570556e-38
-0.0010153642 -0.13490568 0.0060093515 1.538617e-38
0.00078722928 -0.13490568 0.0060093515 1.409544e-38
0.0025898227 -0.13490568 0.0060093515 1.4372753e-38
0.0043924125 -0.13490568 0.0060093515 1.4557144e-38
0.0060756328 -0.13407536 0.0090352409 1.3912849e-38
0.0078729214 -0.13407536 0.0090352409 1.3083805e-38
0.0098001892 -0.13490568 0.0060093515 1.2254038e-38
0.011602783 -0.13490568 0.0060093515 1.3084877e-38
0.013405376 -0.13490568 0.0060093515 1.2347312e-38
0.015349657 -0.13571201 0.0030707233 1.0596315e-38
0.017010558 -0.13490568 0.0060093515 1.0411573e-38
0.018813148 -0.13490568 0.0060093515 1.1056591e-38
0.020615742 -0.13490568 0.0060093515 1.1056239e-38
0.022418335 -0.13490568 0.0060093515 1.0780378e-38
0.0240485 -0.13407536 0.0090352409 8.0170303e-39
0.025669094 -0.13324992 0.012043487 2.5792944e-39
0.027280204 -0.13242932 0.015034091 2.4863967e-39
0.029066976 -0.13242932 0.015034091 7.9266662e-39
0.030853745 -0.13242932 0.015034091 8.1114232e-39
-0.024324391 -0.14027832 -0.0069186576 1.2611686e-44
-0.022533273 -0.13945107 -0.0039229281 9.8090893e-45
-0.020713266 -0.13945107 -0.0039229281 1.8367239e-40
-0.018893261 -0.13945107 -0.0039229281 7.3468397e-40
-0.017138753 -0.13836516 9.3095005e-06 1.1938615e-39
-0.015382 -0.13751976 0.0030707233 4.0486539e-39
-0.013574255 -0.13751976 0.0030707233 1.7783992e-38
-0.011766511 -0.13751976 0.0030707233 1.7321571e-38
-0.010028324 -0.13670824 0.0060093515 1.8150608e-38
-0.0082257306 -0.13670824 0.0060093515 1.685987e-38
-0.006423139 -0.13670824 0.0060093515 1.4923759e-38
-0.0046205474 -0.13670824 0.0060093515 1.2897248e-38
-0.0028179539 -0.13670824 0.0060093515 1.4187987e-38
-0.0010153642 -0.13670824 0.0060093515 1.4465304e-38
0.00078722928 -0.13670824 0.0060093515 1.3081662e-38
0.0025898227 -0.13670824 0.0060093515 1.372668e-38
0.0043924125 -0.13670824 0.0060093515 1.3173506e-38
0.0060756328 -0.13587265 0.0090352409 1.252921e-38
0.0078729214 -0.13587265 0.0090352409 1.16998e-38
0.0098001892 -0.13670824 0.0060093515 1.234624e-38
0.011602783 -0.13670824 0.0060093515 1.2808291e-38
0.013405376 -0.13670824 0.0060093515 1.1057293e-38
0.015207966 -0.13670824 0.0060093515 8.4765413e-39
0.017010558 -0.13670824 0.0060093515 8.292164e-39
0.018813148 -0.13670824 0.0060093515 8.7524373e-39
0.020615742 -0.13670824 0.0060093515 7.2773227e-39
0.022418335 -0.13670824 0.0060093515 5.2497419e-39
0.0240485 -0.13587265 0.0090352409 3.3157776e-39
0.025669094 -0.13504194 0.012043487 1.3804023e-39
0.027280204 -0.13421609 0.015034091 3.0395705e-39
0.028881919 -0.13339506 0.01800717 9.0330137e-39
0.030663472 -0.13339506 0.01800717 9.67803e-39
-0.024353281 -0.14127107 -0.0039229281 3.685415e-43
-0.022533273 -0.14127107 -0.0039229281 7.0064923e-45
-0.020713266 -0.14127107 -0.0039229281 2.8025969e-45
-0.018893261 -0.14127107 -0.0039229281 6.4284847e-40
-0.017138753 -0.14017828 9.3095005e-06 1.1938615e-39
-0.015382 -0.13932751 0.0030707233 5.5237854e-39
-0.013574255 -0.13932751 0.0030707233 1.5478028e-38
-0.011766511 -0.13932751 0.0030707233 1.6398543e-38
-0.010028324 -0.13851084 0.0060093515 1.713467e-38
-0.0082257306 -0.13851084 0.0060093515 1.6765887e-38
-0.006423139 -0.13851084 0.0060093515 1.5291473e-38
-0.0046205474 -0.13851084 0.0060093515 1.3819932e-38
-0.0028179539 -0.13851084 0.0060093515 1.4743326e-38
-0.0010153642 -0.13851084 0.0060093515 1.5295079e-38
0.00078722928 -0.13851084 0.0060093515 1.3450459e-38
0.0025898227 -0.13851084 0.0060093515 1.3911085e-38
0.0043924125 -0.13851084 0.0060093515 1.2620349e-38
0.006195006 -0.13851084 0.0060093515 1.2159723e-38
0.0079975994 -0.13851084 0.0060093515 1.1238114e-38
0.0098001892 -0.13851084 0.0060093515 1.0501974e-38
0.011602783 -0.13851084 0.0060093515 1.0779634e-38
0.013405376 -0.13851084 0.0060093515 9.7672801e-39
0.015207966 -0.13851084 0.0060093515 9.2141147e-39
0.017010558 -0.13851084 0.0060093515 9.5836371e-39
0.018813148 -0.13851084 0.0060093515 8.3851122e-39
0.020615742 -0.13851084 0.0060093515 4.4207225e-39
0.022251215 -0.13766994 0.0090352409 1.1020372e-39
0.0240485 -0.13766994 0.0090352409 6.4284847e-40
0.025669094 -0.13683395 0.012043487 6.4284847e-40
0.027100362 -0.13517661 0.01800717 3.1317661e-39
0.028320666 -0.13267075 0.02702428 9.3096006e-39
0.029318091 -0.12933435 0.039029848 9.4936387e-39
0.031062793 -0.12933435 0.039029848 9.679102e-39
0.032602962 -0.12849234 0.042059731 1.0325899e-38
0.034342345 -0.12849234 0.042059731 9.0351549e-39
0.036081728 -0.12849234 0.042059731 7.4685481e-39
-0.024353281 -0.14309107 -0.0039229281 3.685415e-43
-0.022533273 -0.14309107 -0.0039229281 2.7839597e-40
-0.020713266 -0.14309107 -0.0039229281 5.6051939e-45
-0.018893261 -0.14309107 -0.0039229281 6.4392467e-40
-0.017138753 -0.14199139 9.3095005e-06 7.3468397e-40
-0.015325638 -0.14199139 9.3095005e-06 2.9437609e-39
-0.013512527 -0.14199139 9.3095005e-06 4.7858701e-39
-0.011766511 -0.14113526 0.0030707233 4.876265e-39
-0.0099587655 -0.14113526 0.0030707233 5.7045866e-39
-0.0082257306 -0.14031343 0.0060093515 7.0868021e-39
-0.006423139 -0.14031343 0.0060093515 5.3368774e-39
-0.0047080861 -0.13946722 0.0090352409 5.5241315e-39
-0.0029107993 -0.13946722 0.0090352409 6.0791032e-39
-0.0010153642 -0.14031343 0.0060093515 6.7226915e-39
0.00078722928 -0.14031343 0.0060093515 4.4174519e-39
0.0025898227 -0.14031343 0.0060093515 4.6933339e-39
0.0043924125 -0.14031343 0.0060093515 3.1256523e-39
0.006195006 -0.14031343 0.0060093515 2.7572257e-39
0.0079975994 -0.14031343 0.0060093515 1.7448744e-39
0.0098001892 -0.14031343 0.0060093515 1.9296216e-39
0.011602783 -0.14031343 0.0060093515 1.8385036e-39
0.013405376 -0.14031343 0.0060093515 1.0101905e-39
0.015207966 -0.14031343 0.0060093515 7.3468397e-40
0.017010558 -0.14031343 0.0060093515 8.2723693e-40
0.018813148 -0.14031343 0.0060093515 6.4285828e-40
0.020615742 -0.14031343 0.0060093515 2.7552611e-40
0.022251215 -0.13946722 0.0090352409 2.755219e-40
0.0240485 -0.13946722 0.0090352409 3.6734198e-40
0.025493436 -0.13778962 0.015034091 4.5953621e-40
0.02673158 -0.13525321 0.024103772 2.7640626e-39
0.028320666 -0.13443647 0.02702428 8.2961676e-39
0.029318091 -0.13107903 0.039029848 7.466051e-39
0.031062793 -0.13107903 0.039029848 7.2820128e-39
0.032602962 -0.13023172 0.042059731 9.1262771e-39
0.034342345 -0.13023172 0.042059731 9.1273533e-39
0.036081728 -0.13023172 0.042059731 8.0210058e-39
0.037601981 -0.12938951 0.045071255 7.0986964e-39
0.039336082 -0.12938951 0.045071255 7.2827359e-39
-0.024353281 -0.14491107 -0.0039229281 1.8090763e-42
-0.022533273 -0.14491107 -0.0039229281 7.286752e-43
-0.020713266 -0.14491107 -0.0039229281 9.8090893e-45
-0.018893261 -0.14491107 -0.0039229281 1.847584e-40
-0.017138753 -0.14380451 9.3095005e-06 9.1838299e-41
-0.015325638 -0.14380451 9.3095005e-06 3.6734198e-40
-0.013512527 -0.14380451 9.3095005e-06 6.4284847e-40
-0.011766511 -0.14294298 0.0030707233 1.4711658e-39
-0.0099587655 -0.14294298 0.0030707233 1.2856969e-39
-0.0082257306 -0.14211603 0.0060093515 1.0101905e-39
-0.006423139 -0.14211603 0.0060093515 1.5622796e-39
-0.0047080861 -0.14126451 0.0090352409 1.3786086e-39
-0.0029107993 -0.14126451 0.0090352409 1.0101905e-39
-0.0010153642 -0.14211603 0.0060093515 1.1023847e-39
0.00078722928 -0.14211603 0.0060093515 1.102026e-39
0.0025898227 -0.14211603 0.0060093515 9.1835496e-40
0.0043924125 -0.14211603 0.0060093515 7.3468957e-40
0.006195006 -0.14211603 0.0060093515 1.1938783e-39
0.0079975994 -0.14211603 0.0060093515 9.1837458e-40
0.0098001892 -0.14211603 0.0060093515 5.5102979e-40
0.011602783 -0.14211603 0.0060093515 5.510326e-40
0.013405376 -0.14211603 0.0060093515 6.4287089e-40
0.015207966 -0.14211603 0.0060093515 1.1978425e-39
0.017010558 -0.14211603 0.0060093515 3.2265093e-39
0.018813148 -0.14211603 0.0060093515 4.4257756e-39
0.020615742 -0.14211603 0.0060093515 2.6740614e-39
0.022418335 -0.14211603 0.0060093515 1.6815582e-44
0.0240485 -0.14126451 0.0090352409 7.1886611e-43
0.024960712 -0.13702409 0.024103772 2.7694142e-40
0.02673158 -0.13702409 0.024103772 2.1208526e-39
0.028133716 -0.13535701 0.030027758 7.8366257e-39
0.029894199 -0.13535701 0.030027758 8.2972438e-39
0.031458367 -0.13451682 0.033013474 7.3742057e-39
0.032602962 -0.13197111 0.042059731 7.2823674e-39
0.034342345 -0.13197111 0.042059731 8.0199296e-39
0.036081728 -0.13197111 0.042059731 7.927734e-39
0.037601981 -0.13112362 0.045071255 7.7433455e-39
0.039336082 -0.13112362 0.045071255 7.4674803e-39
-0.027974911 -0.14757936 -0.0069186576 1.3369805e-38
-0.0243912 -0.14561762 9.3095005e-06 7.2447131e-43
-0.022578087 -0.14561762 9.3095005e-06 3.685415e-43
-0.020713266 -0.14673109 -0.0039229281 3.685415e-43
-0.018893261 -0.14673109 -0.0039229281 9.8090893e-45
-0.017138753 -0.14561762 9.3095005e-06 7.0064923e-45
-0.015325638 -0.14561762 9.3095005e-06 4.6062502e-40
-0.013512527 -0.14561762 9.3095005e-06 9.1838299e-41
-0.011766511 -0.14475073 0.0030707233 2.7550649e-40
-0.0099587655 -0.14475073 0.0030707233 3.6734198e-40
-0.0082257306 -0.14391862 0.0060093515 1.1045427e-39
-0.006423139 -0.14391862 0.0060093515 4.7916378e-39
-0.0047080861 -0.1430618 0.0090352409 1.1705932e-38
-0.0029107993 -0.1430618 0.0090352409 1.2075067e-38
-0.0010153642 -0.14391862 0.0060093515 1.3181065e-38
0.00078722928 -0.14391862 0.0060093515 1.3365467e-38
0.0025898227 -0.14391862 0.0060093515 1.2627197e-38
0.0043924125 -0.14391862 0.0060093515 1.2350624e-38
0.006195006 -0.14391862 0.0060093515 1.2720137e-38
0.0079975994 -0.14391862 0.0060093515 1.2535757e-38
0.0098001892 -0.14391862 0.0060093515 1.2997459e-38
0.011467495 -0.1430618 0.0090352409 1.1799638e-38
0.01326478 -0.1430618 0.0090352409 1.133902e-38
0.015207966 -0.14391862 0.0060093515 1.2262055e-38
0.017010558 -0.14391862 0.0060093515 1.2815945e-38
0.018813148 -0.14391862 0.0060093515 1.0234822e-38
0.020615742 -0.14391862 0.0060093515 4.0587909e-39
0.022418335 -0.14391862 0.0060093515 3.7414669e-43
0.023189846 -0.13879494 0.024103772 9.3637566e-41
0.024960712 -0.13879494 0.024103772 2.7837915e-40
0.02673158 -0.13879494 0.024103772 1.9368215e-39
0.028133716 -0.13711749 0.030027758 7.284168e-39
0.029894199 -0.13711749 0.030027758 7.6525904e-39
0.031654675 -0.13711749 0.030027758 6.9143065e-39
-0.027974911 -0.14940463 -0.0069186576 1.4015528e-38
-0.026149651 -0.14940463 -0.0069186576 4.8885236e-39
-0.0243912 -0.14743073 9.3095005e-06 7.1746481e-43
-0.022578087 -0.14743073 9.3095005e-06 3.643376e-43
-0.020713266 -0.14855109 -0.0039229281 3.643376e-43
-0.018893261 -0.14855109 -0.0039229281 2.8025969e-45
-0.017138753 -0.14743073 9.3095005e-06 2.8025969e-45
