# .PCD v0.7 - Point Cloud Data file format
VERSION 0.7
FIELDS x y z rgb
SIZE 4 4 4 4
TYPE F F F F
COUNT 1 1 1 1
WIDTH 734
HEIGHT 1
VIEWPOINT 0 0 0 1 0 0 0
POINTS 734
DATA ascii
-0.046223983 -0.12877132 -0.067593731 4.7941756e-39
-0.042180449 -0.13079311 -0.067593731 1.3552755e-38
-0.040158678 -0.13079311 -0.067593731 1.0143312e-38
-0.038237661 -0.13174851 -0.071556725 8.6689003e-39
-0.042180449 -0.13281487 -0.067593731 1.7515728e-38
-0.040158678 -0.13281487 -0.067593731 1.6227521e-38
-0.038136911 -0.13281487 -0.067593731 1.2079808e-38
-0.036018886 -0.13182731 -0.063527025 6.6402686e-39
-0.034004249 -0.13182731 -0.063527025 2.4921785e-39
-0.032071605 -0.13281487 -0.067593731 2.492519e-39
-0.042180449 -0.13483663 -0.067593731 2.3508441e-38
-0.040158678 -0.13483663 -0.067593731 2.3233303e-38
-0.038136911 -0.13483663 -0.067593731 2.2958514e-38
-0.036018886 -0.13384195 -0.063527025 2.2958514e-38
-0.034004249 -0.13384195 -0.063527025 2.0285222e-38
-0.031989608 -0.13384195 -0.063527025 1.6137119e-38
-0.029974971 -0.13384195 -0.063527025 1.4477951e-38
-0.027960334 -0.13384195 -0.063527025 1.4199932e-38
-0.025887448 -0.13288604 -0.059618745 1.2816985e-38
-0.023826923 -0.13190506 -0.055608068 1.1434017e-38
-0.02182617 -0.13190506 -0.055608068 1.1617315e-38
-0.019825418 -0.13190506 -0.055608068 1.5211152e-38
-0.042062797 -0.13585658 -0.063527025 2.3506628e-38
-0.04004816 -0.13585658 -0.063527025 2.3509168e-38
-0.038033523 -0.13585658 -0.063527025 2.249539e-38
-0.036018886 -0.13585658 -0.063527025 2.2403914e-38
-0.033918589 -0.13489382 -0.059618745 2.323402e-38
-0.031910807 -0.13489382 -0.059618745 2.3142544e-38
-0.029974971 -0.13585658 -0.063527025 2.2590085e-38
-0.027960334 -0.13585658 -0.063527025 1.8717519e-38
-0.025827676 -0.13390581 -0.055608068 1.4015531e-38
-0.023786344 -0.13314565 -0.052522216 1.2725121e-38
-0.021791004 -0.13314565 -0.052522216 1.4937086e-38
0.018890321 -0.12131582 -0.0045005432 5.8947372e-39
0.020801466 -0.12131582 -0.0045005432 8.0155912e-39
-0.049980871 -0.1369016 -0.059618745 1.4563656e-38
-0.042062797 -0.13787122 -0.063527025 2.350842e-38
-0.04004816 -0.13787122 -0.063527025 2.3509517e-38
-0.037934162 -0.1369016 -0.059618745 2.3509168e-38
-0.035926376 -0.1369016 -0.059618745 2.3324421e-38
-0.033918589 -0.1369016 -0.059618745 2.3325138e-38
-0.031910807 -0.1369016 -0.059618745 2.3234369e-38
-0.029974971 -0.13787122 -0.063527025 2.3234372e-38
-0.027777031 -0.13514097 -0.052522216 2.3142544e-38
-0.025781687 -0.13514097 -0.052522216 2.3234379e-38
-0.023786344 -0.13514097 -0.052522216 2.3234357e-38
-0.021791004 -0.13514097 -0.052522216 2.3509859e-38
0.018815756 -0.1224993 -0.001567637 8.5658657e-39
0.020639315 -0.12174667 0.001466001 8.0137681e-39
0.022339325 -0.12002577 0.0084024323 8.0134136e-39
0.02422785 -0.12002577 0.0084024323 7.829744e-39
0.026116371 -0.12002577 0.0084024323 7.092902e-39
0.027662508 -0.1175413 0.018416608 6.3571404e-39
0.029533472 -0.1175413 0.018416608 7.0039546e-39
-0.049980871 -0.13890938 -0.059618745 1.5761835e-38
-0.047973085 -0.13890938 -0.059618745 1.6866372e-38
-0.045965303 -0.13890938 -0.059618745 1.778652e-38
-0.043957517 -0.13890938 -0.059618745 1.8522639e-38
-0.042062797 -0.13988586 -0.063527025 2.3504446e-38
-0.04004816 -0.13988586 -0.063527025 2.3321502e-38
-0.037934162 -0.13890938 -0.059618745 2.350986e-38
-0.035831444 -0.13790731 -0.055608068 2.350987e-38
-0.033763058 -0.13713633 -0.052522216 2.3509509e-38
-0.031767715 -0.13713633 -0.052522216 2.3509862e-38
-0.029772371 -0.13713633 -0.052522216 2.3418031e-38
-0.027777031 -0.13713633 -0.052522216 2.2958151e-38
-0.025559142 -0.13340546 -0.037589822 2.2589368e-38
-0.023589984 -0.13340546 -0.037589822 2.3234367e-38
-0.021620821 -0.13340546 -0.037589822 2.3049972e-38
0.0034882445 -0.12266256 0.0054075369 1.0315093e-38
0.018738631 -0.12364738 0.001466001 1.4280879e-38
0.020532198 -0.12266256 0.0054075369 1.1699763e-38
0.022339325 -0.12191428 0.0084024323 1.3451857e-38
0.02422785 -0.12191428 0.0084024323 1.234624e-38
0.025986452 -0.12091358 0.012407745 1.1056943e-38
0.027662508 -0.11941226 0.018416608 7.9233759e-39
0.029533472 -0.11941226 0.018416608 8.1099308e-39
0.031404436 -0.11941226 0.018416608 6.3600173e-39
-0.051988661 -0.14091717 -0.059618745 1.19829e-38
-0.049980871 -0.14091717 -0.059618745 1.2443145e-38
-0.047973085 -0.14091717 -0.059618745 1.2532811e-38
-0.045965303 -0.14091717 -0.059618745 9.3970697e-39
-0.043957517 -0.14091717 -0.059618745 9.9484344e-39
-0.04194973 -0.14091717 -0.059618745 1.4005755e-38
-0.039941944 -0.14091717 -0.059618745 1.788049e-38
-0.037832193 -0.13990806 -0.055608068 2.2491356e-38
-0.035831444 -0.13990806 -0.055608068 2.3509844e-38
-0.033763058 -0.13913165 -0.052522216 2.3509845e-38
-0.031687845 -0.138135 -0.048561011 2.3509849e-38
-0.029699445 -0.138135 -0.048561011 2.350986e-38
-0.027461976 -0.1343727 -0.033607636 2.3234374e-38
-0.025499798 -0.1343727 -0.033607636 2.3142544e-38
-0.023589984 -0.13537462 -0.037589822 2.2774832e-38
-0.021528974 -0.13334687 -0.029530561 2.3234376e-38
-0.019545529 -0.13260551 -0.026583945 2.3417691e-38
-0.017595664 -0.13260551 -0.026583945 2.3231868e-38
-0.015621093 -0.13159247 -0.022557652 2.3509168e-38
-0.013665003 -0.13082992 -0.019526875 2.3508809e-38
-0.011727513 -0.13082992 -0.019526875 2.239923e-38
0.011063335 -0.12455635 0.0054075369 8.9299664e-39
0.012957106 -0.12455635 0.0054075369 1.0959338e-38
0.014937266 -0.12554805 0.001466001 1.9350208e-38
0.016837947 -0.12554805 0.001466001 2.2855073e-38
0.018738631 -0.12554805 0.001466001 2.1749441e-38
0.020532198 -0.12455635 0.0054075369 2.2394811e-38
0.022339325 -0.12380283 0.0084024323 2.0920049e-38
0.02422785 -0.12380283 0.0084024323 1.8984311e-38
0.025986452 -0.12279506 0.012407745 1.668051e-38
0.027662508 -0.12128322 0.018416608 1.078108e-38
0.029533472 -0.12128322 0.018416608 9.5843448e-39
0.031404436 -0.12128322 0.018416608 5.8979629e-39
-0.051988661 -0.14292495 -0.059618745 1.3088883e-38
-0.049980871 -0.14292495 -0.059618745 1.2072919e-38
-0.047973085 -0.14292495 -0.059618745 1.105803e-38
-0.045965303 -0.14292495 -0.059618745 8.0137653e-39
-0.043957517 -0.14292495 -0.059618745 6.5382639e-39
-0.04194973 -0.14292495 -0.059618745 1.077853e-38
-0.039941944 -0.14292495 -0.059618745 1.5572684e-38
-0.037832193 -0.14190884 -0.055608068 1.741732e-38
-0.035758398 -0.14112701 -0.052522216 2.2028558e-38
-0.033676241 -0.14012341 -0.048561011 2.3509825e-38
-0.031605974 -0.13909473 -0.044500742 2.3509846e-38
-0.029624697 -0.13909473 -0.044500742 2.323435e-38
-0.027394064 -0.1353019 -0.029530561 2.2958864e-38
-0.025439035 -0.1353019 -0.029530561 2.2958873e-38
-0.023484007 -0.1353019 -0.029530561 2.2958873e-38
-0.021495394 -0.13455538 -0.026583945 2.3142544e-38
-0.0195067 -0.13353528 -0.022557652 2.3233662e-38
-0.017563898 -0.13353528 -0.022557652 2.3509527e-38
-0.015602493 -0.13276742 -0.019526875 2.3324052e-38
-0.013647578 -0.13176022 -0.015551482 2.350952e-38
-0.011698551 -0.12997745 -0.0085149156 2.3509161e-38
-0.0097768484 -0.12896039 -0.0045005432 1.9820616e-38
-0.0078657037 -0.12896039 -0.0045005432 1.4938576e-38
-0.005954559 -0.12896039 -0.0045005432 1.5768701e-38
-0.0040434143 -0.12896039 -0.0045005432 1.5027539e-38
-0.0021502683 -0.12821732 -0.001567637 1.2350261e-38
-0.00029930007 -0.12645011 0.0054075369 1.1515811e-38
0.0015944727 -0.12645011 0.0054075369 9.8544689e-39
0.0034882445 -0.12645011 0.0054075369 1.0405808e-38
0.0053820172 -0.12645011 0.0054075369 1.5568401e-38
0.011063335 -0.12645011 0.0054075369 8.7480849e-39
0.012957106 -0.12645011 0.0054075369 1.6402469e-38
0.01485088 -0.12645011 0.0054075369 2.036796e-38
0.016837947 -0.12744872 0.001466001 2.2397707e-38
0.018738631 -0.12744872 0.001466001 2.1568318e-38
0.020450804 -0.12569134 0.0084024323 2.1844178e-38
0.022339325 -0.12569134 0.0084024323 2.1105514e-38
0.02422785 -0.12569134 0.0084024323 2.0551621e-38
0.025986452 -0.12467657 0.012407745 1.9260909e-38
0.027763005 -0.12389888 0.015477265 1.5942606e-38
0.029639121 -0.12389888 0.015477265 1.1794539e-38
0.031515237 -0.12389888 0.015477265 1.9310565e-39
-0.053996444 -0.14493273 -0.059618745 1.2352405e-38
-0.051988661 -0.14493273 -0.059618745 1.2074365e-38
-0.049980871 -0.14493273 -0.059618745 9.4917946e-39
-0.047973085 -0.14493273 -0.059618745 8.0152114e-39
-0.045835208 -0.14390959 -0.055608068 6.9999665e-39
-0.043834455 -0.14390959 -0.055608068 7.5527689e-39
-0.04194973 -0.14493273 -0.059618745 1.1608647e-38
-0.03983295 -0.14390959 -0.055608068 1.2437314e-38
-0.037832193 -0.14390959 -0.055608068 1.6955619e-38
-0.035758398 -0.14312236 -0.052522216 2.0183922e-38
-0.033676241 -0.14211179 -0.048561011 1.972512e-38
-0.031466626 -0.13931294 -0.037589822 2.0741805e-38
-0.029497467 -0.13931294 -0.037589822 2.350913e-38
-0.027394064 -0.13725694 -0.029530561 2.3509866e-38
-0.025395121 -0.13650523 -0.026583945 2.2404603e-38
-0.023445256 -0.13650523 -0.026583945 2.3325843e-38
-0.021495394 -0.13650523 -0.026583945 2.3418042e-38
-0.0195067 -0.13547809 -0.022557652 2.3417679e-38
-0.017539985 -0.1347049 -0.019526875 2.3509876e-38
-0.015578098 -0.13369073 -0.015551482 2.3509873e-38
-0.013630277 -0.13268389 -0.011604701 2.3509153e-38
-0.011698551 -0.13189565 -0.0085149156 2.3509873e-38
-0.0097768484 -0.13087155 -0.0045005432 2.3418043e-38
-0.0078657037 -0.13087155 -0.0045005432 2.2591531e-38
-0.005954559 -0.13087155 -0.0045005432 2.2316024e-38
-0.0040562702 -0.13012333 -0.001567637 2.286632e-38
-0.0021688845 -0.12934943 0.001466001 2.3508092e-38
-0.00029930007 -0.1283439 0.0054075369 2.3508085e-38
0.0015944727 -0.1283439 0.0054075369 2.3500861e-38
0.0034882445 -0.1283439 0.0054075369 2.045729e-38
0.0072311563 -0.12757985 0.0084024323 1.8796352e-38
0.011063335 -0.1283439 0.0054075369 9.3026978e-39
0.012957106 -0.1283439 0.0054075369 1.8338937e-38
0.01485088 -0.1283439 0.0054075369 2.11988e-38
0.016744651 -0.1283439 0.0054075369 2.3506936e-38
0.018638425 -0.1283439 0.0054075369 2.3505515e-38
0.020450804 -0.12757985 0.0084024323 2.3505867e-38
0.022339325 -0.12757985 0.0084024323 2.2394089e-38
0.02422785 -0.12757985 0.0084024323 2.3130575e-38
0.026116371 -0.12757985 0.0084024323 2.2024616e-38
0.02786795 -0.12655805 0.012407745 1.9720466e-38
0.029749449 -0.12655805 0.012407745 1.5480209e-38
0.031630948 -0.12655805 0.012407745 1.2856969e-39
-0.056004226 -0.14694051 -0.059618745 1.1338623e-38
-0.053996444 -0.14694051 -0.059618745 1.1798511e-38
-0.051988661 -0.14694051 -0.059618745 1.1705583e-38
-0.049980871 -0.14694051 -0.059618745 9.0308137e-39
-0.047835961 -0.14591034 -0.055608068 7.1854493e-39
-0.045835208 -0.14591034 -0.055608068 7.276552e-39
-0.043834455 -0.14591034 -0.055608068 8.1981383e-39
-0.041833702 -0.14591034 -0.055608068 1.0317919e-38
-0.039749086 -0.14511769 -0.052522216 9.949505e-39
-0.037753742 -0.14511769 -0.052522216 1.7602467e-38
-0.035758398 -0.14511769 -0.052522216 2.02765e-38
-0.033587255 -0.14305727 -0.044500742 1.7512073e-38
-0.031386334 -0.14025922 -0.033607636 1.8158164e-38
-0.029424153 -0.14025922 -0.033607636 2.2860864e-38
-0.027344987 -0.13845511 -0.026583945 2.3509837e-38
-0.025395121 -0.13845511 -0.026583945 2.3509837e-38
-0.023445256 -0.13845511 -0.026583945 2.3509838e-38
-0.021495394 -0.13845511 -0.026583945 2.3509841e-38
-0.0195067 -0.13742088 -0.022557652 2.3509846e-38
-0.017539985 -0.13664238 -0.019526875 2.3509856e-38
-0.015578098 -0.13562126 -0.015551482 2.3509866e-38
-0.013630277 -0.13460748 -0.011604701 2.3048893e-38
-0.011698551 -0.13381381 -0.0085149156 2.2864869e-38
-0.0097768484 -0.13278268 -0.0045005432 2.3142544e-38
-0.0078657037 -0.13278268 -0.0045005432 2.2775202e-38
-0.0059702517 -0.1312501 0.001466001 2.2775202e-38
-0.0040695677 -0.1312501 0.001466001 2.3142544e-38
-0.0021930719 -0.13023765 0.0054075369 2.3509527e-38
-0.00032292958 -0.1294684 0.0084024323 2.3508802e-38
0.0015655914 -0.1294684 0.0084024323 2.3508787e-38
0.0034541134 -0.1294684 0.0084024323 2.3504093e-38
0.0053426344 -0.1294684 0.0084024323 2.3318257e-38
0.0072311563 -0.1294684 0.0084024323 1.8800672e-38
0.0091196774 -0.1294684 0.0084024323 4.325238e-39
0.011063335 -0.13023765 0.0054075369 7.275124e-39
0.012896719 -0.1294684 0.0084024323 1.8154194e-38
0.014785242 -0.1294684 0.0084024323 2.2763242e-38
0.016673762 -0.1294684 0.0084024323 2.3509088e-38
0.018562283 -0.1294684 0.0084024323 2.3507302e-38
0.020450804 -0.1294684 0.0084024323 2.3501175e-38
0.022223454 -0.12843956 0.012407745 2.3506922e-38
0.024104953 -0.12843956 0.012407745 2.3505124e-38
0.025986452 -0.12843956 0.012407745 2.350262e-38
0.027763005 -0.12765111 0.015477265 1.8888176e-38
0.029639121 -0.12765111 0.015477265 1.4556443e-38
0.031630948 -0.12843956 0.012407745 2.6653818e-39
0.033512447 -0.12843956 0.012407745 3.6809855e-39
-0.058012009 -0.14894833 -0.059618745 1.189252e-38
-0.055838972 -0.14791109 -0.055608068 1.1522293e-38
-0.053838223 -0.14791109 -0.055608068 1.0599965e-38
-0.051837467 -0.14791109 -0.055608068 1.1152406e-38
-0.049836714 -0.14791109 -0.055608068 9.7683787e-39
-0.047835961 -0.14791109 -0.055608068 8.1074056e-39
-0.045835208 -0.14791109 -0.055608068 8.4750952e-39
-0.043834455 -0.14791109 -0.055608068 8.8435077e-39
-0.041833702 -0.14791109 -0.055608068 9.0282689e-39
-0.039749086 -0.14711304 -0.052522216 1.0504859e-38
-0.037653036 -0.14608859 -0.048561011 1.5667823e-38
-0.035568532 -0.14503856 -0.044500742 1.520648e-38
-0.033501655 -0.14402847 -0.040595088 1.4561461e-38
-0.031386334 -0.14222141 -0.033607636 1.8248196e-38
-0.029424153 -0.14222141 -0.033607636 2.3503336e-38
-0.027344987 -0.14040495 -0.026583945 2.3504409e-38
-0.025335118 -0.13936369 -0.022557652 2.2211507e-38
-0.023392312 -0.13936369 -0.022557652 1.6495375e-38
-0.021449506 -0.13936369 -0.022557652 1.4836219e-38
-0.019477475 -0.13857989 -0.019526875 1.7512065e-38
-0.017539985 -0.13857989 -0.019526875 2.1385734e-38
-0.015553878 -0.13653107 -0.011604701 2.350877e-38
-0.013616734 -0.13573201 -0.0085149156 2.3509866e-38
-0.011687993 -0.13469382 -0.0045005432 2.258972e-38
-0.0097768484 -0.13469382 -0.0045005432 2.295887e-38
-0.0078657037 -0.13469382 -0.0045005432 2.2407846e-38
-0.0059702517 -0.13315077 0.001466001 2.2775192e-38
-0.0040868456 -0.13213144 0.0054075369 2.3234379e-38
-0.0022114506 -0.13135691 0.0084024323 2.341769e-38
-0.00032292958 -0.13135691 0.0084024323 2.2494641e-38
0.0015655914 -0.13135691 0.0084024323 2.3509511e-38
0.0034541134 -0.13135691 0.0084024323 2.3509156e-38
0.0052899644 -0.13032107 0.012407745 2.3508068e-38
0.0071714642 -0.13032107 0.012407745 1.2995592e-38
0.009052963 -0.13032107 0.012407745 2.7608046e-39
0.01093446 -0.13032107 0.012407745 7.7375455e-39
0.012815959 -0.13032107 0.012407745 1.8246038e-38
0.014697458 -0.13032107 0.012407745 2.1746929e-38
0.016578957 -0.13032107 0.012407745 2.2481606e-38
0.018460456 -0.13032107 0.012407745 2.3500446e-38
0.020341955 -0.13032107 0.012407745 2.350657e-38
0.022223454 -0.13032107 0.012407745 2.3501886e-38
0.024104953 -0.13032107 0.012407745 2.3493965e-38
0.025986452 -0.13032107 0.012407745 2.3495775e-38
0.027763005 -0.12952723 0.015477265 1.2063891e-38
0.029639121 -0.12952723 0.015477265 6.534336e-39
0.031630948 -0.13032107 0.012407745 1.6530389e-39
0.033512447 -0.13032107 0.012407745 1.1938643e-39
-0.055838972 -0.14991184 -0.055608068 1.2905583e-38
-0.053838223 -0.14991184 -0.055608068 9.6772873e-39
-0.051837467 -0.14991184 -0.055608068 9.0308277e-39
-0.049836714 -0.14991184 -0.055608068 8.384724e-39
-0.047835961 -0.14991184 -0.055608068 7.4620362e-39
-0.045735113 -0.14910837 -0.052522216 8.8438777e-39
-0.04373977 -0.14910837 -0.052522216 9.9498553e-39
-0.04174443 -0.14910837 -0.052522216 1.0227176e-38
-0.039749086 -0.14910837 -0.052522216 1.0414119e-38
-0.037653036 -0.148077 -0.048561011 1.4379622e-38
-0.035476085 -0.1460029 -0.040595088 1.3087071e-38
-0.033348516 -0.14418359 -0.033607636 1.446855e-38
-0.031304128 -0.14312203 -0.029530561 1.852298e-38
-0.029349096 -0.14312203 -0.029530561 2.2946911e-38
-0.027344987 -0.14235483 -0.026583945 2.2023502e-38
-0.025335118 -0.1413065 -0.022557652 1.9349101e-38
-0.023392312 -0.1413065 -0.022557652 1.7505186e-38
-0.021449506 -0.1413065 -0.022557652 1.3450023e-38
-0.019477475 -0.14051737 -0.019526875 1.7693554e-38
-0.017508619 -0.1394823 -0.015551482 2.2122197e-38
-0.015553878 -0.13845469 -0.011604701 2.3508032e-38
-0.013616734 -0.13765021 -0.0085149156 2.3509851e-38
-0.011687993 -0.13660498 -0.0045005432 2.2129447e-38
-0.0097768484 -0.13660498 -0.0045005432 2.259151e-38
-0.0078682741 -0.13584132 -0.001567637 2.323436e-38
-0.0059806174 -0.1340252 0.0054075369 2.2497153e-38
-0.0040999735 -0.13324542 0.0084024323 2.341804e-38
-0.0022360301 -0.13220255 0.012407745 2.3509876e-38
-0.00035453122 -0.13220255 0.012407745 2.3141804e-38
0.0015269667 -0.13220255 0.012407745 2.3509873e-38
0.0034084655 -0.13220255 0.012407745 2.3509527e-38
0.0052496009 -0.13140334 0.015477265 2.3509527e-38
0.0071257176 -0.13140334 0.015477265 1.0325874e-38
0.009052963 -0.13220255 0.012407745 7.374158e-39
0.01093446 -0.13220255 0.012407745 1.1795598e-38
0.012815959 -0.13220255 0.012407745 2.0826803e-38
0.014697458 -0.13220255 0.012407745 2.3499009e-38
0.016578957 -0.13220255 0.012407745 1.8513948e-38
0.018460456 -0.13220255 0.012407745 2.0537931e-38
0.020341955 -0.13220255 0.012407745 2.33942e-38
0.02213465 -0.13140334 0.015477265 2.3491807e-38
0.02401077 -0.13140334 0.015477265 2.2843564e-38
0.025886886 -0.13140334 0.015477265 2.2384745e-38
0.027763005 -0.13140334 0.015477265 1.178514e-38
0.029639121 -0.13140334 0.015477265 4.8733797e-39
0.031630948 -0.13220255 0.012407745 2.9401708e-39
0.033512447 -0.13220255 0.012407745 1.1938741e-39
-0.037549809 -0.14900111 -0.044500742 1.6408642e-38
-0.03540495 -0.1471896 -0.037589822 1.6037687e-38
-0.033259157 -0.14507706 -0.029530561 1.7694672e-38
-0.031244714 -0.14430468 -0.026583945 1.907399e-38
-0.029294848 -0.14430468 -0.026583945 2.2022072e-38
-0.02727792 -0.14324932 -0.022557652 2.072988e-38
-0.025335118 -0.14324932 -0.022557652 1.7501587e-38
-0.023392312 -0.14324932 -0.022557652 1.4368012e-38
-0.021414965 -0.14245488 -0.019526875 1.3723724e-38
-0.019439138 -0.14141284 -0.015551482 1.64932e-38
-0.017477479 -0.14037828 -0.011604701 1.3822419e-38
-0.015534916 -0.13956837 -0.0085149156 1.5300802e-38
-0.013616734 -0.13956837 -0.0085149156 2.3140325e-38
-0.011698551 -0.13956837 -0.0085149156 2.3509844e-38
-0.0097768484 -0.13851611 -0.0045005432 2.3326178e-38
-0.007870934 -0.13695215 0.001466001 2.3326178e-38
-0.0059806174 -0.13591899 0.0054075369 2.0836179e-38
-0.0040999735 -0.13513394 0.0084024323 2.2034367e-38
-0.0022360301 -0.13408406 0.012407745 2.350986e-38
-0.00035453122 -0.13408406 0.012407745 2.3509859e-38
0.0015269667 -0.13408406 0.012407745 2.3234001e-38
0.0034084655 -0.13408406 0.012407745 2.3048914e-38
0.0052496009 -0.13327946 0.015477265 2.3509527e-38
0.0071257176 -0.13327946 0.015477265 1.4291362e-38
0.0090018334 -0.13327946 0.015477265 1.8806771e-38
0.010877951 -0.13327946 0.015477265 2.1015161e-38
0.012815959 -0.13408406 0.012407745 2.1103034e-38
0.014697458 -0.13408406 0.012407745 1.9068947e-38
0.016506303 -0.13327946 0.015477265 8.8319919e-39
0.018382419 -0.13327946 0.015477265 1.5373535e-38
0.020258535 -0.13327946 0.015477265 2.3491796e-38
0.02213465 -0.13327946 0.015477265 2.3485694e-38
0.023920581 -0.13250901 0.018416608 2.2749938e-38
0.025791544 -0.13250901 0.018416608 2.0263895e-38
0.027662508 -0.13250901 0.018416608 1.6026145e-38
0.029533472 -0.13250901 0.018416608 1.0866452e-38
0.031404436 -0.13250901 0.018416608 9.3016707e-39
0.033275396 -0.13250901 0.018416608 1.0595683e-38
-0.035310693 -0.14810793 -0.033607636 1.4285593e-38
-0.033194579 -0.14625455 -0.026583945 1.8431146e-38
-0.031244714 -0.14625455 -0.026583945 2.0548035e-38
-0.029294848 -0.14625455 -0.026583945 2.3034429e-38
-0.02727792 -0.1451921 -0.022557652 1.989797e-38
-0.025289945 -0.14439236 -0.019526875 1.3997086e-38
-0.023352455 -0.14439236 -0.019526875 1.2891454e-38
-0.021414965 -0.14439236 -0.019526875 1.6304134e-38
-0.019439138 -0.14334334 -0.015551482 1.5754562e-38
-0.017477479 -0.14230187 -0.011604701 5.5237616e-39
-0.015534916 -0.14148657 -0.0085149156 8.9374914e-39
-0.013616734 -0.14148657 -0.0085149156 2.2770078e-38
-0.011687993 -0.14042725 -0.0045005432 2.3509816e-38
-0.0097768484 -0.14042725 -0.0045005432 2.3509817e-38
-0.007870934 -0.13885282 0.001466001 2.3508753e-38
-0.0059806174 -0.13781275 0.0054075369 2.3323289e-38
-0.0040999735 -0.13702248 0.0084024323 2.3509841e-38
-0.0022360301 -0.13596557 0.012407745 2.3508758e-38
-0.00037875026 -0.13515557 0.015477265 2.3415849e-38
0.0014973665 -0.13515557 0.015477265 2.3509863e-38
0.0034084655 -0.13596557 0.012407745 2.3507728e-38
0.0052109482 -0.13437997 0.018416608 2.3139298e-38
0.0070819119 -0.13437997 0.018416608 1.6501888e-38
0.0089528738 -0.13437997 0.018416608 2.2308757e-38
0.010823837 -0.13437997 0.018416608 2.3504796e-38
0.012754069 -0.13515557 0.015477265 1.962718e-38
0.014697458 -0.13596557 0.012407745 1.7870773e-38
0.016506303 -0.13515557 0.015477265 8.0022438e-39
0.018382419 -0.13515557 0.015477265 1.3069371e-38
0.020258535 -0.13515557 0.015477265 2.2933225e-38
0.022049617 -0.13437997 0.018416608 2.201237e-38
0.023796517 -0.13331302 0.022459948 2.1369172e-38
0.025660392 -0.13331302 0.022459948 2.063413e-38
0.02742127 -0.1325181 0.025472367 1.9438836e-38
0.029279862 -0.1325181 0.025472367 1.7598546e-38
0.03102554 -0.13172771 0.028467739 1.6863882e-38
0.03276138 -0.13094176 0.031446185 2.0186189e-38
0.0346095 -0.13094176 0.031446185 2.0373832e-38
0.036585562 -0.13172771 0.028467739 1.7240982e-38
-0.033194579 -0.14820443 -0.026583945 1.9628959e-38
-0.031244714 -0.14820443 -0.026583945 2.1100843e-38
-0.029294848 -0.14820443 -0.026583945 2.2480895e-38
-0.02727792 -0.14713491 -0.022557652 1.9897617e-38
-0.025289945 -0.14632986 -0.019526875 1.519564e-38
-0.023352455 -0.14632986 -0.019526875 1.3813784e-38
-0.021369658 -0.14527388 -0.015551482 1.7595963e-38
-0.019401077 -0.14422549 -0.011604701 1.556982e-38
-0.017453101 -0.14340474 -0.0085149156 5.1539085e-39
-0.015534916 -0.14340474 -0.0085149156 1.0963992e-38
-0.013599138 -0.14233841 -0.0045005432 2.3505113e-38
-0.011687993 -0.14233841 -0.0045005432 2.3229601e-38
-0.0097768484 -0.14233841 -0.0045005432 2.350944e-38
-0.0078743892 -0.13970654 0.0054075369 2.3509106e-38
-0.0059884945 -0.13891099 0.0084024323 2.3508033e-38
-0.0041175289 -0.13784705 0.012407745 2.0924019e-38
-0.002254867 -0.13703169 0.015477265 1.4746193e-38
-0.00037875026 -0.13703169 0.015477265 1.4653295e-38
0.0014973665 -0.13703169 0.015477265 1.9907743e-38
0.0033734832 -0.13703169 0.015477265 2.0829716e-38
0.0052109482 -0.13625093 0.018416608 1.8525538e-38
0.0070819119 -0.13625093 0.018416608 2.1477204e-38
0.0089528738 -0.13625093 0.018416608 2.3508739e-38
0.010823837 -0.13625093 0.018416608 2.32264e-38
0.012694801 -0.13625093 0.018416608 1.3634462e-38
0.014630185 -0.13703169 0.015477265 1.1510368e-38
0.016506303 -0.13703169 0.015477265 4.9619867e-39
0.01830769 -0.13625093 0.018416608 1.2242506e-38
0.020178653 -0.13625093 0.018416608 2.349433e-38
0.022049617 -0.13625093 0.018416608 2.3307436e-38
0.023796517 -0.13517688 0.022459948 2.3124501e-38
0.025562678 -0.13437669 0.025472367 2.3506612e-38
0.02742127 -0.13437669 0.025472367 2.3503745e-38
0.029279862 -0.13437669 0.025472367 2.3505921e-38
0.03102554 -0.13358103 0.028467739 2.3507016e-38
0.03276138 -0.13278987 0.031446185 2.3508451e-38
0.0346095 -0.13278987 0.031446185 2.2772691e-38
0.036457617 -0.13278987 0.031446185 2.2682649e-38
0.038305733 -0.13278987 0.031446185 2.2775202e-38
-0.02727792 -0.14907773 -0.022557652 1.9715391e-38
-0.025289945 -0.14826734 -0.019526875 1.261705e-38
-0.023300178 -0.14720438 -0.015551482 1.2157514e-38
-0.021324679 -0.14614908 -0.011604701 1.3725201e-38
-0.019371282 -0.14532293 -0.0085149156 1.179089e-38
-0.017453101 -0.14532293 -0.0085149156 9.1175695e-39
-0.015510282 -0.14424954 -0.0045005432 1.547942e-38
-0.013599138 -0.14424954 -0.0045005432 2.3500431e-38
-0.011687993 -0.14424954 -0.0045005432 2.3504741e-38
-0.0097716181 -0.1426542 0.001466001 2.3506552e-38
-0.0078743892 -0.1416003 0.0054075369 2.3508742e-38
-0.0059990278 -0.13972856 0.012407745 2.3509465e-38
-0.0041309828 -0.13890781 0.015477265 2.1658688e-38
-0.002254867 -0.13890781 0.015477265 1.4650022e-38
-0.00040194113 -0.13812189 0.018416608 1.7413395e-38
0.0014690217 -0.13812189 0.018416608 1.3079852e-38
0.0033734832 -0.13890781 0.015477265 1.3171691e-38
0.0052109482 -0.13812189 0.018416608 2.2023904e-38
0.0070819119 -0.13812189 0.018416608 2.3502981e-38
0.0089528738 -0.13812189 0.018416608 2.3506217e-38
0.010823837 -0.13812189 0.018416608 2.3501535e-38
0.012694801 -0.13812189 0.018416608 1.252919e-38
0.014565765 -0.13812189 0.018416608 1.1973878e-38
0.016436726 -0.13812189 0.018416608 5.8871687e-39
0.01830769 -0.13812189 0.018416608 9.7590012e-39
0.020178653 -0.13812189 0.018416608 2.2942972e-38
0.022049617 -0.13812189 0.018416608 2.2115023e-38
0.023796517 -0.13704078 0.022459948 2.3504453e-38
0.025562678 -0.13623528 0.025472367 2.3506991e-38
0.027318858 -0.13543437 0.028467739 2.3507366e-38
0.029172201 -0.13543437 0.028467739 2.3228631e-38
0.03102554 -0.13543437 0.028467739 2.3508809e-38
0.03276138 -0.134638 0.031446185 2.323402e-38
0.0346095 -0.134638 0.031446185 2.1945092e-38
0.036457617 -0.134638 0.031446185 2.2407501e-38
0.038305733 -0.134638 0.031446185 2.2315664e-38
-0.023248278 -0.14807267 -0.011604701 1.2897604e-38
-0.021324679 -0.14807267 -0.011604701 1.2806132e-38
-0.019371282 -0.1472411 -0.0085149156 1.1607944e-38
-0.017453101 -0.1472411 -0.0085149156 1.096113e-38
-0.015510282 -0.14616071 -0.0045005432 1.5108125e-38
-0.013599138 -0.14616071 -0.0045005432 1.9162563e-38
-0.01168028 -0.14537133 -0.001567637 2.1373449e-38
-0.0097716181 -0.14455487 0.001466001 2.3503316e-38
-0.0078770155 -0.14268802 0.0084024323 2.3503342e-38
-0.0059990278 -0.14161004 0.012407745 1.8707005e-38
-0.0041309828 -0.14078392 0.015477265 1.7967973e-38
-0.002254867 -0.14078392 0.015477265 1.8334598e-38
-0.00040194113 -0.13999285 0.018416608 1.7409428e-38
0.0014690217 -0.13999285 0.018416608 7.7278163e-39
0.0033399845 -0.13999285 0.018416608 1.1139762e-38
0.005157778 -0.13890465 0.022459948 2.3498653e-38
0.0070216516 -0.13890465 0.022459948 2.3504781e-38
0.0089528738 -0.13999285 0.018416608 2.0548395e-38
0.010823837 -0.13999285 0.018416608 1.7507735e-38
0.012694801 -0.13999285 0.018416608 8.1970705e-39
0.014565765 -0.13999285 0.018416608 7.55066e-39
0.016341023 -0.13890465 0.022459948 5.3383334e-39
0.018204894 -0.13890465 0.022459948 7.367698e-39
0.020068768 -0.13890465 0.022459948 2.0736776e-38
0.021932643 -0.13890465 0.022459948 2.3509129e-38
0.023704085 -0.13809387 0.025472367 2.3509142e-38
0.025465518 -0.13728772 0.028467739 2.3508082e-38
0.027318858 -0.13728772 0.028467739 2.3508451e-38
0.029172201 -0.13728772 0.028467739 2.3139674e-38
0.030913264 -0.13648613 0.031446185 2.3325138e-38
0.03276138 -0.13648613 0.031446185 2.2867037e-38
0.0346095 -0.13648613 0.031446185 2.2867037e-38
0.036457617 -0.13648613 0.031446185 2.2039425e-38
0.038305733 -0.13648613 0.031446185 1.5677565e-38
0.040292241 -0.13728772 0.028467739 1.392513e-38
-0.023248278 -0.1499963 -0.011604701 1.1977803e-38
-0.021324679 -0.1499963 -0.011604701 1.0779986e-38
-0.019371282 -0.1491593 -0.0085149156 9.856952e-39
-0.017453101 -0.1491593 -0.0085149156 1.0131379e-38
-0.015510282 -0.14807184 -0.0045005432 1.2893283e-38
-0.013599138 -0.14807184 -0.0045005432 1.4918338e-38
-0.01168028 -0.14727734 -0.001567637 1.8326328e-38
-0.0097681629 -0.14538784 0.0054075369 2.349397e-38
-0.0078770155 -0.14457656 0.0084024323 2.3503344e-38
-0.0059990278 -0.14349155 0.012407745 1.520105e-38
-0.0041309828 -0.14266007 0.015477265 1.4001403e-38
-0.0022729049 -0.14186381 0.018416608 1.8239882e-38
-0.00040194113 -0.14186381 0.018416608 1.7222153e-38
0.0014690217 -0.14186381 0.018416608 9.476641e-39
0.0033399845 -0.14186381 0.018416608 1.5470059e-38
0.005157778 -0.14076851 0.022459948 2.3500081e-38
0.0070216516 -0.14076851 0.022459948 2.350262e-38
0.0088855261 -0.14076851 0.022459948 1.3909233e-38
0.010749401 -0.14076851 0.022459948 1.0778536e-38
0.012613273 -0.14076851 0.022459948 6.8159382e-39
0.014411126 -0.13995247 0.025472367 5.9865797e-39
0.016269717 -0.13995247 0.025472367 6.1727856e-39
0.018128309 -0.13995247 0.025472367 7.6489863e-39
0.019986901 -0.13995247 0.025472367 2.277014e-38
0.021845493 -0.13995247 0.025472367 2.350986e-38
0.023704085 -0.13995247 0.025472367 2.3325835e-38
0.025465518 -0.13914107 0.028467739 2.2864163e-38
0.027217027 -0.13833423 0.031446185 2.3417333e-38
0.029065143 -0.13833423 0.031446185 2.3233662e-38
0.030913264 -0.13833423 0.031446185 2.3142185e-38
0.03276138 -0.13833423 0.031446185 2.19458e-38
0.0346095 -0.13833423 0.031446185 2.1761755e-38
0.036457617 -0.13833423 0.031446185 1.6783542e-38
0.038305733 -0.13833423 0.031446185 1.4385733e-38
0.040292241 -0.13914107 0.028467739 1.3001728e-38
-0.017421428 -0.14998297 -0.0045005432 7.5499061e-39
-0.015510282 -0.14998297 -0.0045005432 1.0679158e-38
-0.013572984 -0.14835624 0.001466001 1.4086788e-38
-0.011661935 -0.1472816 0.0054075369 1.7493702e-38
-0.0097681629 -0.1472816 0.0054075369 2.0906378e-38
-0.0078770155 -0.14646508 0.0084024323 1.6304524e-38
-0.0059990278 -0.14537306 0.012407745 1.3079832e-38
-0.0041309828 -0.14453618 0.015477265 1.5013765e-38
-0.0022729049 -0.14373477 0.018416608 1.7777473e-38
-0.00040194113 -0.14373477 0.018416608 1.5285326e-38
0.0014690217 -0.14373477 0.018416608 1.0766298e-38
0.0033399845 -0.14373477 0.018416608 1.703666e-38
0.005157778 -0.14263238 0.022459948 2.1648244e-38
0.0070216516 -0.14263238 0.022459948 2.1650427e-38
0.0088855261 -0.14263238 0.022459948 6.5335933e-39
0.010749401 -0.14263238 0.022459948 5.5241203e-39
0.012613273 -0.14263238 0.022459948 7.2787254e-39
0.014411126 -0.14181106 0.025472367 5.528484e-39
0.016269717 -0.14181106 0.025472367 4.700538e-39
0.018128309 -0.14181106 0.025472367 8.2976095e-39
0.019986901 -0.14181106 0.025472367 2.3234376e-38
0.021845493 -0.14181106 0.025472367 2.222201e-38
0.023704085 -0.14181106 0.025472367 2.3142537e-38
0.025465518 -0.14099441 0.028467739 2.3142544e-38
0.027217027 -0.14018236 0.031446185 2.2957796e-38
0.029065143 -0.14018236 0.031446185 2.3142185e-38
0.030913264 -0.14018236 0.031446185 2.3142544e-38
0.03276138 -0.14018236 0.031446185 2.0838005e-38
0.034442436 -0.1390769 0.035500731 1.6505513e-38
0.036283448 -0.1390769 0.035500731 1.5951612e-38
0.038124457 -0.1390769 0.035500731 1.9546882e-38
0.040153854 -0.14018236 0.031446185 1.8992635e-38
-0.013555706 -0.14917539 0.0054075369 1.2612022e-38
-0.011654058 -0.14835359 0.0084024323 1.5004423e-38
-0.0097655365 -0.14835359 0.0084024323 1.5282089e-38
-0.0078805266 -0.14725454 0.012407745 1.409075e-38
-0.0059990278 -0.14725454 0.012407745 1.5476924e-38
-0.0041309828 -0.1464123 0.015477265 1.6026855e-38
-0.0022729049 -0.14560573 0.018416608 1.4274058e-38
-0.00040194113 -0.14560573 0.018416608 1.215104e-38
0.0014690217 -0.14560573 0.018416608 1.1689696e-38
0.0033399845 -0.14560573 0.018416608 1.8513241e-38
0.005157778 -0.14449625 0.022459948 2.2295785e-38
0.0070216516 -0.14449625 0.022459948 1.8149881e-38
0.0088855261 -0.14449625 0.022459948 3.9546661e-39
0.010749401 -0.14449625 0.022459948 3.7742237e-39
0.012613273 -0.14449625 0.022459948 6.5433324e-39
0.014411126 -0.14366965 0.025472367 4.5168488e-39
0.016269717 -0.14366965 0.025472367 4.4261063e-39
0.018128309 -0.14366965 0.025472367 1.1249676e-38
0.019905496 -0.14284773 0.028467739 2.2867037e-38
0.021758839 -0.14284773 0.028467739 2.2867034e-38
0.023612179 -0.14284773 0.028467739 2.2867034e-38
0.025368907 -0.14203046 0.031446185 2.3142544e-38
0.027217027 -0.14203046 0.031446185 2.2405347e-38
0.029065143 -0.14203046 0.031446185 2.2680492e-38
0.030913264 -0.14203046 0.031446185 2.1665973e-38
0.032601427 -0.14091791 0.035500731 1.8715699e-38
0.034442436 -0.14091791 0.035500731 1.5396285e-38
0.036283448 -0.14091791 0.035500731 1.6963243e-38
0.038124457 -0.14091791 0.035500731 1.6778126e-38
0.039965466 -0.14091791 0.035500731 1.8622042e-38
-0.0078805266 -0.14913605 0.012407745 9.7575551e-39
-0.0060071005 -0.14828841 0.015477265 1.5845352e-38
-0.0041309828 -0.14828841 0.015477265 1.6027235e-38
-0.0022729049 -0.14747669 0.018416608 1.0955033e-38
-0.00040194113 -0.14747669 0.018416608 1.0309294e-38
0.0014690217 -0.14747669 0.018416608 1.3997471e-38
0.0033399845 -0.14747669 0.018416608 1.814699e-38
0.005157778 -0.14636014 0.022459948 1.8702329e-38
0.0070216516 -0.14636014 0.022459948 1.6031551e-38
0.0088855261 -0.14636014 0.022459948 5.1557176e-39
0.01069394 -0.14552824 0.025472367 4.4214007e-39
0.012552532 -0.14552824 0.025472367 4.5164816e-39
0.014411126 -0.14552824 0.025472367 3.0438725e-39
0.016198818 -0.14470108 0.028467739 9.5908552e-39
0.018052157 -0.14470108 0.028467739 1.7796289e-38
0.019905496 -0.14470108 0.028467739 2.2775202e-38
0.021758839 -0.14470108 0.028467739 2.2867037e-38
0.02352079 -0.14387859 0.031446185 2.1945797e-38
0.025368907 -0.14387859 0.031446185 2.295887e-38
0.027217027 -0.14387859 0.031446185 2.3418047e-38
0.029065143 -0.14387859 0.031446185 2.3509879e-38
0.030760419 -0.14275892 0.035500731 2.0281229e-38
0.032485481 -0.14194728 0.038439836 1.9450381e-38
0.034321338 -0.14194728 0.038439836 2.0095382e-38
0.036157191 -0.14194728 0.038439836 2.0002459e-38
0.037993047 -0.14194728 0.038439836 9.2152049e-39
0.039965466 -0.14275892 0.035500731 1.3088498e-38
-0.0022729049 -0.14934768 0.018416608 6.8073286e-39
-0.00040194113 -0.14934768 0.018416608 5.8860813e-39
0.0014690217 -0.14934768 0.018416608 1.3723765e-38
0.0033399845 -0.14934768 0.018416608 1.7781823e-38
0.005157778 -0.14822401 0.022459948 1.7507404e-38
0.0070216516 -0.14822401 0.022459948 1.1057317e-38
0.0088855261 -0.14822401 0.022459948 3.5916429e-39
0.01069394 -0.14738683 0.025472367 3.686372e-39
0.012552532 -0.14738683 0.025472367 2.0290087e-39
0.014411126 -0.14738683 0.025472367 1.0170064e-39
0.016198818 -0.14655443 0.028467739 1.576867e-38
0.018052157 -0.14655443 0.028467739 2.2220956e-38
0.019824553 -0.1457267 0.031446185 2.2958155e-38
0.02167267 -0.1457267 0.031446185 2.3142544e-38
0.02352079 -0.1457267 0.031446185 2.2682283e-38
0.025368907 -0.1457267 0.031446185 2.341804e-38
0.027078401 -0.14459993 0.035500731 2.3418031e-38
0.02891941 -0.14459993 0.035500731 2.3507702e-38
0.030649625 -0.14378314 0.038439836 2.1201733e-38
0.032365926 -0.14294095 0.041470375 2.1660916e-38
0.034072317 -0.1421036 0.044483509 2.2304843e-38
0.035897575 -0.1421036 0.044483509 2.2765454e-38
0.037857555 -0.14294095 0.041470375 1.041159e-38
0.01069394 -0.14924543 0.025472367 3.1350045e-39
0.012552532 -0.14924543 0.025472367 1.569118e-39
0.014345477 -0.14840777 0.028467739 1.8761705e-40
0.016198818 -0.14840777 0.028467739 1.9456138e-38
0.018052157 -0.14840777 0.028467739 2.3142544e-38
0.019824553 -0.14757483 0.031446185 2.3141826e-38
0.02167267 -0.14757483 0.031446185 2.3141467e-38
0.023396384 -0.14644094 0.035500731 2.350988e-38
0.025237393 -0.14644094 0.035500731 2.3141444e-38
0.026977912 -0.14561899 0.038439836 1.7977041e-38
0.028704841 -0.1447715 0.041470375 1.8067796e-38
0.030535385 -0.1447715 0.041470375 1.9541484e-38
0.032247059 -0.14392884 0.044483509 2.0277255e-38
0.033948883 -0.14309107 0.047479238 1.7325916e-38
0.035768889 -0.14309107 0.047479238 1.6034453e-38
0.037857555 -0.1447715 0.041470375 1.483626e-38
0.016128317 -0.14942293 0.031446185 1.9640903e-38
0.017976437 -0.14942293 0.031446185 2.2958873e-38
0.019714363 -0.14828195 0.035500731 2.2773765e-38
0.021555372 -0.14828195 0.035500731 2.3509156e-38
0.023306202 -0.14745484 0.038439836 2.3509869e-38
0.025142059 -0.14745484 0.038439836 2.3509866e-38
0.0268743 -0.14660202 0.041470375 1.4564726e-38
0.028704841 -0.14660202 0.041470375 1.4472887e-38
0.030535385 -0.14660202 0.041470375 1.7237675e-38
0.032247059 -0.14575411 0.044483509 1.7513183e-38
0.033786863 -0.14380451 0.051411476 1.520685e-38
0.035599973 -0.14380451 0.051411476 1.2624288e-38
0.037413087 -0.14380451 0.051411476 1.5021374e-38
0.023306202 -0.14929073 0.038439836 2.3415498e-38
0.025043756 -0.14843257 0.041470375 2.3507338e-38
0.0268743 -0.14843257 0.041470375 9.4021256e-39
0.028596539 -0.14757936 0.044483509 7.7426014e-39
0.030421797 -0.14757936 0.044483509 1.0047129e-38
0.032128878 -0.14673109 0.047479238 8.9404187e-39
0.033786863 -0.14561762 0.051411476 8.9389754e-39
0.035468467 -0.14475073 0.05447289 1.3639511e-38
0.037276212 -0.14475073 0.05447289 1.6681247e-38
0.026771281 -0.14940463 0.044483509 6.8209954e-39
0.028596539 -0.14940463 0.044483509 6.1767036e-39
0.030421797 -0.14940463 0.044483509 6.3603718e-39
0.032128878 -0.14855109 0.047479238 7.4656348e-39
0.033786863 -0.14743073 0.051411476 6.9110205e-39
0.035468467 -0.14655848 0.05447289 1.2164366e-38
0.037276212 -0.14655848 0.05447289 1.61277e-38
0.0392262 -0.14743073 0.051411476 1.4744049e-38
0.04103931 -0.14743073 0.051411476 5.340462e-39
0.042852424 -0.14743073 0.051411476 2.2069218e-39
0.044665534 -0.14743073 0.051411476 2.4845806e-39
0.031973749 -0.14924385 0.051411476 4.1469494e-39
0.033660721 -0.14836623 0.05447289 5.7128304e-39
0.035468467 -0.14836623 0.05447289 1.0965818e-38
0.037276212 -0.14836623 0.05447289 1.3454378e-38
0.038947418 -0.14752381 0.057411518 1.1240965e-38
0.040750008 -0.14752381 0.057411518 6.077657e-39
0.042699445 -0.14836623 0.05447289 5.0645953e-39
0.044507187 -0.14836623 0.05447289 9.1222891e-39
0.046314932 -0.14836623 0.05447289 9.7687501e-39
0.038947418 -0.1493264 0.057411518 8.3821793e-39
0.040750008 -0.1493264 0.057411518 7.0910859e-39
0.044355191 -0.1493264 0.057411518 1.0411945e-38
0.046157785 -0.1493264 0.057411518 1.2256585e-38
