# .PCD v0.7 - Point Cloud Data file format
VERSION 0.7
FIELDS x y z rgb
SIZE 4 4 4 4
TYPE F F F F
COUNT 1 1 1 1
WIDTH 934
HEIGHT 1
VIEWPOINT 0 0 0 1 0 0 0
POINTS 934
DATA ascii
0.015726708 -0.12577499 -0.0044769775 1.0494092e-38
0.018250838 -0.13087155 -0.024454786 1.0584489e-38
0.020161983 -0.13087155 -0.024454786 9.2977064e-39
0.021967709 -0.13012333 -0.021521879 7.1847599e-39
0.023873713 -0.13012333 -0.021521879 5.9908886e-39
0.025779713 -0.13012333 -0.021521879 5.715022e-39
0.027685717 -0.13012333 -0.021521879 6.6323008e-39
0.029163439 -0.12757985 -0.01155181 7.3597919e-39
0.03105196 -0.12757985 -0.01155181 1.6481761e-38
0.032940481 -0.12757985 -0.01155181 1.8878845e-38
0.034829002 -0.12757985 -0.01155181 2.1280603e-38
0.036717523 -0.12757985 -0.01155181 2.3504812e-38
0.038760949 -0.1283439 -0.014546705 2.3509485e-38
0.046918008 -0.13087155 -0.024454786 1.0974095e-38
0.048829149 -0.13087155 -0.024454786 7.3777439e-39
0.050740298 -0.13087155 -0.024454786 3.3215034e-39
0.052651439 -0.13087155 -0.024454786 2.2148139e-39
-0.062770247 -0.12585752 0.0025057066 2.3418047e-38
-0.060782254 -0.12508373 0.0055181254 2.3418047e-38
-0.058923658 -0.12508373 0.0055181254 2.3050703e-38
-0.057065066 -0.12508373 0.0055181254 2.3142541e-38
-0.055098813 -0.12431435 0.0085134972 2.2406772e-38
-0.05324547 -0.12431435 0.0085134972 2.2775199e-38
-0.05148929 -0.12508373 0.0055181254 1.3004976e-38
-0.049630698 -0.12508373 0.0055181254 1.3650701e-38
-0.04777211 -0.12508373 0.0055181254 1.4385381e-38
-0.045995384 -0.12585752 0.0025057066 1.5855101e-38
-0.044054925 -0.12508373 0.0055181254 9.9516854e-39
-0.042196333 -0.12508373 0.0055181254 1.0503763e-38
-0.040403761 -0.12585752 0.0025057066 1.3638415e-38
-0.038539886 -0.12585752 0.0025057066 1.4190886e-38
-0.036750451 -0.1268961 -0.0015376341 7.2773101e-39
-0.034812137 -0.12585752 0.0025057066 6.2646099e-39
-0.032948263 -0.12585752 0.0025057066 7.9262892e-39
-0.031084392 -0.12585752 0.0025057066 9.3131641e-39
0.0062817032 -0.1268961 -0.0015376341 8.0220876e-39
0.0081526656 -0.1268961 -0.0015376341 8.1139175e-39
0.010023629 -0.1268961 -0.0015376341 7.7436916e-39
0.011894593 -0.1268961 -0.0015376341 8.0191925e-39
0.01385059 -0.12765111 -0.0044769775 7.464581e-39
0.015726708 -0.12765111 -0.0044769775 8.4754987e-39
0.017929453 -0.13023765 -0.014546705 8.5641084e-39
0.019823227 -0.13023765 -0.014546705 6.81276e-39
0.021609351 -0.1294684 -0.01155181 5.3419515e-39
0.023497872 -0.1294684 -0.01155181 5.0675226e-39
0.025386393 -0.1294684 -0.01155181 4.9749613e-39
0.027274914 -0.1294684 -0.01155181 4.970997e-39
0.029163439 -0.1294684 -0.01155181 1.1416045e-38
0.03105196 -0.1294684 -0.01155181 1.7959405e-38
0.036717523 -0.1294684 -0.01155181 2.2676489e-38
0.038760949 -0.13023765 -0.014546705 2.2680812e-38
0.040654723 -0.13023765 -0.014546705 2.3509863e-38
0.042548496 -0.13023765 -0.014546705 2.3232911e-38
0.045006864 -0.13278268 -0.024454786 1.7979185e-38
0.046918008 -0.13278268 -0.024454786 1.466085e-38
0.048829149 -0.13278268 -0.024454786 1.0512045e-38
0.050740298 -0.13278268 -0.024454786 5.4416413e-39
0.058662895 -0.13381381 -0.028469158 1.1893222e-38
0.060581077 -0.13381381 -0.028469158 1.152374e-38
0.062499266 -0.13381381 -0.028469158 1.1708144e-38
0.064417444 -0.13381381 -0.028469158 9.9560742e-39
0.06657128 -0.13460748 -0.031558946 7.5597039e-39
0.068494886 -0.13460748 -0.031558946 7.284545e-39
0.070418492 -0.13460748 -0.031558946 5.6257285e-39
-0.064634122 -0.12772138 0.0025057066 1.3829342e-38
-0.062770247 -0.12772138 0.0025057066 2.3509883e-38
-0.060782254 -0.12694232 0.0055181254 2.3509883e-38
-0.058923658 -0.12694232 0.0055181254 2.2865232e-38
-0.057065066 -0.12694232 0.0055181254 2.3234376e-38
-0.055098813 -0.12616767 0.0085134972 2.2221302e-38
-0.05324547 -0.12616767 0.0085134972 2.2407491e-38
-0.051392131 -0.12616767 0.0085134972 1.1068148e-38
-0.049538791 -0.12616767 0.0085134972 6.6427545e-39
-0.04777211 -0.12694232 0.0055181254 8.8536433e-39
-0.045913517 -0.12694232 0.0055181254 8.1121084e-39
-0.044054925 -0.12694232 0.0055181254 7.5574843e-39
-0.042196333 -0.12694232 0.0055181254 8.9389698e-39
-0.040337741 -0.12694232 0.0055181254 9.1222876e-39
-0.038539886 -0.12772138 0.0025057066 9.4903667e-39
-0.036676012 -0.12772138 0.0025057066 7.462437e-39
-0.034812137 -0.12772138 0.0025057066 8.2010923e-39
-0.03290337 -0.12694232 0.0055181254 8.387996e-39
-0.031044777 -0.12694232 0.0055181254 6.0859625e-39
0.0063461228 -0.12952723 -0.0044769775 9.6812572e-39
0.0081526656 -0.12876706 -0.0015376341 9.496503e-39
0.010023629 -0.12876706 -0.0015376341 9.4961387e-39
0.011894593 -0.12876706 -0.0015376341 1.0142221e-38
0.01385059 -0.12952723 -0.0044769775 1.0144734e-38
0.015820891 -0.13032107 -0.0075464975 1.1433678e-38
0.017832309 -0.13135691 -0.01155181 1.2811593e-38
0.01972083 -0.13135691 -0.01155181 1.3179307e-38
0.021609351 -0.13135691 -0.01155181 1.3825407e-38
0.023497872 -0.13135691 -0.01155181 1.5209062e-38
0.025386393 -0.13135691 -0.01155181 1.6498713e-38
0.027274914 -0.13135691 -0.01155181 1.7324504e-38
0.029163439 -0.13135691 -0.01155181 2.350232e-38
0.03105196 -0.13135691 -0.01155181 2.3504827e-38
0.032940481 -0.13135691 -0.01155181 2.3504095e-38
0.034829002 -0.13135691 -0.01155181 2.3509129e-38
0.036717523 -0.13135691 -0.01155181 2.3509856e-38
0.038760949 -0.13213144 -0.014546705 2.2867018e-38
0.040654723 -0.13213144 -0.014546705 2.2775192e-38
0.042548496 -0.13213144 -0.014546705 2.3234367e-38
0.045006864 -0.13469382 -0.024454786 2.0652508e-38
0.046918008 -0.13469382 -0.024454786 1.7886267e-38
0.048829149 -0.13469382 -0.024454786 1.6134185e-38
0.050740298 -0.13469382 -0.024454786 1.3461228e-38
0.052463744 -0.13393532 -0.021521879 9.128033e-39
0.054369744 -0.13393532 -0.021521879 2.3052144e-39
0.056473728 -0.13469382 -0.024454786 5.5313482e-39
0.058384877 -0.13469382 -0.024454786 1.3644939e-38
0.060296018 -0.13469382 -0.024454786 1.7424258e-38
0.062207166 -0.13469382 -0.024454786 2.1112094e-38
0.064417444 -0.13573201 -0.028469158 2.0375973e-38
0.06657128 -0.13653107 -0.031558946 1.6227887e-38
0.068494886 -0.13653107 -0.031558946 1.3832947e-38
0.070418492 -0.13653107 -0.031558946 7.4725151e-39
-0.064634122 -0.12958528 0.0025057066 1.3368003e-38
-0.062770247 -0.12958528 0.0025057066 2.1020601e-38
-0.060782254 -0.12880091 0.0055181254 2.3509883e-38
-0.058923658 -0.12880091 0.0055181254 2.2773037e-38
-0.057065066 -0.12880091 0.0055181254 2.3234376e-38
-0.055206474 -0.12880091 0.0055181254 2.3142541e-38
-0.053347882 -0.12880091 0.0055181254 2.3142541e-38
-0.051392131 -0.12802102 0.0085134972 1.4938926e-38
-0.049538791 -0.12802102 0.0085134972 3.4148284e-39
-0.047685452 -0.12802102 0.0085134972 6.1796169e-39
-0.045913517 -0.12880091 0.0055181254 3.8729185e-39
-0.043978773 -0.12802102 0.0085134972 4.5172005e-39
-0.04212543 -0.12802102 0.0085134972 5.2533222e-39
-0.040272091 -0.12802102 0.0085134972 5.0682135e-39
-0.038418747 -0.12802102 0.0085134972 7.0029008e-39
-0.036620554 -0.12880091 0.0055181254 7.6479213e-39
-0.034761962 -0.12880091 0.0055181254 7.6486472e-39
-0.03290337 -0.12880091 0.0055181254 6.1756653e-39
-0.031044777 -0.12880091 0.0055181254 7.100483e-39
0.004470007 -0.13140334 -0.0044769775 1.2540412e-38
0.0063461228 -0.13140334 -0.0044769775 1.3553123e-38
0.008222241 -0.13140334 -0.0044769775 1.3921903e-38
0.010023629 -0.13063805 -0.0015376341 1.4935692e-38
0.011894593 -0.13063805 -0.0015376341 1.5951999e-38
0.01385059 -0.13140334 -0.0044769775 1.4943234e-38
0.015820891 -0.13220255 -0.0075464975 1.5772639e-38
0.01770239 -0.13220255 -0.0075464975 1.8163626e-38
0.019583888 -0.13220255 -0.0075464975 2.0005032e-38
0.021609351 -0.13324542 -0.01155181 2.1203225e-38
0.023497872 -0.13324542 -0.01155181 2.2400685e-38
0.025386393 -0.13324542 -0.01155181 2.3507016e-38
0.027274914 -0.13324542 -0.01155181 2.3508092e-38
0.029163439 -0.13324542 -0.01155181 2.3503402e-38
0.03105196 -0.13324542 -0.01155181 2.3507349e-38
0.032940481 -0.13324542 -0.01155181 2.3508777e-38
0.034635879 -0.13220255 -0.0075464975 2.3509853e-38
0.036517378 -0.13220255 -0.0075464975 2.2224156e-38
0.038760949 -0.1340252 -0.014546705 2.1948661e-38
0.040654723 -0.1340252 -0.014546705 2.2040151e-38
0.042548496 -0.1340252 -0.014546705 2.3142541e-38
0.044839736 -0.13584132 -0.021521879 2.2863409e-38
0.046745736 -0.13584132 -0.021521879 1.9728023e-38
0.048651744 -0.13584132 -0.021521879 1.8805703e-38
0.050557744 -0.13584132 -0.021521879 1.7976658e-38
0.052463744 -0.13584132 -0.021521879 1.3366877e-38
0.054369744 -0.13584132 -0.021521879 3.5945057e-39
0.056473728 -0.13660498 -0.024454786 3.8703878e-39
0.058384877 -0.13660498 -0.024454786 1.0785431e-38
0.060296018 -0.13660498 -0.024454786 1.5949481e-38
0.062207166 -0.13660498 -0.024454786 2.2218795e-38
0.064941786 -0.1394823 -0.035505727 2.2128044e-38
0.06657128 -0.13845469 -0.031558946 1.8165787e-38
0.068494886 -0.13845469 -0.031558946 1.5955242e-38
0.070418492 -0.13845469 -0.031558946 8.3040723e-39
0.072342083 -0.13845469 -0.031558946 5.6318241e-39
0.074265689 -0.13845469 -0.031558946 8.118588e-39
-0.064634122 -0.13144915 0.0025057066 1.1063113e-38
-0.062770247 -0.13144915 0.0025057066 1.511972e-38
-0.060782254 -0.13065951 0.0055181254 2.1573775e-38
-0.058923658 -0.13065951 0.0055181254 2.3509883e-38
-0.057065066 -0.13065951 0.0055181254 2.3049624e-38
-0.055206474 -0.13065951 0.0055181254 2.268192e-38
-0.053347882 -0.13065951 0.0055181254 2.3234376e-38
-0.051392131 -0.12987436 0.0085134972 2.3050704e-38
-0.049538791 -0.12987436 0.0085134972 1.0697204e-38
-0.047685452 -0.12987436 0.0085134972 1.0328422e-38
-0.045832112 -0.12987436 0.0085134972 1.2448565e-38
-0.043978773 -0.12987436 0.0085134972 1.4845289e-38
-0.04212543 -0.12987436 0.0085134972 1.761007e-38
-0.040272091 -0.12987436 0.0085134972 1.7609351e-38
-0.038418747 -0.12987436 0.0085134972 1.4749496e-38
-0.036565408 -0.12987436 0.0085134972 9.95497e-39
-0.034712069 -0.12987436 0.0085134972 9.1248562e-39
-0.032858729 -0.12987436 0.0085134972 1.1154952e-38
-0.031044777 -0.13065951 0.0055181254 1.0787956e-38
0.0044107395 -0.13250901 -0.0015376341 2.3049273e-38
0.0062817032 -0.13250901 -0.0015376341 2.3417333e-38
0.008222241 -0.13327946 -0.0044769775 2.3232944e-38
0.010023629 -0.13250901 -0.0015376341 2.2864519e-38
0.011894593 -0.13250901 -0.0015376341 2.2958873e-38
0.01385059 -0.13327946 -0.0044769775 2.2132353e-38
0.015820891 -0.13408406 -0.0075464975 2.2132353e-38
0.01770239 -0.13408406 -0.0075464975 2.2958873e-38
0.019583888 -0.13408406 -0.0075464975 2.3417333e-38
0.021465387 -0.13408406 -0.0075464975 2.3508809e-38
0.023346886 -0.13408406 -0.0075464975 2.3508809e-38
0.025228385 -0.13408406 -0.0075464975 2.3508092e-38
0.027109884 -0.13408406 -0.0075464975 2.3508092e-38
0.028991383 -0.13408406 -0.0075464975 2.3508441e-38
0.030872881 -0.13408406 -0.0075464975 2.3505551e-38
0.03275438 -0.13408406 -0.0075464975 2.3509503e-38
0.034487877 -0.13327946 -0.0044769775 2.3326189e-38
0.036363993 -0.13327946 -0.0044769775 2.286702e-38
0.038606044 -0.13513394 -0.01155181 2.2775192e-38
0.040494565 -0.13513394 -0.01155181 2.2774479e-38
0.042548496 -0.13591899 -0.014546705 2.3509879e-38
0.044839736 -0.13774733 -0.021521879 2.3413703e-38
0.046745736 -0.13774733 -0.021521879 2.0646023e-38
0.048468236 -0.13695215 -0.018488241 2.0369789e-38
0.050368916 -0.13695215 -0.018488241 2.0646376e-38
0.052269604 -0.13695215 -0.018488241 1.8342204e-38
0.054170284 -0.13695215 -0.018488241 1.0598494e-38
0.056275751 -0.13774733 -0.021521879 8.38581e-39
0.058181752 -0.13774733 -0.021521879 1.0414844e-38
0.060087752 -0.13774733 -0.021521879 1.3642068e-38
0.061993759 -0.13774733 -0.021521879 2.2309903e-38
0.064118303 -0.13851611 -0.024454786 2.3233662e-38
0.066335633 -0.13956837 -0.028469158 2.0378118e-38
0.068253815 -0.13956837 -0.028469158 1.798354e-38
0.070171997 -0.13956837 -0.028469158 1.0886626e-38
0.072342083 -0.14037828 -0.031558946 8.7671972e-39
0.074594393 -0.14141284 -0.035505727 1.1345435e-38
0.076524913 -0.14141284 -0.035505727 1.4842039e-38
-0.064634122 -0.13331302 0.0025057066 1.1155308e-38
-0.062770247 -0.13331302 0.0025057066 1.0602134e-38
-0.060782254 -0.1325181 0.0055181254 1.9084132e-38
-0.058923658 -0.1325181 0.0055181254 2.3509883e-38
-0.057065066 -0.1325181 0.0055181254 2.31411e-38
-0.055206474 -0.1325181 0.0055181254 2.2865232e-38
-0.05324547 -0.13172771 0.0085134972 2.3418047e-38
-0.051392131 -0.13172771 0.0085134972 2.3234376e-38
-0.049538791 -0.13172771 0.0085134972 1.7242375e-38
-0.047685452 -0.13172771 0.0085134972 1.788811e-38
-0.045751169 -0.13094176 0.011491941 2.2037288e-38
-0.043903049 -0.13094176 0.011491941 2.249826e-38
-0.042054929 -0.13094176 0.011491941 2.3142544e-38
-0.040206812 -0.13094176 0.011491941 2.3234372e-38
-0.038358696 -0.13094176 0.011491941 2.2496083e-38
-0.036565408 -0.13172771 0.0085134972 1.7608998e-38
-0.034662459 -0.13094176 0.011491941 1.4382155e-38
-0.032814339 -0.13094176 0.011491941 1.5120083e-38
-0.030966222 -0.13094176 0.011491941 1.3553476e-38
0.0044107395 -0.13437997 -0.0015376341 2.3508446e-38
0.0062817032 -0.13437997 -0.0015376341 2.3509524e-38
0.008222241 -0.13515557 -0.0044769775 2.3509524e-38
0.010023629 -0.13437997 -0.0015376341 2.3509527e-38
0.011894593 -0.13437997 -0.0015376341 2.341805e-38
0.01385059 -0.13515557 -0.0044769775 2.2775202e-38
0.015820891 -0.13596557 -0.0075464975 2.2775202e-38
0.01770239 -0.13596557 -0.0075464975 2.2587943e-38
0.019583888 -0.13596557 -0.0075464975 2.2218076e-38
0.021465387 -0.13596557 -0.0075464975 2.3046752e-38
0.023346886 -0.13596557 -0.0075464975 2.3509524e-38
0.025228385 -0.13596557 -0.0075464975 2.350988e-38
0.027109884 -0.13596557 -0.0075464975 2.3325127e-38
0.028991383 -0.13596557 -0.0075464975 2.3509876e-38
0.030872881 -0.13596557 -0.0075464975 2.2864502e-38
0.03275438 -0.13596557 -0.0075464975 2.3509873e-38
0.034487877 -0.13515557 -0.0044769775 2.3418035e-38
0.036363993 -0.13515557 -0.0044769775 2.2681546e-38
0.038398877 -0.13596557 -0.0075464975 2.350987e-38
0.040280376 -0.13596557 -0.0075464975 2.3229685e-38
0.042383086 -0.13702248 -0.01155181 2.3508428e-38
0.044666868 -0.13885282 -0.018488241 2.2856561e-38
0.046567556 -0.13885282 -0.018488241 2.0273993e-38
0.048468236 -0.13885282 -0.018488241 2.0458739e-38
0.050368916 -0.13885282 -0.018488241 2.1104108e-38
0.052269604 -0.13885282 -0.018488241 2.0182152e-38
0.054170284 -0.13885282 -0.018488241 1.4927366e-38
0.056070972 -0.13885282 -0.018488241 1.1700888e-38
0.057971653 -0.13885282 -0.018488241 9.6736748e-39
0.060087752 -0.13965334 -0.021521879 1.2716863e-38
0.061993759 -0.13965334 -0.021521879 2.2768356e-38
0.063899755 -0.13965334 -0.021521879 2.3509524e-38
0.066029459 -0.14042725 -0.024454786 2.3234018e-38
0.067940593 -0.14042725 -0.024454786 2.0655411e-38
0.070171997 -0.14148657 -0.028469158 1.4296067e-38
0.072090179 -0.14148657 -0.028469158 1.0517838e-38
0.074594393 -0.14334334 -0.035505727 1.1252521e-38
0.076524913 -0.14334334 -0.035505727 1.5855105e-38
0.078800455 -0.14439236 -0.039481118 1.7603229e-38
0.080737948 -0.14439236 -0.039481118 1.4285628e-38
-0.06918408 -0.13970654 -0.014546705 1.207654e-38
-0.067290306 -0.13970654 -0.014546705 1.6225343e-38
-0.064814895 -0.13625093 -0.0015376341 1.3183612e-38
-0.062943935 -0.13625093 -0.0015376341 9.5879826e-39
-0.060782254 -0.13437669 0.0055181254 1.1524091e-38
-0.058923658 -0.13437669 0.0055181254 2.2956349e-38
-0.057065066 -0.13437669 0.0055181254 2.3509883e-38
-0.055098813 -0.13358103 0.0085134972 2.3233296e-38
-0.053143639 -0.13278987 0.011491941 2.3418047e-38
-0.051295519 -0.13278987 0.011491941 2.3049624e-38
-0.049447402 -0.13278987 0.011491941 2.3141816e-38
-0.047599286 -0.13278987 0.011491941 2.3234379e-38
-0.045751169 -0.13278987 0.011491941 2.2405707e-38
-0.043799967 -0.13171287 0.015546488 2.2867037e-38
-0.041958958 -0.13171287 0.015546488 2.2682649e-38
-0.040206812 -0.13278987 0.011491941 2.2590085e-38
-0.038358696 -0.13278987 0.011491941 2.3234369e-38
-0.036565408 -0.13358103 0.0085134972 2.3418038e-38
-0.034662459 -0.13278987 0.011491941 2.3049978e-38
-0.032814339 -0.13278987 0.011491941 2.3418047e-38
-0.030966222 -0.13278987 0.011491941 2.341805e-38
0.004470007 -0.13703169 -0.0044769775 2.3509156e-38
0.0062817032 -0.13625093 -0.0015376341 2.3509156e-38
0.0081526656 -0.13625093 -0.0015376341 2.3509157e-38
0.010023629 -0.13625093 -0.0015376341 2.3508077e-38
0.011894593 -0.13625093 -0.0015376341 2.3509883e-38
0.01385059 -0.13703169 -0.0044769775 2.295672e-38
0.015726708 -0.13703169 -0.0044769775 2.3417691e-38
0.017602824 -0.13703169 -0.0044769775 2.3509168e-38
0.019478943 -0.13703169 -0.0044769775 2.3508807e-38
0.021465387 -0.13784705 -0.0075464975 2.3508797e-38
0.023346886 -0.13784705 -0.0075464975 2.3508793e-38
0.025107291 -0.13703169 -0.0044769775 2.258503e-38
0.02698341 -0.13703169 -0.0044769775 1.9266706e-38
0.028859526 -0.13703169 -0.0044769775 1.6963257e-38
0.030735642 -0.13703169 -0.0044769775 1.3368707e-38
0.03275438 -0.13784705 -0.0075464975 1.1893219e-38
0.034487877 -0.13703169 -0.0044769775 8.7578478e-39
0.036363993 -0.13703169 -0.0044769775 1.3181076e-38
0.038240109 -0.13703169 -0.0044769775 2.3043127e-38
0.040280376 -0.13784705 -0.0075464975 2.3506629e-38
0.042383086 -0.13891099 -0.01155181 2.3505539e-38
0.044442266 -0.13970654 -0.014546705 2.3502645e-38
0.046336036 -0.13970654 -0.014546705 2.1560765e-38
0.048468236 -0.14075352 -0.018488241 2.1837349e-38
0.050368916 -0.14075352 -0.018488241 2.2574914e-38
0.052269604 -0.14075352 -0.018488241 2.1652958e-38
0.054170284 -0.14075352 -0.018488241 1.7412325e-38
0.056070972 -0.14075352 -0.018488241 1.5292192e-38
0.057971653 -0.14075352 -0.018488241 1.3080587e-38
0.060087752 -0.14155935 -0.021521879 1.3174236e-38
0.061993759 -0.14155935 -0.021521879 2.2488521e-38
0.063899755 -0.14155935 -0.021521879 2.3136057e-38
0.066029459 -0.14233841 -0.024454786 2.350952e-38
0.067940593 -0.14233841 -0.024454786 2.3234369e-38
0.069851741 -0.14233841 -0.024454786 1.7520756e-38
0.072090179 -0.14340474 -0.028469158 1.0423127e-38
0.074594393 -0.14527388 -0.035505727 7.2859533e-39
0.076862961 -0.14632986 -0.039481118 1.3825e-38
0.078800455 -0.14632986 -0.039481118 1.7879807e-38
0.080737948 -0.14632986 -0.039481118 1.539161e-38
-0.07127481 -0.1426542 -0.018488241 1.28141e-38
-0.06918408 -0.1416003 -0.014546705 1.2261652e-38
-0.067290306 -0.1416003 -0.014546705 1.6963629e-38
-0.065262631 -0.14079951 -0.01155181 1.5580699e-38
-0.062943935 -0.13812189 -0.0015376341 8.9426132e-39
-0.060782254 -0.13623528 0.0055181254 1.069469e-38
-0.058923658 -0.13623528 0.0055181254 2.2956709e-38
-0.057065066 -0.13623528 0.0055181254 2.2403535e-38
-0.055098813 -0.13543437 0.0085134972 2.3509883e-38
-0.053143639 -0.134638 0.011491941 2.3417687e-38
-0.051295519 -0.134638 0.011491941 2.3509883e-38
-0.049447402 -0.134638 0.011491941 2.3325847e-38
-0.047599286 -0.134638 0.011491941 2.3141466e-38
-0.045640975 -0.13355388 0.015546488 2.3142544e-38
-0.043799967 -0.13355388 0.015546488 2.268229e-38
-0.041958958 -0.13355388 0.015546488 2.2037288e-38
-0.040206812 -0.134638 0.011491941 2.2958873e-38
-0.038358696 -0.134638 0.011491941 2.3142537e-38
-0.036565408 -0.13543437 0.0085134972 2.2774467e-38
-0.034662459 -0.134638 0.011491941 2.3234372e-38
-0.032814339 -0.134638 0.011491941 2.3418047e-38
-0.030966222 -0.134638 0.011491941 2.2864883e-38
-0.029152051 -0.13543437 0.0085134972 2.3509168e-38
-0.027269986 -0.134638 0.011491941 2.3509168e-38
-0.025389878 -0.13355388 0.015546488 2.2863809e-38
-0.023530833 -0.13276802 0.018485593 2.3417691e-38
-0.021694977 -0.13276802 0.018485593 2.2497178e-38
-0.019877514 -0.134638 0.011491941 2.3234379e-38
-0.018025842 -0.13355388 0.015546488 2.3234376e-38
-0.016184833 -0.13355388 0.015546488 2.3234018e-38
-0.014343824 -0.13355388 0.015546488 2.3233662e-38
-0.012502816 -0.13355388 0.015546488 2.3050708e-38
-0.010661805 -0.13355388 0.015546488 2.2958873e-38
-0.0088207964 -0.13355388 0.015546488 2.2958873e-38
-0.0069797882 -0.13355388 0.015546488 2.2958873e-38
-0.0051387786 -0.13355388 0.015546488 2.3234379e-38
-0.0032444526 -0.134638 0.011491941 2.3232933e-38
-0.0013963343 -0.134638 0.011491941 2.3508071e-38
0.00045178412 -0.134638 0.011491941 2.3509146e-38
0.0022999006 -0.134638 0.011491941 2.3508783e-38
0.0043292115 -0.13704078 0.0025057066 2.3508783e-38
0.006193086 -0.13704078 0.0025057066 2.3508783e-38
0.008056961 -0.13704078 0.0025057066 2.3508423e-38
0.0099208336 -0.13704078 0.0025057066 2.3509149e-38
0.011894593 -0.13812189 -0.0015376341 2.3508434e-38
0.013765555 -0.13812189 -0.0015376341 2.3508809e-38
0.015726708 -0.13890781 -0.0044769775 2.276873e-38
0.017602824 -0.13890781 -0.0044769775 2.3508089e-38
0.019478943 -0.13890781 -0.0044769775 2.3507719e-38
0.021465387 -0.13972856 -0.0075464975 2.350807e-38
0.023346886 -0.13972856 -0.0075464975 2.3507704e-38
0.025107291 -0.13890781 -0.0044769775 2.3504456e-38
0.02698341 -0.13890781 -0.0044769775 2.0459838e-38
0.028859526 -0.13890781 -0.0044769775 1.8341499e-38
0.030735642 -0.13890781 -0.0044769775 1.4009746e-38
0.032611761 -0.13890781 -0.0044769775 1.0321205e-38
0.034487877 -0.13890781 -0.0044769775 7.4616985e-39
0.036363993 -0.13890781 -0.0044769775 7.3662659e-39
0.038240109 -0.13890781 -0.0044769775 1.2065722e-38
0.040280376 -0.13972856 -0.0075464975 2.1098733e-38
0.042383086 -0.14079951 -0.01155181 2.2019599e-38
0.044271607 -0.14079951 -0.01155181 2.3497595e-38
0.046160128 -0.14079951 -0.01155181 2.3497947e-38
0.04822981 -0.1416003 -0.014546705 2.3494342e-38
0.050368916 -0.1426542 -0.018488241 2.2110688e-38
0.052269604 -0.1426542 -0.018488241 2.2479473e-38
0.054170284 -0.1426542 -0.018488241 1.7684947e-38
0.056275751 -0.14346536 -0.021521879 1.5103834e-38
0.058181752 -0.14346536 -0.021521879 1.4643946e-38
0.060087752 -0.14346536 -0.021521879 1.4461367e-38
0.061993759 -0.14346536 -0.021521879 2.0916511e-38
0.063899755 -0.14346536 -0.021521879 2.3504115e-38
0.066029459 -0.14424954 -0.024454786 2.3508438e-38
0.067940593 -0.14424954 -0.024454786 2.3508797e-38
0.069851741 -0.14424954 -0.024454786 1.6871433e-38
0.072090179 -0.14532293 -0.028469158 1.4292113e-38
0.074594393 -0.14720438 -0.035505727 7.0068511e-39
0.076862961 -0.14826734 -0.039481118 9.2148574e-39
0.078800455 -0.14826734 -0.039481118 1.7049325e-38
0.080737948 -0.14826734 -0.039481118 1.6773821e-38
-0.07127481 -0.14455487 -0.018488241 1.3552744e-38
-0.069374129 -0.14455487 -0.018488241 1.3644586e-38
-0.067290306 -0.14349405 -0.014546705 1.8807541e-38
-0.065262631 -0.14268802 -0.01155181 1.7332415e-38
-0.063202053 -0.14161004 -0.0075464975 1.0233712e-38
-0.060906373 -0.13890465 0.0025057066 1.0141516e-38
-0.058923658 -0.13809387 0.0055181254 2.166597e-38
-0.057065066 -0.13809387 0.0055181254 2.3509883e-38
-0.055098813 -0.13728772 0.0085134972 2.3509883e-38
-0.053143639 -0.13648613 0.011491941 2.2680122e-38
-0.051164005 -0.13539489 0.015546488 2.3325492e-38
-0.049322996 -0.13539489 0.015546488 2.3048542e-38
-0.047481984 -0.13539489 0.015546488 2.3509883e-38
-0.045561105 -0.13460387 0.018485593 2.3233302e-38
-0.043725245 -0.13460387 0.018485593 2.341805e-38
-0.041889392 -0.13460387 0.018485593 2.3234379e-38
-0.040206812 -0.13648613 0.011491941 2.3234379e-38
-0.038358696 -0.13648613 0.011491941 2.3050707e-38
-0.036510576 -0.13648613 0.011491941 2.2682636e-38
-0.034662459 -0.13648613 0.011491941 2.3234374e-38
-0.032814339 -0.13648613 0.011491941 2.3234015e-38
-0.030966222 -0.13648613 0.011491941 2.3325138e-38
-0.029152051 -0.13728772 0.0085134972 2.3509168e-38
-0.027269986 -0.13648613 0.011491941 2.3509168e-38
-0.025389878 -0.13539489 0.015546488 2.3139664e-38
-0.023530833 -0.13460387 0.018485593 2.3232933e-38
-0.021694977 -0.13460387 0.018485593 2.3509879e-38
-0.019877514 -0.13648613 0.011491941 2.3509883e-38
-0.018025842 -0.13539489 0.015546488 2.2864513e-38
-0.016184833 -0.13539489 0.015546488 2.3416245e-38
-0.014343824 -0.13539489 0.015546488 2.3509521e-38
-0.012502816 -0.13539489 0.015546488 2.341805e-38
-0.010661805 -0.13539489 0.015546488 2.3142544e-38
-0.0088207964 -0.13539489 0.015546488 2.3142544e-38
-0.0069797882 -0.13539489 0.015546488 2.2497173e-38
-0.0051387786 -0.13539489 0.015546488 1.9361434e-38
-0.0032444526 -0.13648613 0.011491941 1.7515712e-38
-0.0013963343 -0.13648613 0.011491941 1.5852943e-38
0.00038424833 -0.13539489 0.015546488 1.5113567e-38
0.002225257 -0.13539489 0.015546488 1.8431169e-38
0.0043292115 -0.13890465 0.0025057066 1.7325178e-38
0.006193086 -0.13890465 0.0025057066 2.1750932e-38
0.008056961 -0.13890465 0.0025057066 2.3504451e-38
0.0099208336 -0.13890465 0.0025057066 1.8527335e-38
0.011784708 -0.13890465 0.0025057066 1.4194509e-38
0.013765555 -0.13999285 -0.0015376341 1.3364399e-38
0.015636519 -0.13999285 -0.0015376341 9.9520848e-39
0.017507482 -0.13999285 -0.0015376341 8.5687846e-39
0.019378446 -0.13999285 -0.0015376341 7.5517502e-39
0.021355059 -0.14078392 -0.0044769775 9.9455883e-39
0.023231175 -0.14078392 -0.0044769775 1.1326359e-38
0.025107291 -0.14078392 -0.0044769775 1.3352857e-38
0.026862297 -0.13999285 -0.0015376341 1.4920896e-38
0.028733261 -0.13999285 -0.0015376341 1.6399619e-38
0.030735642 -0.14078392 -0.0044769775 2.1379622e-38
0.032611761 -0.14078392 -0.0044769775 1.9719022e-38
0.034346152 -0.13999285 -0.0015376341 1.6214148e-38
0.036217116 -0.13999285 -0.0015376341 1.4091135e-38
0.038240109 -0.14078392 -0.0044769775 5.2389281e-39
0.040280376 -0.14161004 -0.0075464975 6.6214968e-39
0.042161874 -0.14161004 -0.0075464975 1.6763006e-38
0.044043373 -0.14161004 -0.0075464975 1.9252273e-38
0.045924868 -0.14161004 -0.0075464975 2.2662421e-38
0.04822981 -0.14349405 -0.014546705 2.3493262e-38
0.050123584 -0.14349405 -0.014546705 2.2015973e-38
0.052269604 -0.14455487 -0.018488241 2.0725235e-38
0.054170284 -0.14455487 -0.018488241 1.6022905e-38
0.056473728 -0.14616071 -0.024454786 1.473217e-38
0.058384877 -0.14616071 -0.024454786 1.491765e-38
0.060296018 -0.14616071 -0.024454786 1.408898e-38
0.062207166 -0.14616071 -0.024454786 1.9807994e-38
0.064118303 -0.14616071 -0.024454786 2.3499429e-38
0.066029459 -0.14616071 -0.024454786 2.3507716e-38
0.067940593 -0.14616071 -0.024454786 2.3505557e-38
0.069851741 -0.14616071 -0.024454786 1.6223546e-38
0.072090179 -0.1472411 -0.028469158 1.2999218e-38
0.074265689 -0.14807267 -0.031558946 4.700524e-39
0.078455433 -0.14913492 -0.035505727 1.5298327e-38
0.080385953 -0.14913492 -0.035505727 1.6129531e-38
0.084246993 -0.14913492 -0.035505727 4.9771109e-39
0.086177513 -0.14913492 -0.035505727 3.9640463e-39
-0.073332399 -0.14727734 -0.021521879 1.3276157e-38
-0.07127481 -0.14645557 -0.018488241 1.3276157e-38
-0.069374129 -0.14645557 -0.018488241 1.419776e-38
-0.067290306 -0.14538784 -0.014546705 2.0098999e-38
-0.065396532 -0.14538784 -0.014546705 1.8623514e-38
-0.063374117 -0.14457656 -0.01155181 1.1156387e-38
-0.061320558 -0.14349155 -0.0075464975 1.005004e-38
-0.059042498 -0.14076851 0.0025057066 1.9269603e-38
-0.057065066 -0.13995247 0.0055181254 2.31411e-38
-0.055098813 -0.13914107 0.0085134972 2.3509883e-38
-0.053143639 -0.13833423 0.011491941 2.3048545e-38
-0.051164005 -0.13723589 0.015546488 2.3509883e-38
-0.049232814 -0.13643973 0.018485593 2.3509161e-38
-0.047396958 -0.13643973 0.018485593 2.3508077e-38
-0.045561105 -0.13643973 0.018485593 2.3323311e-38
-0.043725245 -0.13643973 0.018485593 2.3509866e-38
-0.041889392 -0.13643973 0.018485593 2.3509167e-38
-0.040117949 -0.13723589 0.015546488 2.3232944e-38
-0.038358696 -0.13833423 0.011491941 2.341805e-38
-0.036510576 -0.13833423 0.011491941 2.3050349e-38
-0.034662459 -0.13833423 0.011491941 2.3234379e-38
-0.032814339 -0.13833423 0.011491941 2.3049621e-38
-0.030966222 -0.13833423 0.011491941 2.350988e-38
-0.029152051 -0.13914107 0.0085134972 2.2493925e-38
-0.027269986 -0.13833423 0.011491941 2.3509866e-38
-0.025421869 -0.13833423 0.011491941 2.350986e-38
-0.023548869 -0.13723589 0.015546488 2.3508057e-38
-0.021707859 -0.13723589 0.015546488 2.3509863e-38
-0.019877514 -0.13833423 0.011491941 2.3509521e-38
-0.018025842 -0.13723589 0.015546488 2.3509165e-38
-0.016184833 -0.13723589 0.015546488 2.3508075e-38
-0.014333161 -0.13833423 0.011491941 2.3509153e-38
-0.012485042 -0.13833423 0.011491941 2.3509156e-38
-0.010636924 -0.13833423 0.011491941 2.3049259e-38
-0.0087888073 -0.13833423 0.011491941 2.3049621e-38
-0.0069406885 -0.13833423 0.011491941 1.7240932e-38
-0.0050925701 -0.13833423 0.011491941 1.1800302e-38
-0.0032444526 -0.13833423 0.011491941 1.207472e-38
-0.0013963343 -0.13833423 0.011491941 1.4560751e-38
0.00038424833 -0.13723589 0.015546488 1.732445e-38
0.002225257 -0.13723589 0.015546488 1.9812651e-38
0.0043292115 -0.14076851 0.0025057066 2.0642411e-38
0.006193086 -0.14076851 0.0025057066 2.1288864e-38
0.008056961 -0.14076851 0.0025057066 1.3454403e-38
0.0099208336 -0.14076851 0.0025057066 1.0874732e-38
0.011784708 -0.14076851 0.0025057066 6.6340987e-39
0.013765555 -0.14186381 -0.0015376341 6.727016e-39
0.015636519 -0.14186381 -0.0015376341 5.3440843e-39
0.017507482 -0.14186381 -0.0015376341 5.4352037e-39
0.019378446 -0.14186381 -0.0015376341 5.3390522e-39
0.02124941 -0.14186381 -0.0015376341 8.1910029e-39
0.023120373 -0.14186381 -0.0015376341 8.278514e-39
0.024991333 -0.14186381 -0.0015376341 9.2890576e-39
0.026862297 -0.14186381 -0.0015376341 1.2054914e-38
0.028733261 -0.14186381 -0.0015376341 1.3348516e-38
0.030604225 -0.14186381 -0.0015376341 1.8974597e-38
0.032475188 -0.14186381 -0.0015376341 2.1556073e-38
0.034346152 -0.14186381 -0.0015376341 2.1371684e-38
0.036217116 -0.14186381 -0.0015376341 1.8881694e-38
0.038240109 -0.14266007 -0.0044769775 7.5427244e-39
0.040116228 -0.14266007 -0.0044769775 3.5815844e-39
0.041992344 -0.14266007 -0.0044769775 8.283895e-39
0.04386846 -0.14266007 -0.0044769775 1.510455e-38
0.045744579 -0.14266007 -0.0044769775 1.8515058e-38
0.04822981 -0.14538784 -0.014546705 1.9804358e-38
0.050123584 -0.14538784 -0.014546705 1.9434499e-38
0.052017357 -0.14538784 -0.014546705 1.8972802e-38
0.053911131 -0.14538784 -0.014546705 1.5469371e-38
0.056275751 -0.14727734 -0.021521879 1.4639256e-38
0.058181752 -0.14727734 -0.021521879 1.4363035e-38
0.060087752 -0.14727734 -0.021521879 1.2428014e-38
0.061993759 -0.14727734 -0.021521879 1.7132878e-38
0.063899755 -0.14727734 -0.021521879 2.1745187e-38
0.066029459 -0.14807184 -0.024454786 2.350267e-38
0.067940593 -0.14807184 -0.024454786 2.3226448e-38
0.069851741 -0.14807184 -0.024454786 1.6222464e-38
0.072090179 -0.1491593 -0.028469158 1.3458401e-38
0.074265689 -0.1499963 -0.031558946 4.2384696e-39
0.080036491 -0.1499963 -0.031558946 1.4562565e-38
0.081960097 -0.1499963 -0.031558946 8.9400768e-39
-0.073332399 -0.14918335 -0.021521879 1.2262005e-38
-0.071426407 -0.14918335 -0.021521879 1.2078332e-38
-0.069374129 -0.14835624 -0.018488241 1.3645305e-38
-0.067290306 -0.1472816 -0.014546705 2.0560696e-38
-0.065396532 -0.1472816 -0.014546705 1.9453994e-38
-0.063502759 -0.1472816 -0.014546705 1.1801757e-38
-0.061485589 -0.14646508 -0.01155181 1.1064192e-38
-0.059317961 -0.14453618 -0.0044769775 1.7517886e-38
-0.057065066 -0.14181106 0.0055181254 2.0467427e-38
-0.054991756 -0.14018236 0.011491941 2.3048905e-38
-0.053005014 -0.1390769 0.015546488 2.3509883e-38
-0.051068671 -0.13827558 0.018485593 2.3509883e-38
-0.049232814 -0.13827558 0.018485593 2.3508801e-38
-0.047396958 -0.13827558 0.018485593 1.8344753e-38
-0.045478743 -0.13744931 0.021516131 1.8249652e-38
-0.043648198 -0.13744931 0.021516131 1.8433327e-38
-0.041889392 -0.13827558 0.018485593 1.6129545e-38
-0.040117949 -0.1390769 0.015546488 1.5117572e-38
-0.038358696 -0.14018236 0.011491941 1.4289974e-38
-0.036510576 -0.14018236 0.011491941 1.1801408e-38
-0.034662459 -0.14018236 0.011491941 1.0143314e-38
-0.032814339 -0.14018236 0.011491941 9.9574769e-39
-0.030966222 -0.14018236 0.011491941 9.21847e-39
-0.029152051 -0.14099441 0.0085134972 7.0968803e-39
-0.027269986 -0.14018236 0.011491941 1.244385e-38
-0.025421869 -0.14018236 0.011491941 2.3414403e-38
-0.023573751 -0.14018236 0.011491941 2.3509116e-38
-0.021725632 -0.14018236 0.011491941 2.3509488e-38
-0.019885348 -0.14099441 0.0085134972 2.3045294e-38
-0.018029395 -0.14018236 0.011491941 2.35088e-38
-0.016181279 -0.14018236 0.011491941 2.3509142e-38
-0.014333161 -0.14018236 0.011491941 2.3509495e-38
-0.012471987 -0.14099441 0.0085134972 2.3509859e-38
-0.010618648 -0.14099441 0.0085134972 2.3509866e-38
-0.0087888073 -0.14018236 0.011491941 2.2773021e-38
-0.0069406885 -0.14018236 0.011491941 1.13404e-38
-0.0050925701 -0.14018236 0.011491941 4.7001484e-39
-0.0032444526 -0.14018236 0.011491941 8.201053e-39
-0.0013963343 -0.14018236 0.011491941 1.5573813e-38
0.00045178412 -0.14018236 0.011491941 1.9997036e-38
0.0022999006 -0.14018236 0.011491941 2.0733159e-38
0.0043292115 -0.14263238 0.0025057066 2.0640967e-38
0.006193086 -0.14263238 0.0025057066 1.6217384e-38
0.008056961 -0.14263238 0.0025057066 1.5612034e-39
0.0099208336 -0.14263238 0.0025057066 2.5767749e-39
0.011784708 -0.14263238 0.0025057066 1.4722378e-39
0.013648583 -0.14263238 0.0025057066 3.4072488e-39
0.015512455 -0.14263238 0.0025057066 3.6849147e-39
0.01737633 -0.14263238 0.0025057066 5.0674974e-39
0.019240204 -0.14263238 0.0025057066 4.141951e-39
0.021104079 -0.14263238 0.0025057066 6.62368e-39
0.02296795 -0.14263238 0.0025057066 7.9086581e-39
0.024991333 -0.14373477 -0.0015376341 9.5627704e-39
0.026862297 -0.14373477 -0.0015376341 1.1037162e-38
0.028733261 -0.14373477 -0.0015376341 1.0947463e-38
0.030604225 -0.14373477 -0.0015376341 9.2897344e-39
0.032475188 -0.14373477 -0.0015376341 1.2793159e-38
0.034346152 -0.14373477 -0.0015376341 1.7402944e-38
0.036217116 -0.14373477 -0.0015376341 1.9431622e-38
0.038240109 -0.14453618 -0.0044769775 1.5377912e-38
0.040116228 -0.14453618 -0.0044769775 9.2065758e-39
0.041992344 -0.14453618 -0.0044769775 2.0203809e-39
0.04386846 -0.14453618 -0.0044769775 5.6112923e-39
0.045744579 -0.14453618 -0.0044769775 7.5452313e-39
0.04822981 -0.1472816 -0.014546705 8.9274455e-39
0.050123584 -0.1472816 -0.014546705 1.2706029e-38
0.052017357 -0.1472816 -0.014546705 1.4456306e-38
0.053911131 -0.1472816 -0.014546705 1.2058141e-38
0.056070972 -0.14835624 -0.018488241 1.270351e-38
0.057971653 -0.14835624 -0.018488241 1.3718744e-38
0.060087752 -0.14918335 -0.021521879 1.3442523e-38
0.061993759 -0.14918335 -0.021521879 1.6671176e-38
0.063899755 -0.14918335 -0.021521879 2.0177856e-38
0.066029459 -0.14998297 -0.024454786 2.2485633e-38
0.067940593 -0.14998297 -0.024454786 2.1290338e-38
0.069851741 -0.14998297 -0.024454786 1.4747334e-38
-0.067290306 -0.14917539 -0.014546705 2.1391177e-38
-0.065396532 -0.14917539 -0.014546705 2.0838007e-38
-0.063502759 -0.14917539 -0.014546705 1.3093575e-38
-0.061485589 -0.14835359 -0.01155181 1.1895031e-38
-0.059439063 -0.14725454 -0.0075464975 1.6597008e-38
-0.057065066 -0.14366965 0.0055181254 1.7702277e-38
-0.054991756 -0.14203046 0.011491941 2.1942557e-38
-0.052904524 -0.14011143 0.018485593 2.3509883e-38
-0.051068671 -0.14011143 0.018485593 2.3509523e-38
-0.049139827 -0.13927986 0.021516131 2.2955267e-38
-0.047309287 -0.13927986 0.021516131 1.1428996e-38
-0.045478743 -0.13927986 0.021516131 1.0225737e-38
-0.043648198 -0.13927986 0.021516131 1.2990168e-38
-0.041817658 -0.13927986 0.021516131 1.1425396e-38
-0.040117949 -0.14091791 0.015546488 9.7676949e-39
-0.038276941 -0.14091791 0.015546488 8.3883632e-39
-0.036510576 -0.14203046 0.011491941 5.9927159e-39
-0.034662459 -0.14203046 0.011491941 4.7952405e-39
-0.032814339 -0.14203046 0.011491941 4.7948734e-39
-0.030966222 -0.14203046 0.011491941 3.2257456e-39
-0.029152051 -0.14284773 0.0085134972 1.2878493e-39
-0.027269986 -0.14203046 0.011491941 4.882718e-39
-0.025421869 -0.14203046 0.011491941 2.1292447e-38
-0.023573751 -0.14203046 0.011491941 2.3509818e-38
-0.021725632 -0.14203046 0.011491941 2.3509828e-38
-0.019885348 -0.14284773 0.0085134972 2.3508777e-38
-0.018029395 -0.14203046 0.011491941 2.3508783e-38
-0.016181279 -0.14203046 0.011491941 2.3509123e-38
-0.014333161 -0.14203046 0.011491941 2.3506956e-38
-0.012471987 -0.14284773 0.0085134972 2.2677919e-38
-0.010618648 -0.14284773 0.0085134972 2.3509845e-38
-0.0087653063 -0.14284773 0.0085134972 2.3509856e-38
-0.0069119665 -0.14284773 0.0085134972 1.1341105e-38
-0.0050925701 -0.14203046 0.011491941 3.3175615e-39
-0.0032444526 -0.14203046 0.011491941 5.4355358e-39
-0.0013519456 -0.14284773 0.0085134972 1.5757475e-38
0.00045178412 -0.14203046 0.011491941 1.6677269e-38
0.0022999006 -0.14203046 0.011491941 1.7229004e-38
0.0042080744 -0.14284773 0.0085134972 1.3726294e-38
0.0061270646 -0.14366965 0.0055181254 1.1791639e-38
0.0079856571 -0.14366965 0.0055181254 2.1140101e-39
0.0098442491 -0.14366965 0.0055181254 1.3793261e-39
0.011702841 -0.14366965 0.0055181254 1.8410161e-39
0.013648583 -0.14449625 0.0025057066 1.2860557e-39
0.015512455 -0.14449625 0.0025057066 1.931774e-39
0.01737633 -0.14449625 0.0025057066 4.1477019e-39
0.019240204 -0.14449625 0.0025057066 3.8686025e-39
0.021104079 -0.14449625 0.0025057066 6.3506916e-39
0.02296795 -0.14449625 0.0025057066 8.7412956e-39
0.024991333 -0.14560573 -0.0015376341 1.0210298e-38
0.026862297 -0.14560573 -0.0015376341 9.6549464e-39
0.028733261 -0.14560573 -0.0015376341 1.0763072e-38
0.030604225 -0.14560573 -0.0015376341 7.6295208e-39
0.032475188 -0.14560573 -0.0015376341 8.2734455e-39
0.034346152 -0.14560573 -0.0015376341 1.1776853e-38
0.036217116 -0.14560573 -0.0015376341 1.8139088e-38
0.038240109 -0.1464123 -0.0044769775 1.7867194e-38
0.040116228 -0.1464123 -0.0044769775 1.0315444e-38
0.041992344 -0.1464123 -0.0044769775 1.5612034e-39
0.04386846 -0.1464123 -0.0044769775 1.8367099e-39
0.045744579 -0.1464123 -0.0044769775 3.032365e-39
0.04822981 -0.14917539 -0.014546705 5.9811622e-39
0.050123584 -0.14917539 -0.014546705 1.3170979e-38
0.052017357 -0.14917539 -0.014546705 1.3169182e-38
0.053911131 -0.14917539 -0.014546705 8.09698e-39
-0.059439063 -0.14913605 -0.0075464975 1.5767248e-38
-0.057441849 -0.14828841 -0.0044769775 1.6688125e-38
-0.054991756 -0.14387859 0.011491941 2.1205711e-38
-0.052904524 -0.14194728 0.018485593 2.3509883e-38
-0.050970368 -0.14111041 0.021516131 2.2956349e-38
-0.049139827 -0.14111041 0.021516131 2.3508801e-38
-0.047309287 -0.14111041 0.021516131 8.2932627e-39
-0.045396857 -0.14027832 0.024529265 8.3792996e-39
-0.043571599 -0.14027832 0.024529265 1.5476202e-38
-0.041817658 -0.14111041 0.021516131 1.4833746e-38
-0.040053535 -0.14194728 0.018485593 9.7658844e-39
-0.038217679 -0.14194728 0.018485593 6.5426387e-39
-0.036381826 -0.14194728 0.018485593 4.8863516e-39
-0.034594923 -0.14275892 0.015546488 4.426444e-39
-0.032753915 -0.14275892 0.015546488 3.8729073e-39
-0.030966222 -0.14387859 0.011491941 6.2671196e-39
-0.029118106 -0.14387859 0.011491941 5.0667701e-39
-0.027269986 -0.14387859 0.011491941 3.4979997e-39
-0.025421869 -0.14387859 0.011491941 1.6404635e-38
-0.023573751 -0.14387859 0.011491941 2.2581729e-38
-0.021725632 -0.14387859 0.011491941 2.350585e-38
-0.019877514 -0.14387859 0.011491941 2.3508396e-38
-0.018025842 -0.14275892 0.015546488 2.3505158e-38
-0.016184833 -0.14275892 0.015546488 2.0921861e-38
-0.014333161 -0.14387859 0.011491941 1.7235472e-38
-0.012485042 -0.14387859 0.011491941 1.4840914e-38
-0.010618648 -0.14470108 0.0085134972 1.5672482e-38
-0.0087653063 -0.14470108 0.0085134972 1.8993691e-38
-0.0069119665 -0.14470108 0.0085134972 1.0880476e-38
-0.0050586262 -0.14470108 0.0085134972 3.2257218e-39
-0.0032052859 -0.14470108 0.0085134972 1.1031022e-39
-0.0013519456 -0.14470108 0.0085134972 1.1239886e-38
0.00045178412 -0.14387859 0.011491941 1.2805409e-38
0.0022999006 -0.14387859 0.011491941 1.2066049e-38
0.0042080744 -0.14470108 0.0085134972 1.1052624e-38
0.0061270646 -0.14552824 0.0055181254 1.0593821e-38
0.0079856571 -0.14552824 0.0055181254 1.5612034e-39
0.0098442491 -0.14552824 0.0055181254 1.2871347e-39
0.011702841 -0.14552824 0.0055181254 1.563723e-39
0.013648583 -0.14636014 0.0025057066 3.1278033e-39
0.015512455 -0.14636014 0.0025057066 2.9441281e-39
0.01737633 -0.14636014 0.0025057066 2.3048739e-39
0.019240204 -0.14636014 0.0025057066 9.2194229e-41
0.02124941 -0.14747669 -0.0015376341 2.2987573e-39
0.023120373 -0.14747669 -0.0015376341 4.7826331e-39
0.024991333 -0.14747669 -0.0015376341 7.1725126e-39
0.026862297 -0.14747669 -0.0015376341 8.0922968e-39
0.028733261 -0.14747669 -0.0015376341 8.8305667e-39
0.030604225 -0.14747669 -0.0015376341 9.936187e-39
0.032475188 -0.14747669 -0.0015376341 1.0118057e-38
0.034346152 -0.14747669 -0.0015376341 7.9039511e-39
0.036217116 -0.14747669 -0.0015376341 1.2975418e-38
0.038088076 -0.14747669 -0.0015376341 1.6851965e-38
0.03995904 -0.14747669 -0.0015376341 1.1145924e-38
0.041830003 -0.14747669 -0.0015376341 2.299116e-39
0.04386846 -0.14828841 -0.0044769775 1.2856969e-39
0.045744579 -0.14828841 -0.0044769775 2.2983985e-39
-0.057065066 -0.14738683 0.0055181254 1.6412617e-38
-0.055098813 -0.14655443 0.0085134972 1.9822776e-38
-0.052904524 -0.14378314 0.018485593 2.2680122e-38
-0.050970368 -0.14294095 0.021516131 2.3509883e-38
-0.049139827 -0.14294095 0.021516131 2.3509521e-38
-0.047309287 -0.14294095 0.021516131 7.4631419e-39
-0.045396857 -0.1421036 0.024529265 6.1644577e-39
-0.043571599 -0.1421036 0.024529265 1.528893e-38
-0.041817658 -0.14294095 0.021516131 1.5199643e-38
-0.040053535 -0.14378314 0.018485593 9.2112575e-39
-0.038217679 -0.14378314 0.018485593 6.2656665e-39
-0.036381826 -0.14378314 0.018485593 5.7164457e-39
-0.034594923 -0.14459993 0.015546488 5.9019146e-39
-0.032753915 -0.14459993 0.015546488 5.4405819e-39
-0.030912906 -0.14459993 0.015546488 3.5012507e-39
-0.029118106 -0.1457267 0.011491941 6.0798515e-39
-0.027269986 -0.1457267 0.011491941 5.2489922e-39
-0.025421869 -0.1457267 0.011491941 1.4005755e-38
-0.023548869 -0.14459993 0.015546488 2.055234e-38
-0.021707859 -0.14459993 0.015546488 2.2764669e-38
-0.019877514 -0.1457267 0.011491941 2.2948356e-38
-0.018025842 -0.14459993 0.015546488 2.3317501e-38
-0.016184833 -0.14459993 0.015546488 1.9907331e-38
-0.014333161 -0.1457267 0.011491941 1.5023839e-38
-0.012485042 -0.1457267 0.011491941 1.3366487e-38
-0.010618648 -0.14655443 0.0085134972 1.4198057e-38
-0.0087653063 -0.14655443 0.0085134972 1.7611464e-38
-0.0069119665 -0.14655443 0.0085134972 1.1618393e-38
-0.0050586262 -0.14655443 0.0085134972 5.6231557e-39
-0.0032052859 -0.14655443 0.0085134972 1.2874906e-39
-0.0013519456 -0.14655443 0.0085134972 7.3680273e-39
0.00045178412 -0.1457267 0.011491941 1.2621017e-38
0.0022999006 -0.1457267 0.011491941 1.1328485e-38
0.0042080744 -0.14655443 0.0085134972 1.1790555e-38
0.0060614157 -0.14655443 0.0085134972 9.8566241e-39
0.0079147555 -0.14655443 0.0085134972 1.0101905e-39
0.0098442491 -0.14738683 0.0055181254 7.3505391e-40
0.011702841 -0.14738683 0.0055181254 8.2653348e-40
0.013561433 -0.14738683 0.0055181254 1.8367197e-39
0.015512455 -0.14822401 0.0025057066 7.1819083e-39
0.01737633 -0.14822401 0.0025057066 6.3611313e-39
0.019240204 -0.14822401 0.0025057066 2.7981128e-40
0.021104079 -0.14822401 0.0025057066 1.3825547e-39
0.02296795 -0.14822401 0.0025057066 2.0239682e-39
0.024831824 -0.14822401 0.0025057066 3.2171122e-39
0.026695698 -0.14822401 0.0025057066 6.6247198e-39
0.028559573 -0.14822401 0.0025057066 8.284597e-39
0.030604225 -0.14934768 -0.0015376341 1.1323813e-38
0.032475188 -0.14934768 -0.0015376341 1.2241097e-38
0.034346152 -0.14934768 -0.0015376341 5.5101298e-39
0.036217116 -0.14934768 -0.0015376341 7.2585915e-39
0.038088076 -0.14934768 -0.0015376341 1.3992828e-38
0.03995904 -0.14934768 -0.0015376341 1.1053362e-38
0.041830003 -0.14934768 -0.0015376341 1.102026e-39
0.043700967 -0.14934768 -0.0015376341 5.5101298e-40
-0.057065066 -0.14924543 0.0055181254 1.6320784e-38
-0.055098813 -0.14840777 0.0085134972 1.8072139e-38
-0.052904524 -0.14561899 0.018485593 2.1389383e-38
-0.050872635 -0.14392884 0.024529265 2.350988e-38
-0.049047373 -0.14392884 0.024529265 2.3509158e-38
-0.047222115 -0.14392884 0.024529265 5.9880118e-39
-0.045315441 -0.14309107 0.027524995 5.5198155e-39
-0.043495435 -0.14309107 0.027524995 1.3170238e-38
-0.041746337 -0.14392884 0.024529265 1.2158985e-38
-0.039987117 -0.1447715 0.021516131 6.7226887e-39
-0.038156573 -0.1447715 0.021516131 3.8696563e-39
-0.036326028 -0.1447715 0.021516131 2.7661856e-39
-0.034545965 -0.14561899 0.018485593 2.2148139e-39
-0.032753915 -0.14644094 0.015546488 2.0293492e-39
-0.030912906 -0.14644094 0.015546488 5.3462451e-39
-0.029071897 -0.14644094 0.015546488 9.6762027e-39
-0.027230887 -0.14644094 0.015546488 9.6740251e-39
-0.025389878 -0.14644094 0.015546488 1.3452584e-38
-0.023548869 -0.14644094 0.015546488 1.7600638e-38
-0.021707859 -0.14644094 0.015546488 1.8153442e-38
-0.01986685 -0.14644094 0.015546488 1.7783582e-38
-0.018025842 -0.14644094 0.015546488 2.1563603e-38
-0.016184833 -0.14644094 0.015546488 1.9998073e-38
-0.014333161 -0.14757483 0.011491941 1.5759234e-38
-0.012485042 -0.14757483 0.011491941 1.6775918e-38
-0.010618648 -0.14840777 0.0085134972 1.8252501e-38
-0.0087653063 -0.14840777 0.0085134972 1.889968e-38
-0.0069119665 -0.14840777 0.0085134972 1.0602802e-38
-0.0050244885 -0.14924543 0.0055181254 4.7004833e-39
-0.0031658965 -0.14924543 0.0055181254 1.0105492e-39
-0.0013073054 -0.14924543 0.0055181254 4.3266716e-39
0.00050139381 -0.14840777 0.0085134972 9.5796519e-39
0.0022999006 -0.14757483 0.011491941 1.0223949e-38
0.004148019 -0.14757483 0.011491941 6.1684304e-39
0.0060614157 -0.14840777 0.0085134972 5.2482887e-39
0.0079147555 -0.14840777 0.0085134972 2.4853149e-39
0.0097680967 -0.14840777 0.0085134972 2.7551209e-40
0.011621436 -0.14840777 0.0085134972 6.4285828e-40
0.013474777 -0.14840777 0.0085134972 3.3071821e-39
0.015420023 -0.14924543 0.0055181254 1.4093706e-38
0.017278615 -0.14924543 0.0055181254 1.1889272e-38
0.019137207 -0.14924543 0.0055181254 2.7694142e-40
0.020995799 -0.14924543 0.0055181254 3.6805945e-40
0.022854391 -0.14924543 0.0055181254 2.7622395e-39
-0.058173671 -0.14575411 0.024529265 1.4385402e-38
-0.052904524 -0.14745484 0.018485593 1.9084849e-38
-0.050872635 -0.14575411 0.024529265 2.3509876e-38
-0.049047373 -0.14575411 0.024529265 2.3509514e-38
-0.047222115 -0.14575411 0.024529265 4.6054403e-39
-0.045315441 -0.14491107 0.027524995 2.0218158e-39
-0.043495435 -0.14491107 0.027524995 1.0871844e-38
-0.041746337 -0.14575411 0.024529265 1.115024e-38
-0.039987117 -0.14660202 0.021516131 4.6068738e-39
-0.038095817 -0.14575411 0.024529265 3.4108501e-39
-0.036270559 -0.14575411 0.024529265 1.1074069e-39
-0.034495488 -0.14660202 0.021516131 4.6348227e-40
-0.032664947 -0.14660202 0.021516131 4.6240607e-40
-0.030912906 -0.14828195 0.015546488 3.2268302e-39
-0.029038399 -0.14745484 0.018485593 1.1245684e-38
-0.027202543 -0.14745484 0.018485593 1.4285244e-38
-0.025389878 -0.14828195 0.015546488 1.2716098e-38
-0.023548869 -0.14828195 0.015546488 1.704711e-38
-0.021707859 -0.14828195 0.015546488 1.759811e-38
-0.01986685 -0.14828195 0.015546488 1.8887759e-38
-0.018025842 -0.14828195 0.015546488 2.2206799e-38
-0.016184833 -0.14828195 0.015546488 2.2853614e-38
-0.014333161 -0.14942293 0.011491941 1.8061248e-38
-0.012485042 -0.14942293 0.011491941 1.7877949e-38
0.0022999006 -0.14942293 0.011491941 8.84427e-39
0.004148019 -0.14942293 0.011491941 8.3836576e-39
-0.058173671 -0.14757936 0.024529265 1.6229316e-38
-0.05634841 -0.14757936 0.024529265 1.6044923e-38
-0.052800912 -0.14843257 0.021516131 1.79785e-38
-0.050872635 -0.14757936 0.024529265 2.3508793e-38
-0.048955455 -0.14673109 0.027524995 2.3506992e-38
-0.04713545 -0.14673109 0.027524995 3.684207e-39
-0.045208577 -0.14561762 0.03145723 1.102026e-39
-0.043395467 -0.14561762 0.03145723 7.1872696e-39
-0.041675426 -0.14673109 0.027524995 6.2667553e-39
-0.039921075 -0.14757936 0.024529265 1.7506141e-39
-0.038095817 -0.14757936 0.024529265 1.7524176e-39
-0.036270559 -0.14757936 0.024529265 1.476551e-39
-0.034445301 -0.14757936 0.024529265 8.3190746e-40
-0.032620043 -0.14757936 0.024529265 1.793662e-42
-0.030874256 -0.14929073 0.018485593 1.1070524e-39
-0.029038399 -0.14929073 0.018485593 9.0340703e-39
-0.02717332 -0.14843257 0.021516131 1.1520098e-38
-0.025342777 -0.14843257 0.021516131 1.0227182e-38
-0.058173671 -0.14940463 0.024529265 1.7888836e-38
-0.05634841 -0.14940463 0.024529265 1.6598453e-38
