# .PCD v0.7 - Point Cloud Data file format
VERSION 0.7
FIELDS x y z rgb
SIZE 4 4 4 4
TYPE F F F F
COUNT 1 1 1 1
WIDTH 932
HEIGHT 1
VIEWPOINT 0 0 0 1 0 0 0
POINTS 932
DATA ascii
-0.011527661 -0.1268961 -0.015170492 1.5117187e-38
-0.0097736716 -0.12585752 -0.011127152 1.566746e-38
-0.007909799 -0.12585752 -0.011127152 1.7140781e-38
-0.0061436389 -0.12508373 -0.0081147328 1.668016e-38
-0.0042850468 -0.12508373 -0.0081147328 1.668016e-38
-0.0024264548 -0.12508373 -0.0081147328 1.5942955e-38
0.015999286 -0.12431435 -0.005119361 8.1116852e-39
0.017852625 -0.12431435 -0.005119361 9.0336415e-39
0.019705964 -0.12431435 -0.005119361 1.1059087e-38
0.021559307 -0.12431435 -0.005119361 1.2625705e-38
0.047258019 -0.1235493 -0.0021409169 6.8184731e-39
0.049106136 -0.1235493 -0.0021409169 4.7012218e-39
0.050954252 -0.1235493 -0.0021409169 9.0362255e-39
0.05306609 -0.12431435 -0.005119361 1.5858716e-38
0.054919422 -0.12431435 -0.005119361 2.3234379e-38
0.05732578 -0.12585752 -0.011127152 2.3050708e-38
0.059189662 -0.12585752 -0.011127152 1.8257989e-38
0.061053529 -0.12585752 -0.011127152 1.4478329e-38
-0.024475159 -0.13135691 -0.025184669 2.2672184e-38
-0.022704482 -0.12952723 -0.018109836 2.3507707e-38
-0.020882478 -0.12876706 -0.015170492 2.350807e-38
-0.019011514 -0.12876706 -0.015170492 2.3508071e-38
-0.017140551 -0.12876706 -0.015170492 2.3508435e-38
-0.015269589 -0.12876706 -0.015170492 2.3508077e-38
-0.013398625 -0.12876706 -0.015170492 2.3508442e-38
-0.011637546 -0.12772138 -0.011127152 1.7420281e-38
-0.0098608211 -0.12694232 -0.0081147328 1.7694695e-38
-0.0080022309 -0.12694232 -0.0081147328 1.9814824e-38
-0.0061436389 -0.12694232 -0.0081147328 1.9998495e-38
-0.0042850468 -0.12694232 -0.0081147328 2.0552388e-38
-0.0024264548 -0.12694232 -0.0081147328 1.9446042e-38
-0.00068077631 -0.12616767 -0.005119361 1.7971635e-38
0.0011725631 -0.12616767 -0.005119361 1.6312116e-38
0.012292607 -0.12616767 -0.005119361 1.2997342e-38
0.014145946 -0.12616767 -0.005119361 1.3827802e-38
0.015999286 -0.12616767 -0.005119361 1.2538485e-38
0.017852625 -0.12616767 -0.005119361 1.3274257e-38
0.019705964 -0.12616767 -0.005119361 1.5114601e-38
0.021559307 -0.12616767 -0.005119361 1.71422e-38
0.023232481 -0.1253974 -0.0021409169 1.5852541e-38
0.025080597 -0.1253974 -0.0021409169 1.2903718e-38
0.026928714 -0.1253974 -0.0021409169 1.2074681e-38
0.028776838 -0.1253974 -0.0021409169 1.244346e-38
0.030351257 -0.12434883 0.0019136295 1.2903718e-38
0.032192267 -0.12434883 0.0019136295 1.3732041e-38
0.034033276 -0.12434883 0.0019136295 1.5481243e-38
0.035874285 -0.12434883 0.0019136295 1.4742959e-38
0.047258019 -0.1253974 -0.0021409169 1.1058379e-38
0.049106136 -0.1253974 -0.0021409169 8.7571065e-39
0.050954252 -0.1253974 -0.0021409169 2.0652159e-38
0.052802369 -0.1253974 -0.0021409169 2.2588278e-38
0.054919422 -0.12616767 -0.005119361 2.341805e-38
0.0570485 -0.12694232 -0.0081147328 2.3142544e-38
0.059189662 -0.12772138 -0.011127152 2.2867037e-38
0.061053529 -0.12772138 -0.011127152 2.1207891e-38
0.063310862 -0.12876706 -0.015170492 8.3937722e-39
-0.060357064 -0.13324542 -0.025184669 1.6411887e-38
-0.058468543 -0.13324542 -0.025184669 1.7702266e-38
-0.022753442 -0.13063805 -0.015170492 2.3506619e-38
-0.020882478 -0.13063805 -0.015170492 2.3508783e-38
-0.019093042 -0.12958528 -0.011127152 2.3505903e-38
-0.017229168 -0.12958528 -0.011127152 2.350879e-38
-0.015365293 -0.12958528 -0.011127152 2.3508793e-38
-0.013501421 -0.12958528 -0.011127152 2.3506996e-38
-0.011719413 -0.12880091 -0.0081147328 1.7789064e-38
-0.0099474769 -0.12802102 -0.005119361 1.8709214e-38
-0.0080941375 -0.12802102 -0.005119361 2.0368371e-38
-0.0062407982 -0.12802102 -0.005119361 1.9722278e-38
-0.0043874588 -0.12802102 -0.005119361 1.9538607e-38
-0.0025341157 -0.12802102 -0.005119361 1.7879442e-38
-0.00068077631 -0.12802102 -0.005119361 1.7050397e-38
0.0010550637 -0.12724553 -0.0021409169 1.6866006e-38
0.0029031839 -0.12724553 -0.0021409169 1.889467e-38
0.0047513004 -0.12724553 -0.0021409169 1.8987221e-38
0.006599417 -0.12724553 -0.0021409169 1.7327696e-38
0.0082591493 -0.12618984 0.0019136295 1.6775227e-38
0.010100158 -0.12618984 0.0019136295 1.5209685e-38
0.011941167 -0.12618984 0.0019136295 1.4104041e-38
0.013782175 -0.12618984 0.0019136295 1.3735961e-38
0.015840007 -0.12724553 -0.0021409169 1.1984946e-38
0.017688127 -0.12724553 -0.0021409169 1.3273536e-38
0.019536244 -0.12724553 -0.0021409169 1.5206434e-38
0.021384364 -0.12724553 -0.0021409169 1.6956367e-38
0.023232481 -0.12724553 -0.0021409169 1.5944013e-38
0.025080597 -0.12724553 -0.0021409169 1.3639843e-38
0.02666924 -0.12618984 0.0019136295 1.2718608e-38
0.028510248 -0.12618984 0.0019136295 1.2718605e-38
0.030351257 -0.12618984 0.0019136295 1.4100821e-38
0.032192267 -0.12618984 0.0019136295 1.6865251e-38
0.034033276 -0.12618984 0.0019136295 1.7693572e-38
0.035874285 -0.12618984 0.0019136295 1.7968361e-38
0.037496284 -0.12542458 0.0048527345 1.759814e-38
0.039332137 -0.12542458 0.0048527345 1.7229357e-38
0.041167997 -0.12542458 0.0048527345 1.6216281e-38
0.043238312 -0.12618984 0.0019136295 1.6309916e-38
0.045079321 -0.12618984 0.0019136295 1.6310635e-38
0.046920329 -0.12618984 0.0019136295 1.2533146e-38
0.048761353 -0.12618984 0.0019136295 1.0600303e-38
0.050602362 -0.12618984 0.0019136295 2.3509867e-38
0.052802369 -0.12724553 -0.0021409169 2.3418039e-38
0.054650486 -0.12724553 -0.0021409169 2.2957431e-38
0.0570485 -0.12880091 -0.0081147328 2.3049991e-38
0.058907092 -0.12880091 -0.0081147328 2.3142544e-38
0.061053529 -0.12958528 -0.011127152 2.1852899e-38
0.063310862 -0.13063805 -0.015170492 7.6554883e-39
0.065181822 -0.13063805 -0.015170492 5.81121e-39
-0.062245585 -0.13513394 -0.025184669 2.3418043e-38
-0.060357064 -0.13513394 -0.025184669 2.3234369e-38
-0.022753442 -0.13250901 -0.015170492 1.3270736e-38
-0.020956915 -0.13144915 -0.011127152 1.3731717e-38
-0.019093042 -0.13144915 -0.011127152 1.4838068e-38
-0.017229168 -0.13144915 -0.011127152 1.4562205e-38
-0.015365293 -0.13144915 -0.011127152 1.1981091e-38
-0.013501421 -0.13144915 -0.011127152 1.0689999e-38
-0.011719413 -0.13065951 -0.0081147328 7.6475429e-39
-0.0099474769 -0.12987436 -0.005119361 1.0319778e-38
-0.0080941375 -0.12987436 -0.005119361 1.2162971e-38
-0.0062407982 -0.12987436 -0.005119361 1.1517955e-38
-0.0043874588 -0.12987436 -0.005119361 1.234843e-38
-0.0025341157 -0.12987436 -0.005119361 1.1611218e-38
-0.00068077631 -0.12987436 -0.005119361 1.1981074e-38
0.0010550637 -0.12909363 -0.0021409169 1.3087776e-38
0.0029031839 -0.12909363 -0.0021409169 1.483949e-38
0.0047513004 -0.12909363 -0.0021409169 1.4010085e-38
0.006599417 -0.12909363 -0.0021409169 1.6223498e-38
0.0082591493 -0.12803085 0.0019136295 1.8989717e-38
0.010100158 -0.12803085 0.0019136295 2.2954481e-38
0.011941167 -0.12803085 0.0019136295 2.3508367e-38
0.013782175 -0.12803085 0.0019136295 2.2586399e-38
0.015840007 -0.12909363 -0.0021409169 2.2033576e-38
0.017688127 -0.12909363 -0.0021409169 2.3509796e-38
0.019536244 -0.12909363 -0.0021409169 2.3504419e-38
0.021384364 -0.12909363 -0.0021409169 2.3504069e-38
0.023232481 -0.12909363 -0.0021409169 2.2028217e-38
0.025080597 -0.12909363 -0.0021409169 1.8065603e-38
0.02666924 -0.12803085 0.0019136295 1.3824964e-38
0.028510248 -0.12803085 0.0019136295 1.1335682e-38
0.030351257 -0.12803085 0.0019136295 1.2717537e-38
0.031988718 -0.12726043 0.0048527345 1.5850747e-38
0.03382457 -0.12726043 0.0048527345 1.6771264e-38
0.035874285 -0.12803085 0.0019136295 1.7415915e-38
0.037496284 -0.12726043 0.0048527345 1.713753e-38
0.039332137 -0.12726043 0.0048527345 1.6123378e-38
0.041167997 -0.12726043 0.0048527345 1.5294335e-38
0.043003842 -0.12726043 0.0048527345 1.6309566e-38
0.044839695 -0.12726043 0.0048527345 1.6311003e-38
0.046675563 -0.12726043 0.0048527345 1.1980338e-38
0.048761353 -0.12803085 0.0019136295 1.1522262e-38
0.050602362 -0.12803085 0.0019136295 2.2771583e-38
0.052802369 -0.12909363 -0.0021409169 2.3509518e-38
0.054650486 -0.12909363 -0.0021409169 2.3509886e-38
0.056772768 -0.12987436 -0.005119361 2.3233662e-38
0.058626115 -0.12987436 -0.005119361 2.3049991e-38
0.060479447 -0.12987436 -0.005119361 2.0929861e-38
0.062332794 -0.12987436 -0.005119361 3.0449879e-39
-0.087825343 -0.14334334 -0.049138583 1.2445669e-38
-0.085894823 -0.14334334 -0.049138583 1.0417721e-38
-0.083964303 -0.14334334 -0.049138583 9.9567399e-39
-0.081885003 -0.14230187 -0.045191802 1.1155283e-38
-0.079961404 -0.14230187 -0.045191802 1.3645643e-38
-0.076013982 -0.14148657 -0.042102017 9.4968365e-39
-0.07397262 -0.14042725 -0.038087644 8.852186e-39
-0.07177484 -0.13781275 -0.028179564 1.336942e-38
-0.069881067 -0.13781275 -0.028179564 2.0006803e-38
-0.067987293 -0.13781275 -0.028179564 2.2773037e-38
-0.066093519 -0.13781275 -0.028179564 2.3418047e-38
-0.064134113 -0.13702248 -0.025184669 2.3049621e-38
-0.062245585 -0.13702248 -0.025184669 2.2773034e-38
-0.060357064 -0.13702248 -0.025184669 2.3049621e-38
-0.058468543 -0.13702248 -0.025184669 2.3234374e-38
-0.039595656 -0.13331302 -0.011127152 3.876524e-39
-0.037731782 -0.13331302 -0.011127152 5.9973725e-39
-0.022820789 -0.13331302 -0.011127152 5.4344625e-39
-0.021012375 -0.1325181 -0.0081147328 5.895442e-39
-0.019153783 -0.1325181 -0.0081147328 9.5829113e-39
-0.017295189 -0.1325181 -0.0081147328 9.1230149e-39
-0.015436597 -0.1325181 -0.0081147328 6.1731177e-39
-0.013578005 -0.1325181 -0.0081147328 6.541903e-39
-0.011719413 -0.1325181 -0.0081147328 7.7400945e-39
-0.0099474769 -0.13172771 -0.005119361 7.3702414e-39
-0.0080941375 -0.13172771 -0.005119361 8.9375699e-39
-0.0062407982 -0.13172771 -0.005119361 7.7400945e-39
-0.0043874588 -0.13172771 -0.005119361 8.8467938e-39
-0.0025341157 -0.13172771 -0.005119361 7.6485981e-39
-0.00079305284 -0.13094176 -0.0021409169 7.0968523e-39
0.0010550637 -0.13094176 -0.0021409169 7.097204e-39
0.0029031839 -0.13094176 -0.0021409169 6.7291375e-39
0.0047513004 -0.13094176 -0.0021409169 6.9135288e-39
0.006599417 -0.13094176 -0.0021409169 1.4289182e-38
0.0082591493 -0.12987186 0.0019136295 1.8806771e-38
0.010100158 -0.12987186 0.0019136295 2.3509837e-38
0.011941167 -0.12987186 0.0019136295 2.3509841e-38
0.013782175 -0.12987186 0.0019136295 2.3509837e-38
0.015840007 -0.13094176 -0.0021409169 2.3509841e-38
0.017688127 -0.13094176 -0.0021409169 2.3509846e-38
0.019536244 -0.13094176 -0.0021409169 2.3508414e-38
0.021384364 -0.13094176 -0.0021409169 2.3508774e-38
0.023232481 -0.13094176 -0.0021409169 2.3506612e-38
0.025080597 -0.13094176 -0.0021409169 1.9817705e-38
0.02666924 -0.12987186 0.0019136295 1.3549121e-38
0.028510248 -0.12987186 0.0019136295 1.0322271e-38
0.030351257 -0.12987186 0.0019136295 1.1981074e-38
0.031778827 -0.1282966 0.0078832731 1.4837699e-38
0.03339541 -0.1275015 0.010896407 1.4836259e-38
0.035220668 -0.1275015 0.010896407 1.566458e-38
0.037045926 -0.1275015 0.010896407 1.5387272e-38
0.039100997 -0.1282966 0.0078832731 1.4926294e-38
0.040931545 -0.1282966 0.0078832731 1.4189447e-38
0.042762086 -0.1282966 0.0078832731 1.5020287e-38
0.044592619 -0.1282966 0.0078832731 1.5113919e-38
0.046675563 -0.12909628 0.0048527345 1.1243509e-38
0.0482537 -0.1282966 0.0078832731 1.1337519e-38
0.050084248 -0.1282966 0.0078832731 2.3508793e-38
0.05244337 -0.12987186 0.0019136295 2.3509879e-38
0.054284379 -0.12987186 0.0019136295 2.3509883e-38
0.056498602 -0.13094176 -0.0021409169 2.3325138e-38
0.058346719 -0.13094176 -0.0021409169 2.2772332e-38
-0.092011914 -0.14713491 -0.056144752 1.1338607e-38
-0.089933604 -0.14632986 -0.053113975 1.1800302e-38
-0.087825343 -0.14527388 -0.049138583 1.4012997e-38
-0.085894823 -0.14527388 -0.049138583 1.3920802e-38
-0.083808601 -0.14422549 -0.045191802 1.4658364e-38
-0.081885003 -0.14422549 -0.045191802 1.6687747e-38
-0.079850346 -0.14340474 -0.042102017 1.788629e-38
-0.077932164 -0.14340474 -0.042102017 1.429066e-38
-0.075883768 -0.14233841 -0.038087644 1.2354549e-38
-0.073882632 -0.14155935 -0.035154738 1.4199184e-38
-0.07177484 -0.13970654 -0.028179564 2.350987e-38
-0.069881067 -0.13970654 -0.028179564 2.350988e-38
-0.067911156 -0.13891099 -0.025184669 2.2496453e-38
-0.066022635 -0.13891099 -0.025184669 2.3418047e-38
-0.064134113 -0.13891099 -0.025184669 2.3418047e-38
-0.062245585 -0.13891099 -0.025184669 2.3418045e-38
-0.060283326 -0.13784705 -0.021179356 2.3141816e-38
-0.05840183 -0.13784705 -0.021179356 2.1944355e-38
-0.056520335 -0.13784705 -0.021179356 1.46609e-38
-0.045204997 -0.13625093 -0.015170492 2.3142544e-38
-0.043323405 -0.13517688 -0.011127152 2.1022061e-38
-0.041459531 -0.13517688 -0.011127152 6.0860018e-39
-0.039595656 -0.13517688 -0.011127152 4.9803549e-39
-0.037731782 -0.13517688 -0.011127152 7.1926758e-39
-0.026627541 -0.13358103 -0.005119361 9.3988759e-39
-0.024774199 -0.13358103 -0.005119361 1.1334264e-38
-0.022870967 -0.13437669 -0.0081147328 1.5390872e-38
-0.021067519 -0.13358103 -0.005119361 1.3454765e-38
-0.019214179 -0.13358103 -0.005119361 1.3086345e-38
-0.017360838 -0.13358103 -0.005119361 9.859501e-39
-0.015507499 -0.13358103 -0.005119361 7.2787464e-39
-0.013654158 -0.13358103 -0.005119361 7.5553361e-39
-0.011800818 -0.13358103 -0.005119361 8.108877e-39
-0.010033645 -0.13278987 -0.0021409169 7.5560774e-39
-0.0081855264 -0.13278987 -0.0021409169 8.7542632e-39
-0.0062407982 -0.13358103 -0.005119361 7.2802009e-39
-0.0043874588 -0.13358103 -0.005119361 8.7560387e-39
-0.0025341157 -0.13358103 -0.005119361 8.0195386e-39
-0.00079305284 -0.13278987 -0.0021409169 7.7443797e-39
0.0010550637 -0.13278987 -0.0021409169 7.6525358e-39
0.0029031839 -0.13278987 -0.0021409169 6.4547086e-39
0.0047513004 -0.13278987 -0.0021409169 6.4547086e-39
0.006599417 -0.13278987 -0.0021409169 1.7333799e-38
0.0082591493 -0.13171287 0.0019136295 2.0744329e-38
0.010100158 -0.13171287 0.0019136295 2.3509853e-38
0.011941167 -0.13171287 0.0019136295 2.3416586e-38
0.013782175 -0.13171287 0.0019136295 2.3509873e-38
0.015623184 -0.13171287 0.0019136295 2.3509161e-38
0.017464193 -0.13171287 0.0019136295 2.3507003e-38
0.019305201 -0.13171287 0.0019136295 2.3508797e-38
0.02114621 -0.13171287 0.0019136295 2.3508435e-38
0.022987222 -0.13171287 0.0019136295 2.3509151e-38
0.024828231 -0.13171287 0.0019136295 1.8989403e-38
0.02648115 -0.13093217 0.0048527345 1.0140062e-38
0.028317003 -0.13093217 0.0048527345 5.4380848e-39
0.030152855 -0.13093217 0.0048527345 6.0827312e-39
0.031570151 -0.12932678 0.010896407 7.5564235e-39
0.033182681 -0.12853102 0.013892137 7.2783947e-39
0.035002694 -0.12853102 0.013892137 7.8301293e-39
0.036822699 -0.12853102 0.013892137 7.8297664e-39
0.038871191 -0.12932678 0.010896407 8.0141576e-39
0.04069645 -0.12932678 0.010896407 7.3691484e-39
0.0425217 -0.12932678 0.010896407 7.6475331e-39
0.044346958 -0.12932678 0.010896407 7.7415252e-39
0.046172217 -0.12932678 0.010896407 4.7916294e-39
0.047997475 -0.12932678 0.010896407 9.9556721e-39
0.049822733 -0.12932678 0.010896407 2.3509876e-38
0.051648006 -0.12932678 0.010896407 2.3325129e-38
0.053745329 -0.13012715 0.0078832731 2.2956349e-38
0.056498602 -0.13278987 -0.0021409169 2.3509886e-38
0.058346719 -0.13278987 -0.0021409169 2.148123e-38
0.060194835 -0.13278987 -0.0021409169 1.6411189e-38
0.061362401 -0.13093217 0.0048527345 4.8874558e-39
-0.091871098 -0.14826734 -0.053113975 1.0878347e-38
-0.089933604 -0.14826734 -0.053113975 1.0324818e-38
-0.087825343 -0.14720438 -0.049138583 1.2721904e-38
-0.085732207 -0.14614908 -0.045191802 1.4843482e-38
-0.083808601 -0.14614908 -0.045191802 1.8070332e-38
-0.081768528 -0.14532293 -0.042102017 1.8439115e-38
-0.079706058 -0.14424954 -0.038087644 1.8439115e-38
-0.077794909 -0.14424954 -0.038087644 1.5120072e-38
-0.075690232 -0.1426542 -0.0321211 1.3091768e-38
-0.073668607 -0.1416003 -0.028179564 1.5488499e-38
-0.071688198 -0.14079951 -0.025184669 2.3509879e-38
-0.069799677 -0.14079951 -0.025184669 2.3509883e-38
-0.067911156 -0.14079951 -0.025184669 2.3509886e-38
-0.066022635 -0.14079951 -0.025184669 2.3509883e-38
-0.064134113 -0.14079951 -0.025184669 2.2956709e-38
-0.062245585 -0.14079951 -0.025184669 2.3418047e-38
-0.060283326 -0.13972856 -0.021179356 2.1482298e-38
-0.05840183 -0.13972856 -0.021179356 1.7149103e-38
-0.056474589 -0.13890781 -0.018109836 1.0695409e-38
-0.054598466 -0.13890781 -0.018109836 9.0358906e-39
-0.05272235 -0.13890781 -0.018109836 7.0072308e-39
-0.050846234 -0.13890781 -0.018109836 6.6384511e-39
-0.048946925 -0.13812189 -0.015170492 7.7455203e-39
-0.04705115 -0.13704078 -0.011127152 1.2078718e-38
-0.045187276 -0.13704078 -0.011127152 1.7979241e-38
-0.043323405 -0.13704078 -0.011127152 1.9454371e-38
-0.041459531 -0.13704078 -0.011127152 6.2689511e-39
-0.039598294 -0.13623528 -0.0081147328 5.252267e-39
-0.037739702 -0.13623528 -0.0081147328 7.9248543e-39
-0.030305335 -0.13623528 -0.0081147328 8.8439183e-39
-0.02848088 -0.13543437 -0.005119361 1.0133577e-38
-0.026627541 -0.13543437 -0.005119361 1.0594911e-38
-0.024774199 -0.13543437 -0.005119361 1.9905951e-38
-0.02292086 -0.13543437 -0.005119361 2.0275452e-38
-0.021122353 -0.134638 -0.0021409169 2.0459487e-38
-0.019274235 -0.134638 -0.0021409169 2.0183981e-38
-0.017426116 -0.134638 -0.0021409169 1.7602866e-38
-0.015577998 -0.134638 -0.0021409169 1.0043187e-38
-0.01372988 -0.134638 -0.0021409169 8.4769435e-39
-0.011881761 -0.134638 -0.0021409169 8.3851122e-39
-0.010150943 -0.13355388 0.0019136295 6.8188767e-39
-0.0083099324 -0.13355388 0.0019136295 7.4646062e-39
-0.0063374098 -0.134638 -0.0021409169 7.8348195e-39
-0.0044892896 -0.134638 -0.0021409169 7.5585843e-39
-0.0026411731 -0.134638 -0.0021409169 6.822087e-39
-0.00079305284 -0.134638 -0.0021409169 7.1001033e-39
0.0010550637 -0.134638 -0.0021409169 7.1933695e-39
0.0029031839 -0.134638 -0.0021409169 5.7189555e-39
0.0047513004 -0.134638 -0.0021409169 5.534567e-39
0.006599417 -0.134638 -0.0021409169 2.1115274e-38
0.0082591493 -0.13355388 0.0019136295 2.3050676e-38
0.010100158 -0.13355388 0.0019136295 2.350987e-38
0.011941167 -0.13355388 0.0019136295 2.3509886e-38
0.013782175 -0.13355388 0.0019136295 2.3509527e-38
0.01546601 -0.13276802 0.0048527345 2.2863091e-38
0.017301867 -0.13276802 0.0048527345 2.3508451e-38
0.019137723 -0.13276802 0.0048527345 2.3508809e-38
0.02097358 -0.13276802 0.0048527345 2.3231141e-38
0.022809437 -0.13276802 0.0048527345 2.3509527e-38
0.024645289 -0.13276802 0.0048527345 1.8162539e-38
0.02648115 -0.13276802 0.0048527345 8.9447712e-39
0.028317003 -0.13276802 0.0048527345 5.7179241e-39
0.029948285 -0.13195769 0.0078832731 5.4402554e-39
0.031362675 -0.13035102 0.013892137 6.2689371e-39
0.033182681 -0.13035102 0.013892137 6.3596922e-39
0.035002694 -0.13035102 0.013892137 6.6352001e-39
0.036822699 -0.13035102 0.013892137 5.2519027e-39
0.038642704 -0.13035102 0.013892137 5.6206852e-39
0.04046271 -0.13035102 0.013892137 5.3448172e-39
0.042282715 -0.13035102 0.013892137 5.9909069e-39
0.044102713 -0.13035102 0.013892137 4.0565937e-39
0.046172217 -0.13115202 0.010896407 3.8725654e-39
0.047742739 -0.13035102 0.013892137 1.0232628e-38
0.049562737 -0.13035102 0.013892137 2.2863071e-38
0.051648006 -0.13115202 0.010896407 2.350988e-38
0.053473264 -0.13115202 0.010896407 2.3509883e-38
0.055575877 -0.13195769 0.0078832731 2.2863797e-38
0.057690695 -0.13276802 0.0048527345 2.0836215e-38
0.059526548 -0.13276802 0.0048527345 1.5027535e-38
-0.089755863 -0.14913492 -0.049138583 1.1246777e-38
-0.087655813 -0.14807267 -0.045191802 1.2999217e-38
-0.085604899 -0.1472411 -0.042102017 1.5765087e-38
-0.083686709 -0.1472411 -0.042102017 2.0098282e-38
-0.081617199 -0.14616071 -0.038087644 2.0374871e-38
-0.07960064 -0.14537133 -0.035154738 2.0467067e-38
-0.077590913 -0.14455487 -0.0321211 1.8069625e-38
-0.07556238 -0.14349405 -0.028179564 1.4289604e-38
-0.073668607 -0.14349405 -0.028179564 1.4658386e-38
-0.071688198 -0.14268802 -0.025184669 2.3048189e-38
-0.069799677 -0.14268802 -0.025184669 2.3509886e-38
-0.067911156 -0.14268802 -0.025184669 2.3325494e-38
-0.066022635 -0.14268802 -0.025184669 2.3509883e-38
-0.064134113 -0.14268802 -0.025184669 2.3509883e-38
-0.062245585 -0.14268802 -0.025184669 2.231134e-38
-0.060283326 -0.14161004 -0.021179356 1.134006e-38
-0.05840183 -0.14161004 -0.021179356 7.0068651e-39
-0.056474589 -0.14078392 -0.018109836 4.3331918e-39
-0.054559819 -0.13999285 -0.015170492 4.5175831e-39
-0.052688852 -0.13999285 -0.015170492 5.1629553e-39
-0.050817892 -0.13999285 -0.015170492 4.6097815e-39
-0.048915021 -0.13890465 -0.011127152 3.1346542e-39
-0.04705115 -0.13890465 -0.011127152 3.5037997e-39
-0.045187276 -0.13890465 -0.011127152 9.6809069e-39
-0.043323405 -0.13890465 -0.011127152 1.2262386e-38
-0.041459531 -0.13890465 -0.011127152 1.2261306e-38
-0.039598294 -0.13809387 -0.0081147328 1.539307e-38
-0.037739702 -0.13809387 -0.0081147328 1.7696519e-38
-0.03588111 -0.13809387 -0.0081147328 1.8617756e-38
-0.032163925 -0.13809387 -0.0081147328 2.3506999e-38
-0.030305335 -0.13809387 -0.0081147328 2.3505195e-38
-0.02848088 -0.13728772 -0.005119361 2.3508075e-38
-0.026627541 -0.13728772 -0.005119361 2.3508075e-38
-0.024774199 -0.13728772 -0.005119361 2.3507715e-38
-0.02292086 -0.13728772 -0.005119361 2.3508075e-38
-0.021122353 -0.13648613 -0.0021409169 2.3506635e-38
-0.019274235 -0.13648613 -0.0021409169 2.3507355e-38
-0.017514978 -0.13539489 0.0019136295 2.3508797e-38
-0.015673969 -0.13539489 0.0019136295 2.2399571e-38
-0.01372988 -0.13648613 -0.0021409169 2.1477978e-38
-0.011991952 -0.13539489 0.0019136295 1.9450394e-38
-0.010150943 -0.13539489 0.0019136295 1.4932452e-38
-0.0083099324 -0.13539489 0.0019136295 1.3181814e-38
-0.0063374098 -0.13648613 -0.0021409169 1.1983627e-38
-0.0044892896 -0.13648613 -0.0021409169 1.0232625e-38
-0.0026411731 -0.13648613 -0.0021409169 9.7734416e-39
-0.00079305284 -0.13648613 -0.0021409169 1.0511721e-38
0.0010550637 -0.13648613 -0.0021409169 8.4848496e-39
0.0029031839 -0.13648613 -0.0021409169 5.7196968e-39
0.0047513004 -0.13648613 -0.0021409169 6.6416531e-39
0.006599417 -0.13648613 -0.0021409169 2.3142524e-38
0.0082591493 -0.13539489 0.0019136295 2.3142528e-38
0.0099584442 -0.13460387 0.0048527345 2.1944352e-38
0.011642864 -0.13378824 0.0078832731 2.2681212e-38
0.013473405 -0.13378824 0.0078832731 2.3417333e-38
0.015303949 -0.13378824 0.0078832731 2.3416974e-38
0.017134489 -0.13378824 0.0078832731 2.3232227e-38
0.018965034 -0.13378824 0.0078832731 2.1849659e-38
0.020795574 -0.13378824 0.0078832731 2.3233662e-38
0.022809437 -0.13460387 0.0048527345 2.3234379e-38
0.024645289 -0.13460387 0.0048527345 1.6505902e-38
0.026287204 -0.13378824 0.0078832731 6.8260793e-39
0.028117744 -0.13378824 0.0078832731 5.3516653e-39
0.029948285 -0.13378824 0.0078832731 6.3650984e-39
0.031362675 -0.13217102 0.013892137 6.2714608e-39
0.033182681 -0.13217102 0.013892137 6.8231955e-39
0.035002694 -0.13217102 0.013892137 7.0990607e-39
0.036822699 -0.13217102 0.013892137 6.4533312e-39
0.038642704 -0.13217102 0.013892137 7.0987006e-39
0.04046271 -0.13217102 0.013892137 6.2693e-39
0.042282715 -0.13217102 0.013892137 5.6257285e-39
0.044102713 -0.13217102 0.013892137 5.1665454e-39
0.045922726 -0.13217102 0.013892137 5.0732708e-39
0.047742739 -0.13217102 0.013892137 1.0141516e-38
0.049562737 -0.13217102 0.013892137 2.3324052e-38
0.051648006 -0.13297729 0.010896407 2.3509883e-38
0.053473264 -0.13297729 0.010896407 2.3417327e-38
0.055575877 -0.13378824 0.0078832731 2.2956349e-38
0.057690695 -0.13460387 0.0048527345 1.8346211e-38
0.059526548 -0.13460387 0.0048527345 1.1893239e-38
-0.089579403 -0.1499963 -0.045191802 9.9567623e-39
-0.087655813 -0.1499963 -0.045191802 1.0970914e-38
-0.085604899 -0.1491593 -0.042102017 1.4935329e-38
-0.083528347 -0.14807184 -0.038087644 1.9360719e-38
-0.081617199 -0.14807184 -0.038087644 1.9175972e-38
-0.0794916 -0.14645557 -0.0321211 1.9083777e-38
-0.077456154 -0.14538784 -0.028179564 1.8529527e-38
-0.07556238 -0.14538784 -0.028179564 1.4933897e-38
-0.073576719 -0.14457656 -0.025184669 1.5394875e-38
-0.071688198 -0.14457656 -0.025184669 2.3509168e-38
-0.069799677 -0.14457656 -0.025184669 2.3140384e-38
-0.067911156 -0.14457656 -0.025184669 2.2680125e-38
-0.066022635 -0.14457656 -0.025184669 2.3509883e-38
-0.064134113 -0.14457656 -0.025184669 2.3509883e-38
-0.062245585 -0.14457656 -0.025184669 2.2403175e-38
-0.060283326 -0.14349155 -0.021179356 6.9143093e-39
-0.05840183 -0.14349155 -0.021179356 4.5172201e-39
-0.056474589 -0.14266007 -0.018109836 4.9781983e-39
-0.054559819 -0.14186381 -0.015170492 2.1201337e-39
-0.052688852 -0.14186381 -0.015170492 2.5811119e-39
-0.050817892 -0.14186381 -0.015170492 3.041011e-39
-0.048915021 -0.14076851 -0.011127152 2.1190547e-39
-0.04705115 -0.14076851 -0.011127152 2.3034488e-39
-0.045187276 -0.14076851 -0.011127152 1.3182533e-38
-0.043323405 -0.14076851 -0.011127152 1.6870358e-38
-0.041459531 -0.14076851 -0.011127152 2.3509527e-38
-0.039598294 -0.13995247 -0.0081147328 2.2586137e-38
-0.037739702 -0.13995247 -0.0081147328 2.3508809e-38
-0.03588111 -0.13995247 -0.0081147328 2.3230788e-38
-0.034022518 -0.13995247 -0.0081147328 2.3507372e-38
-0.032163925 -0.13995247 -0.0081147328 2.3508809e-38
-0.030305335 -0.13995247 -0.0081147328 2.3508807e-38
-0.02848088 -0.13914107 -0.005119361 2.3508807e-38
-0.026627541 -0.13914107 -0.005119361 2.3507363e-38
-0.024774199 -0.13914107 -0.005119361 2.3508802e-38
-0.02292086 -0.13914107 -0.005119361 2.3509163e-38
-0.021122353 -0.13833423 -0.0021409169 2.3508444e-38
-0.019355988 -0.13723589 0.0019136295 2.3416971e-38
-0.017514978 -0.13723589 0.0019136295 2.3141106e-38
-0.015673969 -0.13723589 0.0019136295 2.341805e-38
-0.01383296 -0.13723589 0.0019136295 2.3142544e-38
-0.011991952 -0.13723589 0.0019136295 2.1942923e-38
-0.010235971 -0.13643973 0.0048527345 2.2032595e-38
-0.0084001143 -0.13643973 0.0048527345 2.037235e-38
-0.0064689238 -0.13723589 0.0019136295 1.945112e-38
-0.0044892896 -0.13833423 -0.0021409169 1.6501223e-38
-0.0026411731 -0.13833423 -0.0021409169 1.4658752e-38
-0.00079305284 -0.13833423 -0.0021409169 1.4751667e-38
0.0010550637 -0.13833423 -0.0021409169 1.1895041e-38
0.0029031839 -0.13833423 -0.0021409169 9.6837809e-39
0.0047513004 -0.13833423 -0.0021409169 9.7759738e-39
0.006286731 -0.13643973 0.0048527345 2.295887e-38
0.0081225876 -0.13643973 0.0048527345 2.295887e-38
0.0098123197 -0.13561879 0.0078832731 2.295887e-38
0.011642864 -0.13561879 0.0078832731 2.3142544e-38
0.013473405 -0.13561879 0.0078832731 2.1943647e-38
0.015303949 -0.13561879 0.0078832731 2.3049991e-38
0.017134489 -0.13561879 0.0078832731 2.3234379e-38
0.018965034 -0.13561879 0.0078832731 2.3234379e-38
0.020795574 -0.13561879 0.0078832731 2.2958873e-38
0.022626115 -0.13561879 0.0078832731 2.2591529e-38
0.024456663 -0.13561879 0.0078832731 1.7522567e-38
0.026094368 -0.13480256 0.010896407 7.1048214e-39
0.027919633 -0.13480256 0.010896407 3.7861347e-39
0.029744891 -0.13480256 0.010896407 5.1683503e-39
0.031362675 -0.13399105 0.013892137 6.2739748e-39
0.033182681 -0.13399105 0.013892137 5.9959501e-39
0.035002694 -0.13399105 0.013892137 6.5476848e-39
0.036822699 -0.13399105 0.013892137 5.994511e-39
0.038642704 -0.13399105 0.013892137 5.9023126e-39
0.04046271 -0.13399105 0.013892137 5.6275235e-39
0.041969016 -0.13292582 0.017824374 5.2591012e-39
0.04378213 -0.13292582 0.017824374 5.260899e-39
0.045922726 -0.13399105 0.013892137 1.5712788e-39
0.047742739 -0.13399105 0.013892137 1.1064194e-38
0.049562737 -0.13399105 0.013892137 2.3509527e-38
0.05138275 -0.13399105 0.013892137 2.3509167e-38
0.053473264 -0.13480256 0.010896407 2.2864153e-38
0.055298522 -0.13480256 0.010896407 2.3509883e-38
0.057406425 -0.13561879 0.0078832731 1.7701558e-38
0.059236959 -0.13561879 0.0078832731 9.4961527e-39
-0.085439488 -0.14998297 -0.038087644 1.2077265e-38
-0.083412647 -0.14918335 -0.035154738 1.4473995e-38
-0.08150664 -0.14918335 -0.035154738 1.3644234e-38
-0.0794916 -0.14835624 -0.0321211 1.2721558e-38
-0.077456154 -0.1472816 -0.028179564 1.2629362e-38
-0.07546524 -0.14646508 -0.025184669 1.2444252e-38
-0.073576719 -0.14646508 -0.025184669 1.6039882e-38
-0.071688198 -0.14646508 -0.025184669 2.3508808e-38
-0.069799677 -0.14646508 -0.025184669 2.3509527e-38
-0.067911156 -0.14646508 -0.025184669 2.3509886e-38
-0.066022635 -0.14646508 -0.025184669 2.3509883e-38
-0.064134113 -0.14646508 -0.025184669 1.9452915e-38
-0.062164828 -0.14537306 -0.021179356 1.7424611e-38
-0.060283326 -0.14537306 -0.021179356 1.9346635e-39
-0.058350705 -0.14453618 -0.018109836 4.5953621e-40
-0.056474589 -0.14453618 -0.018109836 3.6734198e-40
-0.054559819 -0.14373477 -0.015170492 2.0264948e-39
-0.052688852 -0.14373477 -0.015170492 1.1967341e-39
-0.050778896 -0.14263238 -0.011127152 2.1179673e-39
-0.048915021 -0.14263238 -0.011127152 1.5647936e-39
-0.04705115 -0.14263238 -0.011127152 1.7491848e-39
-0.04517407 -0.14181106 -0.0081147328 1.5117551e-38
-0.043315478 -0.14181106 -0.0081147328 1.9635137e-38
-0.041456886 -0.14181106 -0.0081147328 2.3509517e-38
-0.039598294 -0.14181106 -0.0081147328 2.3509527e-38
-0.037739702 -0.14181106 -0.0081147328 2.3509527e-38
-0.03588111 -0.14181106 -0.0081147328 2.3509527e-38
-0.034022518 -0.14181106 -0.0081147328 2.3509527e-38
-0.032163925 -0.14181106 -0.0081147328 2.3509527e-38
-0.030305335 -0.14181106 -0.0081147328 2.3509527e-38
-0.02848088 -0.14099441 -0.005119361 2.3509524e-38
-0.026627541 -0.14099441 -0.005119361 2.3509524e-38
-0.024818588 -0.14018236 -0.0021409169 2.3416248e-38
-0.02297047 -0.14018236 -0.0021409169 2.3509883e-38
-0.021122353 -0.14018236 -0.0021409169 2.3509886e-38
-0.019355988 -0.1390769 0.0019136295 2.341805e-38
-0.017514978 -0.1390769 0.0019136295 2.2681567e-38
-0.015673969 -0.1390769 0.0019136295 2.3234379e-38
-0.01383296 -0.1390769 0.0019136295 2.3142544e-38
-0.011991952 -0.1390769 0.0019136295 2.341805e-38
-0.010235971 -0.13827558 0.0048527345 2.3509517e-38
-0.0084001143 -0.13827558 0.0048527345 2.3413723e-38
-0.0064689238 -0.1390769 0.0019136295 2.3508807e-38
-0.0046279151 -0.1390769 0.0019136295 2.3508451e-38
-0.0026411731 -0.14018236 -0.0021409169 2.3231151e-38
-0.00094589777 -0.1390769 0.0019136295 2.3509168e-38
0.00089511089 -0.1390769 0.0019136295 2.2588661e-38
0.0027361196 -0.1390769 0.0019136295 2.2681572e-38
0.0044508744 -0.13827558 0.0048527345 2.1576307e-38
0.0061512385 -0.13744931 0.0078832731 2.2958873e-38
0.0079817791 -0.13744931 0.0078832731 2.1853601e-38
0.0098123197 -0.13744931 0.0078832731 2.2591164e-38
0.011492299 -0.13662781 0.010896407 2.3142541e-38
0.013317557 -0.13662781 0.010896407 2.268192e-38
0.015142815 -0.13662781 0.010896407 2.3050347e-38
0.016968073 -0.13662781 0.010896407 2.3234379e-38
0.018793335 -0.13662781 0.010896407 2.23135e-38
0.020618593 -0.13662781 0.010896407 2.295887e-38
0.022443851 -0.13662781 0.010896407 2.2407494e-38
0.02426911 -0.13662781 0.010896407 2.2591528e-38
0.026094368 -0.13662781 0.010896407 1.5587175e-38
0.027722662 -0.13581105 0.013892137 1.0886274e-38
0.029542668 -0.13581105 0.013892137 1.0700804e-38
0.03109034 -0.13473894 0.017824374 1.0975952e-38
0.032903455 -0.13473894 0.017824374 1.1435492e-38
0.034716569 -0.13473894 0.017824374 1.1895391e-38
0.036822699 -0.13581105 0.013892137 1.1249659e-38
0.038342789 -0.13473894 0.017824374 1.0236226e-38
0.040155903 -0.13473894 0.017824374 1.1528044e-38
0.041969016 -0.13473894 0.017824374 1.2451079e-38
0.04378213 -0.13473894 0.017824374 1.2359963e-38
0.045922726 -0.13581105 0.013892137 4.8910403e-39
0.047742739 -0.13581105 0.013892137 1.14337e-38
0.049562737 -0.13581105 0.013892137 2.3509527e-38
0.05138275 -0.13581105 0.013892137 2.3509527e-38
0.053473264 -0.13662781 0.010896407 2.3048905e-38
0.055298522 -0.13662781 0.010896407 2.350988e-38
0.057406425 -0.13744931 0.0078832731 1.7333132e-38
0.059236959 -0.13744931 0.0078832731 9.1273674e-39
-0.079349928 -0.14917539 -0.028179564 1.0140432e-38
-0.077353761 -0.14835359 -0.025184669 9.3099523e-39
-0.07546524 -0.14835359 -0.025184669 1.2443881e-38
-0.073576719 -0.14835359 -0.025184669 1.9450027e-38
-0.071572319 -0.14725454 -0.021179356 2.3509517e-38
-0.069690824 -0.14725454 -0.021179356 2.3324052e-38
-0.067911156 -0.14835359 -0.025184669 2.3509527e-38
-0.065927826 -0.14725454 -0.021179356 2.3231857e-38
-0.064046323 -0.14725454 -0.021179356 1.5671815e-38
-0.062164828 -0.14725454 -0.021179356 1.4288878e-38
-0.06022682 -0.1464123 -0.018109836 1.8421063e-39
-0.058301739 -0.14560573 -0.015170492 2.0264948e-39
-0.056430779 -0.14560573 -0.015170492 1.1960138e-39
-0.054559819 -0.14560573 -0.015170492 6.4284847e-40
-0.052688852 -0.14560573 -0.015170492 2.7629724e-39
-0.050778896 -0.14449625 -0.011127152 3.1310333e-39
-0.048915021 -0.14449625 -0.011127152 7.3468397e-40
-0.04705115 -0.14449625 -0.011127152 9.1835496e-40
-0.04517407 -0.14366965 -0.0081147328 1.087474e-38
-0.043315478 -0.14366965 -0.0081147328 1.8711369e-38
-0.041456886 -0.14366965 -0.0081147328 2.3508423e-38
-0.039598294 -0.14366965 -0.0081147328 2.3509876e-38
-0.037747581 -0.14284773 -0.005119361 2.2865587e-38
-0.035894241 -0.14284773 -0.005119361 2.3418043e-38
-0.034040902 -0.14284773 -0.005119361 2.3509876e-38
-0.032187559 -0.14284773 -0.005119361 2.3509876e-38
-0.030334219 -0.14284773 -0.005119361 2.3141089e-38
-0.02848088 -0.14284773 -0.005119361 2.3324401e-38
-0.026666706 -0.14203046 -0.0021409169 2.3509873e-38
-0.024818588 -0.14203046 -0.0021409169 2.3509873e-38
-0.02297047 -0.14203046 -0.0021409169 2.3508432e-38
-0.021196997 -0.14091791 0.0019136295 2.3508437e-38
-0.019355988 -0.14091791 0.0019136295 2.3509876e-38
-0.017514978 -0.14091791 0.0019136295 2.3140016e-38
-0.015673969 -0.14091791 0.0019136295 2.3509879e-38
-0.01383296 -0.14091791 0.0019136295 2.350952e-38
-0.011991952 -0.14091791 0.0019136295 2.3509517e-38
-0.010235971 -0.14011143 0.0048527345 2.350879e-38
-0.0084001143 -0.14011143 0.0048527345 2.3504109e-38
-0.0064689238 -0.14091791 0.0019136295 2.3507722e-38
-0.0046279151 -0.14091791 0.0019136295 2.3507372e-38
-0.0026411731 -0.14203046 -0.0021409169 2.3507733e-38
-0.00094589777 -0.14091791 0.0019136295 2.3508092e-38
0.00089511089 -0.14091791 0.0019136295 2.3508809e-38
0.0027361196 -0.14091791 0.0019136295 2.3417333e-38
0.0044508744 -0.14011143 0.0048527345 2.3234379e-38
0.0061512385 -0.13927986 0.0078832731 2.3050708e-38
0.0078417789 -0.13845308 0.010896407 2.2867027e-38
0.0096670371 -0.13845308 0.010896407 2.2958859e-38
0.011492299 -0.13845308 0.010896407 2.3234369e-38
0.013317557 -0.13845308 0.010896407 2.341804e-38
0.015142815 -0.13845308 0.010896407 2.3418043e-38
0.016968073 -0.13845308 0.010896407 2.3049621e-38
0.018793335 -0.13845308 0.010896407 2.3326208e-38
0.020618593 -0.13845308 0.010896407 2.3234374e-38
0.022443851 -0.13845308 0.010896407 2.3050704e-38
0.024082651 -0.13763104 0.013892137 2.2867032e-38
0.025902657 -0.13763104 0.013892137 2.1486254e-38
0.027722662 -0.13763104 0.013892137 1.9920004e-38
0.029277226 -0.13655205 0.017824374 1.9550143e-38
0.03109034 -0.13655205 0.017824374 1.752112e-38
0.032903455 -0.13655205 0.017824374 1.7703716e-38
0.034716569 -0.13655205 0.017824374 1.7979943e-38
0.036822699 -0.13763104 0.013892137 1.8163255e-38
0.038342789 -0.13655205 0.017824374 1.6873595e-38
0.040155903 -0.13655205 0.017824374 1.7795912e-38
0.041969016 -0.13655205 0.017824374 1.8719666e-38
0.04378213 -0.13655205 0.017824374 1.9734537e-38
0.045922726 -0.13763104 0.013892137 1.4109887e-38
0.047742739 -0.13763104 0.013892137 1.5029332e-38
0.049562737 -0.13763104 0.013892137 2.2772686e-38
0.05138275 -0.13763104 0.013892137 2.3509886e-38
0.053202748 -0.13763104 0.013892137 2.350988e-38
0.055298522 -0.13845308 0.010896407 2.3418042e-38
0.05712378 -0.13845308 0.010896407 1.5120435e-38
0.059236959 -0.13927986 0.0078832731 9.2195602e-39
-0.073453821 -0.14913605 -0.021179356 1.9173429e-38
-0.071572319 -0.14913605 -0.021179356 2.3507349e-38
-0.069690824 -0.14913605 -0.021179356 2.350952e-38
-0.067809321 -0.14913605 -0.021179356 2.3509883e-38
-0.065927826 -0.14913605 -0.021179356 2.3508804e-38
-0.063979052 -0.14828841 -0.018109836 1.3551313e-38
-0.062102936 -0.14828841 -0.018109836 1.04163e-38
-0.060172707 -0.14747669 -0.015170492 5.5101298e-40
-0.058301739 -0.14747669 -0.015170492 5.5101298e-40
-0.056430779 -0.14747669 -0.015170492 6.4284847e-40
-0.054559819 -0.14747669 -0.015170492 4.6061633e-39
-0.052688852 -0.14747669 -0.015170492 1.1796699e-38
-0.050778896 -0.14636014 -0.011127152 8.569488e-39
-0.048915021 -0.14636014 -0.011127152 1.0101905e-39
-0.04705115 -0.14636014 -0.011127152 1.5619209e-39
-0.04517407 -0.14552824 -0.0081147328 7.0936293e-39
-0.043315478 -0.14552824 -0.0081147328 1.5667463e-38
-0.041456886 -0.14552824 -0.0081147328 2.3509133e-38
-0.039600924 -0.14470108 -0.005119361 2.3509859e-38
-0.037747581 -0.14470108 -0.005119361 2.350986e-38
-0.035907298 -0.14387859 -0.0021409169 2.2677577e-38
-0.034059178 -0.14387859 -0.0021409169 1.9265979e-38
-0.032211062 -0.14387859 -0.0021409169 1.92649e-38
-0.030362941 -0.14387859 -0.0021409169 2.3505177e-38
-0.028514825 -0.14387859 -0.0021409169 2.350878e-38
-0.026666706 -0.14387859 -0.0021409169 2.3508421e-38
-0.024879014 -0.14275892 0.0019136295 2.3508421e-38
-0.023038005 -0.14275892 0.0019136295 2.3506621e-38
-0.021196997 -0.14275892 0.0019136295 2.3508065e-38
-0.01941525 -0.14194728 0.0048527345 2.3508065e-38
-0.017579393 -0.14194728 0.0048527345 2.3503026e-38
-0.015743539 -0.14194728 0.0048527345 2.3507708e-38
-0.013907682 -0.14194728 0.0048527345 2.3507711e-38
-0.012071826 -0.14194728 0.0048527345 2.3507348e-38
-0.010235971 -0.14194728 0.0048527345 2.3507704e-38
-0.0084001143 -0.14194728 0.0048527345 2.3507704e-38
-0.0065642577 -0.14194728 0.0048527345 2.3507714e-38
-0.0046279151 -0.14275892 0.0019136295 2.3507723e-38
-0.0027869064 -0.14275892 0.0019136295 2.3504495e-38
-0.00094589777 -0.14275892 0.0019136295 2.3321187e-38
0.00089511089 -0.14275892 0.0019136295 2.3508092e-38
0.0026150215 -0.14194728 0.0048527345 2.2955999e-38
0.0043206941 -0.14111041 0.0078832731 2.231134e-38
0.0060165208 -0.14027832 0.010896407 2.2865587e-38
0.0078417789 -0.14027832 0.010896407 2.3418038e-38
0.0096670371 -0.14027832 0.010896407 2.3418035e-38
0.011492299 -0.14027832 0.010896407 2.3141808e-38
0.013162607 -0.13945107 0.013892137 2.3049259e-38
0.014982613 -0.13945107 0.013892137 2.3417327e-38
0.016802622 -0.13945107 0.013892137 2.3509527e-38
0.018622627 -0.13945107 0.013892137 2.3509883e-38
0.020442633 -0.13945107 0.013892137 2.3048545e-38
0.022262638 -0.13945107 0.013892137 2.2219863e-38
0.024082651 -0.13945107 0.013892137 2.2774116e-38
0.025902657 -0.13945107 0.013892137 2.295887e-38
0.027722662 -0.13945107 0.013892137 2.295887e-38
0.029277226 -0.13836516 0.017824374 2.295887e-38
0.03109034 -0.13836516 0.017824374 2.2590087e-38
0.032903455 -0.13836516 0.017824374 2.341805e-38
0.034716569 -0.13836516 0.017824374 2.3509168e-38
0.036822699 -0.13945107 0.013892137 2.3509527e-38
0.038342789 -0.13836516 0.017824374 2.3509527e-38
0.040155903 -0.13836516 0.017824374 2.2588292e-38
0.041969016 -0.13836516 0.017824374 2.2773763e-38
0.04378213 -0.13836516 0.017824374 2.2958873e-38
0.045922726 -0.13945107 0.013892137 2.2958873e-38
0.047408342 -0.13836516 0.017824374 2.2681212e-38
0.049221456 -0.13836516 0.017824374 2.341805e-38
0.05103457 -0.13836516 0.017824374 2.2957075e-38
0.053202748 -0.13945107 0.013892137 2.3418045e-38
0.055298522 -0.14027832 0.010896407 2.3509879e-38
0.05712378 -0.14027832 0.010896407 1.4659457e-38
-0.060172707 -0.14934768 -0.015170492 5.5101298e-40
-0.058301739 -0.14934768 -0.015170492 7.3468397e-40
-0.056430779 -0.14934768 -0.015170492 1.3793261e-39
-0.054559819 -0.14934768 -0.015170492 4.5125258e-39
-0.052688852 -0.14934768 -0.015170492 1.3270386e-38
-0.050778896 -0.14822401 -0.011127152 9.3056083e-39
-0.048915021 -0.14822401 -0.011127152 1.2856969e-39
-0.04705115 -0.14822401 -0.011127152 2.3909515e-39
-0.04517407 -0.14738683 -0.0081147328 9.7665753e-39
-0.043307602 -0.14655443 -0.005119361 1.7049307e-38
-0.041454263 -0.14655443 -0.005119361 2.3506961e-38
-0.039600924 -0.14655443 -0.005119361 2.3508043e-38
-0.037755415 -0.1457267 -0.0021409169 2.349976e-38
-0.035907298 -0.1457267 -0.0021409169 1.9995247e-38
-0.034084059 -0.14459993 0.0019136295 1.4739373e-38
-0.032243051 -0.14459993 0.0019136295 1.5291109e-38
-0.030402042 -0.14459993 0.0019136295 2.1744083e-38
-0.028561033 -0.14459993 0.0019136295 2.3494002e-38
-0.026720025 -0.14459993 0.0019136295 2.1464619e-38
-0.024879014 -0.14459993 0.0019136295 2.2201105e-38
-0.023086961 -0.14378314 0.0048527345 2.0079166e-38
-0.021251105 -0.14378314 0.0048527345 2.2106396e-38
-0.01941525 -0.14378314 0.0048527345 2.2382622e-38
-0.017579393 -0.14378314 0.0048527345 2.1829091e-38
-0.015743539 -0.14378314 0.0048527345 2.2197153e-38
-0.013907682 -0.14378314 0.0048527345 2.2012406e-38
-0.012071826 -0.14378314 0.0048527345 2.1184804e-38
-0.010235971 -0.14378314 0.0048527345 1.9439563e-38
-0.0084001143 -0.14378314 0.0048527345 2.3314301e-38
-0.0065642577 -0.14378314 0.0048527345 2.350554e-38
-0.0046279151 -0.14459993 0.0019136295 2.3507708e-38
-0.0027869064 -0.14459993 0.0019136295 2.3508075e-38
-0.00094589777 -0.14459993 0.0019136295 2.3508438e-38
0.00077916496 -0.14378314 0.0048527345 2.3509153e-38
0.0024901535 -0.14294095 0.0078832731 2.157232e-38
0.0043206941 -0.14294095 0.0078832731 1.8807523e-38
0.0060165208 -0.1421036 0.010896407 2.350986e-38
0.0078417789 -0.1421036 0.010896407 2.2588264e-38
0.0096670371 -0.1421036 0.010896407 2.3418031e-38
0.011492299 -0.1421036 0.010896407 2.3509879e-38
0.013162607 -0.14127107 0.013892137 2.3509168e-38
0.014982613 -0.14127107 0.013892137 2.3508451e-38
0.016802622 -0.14127107 0.013892137 2.3507733e-38
0.018622627 -0.14127107 0.013892137 2.3508092e-38
0.020442633 -0.14127107 0.013892137 2.3414456e-38
0.022262638 -0.14127107 0.013892137 2.3509168e-38
0.024082651 -0.14127107 0.013892137 2.3509527e-38
0.025902657 -0.14127107 0.013892137 2.341805e-38
0.02746412 -0.14017828 0.017824374 2.341805e-38
0.029277226 -0.14017828 0.017824374 2.341805e-38
0.03109034 -0.14017828 0.017824374 2.3325138e-38
0.032903455 -0.14017828 0.017824374 2.3415898e-38
0.034716569 -0.14017828 0.017824374 2.3322627e-38
0.036822699 -0.14127107 0.013892137 2.3508451e-38
0.038342789 -0.14017828 0.017824374 2.3507374e-38
0.040155903 -0.14017828 0.017824374 2.3415539e-38
0.041969016 -0.14017828 0.017824374 2.3509168e-38
0.04378213 -0.14017828 0.017824374 2.3141109e-38
0.045595244 -0.14017828 0.017824374 2.2681214e-38
0.047148019 -0.13932751 0.020885788 2.3049991e-38
0.048955768 -0.13932751 0.020885788 2.3234379e-38
0.05103457 -0.14017828 0.017824374 2.2958154e-38
0.053202748 -0.14127107 0.013892137 2.2313137e-38
0.055298522 -0.1421036 0.010896407 2.3326203e-38
-0.04517407 -0.14924543 -0.0081147328 1.3358249e-38
-0.043307602 -0.14840777 -0.005119361 1.8520481e-38
-0.041454263 -0.14840777 -0.005119361 2.0731733e-38
-0.039600924 -0.14840777 -0.005119361 1.685699e-38
-0.037755415 -0.14757483 -0.0021409169 1.1877341e-38
-0.035907298 -0.14757483 -0.0021409169 1.1139771e-38
-0.034084059 -0.14644094 0.0019136295 1.3076233e-38
-0.032243051 -0.14644094 0.0019136295 1.6948447e-38
-0.030402042 -0.14644094 0.0019136295 2.1281282e-38
-0.028561033 -0.14644094 0.0019136295 2.1741184e-38
-0.026720025 -0.14644094 0.0019136295 2.1554996e-38
-0.024879014 -0.14644094 0.0019136295 2.0171345e-38
-0.023086961 -0.14561899 0.0048527345 1.3347071e-38
-0.021251105 -0.14561899 0.0048527345 1.3991724e-38
-0.01941525 -0.14561899 0.0048527345 1.5742365e-38
-0.017579393 -0.14561899 0.0048527345 1.6847998e-38
-0.015743539 -0.14561899 0.0048527345 1.4266167e-38
-0.013907682 -0.14561899 0.0048527345 1.1408107e-38
-0.012071826 -0.14561899 0.0048527345 9.0139042e-39
-0.010235971 -0.14561899 0.0048527345 8.3746543e-39
-0.0084001143 -0.14561899 0.0048527345 1.3725957e-38
-0.0065642577 -0.14561899 0.0048527345 1.4925223e-38
-0.0047284048 -0.14561899 0.0048527345 1.6677656e-38
-0.0028925482 -0.14561899 0.0048527345 1.6863844e-38
-0.0010566916 -0.14561899 0.0048527345 1.5390154e-38
0.00077916496 -0.14561899 0.0048527345 1.2071843e-38
0.0024901535 -0.1447715 0.0078832731 2.4852981e-39
0.0043206941 -0.1447715 0.0078832731 1.2871319e-39
0.0060165208 -0.14392884 0.010896407 2.2954154e-38
0.0078417789 -0.14392884 0.010896407 2.3509859e-38
0.0096670371 -0.14392884 0.010896407 2.3509504e-38
0.011492299 -0.14392884 0.010896407 2.3506988e-38
0.013162607 -0.14309107 0.013892137 2.3506633e-38
0.014982613 -0.14309107 0.013892137 2.3508089e-38
0.016802622 -0.14309107 0.013892137 2.3506649e-38
0.018622627 -0.14309107 0.013892137 2.3507719e-38
0.020442633 -0.14309107 0.013892137 2.3508435e-38
0.022262638 -0.14309107 0.013892137 2.3507356e-38
0.023837892 -0.14199139 0.017824374 1.3733901e-38
0.025651006 -0.14199139 0.017824374 1.0692887e-38
0.02746412 -0.14199139 0.017824374 1.0047882e-38
0.029070577 -0.14113526 0.020885788 1.0324471e-38
0.030878318 -0.14113526 0.020885788 8.5724013e-39
0.032686062 -0.14113526 0.020885788 1.0692183e-38
0.035002694 -0.14309107 0.013892137 1.0967691e-38
0.036529683 -0.14199139 0.017824374 1.1704537e-38
0.038109295 -0.14113526 0.020885788 1.0874777e-38
0.039917044 -0.14113526 0.020885788 1.3825037e-38
0.041724786 -0.14113526 0.020885788 1.9080905e-38
0.043532521 -0.14113526 0.020885788 1.2905597e-38
0.04534027 -0.14113526 0.020885788 9.1266541e-39
0.047148019 -0.14113526 0.020885788 1.5581064e-38
0.04870072 -0.14031343 0.023824416 2.2680844e-38
0.050503314 -0.14031343 0.023824416 2.3418047e-38
0.052571252 -0.14113526 0.020885788 2.1206065e-38
0.054379001 -0.14113526 0.020885788 2.1666322e-38
-0.037755415 -0.14942293 -0.0021409169 9.016037e-39
-0.035907298 -0.14942293 -0.0021409169 8.1895021e-39
-0.034084059 -0.14828195 0.0019136295 1.5751328e-38
-0.032243051 -0.14828195 0.0019136295 1.5476532e-38
-0.030430384 -0.14745484 0.0048527345 1.8704819e-38
-0.028594527 -0.14745484 0.0048527345 1.9257643e-38
-0.026758673 -0.14745484 0.0048527345 1.9257647e-38
-0.024967983 -0.14660202 0.0078832731 1.8795597e-38
-0.023137439 -0.14660202 0.0078832731 1.2801805e-38
-0.021306898 -0.14660202 0.0078832731 9.1136192e-39
-0.019476356 -0.14660202 0.0078832731 1.5750274e-38
-0.017645814 -0.14660202 0.0078832731 1.5474058e-38
-0.015815271 -0.14660202 0.0078832731 1.0679183e-38
-0.013984729 -0.14660202 0.0078832731 8.0051697e-39
-0.012154186 -0.14660202 0.0078832731 8.0066159e-39
-0.010235971 -0.14745484 0.0048527345 5.8882744e-39
-0.0084001143 -0.14745484 0.0048527345 6.9035011e-39
-0.0065642577 -0.14745484 0.0048527345 1.1791293e-38
-0.0047284048 -0.14745484 0.0048527345 1.5572016e-38
-0.0028925482 -0.14745484 0.0048527345 1.6863456e-38
-0.0010566916 -0.14745484 0.0048527345 1.4006113e-38
0.00077916496 -0.14745484 0.0048527345 1.3174588e-38
0.0024901535 -0.14660202 0.0078832731 2.8483353e-39
0.0041912589 -0.14575411 0.010896407 4.7851386e-39
0.0060165208 -0.14575411 0.010896407 2.3132069e-38
0.0078417789 -0.14575411 0.010896407 2.3506267e-38
0.0096670371 -0.14575411 0.010896407 2.3507701e-38
0.011492299 -0.14575411 0.010896407 2.3502275e-38
0.013317557 -0.14575411 0.010896407 2.3502265e-38
0.015142815 -0.14575411 0.010896407 2.3507318e-38
0.016968073 -0.14575411 0.010896407 2.3506238e-38
0.018622627 -0.14491107 0.013892137 2.3507672e-38
0.020442633 -0.14491107 0.013892137 2.3508748e-38
0.022024779 -0.14380451 0.017824374 2.3509475e-38
0.023837892 -0.14380451 0.017824374 1.2348769e-38
0.025651006 -0.14380451 0.017824374 9.4925135e-39
0.027262827 -0.14294298 0.020885788 8.7560387e-39
0.029070577 -0.14294298 0.020885788 6.9121373e-39
0.030878318 -0.14294298 0.020885788 4.5157796e-39
0.032686062 -0.14294298 0.020885788 5.9909111e-39
0.035002694 -0.14491107 0.013892137 5.7139682e-39
0.036529683 -0.14380451 0.017824374 5.9894761e-39
0.038109295 -0.14294298 0.020885788 5.2515482e-39
0.039917044 -0.14294298 0.020885788 9.7687697e-39
0.041724786 -0.14294298 0.020885788 1.3363676e-38
0.043532521 -0.14294298 0.020885788 1.2533913e-38
0.04534027 -0.14294298 0.020885788 6.63447e-39
0.047148019 -0.14294298 0.020885788 1.1245689e-38
0.04870072 -0.14211603 0.023824416 2.3509869e-38
0.050503314 -0.14211603 0.023824416 2.2771582e-38
0.052571252 -0.14294298 0.020885788 2.0835474e-38
0.0541085 -0.14211603 0.023824416 2.0190826e-38
0.055911079 -0.14211603 0.023824416 1.4659091e-38
-0.030430384 -0.14929073 0.0048527345 2.0828187e-38
-0.028594527 -0.14929073 0.0048527345 1.8430393e-38
