# .PCD v0.7 - Point Cloud Data file format
VERSION 0.7
FIELDS x y z rgb
SIZE 4 4 4 4
TYPE F F F F
COUNT 1 1 1 1
WIDTH 930
HEIGHT 1
VIEWPOINT 0 0 0 1 0 0 0
POINTS 930
DATA ascii
0.02653968 -0.12567626 -0.0015428737 1.3456609e-38
0.028364938 -0.12567626 -0.0015428737 9.6762195e-39
0.030190196 -0.12567626 -0.0015428737 1.0413046e-38
0.032015461 -0.12567626 -0.0015428737 1.3178178e-38
0.03384072 -0.12567626 -0.0015428737 1.280866e-38
0.035665974 -0.12567626 -0.0015428737 9.9491476e-39
0.037491232 -0.12567626 -0.0015428737 9.3026992e-39
0.039567441 -0.12646608 -0.0045560077 1.2529909e-38
0.041397974 -0.12646608 -0.0045560077 1.3913212e-38
0.043228522 -0.12646608 -0.0045560077 1.0502696e-38
0.04505907 -0.12646608 -0.0045560077 8.2885613e-39
0.046889603 -0.12646608 -0.0045560077 8.2885613e-39
0.048442796 -0.12567626 -0.0015428737 1.1608323e-38
0.050268054 -0.12567626 -0.0015428737 1.4559306e-38
0.052093312 -0.12567626 -0.0015428737 1.4376002e-38
0.053627059 -0.124891 0.0014528558 7.8326418e-39
0.055057526 -0.12386028 0.0053850934 1.1430801e-38
0.056265727 -0.12228753 0.011385135 2.3509876e-38
0.05806832 -0.12228753 0.011385135 2.3234376e-38
0.059555247 -0.12149437 0.014411025 2.2958873e-38
-0.063330315 -0.13515557 -0.030549116 1.1613412e-38
-0.061362375 -0.13331302 -0.023566432 1.2074391e-38
-0.0594985 -0.13331302 -0.023566432 1.7329893e-38
-0.057634626 -0.13331302 -0.023566432 2.1849979e-38
-0.046459261 -0.13094176 -0.014580198 2.350987e-38
-0.037257768 -0.12987186 -0.010525651 2.2484882e-38
-0.033522435 -0.13094176 -0.014580198 1.4366286e-38
-0.031674318 -0.13094176 -0.014580198 1.3812382e-38
-0.029826198 -0.13094176 -0.014580198 1.8699099e-38
-0.028052725 -0.12987186 -0.010525651 2.2664943e-38
-0.026211716 -0.12987186 -0.010525651 2.3496858e-38
-0.024370706 -0.12987186 -0.010525651 2.1562182e-38
-0.022433726 -0.13094176 -0.014580198 1.8705923e-38
-0.020585608 -0.13094176 -0.014580198 1.4926998e-38
-0.018737489 -0.13094176 -0.014580198 1.4279479e-38
-0.017006671 -0.12987186 -0.010525651 1.5565905e-38
-0.015165661 -0.12987186 -0.010525651 1.6485347e-38
-0.013324652 -0.12987186 -0.010525651 1.3349621e-38
-0.011483643 -0.12987186 -0.010525651 9.7547147e-39
-0.0096426345 -0.12987186 -0.010525651 1.0124216e-38
-0.0078016259 -0.12987186 -0.010525651 1.4826908e-38
-0.0060765631 -0.12909628 -0.0075865462 1.6858439e-38
-0.0043655746 -0.1282966 -0.0045560077 2.0456938e-38
-0.002535034 -0.1282966 -0.0045560077 2.1104822e-38
-0.00083920732 -0.1275015 -0.0015428737 1.428486e-38
0.00098605081 -0.1275015 -0.0015428737 7.5552969e-39
0.002811309 -0.1275015 -0.0015428737 8.5698047e-39
0.0046365708 -0.1275015 -0.0015428737 1.8156705e-38
0.0066176765 -0.1282966 -0.0045560077 2.3509811e-38
0.0084482208 -0.1282966 -0.0045560077 2.350836e-38
0.010278761 -0.1282966 -0.0045560077 2.3504401e-38
0.012281995 -0.12909628 -0.0075865462 2.304487e-38
0.014117852 -0.12909628 -0.0075865462 2.3509816e-38
0.015953708 -0.12909628 -0.0075865462 2.3509444e-38
0.017789561 -0.12909628 -0.0075865462 2.3048105e-38
0.019625422 -0.12909628 -0.0075865462 2.0190054e-38
0.021461274 -0.12909628 -0.0075865462 2.2115853e-39
0.023092557 -0.1282966 -0.0045560077 4.1466229e-39
0.024923097 -0.1282966 -0.0045560077 1.7698677e-38
0.02653968 -0.1275015 -0.0015428737 1.8896151e-38
0.028364938 -0.1275015 -0.0015428737 1.2533564e-38
0.029966969 -0.126711 0.0014528558 1.1149891e-38
0.031487059 -0.1256734 0.0053850934 1.2716838e-38
0.033300173 -0.1256734 0.0053850934 1.2623547e-38
0.035665974 -0.1275015 -0.0015428737 1.1609026e-38
0.037491232 -0.1275015 -0.0015428737 1.0962575e-38
0.03931649 -0.1275015 -0.0015428737 1.1423199e-38
0.041141748 -0.1275015 -0.0015428737 1.3728818e-38
0.043228522 -0.1282966 -0.0045560077 1.013427e-38
0.04505907 -0.1282966 -0.0045560077 6.3524517e-39
0.046889603 -0.1282966 -0.0045560077 7.8275818e-39
0.048442796 -0.1275015 -0.0015428737 1.0316864e-38
0.050268054 -0.1275015 -0.0015428737 1.3268567e-38
0.052093312 -0.1275015 -0.0015428737 1.2808677e-38
0.053627059 -0.126711 0.0014528558 9.5836371e-39
0.055057526 -0.1256734 0.0053850934 1.3827164e-38
0.056265727 -0.12409012 0.011385135 2.3509876e-38
0.05806832 -0.12409012 0.011385135 2.332621e-38
0.059555247 -0.12329166 0.014411025 2.3142544e-38
0.061352536 -0.12329166 0.014411025 2.0469591e-38
0.062825441 -0.12249784 0.017419271 6.6395273e-39
-0.0761915 -0.13437669 -0.020554014 7.5628905e-39
-0.074332908 -0.13437669 -0.020554014 1.1250732e-38
-0.068817869 -0.13517688 -0.023566432 1.0049673e-38
-0.066953994 -0.13517688 -0.023566432 2.0836547e-38
-0.065157473 -0.13625093 -0.027609773 2.3509879e-38
-0.063286506 -0.13625093 -0.027609773 2.3415532e-38
-0.061362375 -0.13517688 -0.023566432 2.3509168e-38
-0.0594985 -0.13517688 -0.023566432 2.3509879e-38
-0.057634626 -0.13517688 -0.023566432 2.3418025e-38
-0.055746984 -0.13437669 -0.020554014 2.3418039e-38
-0.053888392 -0.13437669 -0.020554014 2.3233662e-38
-0.0520298 -0.13437669 -0.020554014 2.3141826e-38
-0.040939786 -0.13171287 -0.010525651 2.3509497e-38
-0.037257768 -0.13171287 -0.010525651 1.9812662e-38
-0.03541676 -0.13171287 -0.010525651 1.36334e-38
-0.033575751 -0.13171287 -0.010525651 1.3170979e-38
-0.031734742 -0.13171287 -0.010525651 1.9900893e-38
-0.029893734 -0.13171287 -0.010525651 2.350732e-38
-0.028052725 -0.13171287 -0.010525651 2.3505875e-38
-0.026211716 -0.13171287 -0.010525651 2.350623e-38
-0.024370706 -0.13171287 -0.010525651 2.3508025e-38
-0.022529697 -0.13171287 -0.010525651 2.2950529e-38
-0.020688688 -0.13171287 -0.010525651 1.8803534e-38
-0.01884768 -0.13171287 -0.010525651 1.7511361e-38
-0.017091699 -0.13093217 -0.0075865462 2.018e-38
-0.015255842 -0.13093217 -0.0075865462 2.1284195e-38
-0.013324652 -0.13171287 -0.010525651 1.3446493e-38
-0.011483643 -0.13171287 -0.010525651 6.7158588e-39
-0.0096426345 -0.13171287 -0.010525651 8.2831845e-39
-0.0079124197 -0.13093217 -0.0075865462 1.3262823e-38
-0.0060765631 -0.13093217 -0.0075865462 1.5016331e-38
-0.0043655746 -0.13012715 -0.0045560077 2.1103752e-38
-0.002535034 -0.13012715 -0.0045560077 1.8801007e-38
-0.00083920732 -0.12932678 -0.0015428737 1.5207524e-38
0.00098605081 -0.12932678 -0.0015428737 1.0322227e-38
0.002811309 -0.12932678 -0.0015428737 1.0783202e-38
0.0046365708 -0.12932678 -0.0015428737 1.8802781e-38
0.0064618289 -0.12932678 -0.0015428737 2.3507281e-38
0.0082870871 -0.12932678 -0.0015428737 2.350944e-38
0.010278761 -0.13012715 -0.0045560077 2.3509443e-38
0.012109306 -0.13012715 -0.0045560077 2.3509813e-38
0.013939846 -0.13012715 -0.0045560077 2.3509813e-38
0.015770387 -0.13012715 -0.0045560077 2.2864432e-38
0.017600935 -0.13012715 -0.0045560077 2.2495294e-38
0.019625422 -0.13093217 -0.0075865462 2.0282611e-38
0.021262016 -0.13012715 -0.0045560077 2.2126615e-39
0.023092557 -0.13012715 -0.0045560077 5.899063e-39
0.024923097 -0.13012715 -0.0045560077 2.3506646e-38
0.02653968 -0.12932678 -0.0015428737 1.954152e-38
0.028364938 -0.12932678 -0.0015428737 1.1427939e-38
0.029966969 -0.12853102 0.0014528558 1.0228655e-38
0.031487059 -0.12748651 0.0053850934 1.3362568e-38
0.033300173 -0.12748651 0.0053850934 1.3915004e-38
0.035426985 -0.12853102 0.0014528558 1.3729523e-38
0.037246987 -0.12853102 0.0014528558 1.3913195e-38
0.039067 -0.12853102 0.0014528558 1.4650763e-38
0.040887013 -0.12853102 0.0014528558 1.4097601e-38
0.042967007 -0.12932678 -0.0015428737 1.16094e-38
0.04505907 -0.13012715 -0.0045560077 6.8141459e-39
0.046617538 -0.12932678 -0.0015428737 1.0225024e-38
0.048167035 -0.12853102 0.0014528558 1.2806146e-38
0.049987048 -0.12853102 0.0014528558 1.6863474e-38
0.051807046 -0.12853102 0.0014528558 1.2993425e-38
0.053627059 -0.12853102 0.0014528558 8.5694852e-39
0.055057526 -0.12748651 0.0053850934 1.6315727e-38
0.056265727 -0.12589271 0.011385135 2.3509873e-38
0.05806832 -0.12589271 0.011385135 2.2773034e-38
0.059555247 -0.12508895 0.014411025 2.3234379e-38
0.061352536 -0.12508895 0.014411025 2.1390828e-38
0.062825441 -0.12428986 0.017419271 5.3480654e-39
0.064617455 -0.12428986 0.017419271 5.1629525e-39
-0.079908684 -0.13623528 -0.020554014 6.5437093e-39
-0.078050092 -0.13623528 -0.020554014 7.929515e-39
-0.0761915 -0.13623528 -0.020554014 7.5639611e-39
-0.074332908 -0.13623528 -0.020554014 1.0791547e-38
-0.072474316 -0.13623528 -0.020554014 1.2724826e-38
-0.070615724 -0.13623528 -0.020554014 9.1281199e-39
-0.068817869 -0.13704078 -0.023566432 9.5901364e-39
-0.066953994 -0.13704078 -0.023566432 2.3418031e-38
-0.065157473 -0.13812189 -0.027609773 2.2680478e-38
-0.063286506 -0.13812189 -0.027609773 2.3325494e-38
-0.061362375 -0.13704078 -0.023566432 2.341769e-38
-0.0594985 -0.13704078 -0.023566432 2.3509879e-38
-0.057634626 -0.13704078 -0.023566432 2.3418029e-38
-0.055746984 -0.13623528 -0.020554014 2.2681196e-38
-0.053888392 -0.13623528 -0.020554014 2.3141109e-38
-0.0520298 -0.13623528 -0.020554014 2.3142185e-38
-0.046459261 -0.134638 -0.014580198 2.0010019e-38
-0.039098777 -0.13355388 -0.010525651 2.3509149e-38
-0.037257768 -0.13355388 -0.010525651 1.6035895e-38
-0.035450257 -0.13276802 -0.0075865462 1.1332107e-38
-0.033614401 -0.13276802 -0.0075865462 1.3635555e-38
-0.031734742 -0.13355388 -0.010525651 2.2946594e-38
-0.029893734 -0.13355388 -0.010525651 2.3508053e-38
-0.028106833 -0.13276802 -0.0075865462 2.3508413e-38
-0.026270978 -0.13276802 -0.0075865462 2.3506974e-38
-0.024435122 -0.13276802 -0.0075865462 2.3508774e-38
-0.022599267 -0.13276802 -0.0075865462 2.3508769e-38
-0.02076341 -0.13276802 -0.0075865462 2.2955588e-38
-0.018927554 -0.13276802 -0.0075865462 2.3231456e-38
-0.017091699 -0.13276802 -0.0075865462 2.3506248e-38
-0.015255842 -0.13276802 -0.0075865462 1.7879439e-38
-0.013419986 -0.13276802 -0.0075865462 1.2162231e-38
-0.011584133 -0.13276802 -0.0075865462 6.4453858e-39
-0.0097482763 -0.13276802 -0.0075865462 5.8907729e-39
-0.0079124197 -0.13276802 -0.0075865462 1.1699814e-38
-0.0060765631 -0.13276802 -0.0075865462 1.3544081e-38
-0.0043655746 -0.13195769 -0.0045560077 1.9354195e-38
-0.002535034 -0.13195769 -0.0045560077 1.9632929e-38
-0.00083920732 -0.13115202 -0.0015428737 1.3456886e-38
0.00098605081 -0.13115202 -0.0015428737 1.0323663e-38
0.002811309 -0.13115202 -0.0015428737 1.198246e-38
0.0046365708 -0.13115202 -0.0015428737 2.0186789e-38
0.0064618289 -0.13115202 -0.0015428737 2.3506913e-38
0.0082870871 -0.13115202 -0.0015428737 2.3505837e-38
0.010112345 -0.13115202 -0.0015428737 2.295123e-38
0.011937607 -0.13115202 -0.0015428737 2.3509095e-38
0.013762865 -0.13115202 -0.0015428737 2.3233229e-38
0.015588123 -0.13115202 -0.0015428737 2.3234299e-38
0.017413381 -0.13115202 -0.0015428737 2.286552e-38
0.019431476 -0.13195769 -0.0045560077 1.9454292e-38
0.021063905 -0.13115202 -0.0015428737 2.3974087e-39
0.022889163 -0.13115202 -0.0015428737 5.715392e-39
0.024714421 -0.13115202 -0.0015428737 2.2124793e-38
0.026326951 -0.13035102 0.0014528558 1.8160028e-38
0.027860839 -0.1292996 0.0053850934 1.2165867e-38
0.029673953 -0.1292996 0.0053850934 1.0690355e-38
0.031253565 -0.12848105 0.0084465072 1.2810114e-38
0.033061314 -0.12848105 0.0084465072 1.3363273e-38
0.035113286 -0.1292996 0.0053850934 1.3546574e-38
0.036926404 -0.1292996 0.0053850934 1.2900485e-38
0.038739517 -0.1292996 0.0053850934 1.3636976e-38
0.040552616 -0.1292996 0.0053850934 1.4559658e-38
0.042707011 -0.13035102 0.0014528558 1.0318662e-38
0.04479228 -0.13115202 -0.0015428737 6.2609721e-39
0.046617538 -0.13115202 -0.0015428737 9.8566017e-39
0.048167035 -0.13035102 0.0014528558 1.2806865e-38
0.049987048 -0.13035102 0.0014528558 1.7140781e-38
0.051807046 -0.13035102 0.0014528558 1.5390511e-38
0.053627059 -0.13035102 0.0014528558 1.3271818e-38
0.055057526 -0.1292996 0.0053850934 2.3046008e-38
0.056265727 -0.12769531 0.011385135 2.3324401e-38
0.05806832 -0.12769531 0.011385135 2.350988e-38
0.059555247 -0.12688623 0.014411025 2.2680841e-38
0.061352536 -0.12688623 0.014411025 2.2219866e-38
0.062825441 -0.12608187 0.017419271 6.0849116e-39
0.064617455 -0.12608187 0.017419271 4.7938098e-39
0.066409454 -0.12608187 0.017419271 7.8362656e-39
-0.081767276 -0.13809387 -0.020554014 9.4017738e-39
-0.079908684 -0.13809387 -0.020554014 1.299704e-38
-0.078050092 -0.13809387 -0.020554014 1.9729831e-38
-0.076273367 -0.13890465 -0.023566432 1.521655e-38
-0.074332908 -0.13809387 -0.020554014 1.4479724e-38
-0.072474316 -0.13809387 -0.020554014 1.5307374e-38
-0.070615724 -0.13809387 -0.020554014 1.2724826e-38
-0.068817869 -0.13890465 -0.023566432 1.4662339e-38
-0.066953994 -0.13890465 -0.023566432 2.3142528e-38
-0.06509012 -0.13890465 -0.023566432 2.2866308e-38
-0.063226245 -0.13890465 -0.023566432 2.3234379e-38
-0.061362375 -0.13890465 -0.023566432 2.2958151e-38
-0.0594985 -0.13890465 -0.023566432 2.3141816e-38
-0.05757669 -0.13728772 -0.017558642 2.3418035e-38
-0.05572335 -0.13728772 -0.017558642 2.2127664e-38
-0.053870011 -0.13728772 -0.017558642 1.0509612e-38
-0.052016668 -0.13728772 -0.017558642 7.3763917e-39
-0.050155498 -0.13648613 -0.014580198 1.327902e-38
-0.048307378 -0.13648613 -0.014580198 2.2683313e-38
-0.042763025 -0.13648613 -0.014580198 2.350986e-38
-0.040939786 -0.13539489 -0.010525651 2.3139646e-38
-0.039098777 -0.13539489 -0.010525651 2.3322243e-38
-0.037257768 -0.13539489 -0.010525651 1.2349876e-38
-0.035450257 -0.13460387 -0.0075865462 1.1519375e-38
-0.033614401 -0.13460387 -0.0075865462 2.0738574e-38
-0.031778544 -0.13460387 -0.0075865462 2.3504093e-38
-0.029942689 -0.13460387 -0.0075865462 2.3508423e-38
-0.028106833 -0.13460387 -0.0075865462 2.350879e-38
-0.026270978 -0.13460387 -0.0075865462 2.3509153e-38
-0.024435122 -0.13460387 -0.0075865462 2.3509161e-38
-0.022599267 -0.13460387 -0.0075865462 2.3509873e-38
-0.02076341 -0.13460387 -0.0075865462 2.323435e-38
-0.018927554 -0.13460387 -0.0075865462 2.3050316e-38
-0.017179372 -0.13378824 -0.0045560077 2.350986e-38
-0.015348829 -0.13378824 -0.0045560077 1.502606e-38
-0.013518289 -0.13378824 -0.0045560077 6.0819983e-39
-0.011687744 -0.13378824 -0.0045560077 4.0522497e-39
-0.0098572038 -0.13378824 -0.0045560077 6.4478955e-39
-0.0080266595 -0.13378824 -0.0045560077 1.2901946e-38
-0.0061961189 -0.13378824 -0.0045560077 1.4745858e-38
-0.0043655746 -0.13378824 -0.0045560077 2.1200265e-38
-0.002535034 -0.13378824 -0.0045560077 1.7329483e-38
-0.00083920732 -0.13297729 -0.0015428737 1.1337834e-38
0.00098605081 -0.13297729 -0.0015428737 1.0231833e-38
0.0026668645 -0.13217102 0.0014528558 1.4933802e-38
0.0044868737 -0.13217102 0.0014528558 2.2031418e-38
0.0063068792 -0.13217102 0.0014528558 2.3507627e-38
0.0081268847 -0.13217102 0.0014528558 2.3503311e-38
0.0099468939 -0.13217102 0.0014528558 2.3504761e-38
0.011766899 -0.13217102 0.0014528558 2.350982e-38
0.013586905 -0.13217102 0.0014528558 2.3142118e-38
0.01540691 -0.13217102 0.0014528558 2.341798e-38
0.017226923 -0.13217102 0.0014528558 2.3234309e-38
0.01923864 -0.13297729 -0.0015428737 1.9363179e-38
0.020866934 -0.13217102 0.0014528558 2.0293492e-39
0.02268694 -0.13217102 0.0014528558 5.8997832e-39
0.024714421 -0.13297729 -0.0015428737 2.2125512e-38
0.026326951 -0.13217102 0.0014528558 1.7883442e-38
0.027638081 -0.13028879 0.0084465072 1.1705608e-38
0.029445823 -0.13028879 0.0084465072 1.1798144e-38
0.031029437 -0.1294979 0.011385135 1.4932056e-38
0.03283203 -0.1294979 0.011385135 1.4377787e-38
0.034869056 -0.13028879 0.0084465072 1.3179234e-38
0.036676794 -0.13028879 0.0084465072 1.2717537e-38
0.038484544 -0.13028879 0.0084465072 1.3361831e-38
0.040292293 -0.13028879 0.0084465072 1.2256209e-38
0.042100042 -0.13028879 0.0084465072 1.0042436e-38
0.044178843 -0.13111271 0.0053850934 7.8293796e-39
0.046347022 -0.13217102 0.0014528558 1.0871835e-38
0.047805071 -0.13111271 0.0053850934 1.2531357e-38
0.049618185 -0.13111271 0.0053850934 1.5850761e-38
0.051807046 -0.13217102 0.0014528558 1.4007577e-38
0.053627059 -0.13217102 0.0014528558 1.3824992e-38
0.055057526 -0.13111271 0.0053850934 2.3508065e-38
0.056265727 -0.1294979 0.011385135 2.3509513e-38
0.05806832 -0.1294979 0.011385135 2.350988e-38
0.059870914 -0.1294979 0.011385135 2.2957428e-38
0.061352536 -0.12868352 0.014411025 2.2034756e-38
0.062825441 -0.12787388 0.017419271 6.6380825e-39
0.064617455 -0.12787388 0.017419271 5.5313721e-39
0.066409454 -0.12787388 0.017419271 7.9284584e-39
-0.083625868 -0.13995247 -0.020554014 1.0046427e-38
-0.081767276 -0.13995247 -0.020554014 1.2259119e-38
-0.079908684 -0.13995247 -0.020554014 1.5577799e-38
-0.078050092 -0.13995247 -0.020554014 1.9452523e-38
-0.076273367 -0.14076851 -0.023566432 1.9363906e-38
-0.074332908 -0.13995247 -0.020554014 1.67846e-38
-0.072474316 -0.13995247 -0.020554014 1.7611897e-38
-0.070681743 -0.14076851 -0.023566432 1.6597397e-38
-0.068817869 -0.14076851 -0.023566432 2.0562865e-38
-0.066953994 -0.14076851 -0.023566432 2.2958866e-38
-0.06509012 -0.14076851 -0.023566432 2.2775196e-38
-0.063226245 -0.14076851 -0.023566432 2.295887e-38
-0.061362375 -0.14076851 -0.023566432 2.3142541e-38
-0.0594985 -0.14076851 -0.023566432 2.3234374e-38
-0.05757669 -0.13914107 -0.017558642 2.2035823e-38
-0.05572335 -0.13914107 -0.017558642 1.5673254e-38
-0.053851731 -0.13833423 -0.014580198 8.2039943e-39
-0.052003615 -0.13833423 -0.014580198 5.8987295e-39
-0.050155498 -0.13833423 -0.014580198 1.0234032e-38
-0.048307378 -0.13833423 -0.014580198 2.212832e-38
-0.046459261 -0.13833423 -0.014580198 1.7335226e-38
-0.044621807 -0.13723589 -0.010525651 8.5762899e-39
-0.042780798 -0.13723589 -0.010525651 1.5489178e-38
-0.040939786 -0.13723589 -0.010525651 2.1204245e-38
-0.039098777 -0.13723589 -0.010525651 2.3509153e-38
-0.037286114 -0.13643973 -0.0075865462 1.2534988e-38
-0.035450257 -0.13643973 -0.0075865462 9.4013927e-39
-0.033614401 -0.13643973 -0.0075865462 2.3508762e-38
-0.031778544 -0.13643973 -0.0075865462 2.3509143e-38
-0.029942689 -0.13643973 -0.0075865462 2.3508437e-38
-0.028106833 -0.13643973 -0.0075865462 2.3507003e-38
-0.026270978 -0.13643973 -0.0075865462 2.3507016e-38
-0.024435122 -0.13643973 -0.0075865462 2.3508809e-38
-0.022599267 -0.13643973 -0.0075865462 2.3509527e-38
-0.02076341 -0.13643973 -0.0075865462 2.3418043e-38
-0.018927554 -0.13643973 -0.0075865462 2.3234367e-38
-0.017179372 -0.13561879 -0.0045560077 2.3418045e-38
-0.015348829 -0.13561879 -0.0045560077 1.4475419e-38
-0.013518289 -0.13561879 -0.0045560077 5.7160926e-39
-0.011687744 -0.13561879 -0.0045560077 5.8997468e-39
-0.0099655055 -0.13480256 -0.0015428737 8.6648856e-39
-0.0081402473 -0.13480256 -0.0015428737 1.2720051e-38
-0.0063149855 -0.13480256 -0.0015428737 1.3641655e-38
-0.0044897273 -0.13480256 -0.0015428737 1.8988648e-38
-0.0026644692 -0.13480256 -0.0015428737 1.4656174e-38
-0.00083920732 -0.13480256 -0.0015428737 7.005014e-39
0.00098605081 -0.13480256 -0.0015428737 6.4521863e-39
0.0026668645 -0.13399105 0.0014528558 1.4749422e-38
0.0044868737 -0.13399105 0.0014528558 2.1109827e-38
0.0063068792 -0.13399105 0.0014528558 2.230764e-38
0.0081268847 -0.13399105 0.0014528558 2.1107655e-38
0.0099468939 -0.13399105 0.0014528558 2.2676074e-38
0.011766899 -0.13399105 0.0014528558 2.3509823e-38
0.013355941 -0.13292582 0.0053850934 2.3141767e-38
0.015169051 -0.13292582 0.0053850934 2.3234313e-38
0.016982164 -0.13292582 0.0053850934 2.3142476e-38
0.019046929 -0.13399105 0.0014528558 1.8902203e-38
0.020608392 -0.13292582 0.0053850934 1.1074069e-39
0.022421498 -0.13292582 0.0053850934 5.2551341e-39
0.024234612 -0.13292582 0.0053850934 2.1389023e-38
0.026047725 -0.13292582 0.0053850934 1.9543681e-38
0.027638081 -0.13209651 0.0084465072 1.1337904e-38
0.029226843 -0.13130049 0.011385135 1.2352037e-38
0.031029437 -0.13130049 0.011385135 1.5947647e-38
0.03283203 -0.13130049 0.011385135 1.4471426e-38
0.034634624 -0.13130049 0.011385135 1.2443114e-38
0.036437213 -0.13130049 0.011385135 1.179631e-38
0.038239807 -0.13130049 0.011385135 1.032082e-38
0.0400424 -0.13130049 0.011385135 1.1980705e-38
0.041844994 -0.13130049 0.011385135 8.4765525e-39
0.043907776 -0.13209651 0.0084465072 5.3415381e-39
0.045715526 -0.13209651 0.0084465072 7.8297412e-39
0.047252774 -0.13130049 0.011385135 1.1517566e-38
0.049055353 -0.13130049 0.011385135 1.6589049e-38
0.050857946 -0.13130049 0.011385135 1.3823547e-38
0.05266054 -0.13130049 0.011385135 1.3548768e-38
0.054463133 -0.13130049 0.011385135 2.3509866e-38
0.056265727 -0.13130049 0.011385135 2.3509873e-38
0.057757959 -0.13048081 0.014411025 2.3418045e-38
0.059555247 -0.13048081 0.014411025 2.2958507e-38
0.061352536 -0.13048081 0.014411025 2.1390102e-38
0.06314981 -0.13048081 0.014411025 7.0068651e-39
0.064947098 -0.13048081 0.014411025 6.3611327e-39
-0.08548446 -0.14181106 -0.020554014 1.3456948e-38
-0.083625868 -0.14181106 -0.020554014 1.3456947e-38
-0.081767276 -0.14181106 -0.020554014 2.0739675e-38
-0.079908684 -0.14181106 -0.020554014 2.2307001e-38
-0.078050092 -0.14181106 -0.020554014 2.157158e-38
-0.076273367 -0.14263238 -0.023566432 1.9547567e-38
-0.074332908 -0.14181106 -0.020554014 1.8902931e-38
-0.072474316 -0.14181106 -0.020554014 1.8809348e-38
-0.070681743 -0.14263238 -0.023566432 1.8532779e-38
-0.068817869 -0.14263238 -0.023566432 2.2867037e-38
-0.066953994 -0.14263238 -0.023566432 2.2958873e-38
-0.065039948 -0.14181106 -0.020554014 2.2867034e-38
-0.063181356 -0.14181106 -0.020554014 2.2130541e-38
-0.06132276 -0.14181106 -0.020554014 2.3050704e-38
-0.059464168 -0.14181106 -0.020554014 2.0192638e-38
-0.05757669 -0.14099441 -0.017558642 1.3183972e-38
-0.05572335 -0.14099441 -0.017558642 6.4357435e-40
-0.053851731 -0.14018236 -0.014580198 6.4286249e-40
-0.052003615 -0.14018236 -0.014580198 2.0239823e-39
-0.050155498 -0.14018236 -0.014580198 1.0876151e-38
-0.048307378 -0.14018236 -0.014580198 2.3509087e-38
-0.046459261 -0.14018236 -0.014580198 1.9175888e-38
-0.044621807 -0.1390769 -0.010525651 2.6725564e-39
-0.042780798 -0.1390769 -0.010525651 4.3313351e-39
-0.040957823 -0.13827558 -0.0075865462 2.3509846e-38
-0.039121971 -0.13827558 -0.0075865462 2.3414072e-38
-0.037286114 -0.13827558 -0.0075865462 1.2350596e-38
-0.035450257 -0.13827558 -0.0075865462 1.4656544e-38
-0.033614401 -0.13827558 -0.0075865462 2.2862673e-38
-0.031778544 -0.13827558 -0.0075865462 2.350843e-38
-0.029942689 -0.13827558 -0.0075865462 2.3508084e-38
-0.028106833 -0.13827558 -0.0075865462 2.3508807e-38
-0.026270978 -0.13827558 -0.0075865462 2.3508809e-38
-0.024435122 -0.13827558 -0.0075865462 2.3138956e-38
-0.022670999 -0.13744931 -0.0045560077 2.2955644e-38
-0.020840457 -0.13744931 -0.0045560077 2.3509518e-38
-0.019009914 -0.13744931 -0.0045560077 2.3234004e-38
-0.017179372 -0.13744931 -0.0045560077 2.2681564e-38
-0.015441284 -0.13662781 -0.0015428737 2.3142174e-38
-0.013616022 -0.13662781 -0.0015428737 2.3509851e-38
-0.011790764 -0.13662781 -0.0015428737 2.3509831e-38
-0.0099655055 -0.13662781 -0.0015428737 2.2125794e-38
-0.0081402473 -0.13662781 -0.0015428737 1.779116e-38
-0.0064331666 -0.13581105 0.0014528558 1.7514224e-38
-0.0046131611 -0.13581105 0.0014528558 2.1662677e-38
-0.0026644692 -0.13662781 -0.0015428737 1.7882665e-38
-0.00097314641 -0.13581105 0.0014528558 7.6489498e-39
0.00084685907 -0.13581105 0.0014528558 5.8057421e-39
0.0026668645 -0.13581105 0.0014528558 1.5579184e-38
0.0044868737 -0.13581105 0.0014528558 2.1847392e-38
0.0063068792 -0.13581105 0.0014528558 2.350726e-38
0.0081268847 -0.13581105 0.0014528558 2.2767174e-38
0.0099468939 -0.13581105 0.0014528558 2.3509795e-38
0.011542827 -0.13473894 0.0053850934 2.3509834e-38
0.013176121 -0.13390426 0.0084465072 2.3509841e-38
0.014983866 -0.13390426 0.0084465072 2.3509834e-38
0.016791608 -0.13390426 0.0084465072 2.3509828e-38
0.018795278 -0.13473894 0.0053850934 1.9730529e-38
0.020407099 -0.13390426 0.0084465072 2.120826e-39
0.022214849 -0.13390426 0.0084465072 7.1905206e-39
0.02402259 -0.13390426 0.0084465072 2.3047463e-38
0.025830332 -0.13390426 0.0084465072 2.1572338e-38
0.027638081 -0.13390426 0.0084465072 1.0969475e-38
0.029226843 -0.13310309 0.011385135 1.1522273e-38
0.031029437 -0.13310309 0.011385135 1.502569e-38
0.03283203 -0.13310309 0.011385135 1.4011527e-38
0.034634624 -0.13310309 0.011385135 1.3088847e-38
0.03619051 -0.1322781 0.014411025 1.1981426e-38
0.037987798 -0.1322781 0.014411025 7.0950572e-39
0.039785087 -0.1322781 0.014411025 6.541889e-39
0.041582376 -0.1322781 0.014411025 6.5418862e-39
0.043379664 -0.1322781 0.014411025 6.5411631e-39
0.045450181 -0.13310309 0.011385135 8.6609438e-39
0.047252774 -0.13310309 0.011385135 1.1887072e-38
0.049055353 -0.13310309 0.011385135 1.7142945e-38
0.050857946 -0.13310309 0.011385135 1.3364008e-38
0.05266054 -0.13310309 0.011385135 1.24435e-38
0.054463133 -0.13310309 0.011385135 2.3509866e-38
0.05596067 -0.1322781 0.014411025 2.3234004e-38
0.0574494 -0.13145791 0.017419271 2.3234374e-38
0.059241414 -0.13145791 0.017419271 2.3142539e-38
0.061352536 -0.1322781 0.014411025 2.0653616e-38
0.06314981 -0.1322781 0.014411025 6.9153855e-39
0.065278694 -0.13310309 0.011385135 6.4540458e-39
0.067081288 -0.13310309 0.011385135 7.9291759e-39
-0.08548446 -0.14366965 -0.020554014 1.2073658e-38
-0.083523452 -0.14284773 -0.017558642 1.1980738e-38
-0.081670113 -0.14284773 -0.017558642 2.0001392e-38
-0.079816774 -0.14284773 -0.017558642 2.1845304e-38
-0.078050092 -0.14366965 -0.020554014 2.1293551e-38
-0.0761915 -0.14366965 -0.020554014 2.0651748e-38
-0.074332908 -0.14366965 -0.020554014 2.1390403e-38
-0.072474316 -0.14366965 -0.020554014 1.9729851e-38
-0.070615724 -0.14366965 -0.020554014 2.0098298e-38
-0.068817869 -0.14449625 -0.023566432 2.3234379e-38
-0.066953994 -0.14449625 -0.023566432 2.3142544e-38
-0.065039948 -0.14366965 -0.020554014 2.295887e-38
-0.063181356 -0.14366965 -0.020554014 2.2775192e-38
-0.06132276 -0.14366965 -0.020554014 2.2498245e-38
-0.059464168 -0.14366965 -0.020554014 1.4014452e-38
-0.05757669 -0.14284773 -0.017558642 8.4802057e-39
-0.05572335 -0.14284773 -0.017558642 1.7474094e-39
-0.053851731 -0.14203046 -0.014580198 2.0211166e-39
-0.052003615 -0.14203046 -0.014580198 3.0341643e-39
-0.050144833 -0.14091791 -0.010525651 1.1793418e-38
-0.048303824 -0.14091791 -0.010525651 2.0828927e-38
-0.046462815 -0.14091791 -0.010525651 1.8340732e-38
-0.044621807 -0.14091791 -0.010525651 1.5615622e-39
-0.04279368 -0.14011143 -0.0075865462 5.8943336e-39
-0.040957823 -0.14011143 -0.0075865462 2.3505516e-38
-0.039121971 -0.14011143 -0.0075865462 2.3508783e-38
-0.037286114 -0.14011143 -0.0075865462 1.7326998e-38
-0.035450257 -0.14011143 -0.0075865462 1.7421692e-38
-0.033614401 -0.14011143 -0.0075865462 2.3509851e-38
-0.031778544 -0.14011143 -0.0075865462 2.35088e-38
-0.029942689 -0.14011143 -0.0075865462 2.3507363e-38
-0.028106833 -0.14011143 -0.0075865462 2.3509153e-38
-0.026270978 -0.14011143 -0.0075865462 2.3509511e-38
-0.024501542 -0.13927986 -0.0045560077 2.2860913e-38
-0.022670999 -0.13927986 -0.0045560077 2.3508438e-38
-0.02091706 -0.13845308 -0.0015428737 2.350986e-38
-0.019091802 -0.13845308 -0.0015428737 2.3509859e-38
-0.017266542 -0.13845308 -0.0015428737 2.3509521e-38
-0.015441284 -0.13845308 -0.0015428737 2.2494643e-38
-0.013616022 -0.13845308 -0.0015428737 2.3509846e-38
-0.011893187 -0.13763104 0.0014528558 2.3509824e-38
-0.010073181 -0.13763104 0.0014528558 2.3509809e-38
-0.0082531758 -0.13763104 0.0014528558 1.8987897e-38
-0.0064331666 -0.13763104 0.0014528558 1.8987195e-38
-0.0046131611 -0.13763104 0.0014528558 2.0738204e-38
-0.0027931556 -0.13763104 0.0014528558 2.0185397e-38
-0.00097314641 -0.13763104 0.0014528558 8.6616598e-39
0.00084685907 -0.13763104 0.0014528558 6.5429442e-39
0.0026668645 -0.13763104 0.0014528558 1.6131993e-38
0.0042903796 -0.13655205 0.0053850934 2.1294571e-38
0.0061034895 -0.13655205 0.0053850934 2.3322508e-38
0.0079166032 -0.13655205 0.0053850934 2.2860088e-38
0.0097297169 -0.13655205 0.0053850934 2.3508358e-38
0.011542827 -0.13655205 0.0053850934 2.3508755e-38
0.013176121 -0.13571201 0.0084465072 2.3509125e-38
0.01480611 -0.13490568 0.011385135 2.3509831e-38
0.016608704 -0.13490568 0.011385135 2.3509831e-38
0.018599357 -0.13571201 0.0084465072 1.9730166e-38
0.020407099 -0.13571201 0.0084465072 2.8580211e-39
0.022214849 -0.13571201 0.0084465072 9.1262631e-39
0.02381907 -0.13490568 0.011385135 2.3509873e-38
0.025621664 -0.13490568 0.011385135 2.1940754e-38
0.027638081 -0.13571201 0.0084465072 1.1060946e-38
0.029226843 -0.13490568 0.011385135 1.1799213e-38
0.031029437 -0.13490568 0.011385135 1.4933851e-38
0.03283203 -0.13490568 0.011385135 1.4841288e-38
0.034634624 -0.13490568 0.011385135 1.5301543e-38
0.03619051 -0.13407536 0.014411025 1.4562906e-38
0.037987798 -0.13407536 0.014411025 7.0950628e-39
0.039785087 -0.13407536 0.014411025 6.8199192e-39
0.041582376 -0.13407536 0.014411025 7.3730902e-39
0.043379664 -0.13407536 0.014411025 6.3582166e-39
0.045176953 -0.13407536 0.014411025 7.3716469e-39
0.046974242 -0.13407536 0.014411025 1.0689611e-38
0.048771515 -0.13407536 0.014411025 1.7881951e-38
0.050568804 -0.13407536 0.014411025 1.5485229e-38
0.052366093 -0.13407536 0.014411025 1.2721168e-38
0.054463133 -0.13490568 0.011385135 2.3509866e-38
0.05596067 -0.13407536 0.014411025 2.3234364e-38
0.0574494 -0.13324992 0.017419271 2.3142537e-38
0.059241414 -0.13324992 0.017419271 2.3142538e-38
0.061352536 -0.13407536 0.014411025 2.0193354e-38
0.06314981 -0.13407536 0.014411025 6.6398776e-39
0.065278694 -0.13490568 0.011385135 6.0852605e-39
0.067081288 -0.13490568 0.011385135 7.6525862e-39
0.069216207 -0.13571201 0.0084465072 8.2061243e-39
-0.083625868 -0.14552824 -0.020554014 1.1058421e-38
-0.081670113 -0.14470108 -0.017558642 1.9908476e-38
-0.079816774 -0.14470108 -0.017558642 2.101482e-38
-0.078050092 -0.14552824 -0.020554014 1.8802829e-38
-0.0761915 -0.14552824 -0.020554014 1.8620921e-38
-0.074332908 -0.14552824 -0.020554014 2.0466278e-38
-0.072474316 -0.14552824 -0.020554014 1.9266703e-38
-0.070615724 -0.14552824 -0.020554014 2.1387594e-38
-0.068817869 -0.14636014 -0.023566432 2.3509168e-38
-0.066953994 -0.14636014 -0.023566432 2.323402e-38
-0.06509012 -0.14636014 -0.023566432 2.295887e-38
-0.063226245 -0.14636014 -0.023566432 2.3142537e-38
-0.06132276 -0.14552824 -0.020554014 2.3234372e-38
-0.059464168 -0.14552824 -0.020554014 1.2446047e-38
-0.05757669 -0.14470108 -0.017558642 1.3786297e-39
-0.055699851 -0.14387859 -0.014580198 1.1938713e-39
-0.053826854 -0.14275892 -0.010525651 3.770307e-39
-0.051985841 -0.14275892 -0.010525651 8.6548467e-39
-0.050144833 -0.14275892 -0.010525651 1.4002146e-38
-0.048303824 -0.14275892 -0.010525651 1.9257282e-38
-0.046462815 -0.14275892 -0.010525651 1.6306679e-38
-0.044629537 -0.14194728 -0.0075865462 3.6762897e-39
-0.042806964 -0.14111041 -0.0045560077 1.1053692e-38
-0.04097642 -0.14111041 -0.0045560077 2.3503354e-38
-0.039145879 -0.14111041 -0.0045560077 2.3507704e-38
-0.037315339 -0.14111041 -0.0045560077 2.350807e-38
-0.035484795 -0.14111041 -0.0045560077 2.3508053e-38
-0.03365425 -0.14111041 -0.0045560077 2.3507698e-38
-0.03182371 -0.14111041 -0.0045560077 2.3507723e-38
-0.029993167 -0.14111041 -0.0045560077 1.9171648e-38
-0.028162627 -0.14111041 -0.0045560077 1.6499381e-38
-0.026332084 -0.14111041 -0.0045560077 1.5393386e-38
-0.024501542 -0.14111041 -0.0045560077 1.5115725e-38
-0.02274232 -0.14027832 -0.0015428737 1.9356003e-38
-0.02091706 -0.14027832 -0.0015428737 2.3506591e-38
-0.019091802 -0.14027832 -0.0015428737 2.3413684e-38
-0.017266542 -0.14027832 -0.0015428737 2.3414072e-38
-0.015441284 -0.14027832 -0.0015428737 1.732916e-38
-0.013713196 -0.13945107 0.0014528558 2.0647095e-38
-0.011893187 -0.13945107 0.0014528558 2.2029648e-38
-0.010073181 -0.13945107 0.0014528558 2.2212949e-38
-0.0082531758 -0.13945107 0.0014528558 1.6956359e-38
-0.0064331666 -0.13945107 0.0014528558 1.8707372e-38
-0.0047751814 -0.13836516 0.0053850934 2.211862e-38
-0.0029620714 -0.13836516 0.0053850934 2.2581042e-38
-0.0011489578 -0.13836516 0.0053850934 1.1334606e-38
0.00066415593 -0.13836516 0.0053850934 1.0875766e-38
0.0024772659 -0.13836516 0.0053850934 2.000348e-38
0.0042903796 -0.13836516 0.0053850934 2.3509422e-38
0.0061034895 -0.13836516 0.0053850934 2.3509788e-38
0.0079166032 -0.13836516 0.0053850934 2.3509425e-38
0.0097297169 -0.13836516 0.0053850934 2.350981e-38
0.011368379 -0.13751976 0.0084465072 2.3509842e-38
0.013176121 -0.13751976 0.0084465072 2.3509851e-38
0.01480611 -0.13670824 0.011385135 2.3509113e-38
0.016608704 -0.13670824 0.011385135 2.3509825e-38
0.01841129 -0.13670824 0.011385135 1.9083355e-38
0.020213883 -0.13670824 0.011385135 2.9487804e-39
0.022016477 -0.13670824 0.011385135 9.8631009e-39
0.02381907 -0.13670824 0.011385135 2.3509149e-38
0.025621664 -0.13670824 0.011385135 2.2031505e-38
0.027638081 -0.13751976 0.0084465072 1.1798144e-38
0.029226843 -0.13670824 0.011385135 1.3734957e-38
0.031029437 -0.13670824 0.011385135 1.6223869e-38
0.03283203 -0.13670824 0.011385135 1.6223499e-38
0.034393225 -0.13587265 0.014411025 1.6407891e-38
0.03619051 -0.13587265 0.014411025 1.6038039e-38
0.037987798 -0.13587265 0.014411025 7.9251878e-39
0.039529279 -0.13504194 0.017419271 6.1749128e-39
0.041321293 -0.13504194 0.017419271 7.1890647e-39
0.043113306 -0.13504194 0.017419271 6.2667427e-39
0.04490532 -0.13504194 0.017419271 9.492868e-39
0.046697319 -0.13504194 0.017419271 1.3088498e-38
0.048489332 -0.13504194 0.017419271 1.9541834e-38
0.050281346 -0.13504194 0.017419271 1.5394476e-38
0.052073359 -0.13504194 0.017419271 7.9277171e-39
0.054163381 -0.13587265 0.014411025 2.2219847e-38
0.05596067 -0.13587265 0.014411025 2.3234367e-38
0.057757959 -0.13587265 0.014411025 2.2958866e-38
0.059555247 -0.13587265 0.014411025 2.2591519e-38
0.061352536 -0.13587265 0.014411025 1.9641259e-38
0.06314981 -0.13587265 0.014411025 7.1937689e-39
0.065278694 -0.13670824 0.011385135 5.9937837e-39
0.067408457 -0.13751976 0.0084465072 7.2845197e-39
0.069216207 -0.13751976 0.0084465072 8.2072019e-39
-0.083625868 -0.14738683 -0.020554014 1.1333929e-38
-0.081670113 -0.14655443 -0.017558642 2.0460931e-38
-0.079816774 -0.14655443 -0.017558642 2.0921906e-38
-0.078050092 -0.14738683 -0.020554014 1.7326617e-38
-0.076273367 -0.14822401 -0.023566432 1.4101173e-38
-0.074332908 -0.14738683 -0.020554014 1.7328741e-38
-0.072474316 -0.14738683 -0.020554014 1.8157831e-38
-0.070681743 -0.14822401 -0.023566432 2.0647865e-38
-0.068817869 -0.14822401 -0.023566432 2.3508451e-38
-0.066953994 -0.14822401 -0.023566432 2.3508809e-38
-0.065039948 -0.14738683 -0.020554014 2.2681564e-38
-0.063181356 -0.14738683 -0.020554014 2.3050696e-38
-0.06132276 -0.14738683 -0.020554014 2.2864865e-38
-0.059464168 -0.14738683 -0.020554014 1.3642792e-38
-0.05757669 -0.14655443 -0.017558642 9.1837038e-40
-0.055699851 -0.1457267 -0.014580198 1.561216e-39
-0.053771727 -0.1421036 -0.0015428737 3.4908377e-39
-0.051946469 -0.1421036 -0.0015428737 9.8497844e-39
-0.050137103 -0.14378314 -0.0075865462 1.547367e-38
-0.04830125 -0.14378314 -0.0075865462 1.9067856e-38
-0.046465389 -0.14378314 -0.0075865462 1.4734335e-38
-0.044637509 -0.14294095 -0.0045560077 3.2142424e-39
-0.042806964 -0.14294095 -0.0045560077 7.5455873e-39
-0.04097642 -0.14294095 -0.0045560077 2.3504443e-38
-0.039145879 -0.14294095 -0.0045560077 2.3506267e-38
-0.037315339 -0.14294095 -0.0045560077 2.3503392e-38
-0.035484795 -0.14294095 -0.0045560077 2.350554e-38
-0.03365425 -0.14294095 -0.0045560077 2.3508425e-38
-0.03182371 -0.14294095 -0.0045560077 2.3507728e-38
-0.029993167 -0.14294095 -0.0045560077 1.7787623e-38
-0.028162627 -0.14294095 -0.0045560077 1.5023863e-38
-0.026332084 -0.14294095 -0.0045560077 1.5577375e-38
-0.024501542 -0.14294095 -0.0045560077 1.5759974e-38
-0.02274232 -0.1421036 -0.0015428737 1.9723664e-38
-0.02091706 -0.1421036 -0.0015428737 2.3509078e-38
-0.019091802 -0.1421036 -0.0015428737 2.3509814e-38
-0.017266542 -0.1421036 -0.0015428737 2.3509129e-38
-0.015441284 -0.1421036 -0.0015428737 1.2071117e-38
-0.013713196 -0.14127107 0.0014528558 1.0133189e-38
-0.011893187 -0.14127107 0.0014528558 1.179198e-38
-0.010073181 -0.14127107 0.0014528558 1.3818839e-38
-0.0082531758 -0.14127107 0.0014528558 1.6030458e-38
-0.0064331666 -0.14127107 0.0014528558 1.9164763e-38
-0.0047751814 -0.14017828 0.0053850934 2.2576725e-38
-0.0029620714 -0.14017828 0.0053850934 2.2394844e-38
-0.0011489578 -0.14017828 0.0053850934 1.0319358e-38
0.00066415593 -0.14017828 0.0053850934 1.1244169e-38
0.0024772659 -0.14017828 0.0053850934 2.0464797e-38
0.0042903796 -0.14017828 0.0053850934 2.3509782e-38
0.0061034895 -0.14017828 0.0053850934 2.3509782e-38
0.0079166032 -0.14017828 0.0053850934 2.3509796e-38
0.0097297169 -0.14017828 0.0053850934 2.3507297e-38
0.011368379 -0.13932751 0.0084465072 2.3509489e-38
0.013176121 -0.13932751 0.0084465072 2.3509495e-38
0.01480611 -0.13851084 0.011385135 2.3509113e-38
0.016608704 -0.13851084 0.011385135 2.3508023e-38
0.01841129 -0.13851084 0.011385135 1.8806405e-38
0.020213883 -0.13851084 0.011385135 3.5937813e-39
0.022016477 -0.13851084 0.011385135 1.1337505e-38
0.02381907 -0.13851084 0.011385135 2.3509502e-38
0.025621664 -0.13851084 0.011385135 2.2031137e-38
0.027424257 -0.13851084 0.011385135 1.1705583e-38
0.029226843 -0.13851084 0.011385135 1.3826787e-38
0.031029437 -0.13851084 0.011385135 1.6223146e-38
0.03283203 -0.13851084 0.011385135 1.5946912e-38
0.034393225 -0.13766994 0.014411025 1.5300824e-38
0.03619051 -0.13766994 0.014411025 1.5022808e-38
0.037987798 -0.13766994 0.014411025 7.2798184e-39
0.039529279 -0.13683395 0.017419271 5.5299063e-39
0.041321293 -0.13683395 0.017419271 7.1905066e-39
0.043113306 -0.13683395 0.017419271 6.7280837e-39
0.04490532 -0.13683395 0.017419271 1.0507742e-38
0.046697319 -0.13683395 0.017419271 1.1337502e-38
0.048489332 -0.13683395 0.017419271 1.6316069e-38
0.049995571 -0.13600285 0.020409875 1.557923e-38
0.05178234 -0.13600285 0.020409875 8.666001e-39
0.053865373 -0.13683395 0.017419271 1.8809328e-38
0.055355892 -0.13600285 0.020409875 2.3142534e-38
0.05714266 -0.13600285 0.020409875 2.286703e-38
0.058929428 -0.13600285 0.020409875 2.1208945e-38
0.061352536 -0.13766994 0.014411025 1.8903693e-38
0.063476101 -0.13851084 0.011385135 8.5770592e-39
0.065278694 -0.13851084 0.011385135 6.8246206e-39
0.067081288 -0.13851084 0.011385135 7.1934031e-39
0.068883866 -0.13851084 0.011385135 7.7462238e-39
-0.083625868 -0.14924543 -0.020554014 8.384745e-39
-0.081670113 -0.14840777 -0.017558642 1.3546256e-38
-0.079816774 -0.14840777 -0.017558642 1.3731004e-38
-0.078050092 -0.14924543 -0.020554014 1.2809028e-38
-0.0761915 -0.14924543 -0.020554014 1.2163625e-38
-0.074332908 -0.14924543 -0.020554014 1.61284e-38
-0.072474316 -0.14924543 -0.020554014 1.7788678e-38
-0.070615724 -0.14924543 -0.020554014 1.8250765e-38
-0.065039948 -0.14924543 -0.020554014 2.3509883e-38
-0.063181356 -0.14924543 -0.020554014 2.3509876e-38
-0.061283372 -0.14840777 -0.017558642 2.3509517e-38
-0.059430033 -0.14840777 -0.017558642 1.3178933e-38
-0.05757669 -0.14840777 -0.017558642 3.9547095e-39
-0.055644669 -0.14561899 -0.0075865462 3.4919279e-39
-0.053771727 -0.14392884 -0.0015428737 2.2958874e-39
-0.051946469 -0.14392884 -0.0015428737 5.6102217e-39
-0.05012913 -0.1447715 -0.0045560077 1.5014137e-38
-0.04829859 -0.1447715 -0.0045560077 1.4368767e-38
-0.046468049 -0.1447715 -0.0045560077 1.3260661e-38
-0.044637509 -0.1447715 -0.0045560077 3.6734198e-39
-0.042806964 -0.1447715 -0.0045560077 6.0708285e-39
-0.040994912 -0.14392884 -0.0015428737 1.8333918e-38
-0.039169654 -0.14392884 -0.0015428737 1.9348803e-38
-0.037315339 -0.1447715 -0.0045560077 1.6952439e-38
-0.035484795 -0.1447715 -0.0045560077 1.6584373e-38
-0.03365425 -0.1447715 -0.0045560077 2.165586e-38
-0.03182371 -0.1447715 -0.0045560077 2.2668957e-38
-0.029993167 -0.1447715 -0.0045560077 1.7414873e-38
-0.028162627 -0.1447715 -0.0045560077 1.916835e-38
-0.026392838 -0.14392884 -0.0015428737 2.3502603e-38
-0.02456758 -0.14392884 -0.0015428737 2.2948709e-38
-0.02274232 -0.14392884 -0.0015428737 2.3132376e-38
-0.02091706 -0.14392884 -0.0015428737 2.3507269e-38
-0.019091802 -0.14392884 -0.0015428737 2.3504404e-38
-0.017266542 -0.14392884 -0.0015428737 2.3505888e-38
-0.015441284 -0.14392884 -0.0015428737 9.8555451e-39
-0.013713196 -0.14309107 0.0014528558 5.0609982e-39
-0.011893187 -0.14309107 0.0014528558 6.4428424e-39
-0.010214519 -0.14199139 0.0053850934 8.3767899e-39
-0.0084014088 -0.14199139 0.0053850934 1.6490005e-38
-0.0065882951 -0.14199139 0.0053850934 2.0084206e-38
-0.0049013235 -0.14113526 0.0084465072 2.2943346e-38
-0.0030935779 -0.14113526 0.0084465072 2.1470004e-38
-0.0011489578 -0.14199139 0.0053850934 7.734998e-39
0.00066415593 -0.14199139 0.0053850934 8.7509281e-39
0.0024772659 -0.14199139 0.0053850934 1.834106e-38
0.0042903796 -0.14199139 0.0053850934 2.3506895e-38
0.0061034895 -0.14199139 0.0053850934 2.3505103e-38
0.0079166032 -0.14199139 0.0053850934 2.3505477e-38
0.0097297169 -0.14199139 0.0053850934 2.3041279e-38
0.011368379 -0.14113526 0.0084465072 2.2673236e-38
0.013176121 -0.14113526 0.0084465072 2.3411526e-38
0.01480611 -0.14031343 0.011385135 2.221369e-38
0.016608704 -0.14031343 0.011385135 2.1937817e-38
0.01841129 -0.14031343 0.011385135 1.769718e-38
0.020014931 -0.13946722 0.014411025 3.4075991e-39
0.021812219 -0.13946722 0.014411025 1.1888878e-38
0.023609508 -0.13946722 0.014411025 2.3508781e-38
0.025621664 -0.14031343 0.011385135 2.2028972e-38
0.027424257 -0.14031343 0.011385135 1.0781104e-38
0.029226843 -0.14031343 0.011385135 1.2164389e-38
0.031029437 -0.14031343 0.011385135 1.4654025e-38
0.032595944 -0.13946722 0.014411025 1.5115001e-38
0.034393225 -0.13946722 0.014411025 1.4008653e-38
0.03619051 -0.13946722 0.014411025 1.3455128e-38
0.037737265 -0.13862596 0.017419271 6.2645945e-39
0.039529279 -0.13862596 0.017419271 5.3448004e-39
0.041321293 -0.13862596 0.017419271 6.174561e-39
0.043113306 -0.13862596 0.017419271 5.4366345e-39
0.04490532 -0.13862596 0.017419271 1.1889244e-38
0.046697319 -0.13862596 0.017419271 1.3364011e-38
0.048489332 -0.13862596 0.017419271 1.7052199e-38
0.049995571 -0.13778962 0.020409875 1.6039848e-38
0.05178234 -0.13778962 0.020409875 7.1901521e-39
0.053865373 -0.13862596 0.017419271 1.5766153e-38
0.055056155 -0.13695817 0.023382954 2.2774467e-38
0.056837708 -0.13695817 0.023382954 2.2867029e-38
0.058929428 -0.13778962 0.020409875 1.9918206e-38
0.061352536 -0.13946722 0.014411025 1.835052e-38
0.063476101 -0.14031343 0.011385135 9.7752465e-39
0.065278694 -0.14031343 0.011385135 7.8387753e-39
0.067081288 -0.14031343 0.011385135 7.6533051e-39
-0.063092321 -0.14942293 -0.014580198 2.3508445e-38
-0.061244205 -0.14942293 -0.014580198 2.350629e-38
-0.059396088 -0.14942293 -0.014580198 1.6030882e-38
-0.057508871 -0.14828195 -0.010525651 1.0497337e-38
-0.05562076 -0.14660202 -0.0045560077 4.3205843e-39
-0.053790219 -0.14660202 -0.0045560077 2.2040519e-39
-0.051959675 -0.14660202 -0.0045560077 3.4011419e-39
-0.05012913 -0.14660202 -0.0045560077 9.4896142e-39
-0.048295949 -0.14575411 -0.0015428737 1.2441316e-38
-0.046470691 -0.14575411 -0.0015428737 1.1702346e-38
-0.044645429 -0.14575411 -0.0015428737 1.9289042e-39
-0.042820171 -0.14575411 -0.0015428737 3.4958473e-39
-0.040994912 -0.14575411 -0.0015428737 1.2899043e-38
-0.039169654 -0.14575411 -0.0015428737 1.7230785e-38
-0.037315339 -0.14660202 -0.0045560077 1.529287e-38
-0.035484795 -0.14660202 -0.0045560077 1.4737902e-38
-0.03365425 -0.14660202 -0.0045560077 1.9990907e-38
-0.031868614 -0.14575411 -0.0015428737 2.3308177e-38
-0.030043356 -0.14575411 -0.0015428737 2.2754654e-38
-0.028218098 -0.14575411 -0.0015428737 2.0635233e-38
-0.026392838 -0.14575411 -0.0015428737 2.3501572e-38
-0.02456758 -0.14575411 -0.0015428737 2.3503363e-38
-0.02274232 -0.14575411 -0.0015428737 2.0640242e-38
-0.02091706 -0.14575411 -0.0015428737 1.5940046e-38
-0.019091802 -0.14575411 -0.0015428737 2.3502618e-38
-0.017266542 -0.14575411 -0.0015428737 2.3500501e-38
-0.015441284 -0.14575411 -0.0015428737 9.7626474e-39
-0.013713196 -0.14491107 0.0014528558 6.5350703e-39
-0.011893187 -0.14491107 0.0014528558 5.7049369e-39
-0.010214519 -0.14380451 0.0053850934 6.9016738e-39
-0.0084014088 -0.14380451 0.0053850934 1.5198916e-38
-0.0065882951 -0.14380451 0.0053850934 1.7226497e-38
-0.0049013235 -0.14294298 0.0084465072 2.0729206e-38
-0.0030935779 -0.14294298 0.0084465072 1.8793454e-38
-0.0011489578 -0.14380451 0.0053850934 7.3615477e-39
0.00066415593 -0.14380451 0.0053850934 7.2697122e-39
0.0024772659 -0.14380451 0.0053850934 1.8334247e-38
0.0042903796 -0.14380451 0.0053850934 2.2206817e-38
0.0061034895 -0.14380451 0.0053850934 2.3499352e-38
0.0079166032 -0.14380451 0.0053850934 2.2668871e-38
0.0097297169 -0.14380451 0.0053850934 1.944239e-38
0.011368379 -0.14294298 0.0084465072 1.9257291e-38
0.013176121 -0.14294298 0.0084465072 2.1840213e-38
0.01480611 -0.14211603 0.011385135 2.2487026e-38
0.016608704 -0.14211603 0.011385135 2.1473959e-38
0.01841129 -0.14211603 0.011385135 1.8800657e-38
0.020014931 -0.14126451 0.014411025 2.8519226e-39
0.021812219 -0.14126451 0.014411025 1.068818e-38
0.023609508 -0.14126451 0.014411025 2.1659107e-38
0.025621664 -0.14211603 0.011385135 2.0275096e-38
0.027424257 -0.14211603 0.011385135 1.1147729e-38
0.029226843 -0.14211603 0.011385135 1.2162237e-38
0.031029437 -0.14211603 0.011385135 1.3729559e-38
0.032595944 -0.14126451 0.014411025 1.3361856e-38
0.034393225 -0.14126451 0.014411025 1.3730999e-38
0.03619051 -0.14126451 0.014411025 1.2071483e-38
0.037737265 -0.14041798 0.017419271 5.7103487e-39
0.039529279 -0.14041798 0.017419271 5.8029129e-39
0.041582376 -0.14126451 0.014411025 4.3267066e-39
0.043113306 -0.14041798 0.017419271 5.7096326e-39
0.04490532 -0.14041798 0.017419271 1.1794178e-38
0.046697319 -0.14041798 0.017419271 1.4283456e-38
0.048489332 -0.14041798 0.017419271 1.7511022e-38
0.049711481 -0.13873972 0.023382954 1.5668552e-38
0.051493034 -0.13873972 0.023382954 8.6631242e-39
0.053274587 -0.13873972 0.023382954 1.4381061e-38
0.054747909 -0.13787933 0.026440434 2.2312047e-38
0.056524098 -0.13787933 0.026440434 2.0653612e-38
0.058300287 -0.13787933 0.026440434 2.0377745e-38
0.06007649 -0.13787933 0.026440434 1.6228226e-38
-0.05562076 -0.14843257 -0.0045560077 1.0034181e-38
-0.053771727 -0.14757936 -0.0015428737 5.8871842e-39
-0.051946469 -0.14757936 -0.0015428737 3.4011419e-39
-0.050121211 -0.14757936 -0.0015428737 7.4623978e-39
-0.048295949 -0.14757936 -0.0015428737 1.1613362e-38
-0.046470691 -0.14757936 -0.0015428737 9.9545847e-39
-0.044645429 -0.14757936 -0.0015428737 1.2874906e-39
-0.042820171 -0.14757936 -0.0015428737 1.1938615e-39
-0.040994912 -0.14757936 -0.0015428737 6.7237341e-39
-0.039169654 -0.14757936 -0.0015428737 1.3543311e-38
-0.037344392 -0.14757936 -0.0015428737 1.6859466e-38
-0.035519134 -0.14757936 -0.0015428737 1.4551703e-38
-0.03365425 -0.14843257 -0.0045560077 1.4732868e-38
-0.031868614 -0.14757936 -0.0015428737 1.897245e-38
-0.030043356 -0.14757936 -0.0015428737 1.851077e-38
-0.028218098 -0.14757936 -0.0015428737 1.4362701e-38
-0.026392838 -0.14757936 -0.0015428737 1.187522e-38
-0.02456758 -0.14757936 -0.0015428737 8.2820985e-39
-0.02274232 -0.14757936 -0.0015428737 5.6105748e-39
-0.02091706 -0.14757936 -0.0015428737 5.5208917e-39
-0.019091802 -0.14757936 -0.0015428737 1.4188361e-38
-0.017266542 -0.14757936 -0.0015428737 1.5018877e-38
-0.015533201 -0.14673109 0.0014528558 5.7071313e-39
-0.013713196 -0.14673109 0.0014528558 2.6646643e-39
-0.011893187 -0.14673109 0.0014528558 2.8476178e-39
-0.010073181 -0.14673109 0.0014528558 3.1242005e-39
-0.0082531758 -0.14673109 0.0014528558 9.2080093e-39
-0.0065882951 -0.14561762 0.0053850934 1.0959e-38
-0.0049013235 -0.14475073 0.0084465072 1.2710353e-38
-0.0030935779 -0.14475073 0.0084465072 1.1971346e-38
-0.0011489578 -0.14561762 0.0053850934 3.7659728e-39
0.00066415593 -0.14561762 0.0053850934 4.8726623e-39
0.0024772659 -0.14561762 0.0053850934 1.4922308e-38
0.0042903796 -0.14561762 0.0053850934 1.8149504e-38
0.0061034895 -0.14561762 0.0053850934 1.953279e-38
0.0079166032 -0.14561762 0.0053850934 1.8426796e-38
0.0097297169 -0.14561762 0.0053850934 1.575312e-38
0.011368379 -0.14475073 0.0084465072 1.7873622e-38
0.013176121 -0.14475073 0.0084465072 1.88885e-38
0.01480611 -0.14391862 0.011385135 1.7875078e-38
0.016608704 -0.14391862 0.011385135 1.5940783e-38
0.01841129 -0.14391862 0.011385135 1.4558582e-38
0.020014931 -0.1430618 0.014411025 3.0352349e-39
0.021812219 -0.1430618 0.014411025 1.0963691e-38
