# .PCD v0.7 - Point Cloud Data file format
VERSION 0.7
FIELDS x y z rgb
SIZE 4 4 4 4
TYPE F F F F
COUNT 1 1 1 1
WIDTH 931
HEIGHT 1
VIEWPOINT 0 0 0 1 0 0 0
POINTS 931
DATA ascii
-0.016616482 -0.12958528 -0.0063032079 1.5559452e-38
-0.014869582 -0.13063805 -0.010346549 1.3717702e-38
-0.012998618 -0.13063805 -0.010346549 8.5612091e-39
-0.011127658 -0.13063805 -0.010346549 8.8410274e-39
-0.0092566907 -0.13063805 -0.010346549 8.5651594e-39
-0.0072971135 -0.12958528 -0.0063032079 1.2161871e-38
-0.005433239 -0.12958528 -0.0063032079 1.28076e-38
-0.0035693645 -0.12958528 -0.0063032079 7.4613328e-39
-0.0017054901 -0.12958528 -0.0063032079 8.1074211e-39
0.00015838444 -0.12958528 -0.0063032079 7.5542473e-39
0.0020222552 -0.12958528 -0.0063032079 7.0010735e-39
0.0038861297 -0.12958528 -0.0063032079 1.548235e-38
0.011341626 -0.12958528 -0.0063032079 1.1331017e-38
0.013205498 -0.12958528 -0.0063032079 7.9190585e-39
0.015074641 -0.12802102 -0.00029541738 9.6711314e-39
0.01692798 -0.12802102 -0.00029541738 1.9904841e-38
0.018789198 -0.12880091 -0.0032907892 2.3508005e-38
0.020660995 -0.12958528 -0.0063032079 2.1936665e-38
0.022524869 -0.12958528 -0.0063032079 2.3227025e-38
0.024364974 -0.12880091 -0.0032907892 2.202777e-38
0.026223566 -0.12880091 -0.0032907892 2.350653e-38
0.028082158 -0.12880091 -0.0032907892 2.3508372e-38
0.02994075 -0.12880091 -0.0032907892 2.3507676e-38
0.031754702 -0.12802102 -0.00029541738 2.3501555e-38
0.033608042 -0.12802102 -0.00029541738 2.2761829e-38
0.035461381 -0.12802102 -0.00029541738 2.1472522e-38
0.03731472 -0.12802102 -0.00029541738 2.1472535e-38
0.039168064 -0.12802102 -0.00029541738 1.9260578e-38
0.040950902 -0.12724553 0.0026830267 8.6577432e-39
0.042799022 -0.12724553 0.0026830267 7.459221e-39
0.044728085 -0.12802102 -0.00029541738 7.0918776e-39
0.046495259 -0.12724553 0.0026830267 5.9891132e-39
0.048343375 -0.12724553 0.0026830267 5.898714e-39
0.050191492 -0.12724553 0.0026830267 7.3742085e-39
0.051900987 -0.12618984 0.0067375731 1.3091765e-38
0.053741995 -0.12618984 0.0067375731 1.1894276e-38
0.055583004 -0.12618984 0.0067375731 5.6264081e-39
0.057424013 -0.12618984 0.0067375731 3.0438753e-39
0.059265021 -0.12618984 0.0067375731 2.2128746e-38
0.061106034 -0.12618984 0.0067375731 2.3142544e-38
0.062947042 -0.12618984 0.0067375731 2.2958155e-38
-0.061191775 -0.13774733 -0.030330794 2.1023466e-38
-0.059285782 -0.13774733 -0.030330794 2.23135e-38
-0.057175003 -0.13695215 -0.027297156 2.3234379e-38
-0.055274315 -0.13695215 -0.027297156 2.3049991e-38
-0.053121381 -0.13591899 -0.02335562 2.3418047e-38
-0.051041193 -0.13513394 -0.020360725 2.3509869e-38
-0.048910402 -0.13408406 -0.016355412 2.3509866e-38
-0.047028892 -0.13408406 -0.016355412 2.3324407e-38
-0.044804998 -0.13250901 -0.010346549 2.3509527e-38
-0.04293403 -0.13250901 -0.010346549 2.2957796e-38
-0.041063063 -0.13250901 -0.010346549 2.2130554e-38
-0.039192103 -0.13250901 -0.010346549 2.2039425e-38
-0.037119098 -0.13144915 -0.0063032079 2.2499695e-38
-0.035255224 -0.13144915 -0.0063032079 2.0656162e-38
-0.033251382 -0.13065951 -0.0032907892 4.797435e-39
-0.03139279 -0.13065951 -0.0032907892 6.732076e-39
-0.029534198 -0.13065951 -0.0032907892 2.1296805e-38
-0.027799726 -0.13144915 -0.0063032079 2.3505888e-38
-0.025935851 -0.13144915 -0.0063032079 2.350805e-38
-0.024071977 -0.13144915 -0.0063032079 2.349726e-38
-0.022208106 -0.13144915 -0.0063032079 1.6116568e-38
-0.020482473 -0.13250901 -0.010346549 1.5284991e-38
-0.018480357 -0.13144915 -0.0063032079 1.5282477e-38
-0.016616482 -0.13144915 -0.0063032079 1.5465452e-38
-0.014869582 -0.13250901 -0.010346549 1.3347477e-38
-0.012888737 -0.13144915 -0.0063032079 1.1788059e-38
-0.011024863 -0.13144915 -0.0063032079 1.0593466e-38
-0.009160988 -0.13144915 -0.0063032079 8.1971028e-39
-0.0072971135 -0.13144915 -0.0063032079 8.0127115e-39
-0.005433239 -0.13144915 -0.0063032079 7.7368407e-39
-0.0035693645 -0.13144915 -0.0063032079 6.4461019e-39
-0.0016553141 -0.13065951 -0.0032907892 7.2769387e-39
0.00020327792 -0.13065951 -0.0032907892 6.3553398e-39
0.0020618699 -0.13065951 -0.0032907892 1.0134282e-38
0.011341626 -0.13144915 -0.0063032079 7.1804075e-39
0.013205498 -0.13144915 -0.0063032079 6.9949344e-39
0.015074641 -0.12987436 -0.00029541738 1.2896531e-38
0.01692798 -0.12987436 -0.00029541738 2.1749824e-38
0.018789198 -0.13065951 -0.0032907892 2.3509078e-38
0.02064779 -0.13065951 -0.0032907892 2.1200184e-38
0.022506382 -0.13065951 -0.0032907892 2.3044799e-38
0.024341341 -0.12987436 -0.00029541738 2.1660438e-38
0.02619468 -0.12987436 -0.00029541738 2.3509783e-38
0.028014079 -0.12909363 0.0026830267 2.3508023e-38
0.029862195 -0.12909363 0.0026830267 2.3502648e-38
0.031710312 -0.12909363 0.0026830267 2.3504454e-38
0.033558432 -0.12909363 0.0026830267 2.0458398e-38
0.035406549 -0.12909363 0.0026830267 1.4466757e-38
0.037172914 -0.12803085 0.0067375731 1.0041731e-38
0.039013922 -0.12803085 0.0067375731 8.844284e-39
0.040950902 -0.12909363 0.0026830267 6.1702675e-39
0.042799022 -0.12909363 0.0026830267 8.1989511e-39
0.044647142 -0.12909363 0.0026830267 7.4617462e-39
0.046495259 -0.12909363 0.0026830267 6.7270412e-39
0.048343375 -0.12909363 0.0026830267 6.3596922e-39
0.050191492 -0.12909363 0.0026830267 8.5727544e-39
0.051900987 -0.12803085 0.0067375731 1.4382507e-38
0.053741995 -0.12803085 0.0067375731 1.3185018e-38
0.055583004 -0.12803085 0.0067375731 5.5334964e-39
0.057424013 -0.12803085 0.0067375731 4.9799849e-39
0.059265021 -0.12803085 0.0067375731 2.3234379e-38
0.061106034 -0.12803085 0.0067375731 2.3234379e-38
0.062947042 -0.12803085 0.0067375731 2.3142544e-38
-0.063097782 -0.13965334 -0.030330794 1.4476858e-38
-0.061191775 -0.13965334 -0.030330794 2.3234374e-38
-0.059075676 -0.13885282 -0.027297156 2.3142544e-38
-0.057175003 -0.13885282 -0.027297156 2.341805e-38
-0.055015154 -0.13781275 -0.02335562 2.2680478e-38
-0.053121381 -0.13781275 -0.02335562 2.3509876e-38
-0.051041193 -0.13702248 -0.020360725 2.3508797e-38
-0.048910402 -0.13596557 -0.016355412 2.3509514e-38
-0.046848603 -0.13515557 -0.013285892 2.3414794e-38
-0.044804998 -0.13437997 -0.010346549 2.3509153e-38
-0.042710714 -0.13331302 -0.0063032079 2.3509161e-38
-0.040685751 -0.1325181 -0.0032907892 2.350952e-38
-0.038827159 -0.1325181 -0.0032907892 2.3509873e-38
-0.036968566 -0.1325181 -0.0032907892 2.3418043e-38
-0.035109974 -0.1325181 -0.0032907892 2.2773408e-38
-0.033251382 -0.1325181 -0.0032907892 1.254005e-38
-0.03139279 -0.1325181 -0.0032907892 8.4827e-39
-0.029534198 -0.1325181 -0.0032907892 1.7515694e-38
-0.027799726 -0.13331302 -0.0063032079 2.1476134e-38
-0.025935851 -0.13331302 -0.0063032079 2.3508399e-38
-0.024071977 -0.13331302 -0.0063032079 2.3501926e-38
-0.022208106 -0.13331302 -0.0063032079 1.8789867e-38
-0.020344231 -0.13331302 -0.0063032079 1.6759035e-38
-0.018480357 -0.13331302 -0.0063032079 1.5650171e-38
-0.016616482 -0.13331302 -0.0063032079 1.4818276e-38
-0.014869582 -0.13437997 -0.010346549 1.3069804e-38
-0.012888737 -0.13331302 -0.0063032079 1.1418189e-38
-0.011024863 -0.13331302 -0.0063032079 9.0254187e-39
-0.009160988 -0.13331302 -0.0063032079 9.0254187e-39
-0.0072971135 -0.13331302 -0.0063032079 1.0039571e-38
-0.005433239 -0.13331302 -0.0063032079 9.3030818e-39
-0.0035139062 -0.1325181 -0.0032907892 8.012343e-39
-0.0016054213 -0.13172771 -0.00029541738 7.552441e-39
0.00024791807 -0.13172771 -0.00029541738 8.2900032e-39
0.0021012574 -0.13172771 -0.00029541738 1.5019561e-38
0.0058366619 -0.13094176 0.0026830267 2.1379976e-38
0.0076847784 -0.13094176 0.0026830267 2.2853665e-38
0.0095328968 -0.13094176 0.0026830267 2.1838431e-38
0.01135483 -0.1325181 -0.0032907892 8.1931147e-39
0.013213422 -0.1325181 -0.0032907892 6.6254288e-39
0.015077252 -0.13094176 0.0026830267 1.594006e-38
0.016925368 -0.13094176 0.0026830267 2.1477906e-38
0.018773487 -0.13094176 0.0026830267 2.1298174e-38
0.02063466 -0.13172771 -0.00029541738 1.6873119e-38
0.022488002 -0.13172771 -0.00029541738 1.70575e-38
0.024341341 -0.13172771 -0.00029541738 1.6227033e-38
0.02619468 -0.13172771 -0.00029541738 2.1480405e-38
0.028014079 -0.13094176 0.0026830267 2.3509831e-38
0.029862195 -0.13094176 0.0026830267 2.3509851e-38
0.031710312 -0.13094176 0.0026830267 2.3509143e-38
0.033558432 -0.13094176 0.0026830267 1.9726247e-38
0.035406549 -0.13094176 0.0026830267 1.0784705e-38
0.037172914 -0.12987186 0.0067375731 4.1477019e-39
0.039013922 -0.12987186 0.0067375731 4.4243e-39
0.040950902 -0.13094176 0.0026830267 5.0700408e-39
0.042799022 -0.13094176 0.0026830267 5.254802e-39
0.044647142 -0.13094176 0.0026830267 5.254802e-39
0.046495259 -0.13094176 0.0026830267 6.4515333e-39
0.048343375 -0.13094176 0.0026830267 6.4518878e-39
0.050191492 -0.13094176 0.0026830267 9.4947079e-39
0.051900987 -0.12987186 0.0067375731 1.4659094e-38
0.053741995 -0.12987186 0.0067375731 1.3737838e-38
0.055583004 -0.12987186 0.0067375731 6.1785127e-39
0.057424013 -0.12987186 0.0067375731 8.206476e-39
0.059143923 -0.12909628 0.0096766781 2.3234379e-38
0.060979776 -0.12909628 0.0096766781 2.2404628e-38
0.062947042 -0.12987186 0.0067375731 2.2865602e-38
-0.07584665 -0.13970654 -0.02335562 1.2444957e-38
-0.062877052 -0.14075352 -0.027297156 2.3418038e-38
-0.060696475 -0.13970654 -0.02335562 2.3049624e-38
-0.058802702 -0.13970654 -0.02335562 2.3417333e-38
-0.056908928 -0.13970654 -0.02335562 2.3509527e-38
-0.054818235 -0.13891099 -0.020360725 2.3509873e-38
-0.052929722 -0.13891099 -0.020360725 2.3507351e-38
-0.051041193 -0.13891099 -0.020360725 2.3508802e-38
-0.048910402 -0.13784705 -0.016355412 2.2951303e-38
-0.046848603 -0.13703169 -0.013285892 2.3506258e-38
-0.044804998 -0.13625093 -0.010346549 2.3509133e-38
-0.042544343 -0.13437669 -0.0032907892 2.3508428e-38
-0.040685751 -0.13437669 -0.0032907892 2.3505553e-38
-0.038672231 -0.13358103 -0.00029541738 2.3509151e-38
-0.036818884 -0.13358103 -0.00029541738 2.313965e-38
-0.034965545 -0.13358103 -0.00029541738 2.350988e-38
-0.033112206 -0.13358103 -0.00029541738 2.2772672e-38
-0.031258866 -0.13358103 -0.00029541738 1.2723335e-38
-0.029405527 -0.13358103 -0.00029541738 6.1756288e-39
-0.027675606 -0.13437669 -0.0032907892 1.2810463e-38
-0.025935851 -0.13517688 -0.0063032079 1.7601388e-38
-0.024071977 -0.13517688 -0.0063032079 2.0455136e-38
-0.022208106 -0.13517688 -0.0063032079 2.3497235e-38
-0.020344231 -0.13517688 -0.0063032079 2.3306364e-38
-0.018480357 -0.13517688 -0.0063032079 2.2198225e-38
-0.016616482 -0.13517688 -0.0063032079 1.7401909e-38
-0.014869582 -0.13625093 -0.010346549 1.5652714e-38
-0.012888737 -0.13517688 -0.0063032079 1.3631603e-38
-0.011024863 -0.13517688 -0.0063032079 1.1606896e-38
-0.009160988 -0.13517688 -0.0063032079 1.2252266e-38
-0.0072310939 -0.13437669 -0.0032907892 1.151542e-38
-0.0053724982 -0.13437669 -0.0032907892 1.0593821e-38
-0.0034587607 -0.13358103 -0.00029541738 1.2254062e-38
-0.0016054213 -0.13358103 -0.00029541738 1.4006135e-38
0.00024791807 -0.13358103 -0.00029541738 1.6864916e-38
0.0021012574 -0.13358103 -0.00029541738 1.7417368e-38
0.0058366619 -0.13278987 0.0026830267 1.8799581e-38
0.0076847784 -0.13278987 0.0026830267 1.9444587e-38
0.0095328968 -0.13278987 0.0026830267 1.8798499e-38
0.01136796 -0.13358103 -0.00029541738 6.3510069e-39
0.013221299 -0.13358103 -0.00029541738 6.3506468e-39
0.015077252 -0.13278987 0.0026830267 2.0459807e-38
0.016921815 -0.13171287 0.0067375731 2.3232493e-38
0.018762823 -0.13171287 0.0067375731 2.3509793e-38
0.02063466 -0.13358103 -0.00029541738 2.3234273e-38
0.022488002 -0.13358103 -0.00029541738 2.3509789e-38
0.024341341 -0.13358103 -0.00029541738 2.3509788e-38
0.02619468 -0.13358103 -0.00029541738 2.3509804e-38
0.028048022 -0.13358103 -0.00029541738 2.3509831e-38
0.029901363 -0.13358103 -0.00029541738 2.3509844e-38
0.031710312 -0.13278987 0.0026830267 2.3509859e-38
0.033490896 -0.13171287 0.0067375731 1.9083038e-38
0.035331905 -0.13171287 0.0067375731 9.1273505e-39
0.037172914 -0.13171287 0.0067375731 3.2275519e-39
0.039013922 -0.13171287 0.0067375731 5.1640231e-39
0.040950902 -0.13278987 0.0026830267 6.0867024e-39
0.042799022 -0.13278987 0.0026830267 4.7037694e-39
0.044647142 -0.13278987 0.0026830267 7.6529505e-39
0.046495259 -0.13278987 0.0026830267 5.8994329e-39
0.048343375 -0.13278987 0.0026830267 7.0039826e-39
0.050191492 -0.13278987 0.0026830267 1.0047517e-38
0.051900987 -0.13171287 0.0067375731 1.3736056e-38
0.053741995 -0.13171287 0.0067375731 1.281553e-38
0.055583004 -0.13171287 0.0067375731 6.7313376e-39
0.057424013 -0.13171287 0.0067375731 1.0880152e-38
0.059143923 -0.13093217 0.0096766781 2.3418047e-38
0.060979776 -0.13093217 0.0096766781 2.3234379e-38
-0.081841968 -0.14826734 -0.048290029 1.2721544e-38
-0.073952876 -0.1416003 -0.02335562 1.8250379e-38
-0.072059102 -0.1416003 -0.02335562 2.2675047e-38
-0.064260848 -0.14079951 -0.020360725 2.3509851e-38
-0.062372334 -0.14079951 -0.020360725 2.3325478e-38
-0.060483806 -0.14079951 -0.020360725 2.3509883e-38
-0.058595292 -0.14079951 -0.020360725 2.3509167e-38
-0.056706764 -0.14079951 -0.020360725 2.3509165e-38
-0.054818235 -0.14079951 -0.020360725 2.350807e-38
-0.052929722 -0.14079951 -0.020360725 2.350843e-38
-0.050791897 -0.13972856 -0.016355412 2.1566929e-38
-0.048910402 -0.13972856 -0.016355412 2.2487076e-38
-0.046848603 -0.13890781 -0.013285892 2.3501923e-38
-0.044804998 -0.13812189 -0.010346549 2.3507677e-38
-0.042544343 -0.13623528 -0.0032907892 2.3506611e-38
-0.040685751 -0.13623528 -0.0032907892 2.3508065e-38
-0.038518168 -0.134638 0.0026830267 2.3508435e-38
-0.036670052 -0.134638 0.0026830267 2.3508797e-38
-0.034821935 -0.134638 0.0026830267 2.350987e-38
-0.032973818 -0.134638 0.0026830267 2.3326195e-38
-0.031125702 -0.134638 0.0026830267 1.9823117e-38
-0.029405527 -0.13543437 -0.00029541738 6.9142827e-39
-0.027675606 -0.13623528 -0.0032907892 7.3738077e-39
-0.025817011 -0.13623528 -0.0032907892 8.9386012e-39
-0.024071977 -0.13704078 -0.0063032079 1.1516112e-38
-0.022208106 -0.13704078 -0.0063032079 1.8427547e-38
-0.020344231 -0.13704078 -0.0063032079 2.2850074e-38
-0.018480357 -0.13704078 -0.0063032079 2.229511e-38
-0.016616482 -0.13704078 -0.0063032079 2.1649024e-38
-0.014752612 -0.13704078 -0.0063032079 1.943777e-38
-0.01280687 -0.13623528 -0.0032907892 1.7506701e-38
-0.010948278 -0.13623528 -0.0032907892 1.5665305e-38
-0.009089686 -0.13623528 -0.0032907892 1.3913948e-38
-0.0072310939 -0.13623528 -0.0032907892 1.3637361e-38
-0.0053724982 -0.13623528 -0.0032907892 1.5205766e-38
-0.0034587607 -0.13543437 -0.00029541738 1.7326984e-38
-0.0015558116 -0.134638 0.0026830267 1.8157105e-38
0.00029230863 -0.134638 0.0026830267 1.797307e-38
0.0021404251 -0.134638 0.0026830267 1.649866e-38
0.0039885417 -0.134638 0.0026830267 1.1059118e-38
0.0058366619 -0.134638 0.0026830267 9.7683787e-39
0.0077167694 -0.13355388 0.0067375731 1.0966202e-38
0.009557778 -0.13355388 0.0067375731 1.0044245e-38
0.011381015 -0.134638 0.0026830267 4.7883756e-39
0.013229134 -0.134638 0.0026830267 6.2635057e-39
0.015077252 -0.134638 0.0026830267 2.0002077e-38
0.016921815 -0.13355388 0.0067375731 2.3509793e-38
0.018762823 -0.13355388 0.0067375731 2.3509786e-38
0.02063466 -0.13543437 -0.00029541738 2.3509799e-38
0.022469724 -0.134638 0.0026830267 2.3509803e-38
0.024317842 -0.134638 0.0026830267 2.3509809e-38
0.026165958 -0.134638 0.0026830267 2.3509816e-38
0.028014079 -0.134638 0.0026830267 2.3509821e-38
0.029862195 -0.134638 0.0026830267 2.3509827e-38
0.031649888 -0.13355388 0.0067375731 2.3509844e-38
0.033490896 -0.13355388 0.0067375731 1.5578151e-38
0.035331905 -0.13355388 0.0067375731 9.4010578e-39
0.037172914 -0.13355388 0.0067375731 5.43701e-39
0.038949508 -0.13276802 0.0096766781 5.4380848e-39
0.040785365 -0.13276802 0.0096766781 6.7298928e-39
0.04269594 -0.13355388 0.0067375731 5.3473101e-39
0.044536948 -0.13355388 0.0067375731 7.0068342e-39
0.046495259 -0.134638 0.0026830267 6.9132163e-39
0.048343375 -0.134638 0.0026830267 6.4511647e-39
0.050191492 -0.134638 0.0026830267 9.5868896e-39
0.051900987 -0.13355388 0.0067375731 1.0232978e-38
0.053741995 -0.13355388 0.0067375731 8.0210086e-39
0.055583004 -0.13355388 0.0067375731 8.6667409e-39
0.057308067 -0.13276802 0.0096766781 1.7333849e-38
0.059143923 -0.13276802 0.0096766781 2.3418045e-38
0.060979776 -0.13276802 0.0096766781 2.3234379e-38
-0.073952876 -0.14349405 -0.02335562 2.2213352e-38
-0.072059102 -0.14349405 -0.02335562 2.3507325e-38
-0.069926418 -0.14268802 -0.020360725 2.2490291e-38
-0.06803789 -0.14268802 -0.020360725 1.4101928e-38
-0.066149376 -0.14268802 -0.020360725 1.3826783e-38
-0.064260848 -0.14268802 -0.020360725 2.3509853e-38
-0.062372334 -0.14268802 -0.020360725 2.350987e-38
-0.060483806 -0.14268802 -0.020360725 2.350916e-38
-0.058595292 -0.14268802 -0.020360725 2.3509521e-38
-0.056706764 -0.14268802 -0.020360725 2.3229695e-38
-0.054818235 -0.14268802 -0.020360725 2.3508435e-38
-0.052673392 -0.14161004 -0.016355412 2.0183628e-38
-0.050600834 -0.14078392 -0.013285892 2.1010867e-38
-0.048724718 -0.14078392 -0.013285892 2.0732827e-38
-0.046848603 -0.14078392 -0.013285892 2.350371e-38
-0.044804998 -0.13999285 -0.010346549 2.3504066e-38
-0.042544343 -0.13809387 -0.0032907892 2.3505162e-38
-0.040685751 -0.13809387 -0.0032907892 2.1658021e-38
-0.038518168 -0.13648613 0.0026830267 2.2949861e-38
-0.036670052 -0.13648613 0.0026830267 2.3507359e-38
-0.034626439 -0.13539489 0.0067375731 2.3048166e-38
-0.032785431 -0.13539489 0.0067375731 2.3418031e-38
-0.030944422 -0.13539489 0.0067375731 2.286666e-38
-0.029103413 -0.13539489 0.0067375731 1.0604639e-38
-0.027429469 -0.13648613 0.0026830267 6.3621893e-39
-0.025698844 -0.13728772 -0.00029541738 8.4808741e-39
-0.023958419 -0.13809387 -0.0032907892 8.2021096e-39
-0.022099826 -0.13809387 -0.0032907892 8.5687369e-39
-0.020241234 -0.13809387 -0.0032907892 1.1699814e-38
-0.018382642 -0.13809387 -0.0032907892 1.2805093e-38
-0.01652405 -0.13809387 -0.0032907892 1.6307807e-38
-0.014665462 -0.13809387 -0.0032907892 2.3503022e-38
-0.01280687 -0.13809387 -0.0032907892 2.294985e-38
-0.010948278 -0.13809387 -0.0032907892 2.3319711e-38
-0.009089686 -0.13809387 -0.0032907892 2.3505183e-38
-0.0072310939 -0.13809387 -0.0032907892 2.3505542e-38
-0.0053724982 -0.13809387 -0.0032907892 2.2214803e-38
-0.0034587607 -0.13728772 -0.00029541738 1.8620252e-38
-0.0015558116 -0.13648613 0.0026830267 1.3550211e-38
0.00029230863 -0.13648613 0.0026830267 9.4939667e-39
0.0021404251 -0.13648613 0.0026830267 8.5730894e-39
0.0039885417 -0.13648613 0.0026830267 5.9923306e-39
0.0058366619 -0.13648613 0.0026830267 6.5451484e-39
0.0077167694 -0.13539489 0.0067375731 7.3749119e-39
0.009557778 -0.13539489 0.0067375731 7.7436944e-39
0.011381015 -0.13648613 0.0026830267 5.4388051e-39
0.013229134 -0.13648613 0.0026830267 6.0841745e-39
0.015080806 -0.13539489 0.0067375731 1.5210798e-38
0.016921815 -0.13539489 0.0067375731 2.2217618e-38
0.018762823 -0.13539489 0.0067375731 2.3046288e-38
0.020621605 -0.13648613 0.0026830267 2.3505857e-38
0.022469724 -0.13648613 0.0026830267 2.3505152e-38
0.024317842 -0.13648613 0.0026830267 2.3505512e-38
0.026165958 -0.13648613 0.0026830267 2.350695e-38
0.02796787 -0.13539489 0.0067375731 2.3508378e-38
0.029808879 -0.13539489 0.0067375731 2.3508382e-38
0.031606086 -0.13460387 0.0096766781 2.3320768e-38
0.033441938 -0.13460387 0.0096766781 1.0229009e-38
0.035277799 -0.13460387 0.0096766781 5.9876699e-39
0.037113652 -0.13460387 0.0096766781 6.3571769e-39
0.038949508 -0.13460387 0.0096766781 6.3578845e-39
0.040785365 -0.13460387 0.0096766781 7.6500456e-39
0.04269594 -0.13539489 0.0067375731 7.374158e-39
0.044536948 -0.13539489 0.0067375731 7.4667194e-39
0.046495259 -0.13648613 0.0026830267 6.1749296e-39
0.048343375 -0.13648613 0.0026830267 5.4370128e-39
0.050191492 -0.13648613 0.0026830267 5.7150276e-39
0.051900987 -0.13539489 0.0067375731 5.7153906e-39
0.053741995 -0.13539489 0.0067375731 4.4239511e-39
0.05547221 -0.13460387 0.0096766781 7.5593256e-39
0.057308067 -0.13460387 0.0096766781 1.9084493e-38
0.059019055 -0.13378824 0.012707217 2.2312056e-38
0.060849596 -0.13378824 0.012707217 2.3141819e-38
-0.073952876 -0.14538784 -0.02335562 2.3041321e-38
-0.072059102 -0.14538784 -0.02335562 2.2949111e-38
-0.069926418 -0.14457656 -0.020360725 1.9355623e-38
-0.06803789 -0.14457656 -0.020360725 1.3732771e-38
-0.066149376 -0.14457656 -0.020360725 1.6499379e-38
-0.063962393 -0.14349155 -0.016355412 2.3509503e-38
-0.062080882 -0.14349155 -0.016355412 2.350987e-38
-0.060483806 -0.14457656 -0.020360725 2.3509873e-38
-0.058595292 -0.14457656 -0.020360725 2.3509514e-38
-0.056706764 -0.14457656 -0.020360725 2.3321527e-38
-0.054818235 -0.14457656 -0.020360725 2.3508085e-38
-0.052673392 -0.14349155 -0.016355412 1.8245726e-38
-0.050600834 -0.14266007 -0.013285892 1.8427581e-38
-0.048724718 -0.14266007 -0.013285892 2.2113586e-38
-0.046675958 -0.14186381 -0.010346549 2.349938e-38
-0.044574596 -0.14076851 -0.0063032079 2.3497215e-38
-0.042544343 -0.13995247 -0.0032907892 2.3130965e-38
-0.040525563 -0.13914107 -0.00029541738 2.2304106e-38
-0.038518168 -0.13833423 0.0026830267 2.3505557e-38
-0.036670052 -0.13833423 0.0026830267 2.3508442e-38
-0.034626439 -0.13723589 0.0067375731 2.3418035e-38
-0.032785431 -0.13723589 0.0067375731 2.2958857e-38
-0.030944422 -0.13723589 0.0067375731 2.249969e-38
-0.029103413 -0.13723589 0.0067375731 1.7982467e-38
-0.027262397 -0.13723589 0.0067375731 1.245e-38
-0.025698844 -0.13914107 -0.00029541738 1.1895732e-38
-0.023845505 -0.13914107 -0.00029541738 1.0051437e-38
-0.022099826 -0.13995247 -0.0032907892 6.9149889e-39
-0.020241234 -0.13995247 -0.0032907892 8.0184877e-39
-0.018382642 -0.13995247 -0.0032907892 9.5854616e-39
-0.01652405 -0.13995247 -0.0032907892 1.2628269e-38
-0.014665462 -0.13995247 -0.0032907892 2.1663438e-38
-0.012725465 -0.13914107 -0.00029541738 2.1940031e-38
-0.010872126 -0.13914107 -0.00029541738 2.2493925e-38
-0.0090187825 -0.13914107 -0.00029541738 2.3139294e-38
-0.0071654432 -0.13914107 -0.00029541738 2.277123e-38
-0.0053121001 -0.13914107 -0.00029541738 2.0559614e-38
-0.0034039281 -0.13833423 0.0026830267 1.6411171e-38
-0.0015558116 -0.13833423 0.0026830267 1.1156742e-38
0.00029230863 -0.13833423 0.0026830267 7.1930514e-39
0.0021404251 -0.13833423 0.0026830267 7.1934143e-39
0.0039885417 -0.13833423 0.0026830267 6.733518e-39
0.0058366619 -0.13833423 0.0026830267 7.6554771e-39
0.0077167694 -0.13723589 0.0067375731 6.2729056e-39
0.009557778 -0.13723589 0.0067375731 5.9044846e-39
0.011381015 -0.13833423 0.0026830267 5.7200961e-39
0.013229134 -0.13833423 0.0026830267 4.5215529e-39
0.015080806 -0.13723589 0.0067375731 7.2855987e-39
0.016921815 -0.13723589 0.0067375731 9.0325863e-39
0.018762823 -0.13723589 0.0067375731 1.0505547e-38
0.020621605 -0.13833423 0.0026830267 1.151794e-38
0.022444842 -0.13723589 0.0067375731 1.2162608e-38
0.024285851 -0.13723589 0.0067375731 1.2623583e-38
0.026098516 -0.13643973 0.0096766781 1.3454052e-38
0.027934372 -0.13643973 0.0096766781 1.4100119e-38
0.029770229 -0.13643973 0.0096766781 1.4285229e-38
0.031606086 -0.13643973 0.0096766781 1.5575267e-38
0.033441938 -0.13643973 0.0096766781 7.7383008e-39
0.035277799 -0.13643973 0.0096766781 7.1840719e-39
0.037113652 -0.13643973 0.0096766781 7.9223614e-39
0.038949508 -0.13643973 0.0096766781 7.0933028e-39
0.040785365 -0.13643973 0.0096766781 7.7400917e-39
0.04269594 -0.13723589 0.0067375731 7.4645586e-39
0.044536948 -0.13723589 0.0067375731 6.820271e-39
0.046495259 -0.13833423 0.0026830267 7.6489835e-39
0.048343375 -0.13833423 0.0026830267 5.6214041e-39
0.050059978 -0.13723589 0.0067375731 3.0413516e-39
0.051900987 -0.13723589 0.0067375731 3.4104998e-39
0.053741995 -0.13723589 0.0067375731 3.409446e-39
0.05547221 -0.13643973 0.0096766781 7.5589739e-39
0.057188511 -0.13561879 0.012707217 2.1112799e-38
0.058894902 -0.13480256 0.015720351 2.3418043e-38
0.060720161 -0.13480256 0.015720351 2.3049621e-38
0.062545419 -0.13480256 0.015720351 2.341805e-38
-0.080511488 -0.14998297 -0.033263698 1.1060941e-38
-0.078082509 -0.14835624 -0.027297156 1.4194876e-38
-0.076181822 -0.14835624 -0.027297156 2.1107745e-38
-0.073952876 -0.1472816 -0.02335562 2.3502305e-38
-0.072059102 -0.1472816 -0.02335562 2.2026079e-38
-0.069926418 -0.14646508 -0.020360725 1.7603179e-38
-0.06803789 -0.14646508 -0.020360725 1.3917514e-38
-0.066149376 -0.14646508 -0.020360725 1.9080503e-38
-0.063962393 -0.14537306 -0.016355412 2.3415155e-38
-0.062080882 -0.14537306 -0.016355412 2.3509517e-38
-0.060483806 -0.14646508 -0.020360725 2.3508077e-38
-0.058595292 -0.14646508 -0.020360725 2.3230764e-38
-0.056706764 -0.14646508 -0.020360725 1.9541504e-38
-0.054818235 -0.14646508 -0.020360725 1.8615964e-38
-0.052673392 -0.14537306 -0.016355412 1.1974631e-38
-0.050600834 -0.14453618 -0.013285892 1.2341583e-38
-0.048724718 -0.14453618 -0.013285892 2.1373851e-38
-0.046675958 -0.14373477 -0.010346549 2.2386902e-38
-0.044402935 -0.14181106 -0.0032907892 2.1005762e-38
-0.04237891 -0.14099441 -0.00029541738 1.9535324e-38
-0.040525563 -0.14099441 -0.00029541738 2.0644932e-38
-0.038518168 -0.14018236 0.0026830267 2.3320434e-38
-0.036670052 -0.14018236 0.0026830267 2.3415158e-38
-0.034626439 -0.1390769 0.0067375731 2.350987e-38
-0.032785431 -0.1390769 0.0067375731 2.2590795e-38
-0.030944422 -0.1390769 0.0067375731 2.1669577e-38
-0.029103413 -0.1390769 0.0067375731 2.2683366e-38
-0.027262397 -0.1390769 0.0067375731 2.2867037e-38
-0.025698844 -0.14099441 -0.00029541738 2.1761757e-38
-0.023845505 -0.14099441 -0.00029541738 2.2775171e-38
-0.021992166 -0.14099441 -0.00029541738 2.2958846e-38
-0.020138822 -0.14099441 -0.00029541738 2.2773037e-38
-0.018285483 -0.14099441 -0.00029541738 2.3234379e-38
-0.016432144 -0.14099441 -0.00029541738 2.3234379e-38
-0.014578804 -0.14099441 -0.00029541738 2.3234376e-38
-0.012644522 -0.14018236 0.0026830267 2.3509883e-38
-0.010796402 -0.14018236 0.0026830267 2.3509527e-38
-0.0090187825 -0.14099441 -0.00029541738 2.3509527e-38
-0.0071654432 -0.14099441 -0.00029541738 2.3509883e-38
-0.0053121001 -0.14099441 -0.00029541738 2.341805e-38
-0.0034039281 -0.14018236 0.0026830267 2.341805e-38
-0.0015558116 -0.14018236 0.0026830267 2.3050349e-38
0.00035273284 -0.1390769 0.0067375731 2.2497894e-38
0.0021937415 -0.1390769 0.0067375731 2.2958873e-38
0.0039885417 -0.14018236 0.0026830267 2.2775202e-38
0.0058757607 -0.1390769 0.0067375731 2.2223112e-38
0.0077167694 -0.1390769 0.0067375731 1.8811522e-38
0.009557778 -0.1390769 0.0067375731 1.6323321e-38
0.011398789 -0.1390769 0.0067375731 1.577051e-38
0.013239797 -0.1390769 0.0067375731 1.3557099e-38
0.015080806 -0.1390769 0.0067375731 1.2265259e-38
0.016921815 -0.1390769 0.0067375731 1.2076501e-38
0.018762823 -0.1390769 0.0067375731 1.2995577e-38
0.020603832 -0.1390769 0.0067375731 1.2901626e-38
0.022444842 -0.1390769 0.0067375731 1.1886771e-38
0.024285851 -0.1390769 0.0067375731 1.0596386e-38
0.026098516 -0.13827558 0.0096766781 9.5836554e-39
0.027934372 -0.13827558 0.0096766781 9.0315354e-39
0.029770229 -0.13827558 0.0096766781 8.4794378e-39
0.031606086 -0.13827558 0.0096766781 7.0954481e-39
0.033441938 -0.13827558 0.0096766781 6.5419367e-39
0.035277799 -0.13827558 0.0096766781 7.7394233e-39
0.037113652 -0.13827558 0.0096766781 8.3855115e-39
0.038949508 -0.13827558 0.0096766781 9.4003655e-39
0.040785365 -0.13827558 0.0096766781 9.2181098e-39
0.04269594 -0.1390769 0.0067375731 9.1258918e-39
0.044536948 -0.1390769 0.0067375731 1.1983956e-38
0.046377957 -0.1390769 0.0067375731 1.2719743e-38
0.048218969 -0.1390769 0.0067375731 1.4471466e-38
0.050059978 -0.1390769 0.0067375731 1.5117903e-38
0.051900987 -0.1390769 0.0067375731 1.4288867e-38
0.053636353 -0.13827558 0.0096766781 9.1255765e-39
0.05535797 -0.13744931 0.012707217 5.8072597e-39
0.057069644 -0.13662781 0.015720351 1.6318629e-38
0.058894902 -0.13662781 0.015720351 2.3233652e-38
0.060591474 -0.13581105 0.01871608 2.3234012e-38
0.062411483 -0.13581105 0.01871608 2.341805e-38
-0.073952876 -0.14917539 -0.02335562 2.1657679e-38
-0.072059102 -0.14917539 -0.02335562 1.9814105e-38
-0.069926418 -0.14835359 -0.020360725 1.5760348e-38
-0.06803789 -0.14835359 -0.020360725 1.3826398e-38
-0.065843888 -0.14725454 -0.016355412 2.0373043e-38
-0.063962393 -0.14725454 -0.016355412 2.3323685e-38
-0.062080882 -0.14725454 -0.016355412 2.3509521e-38
-0.060199387 -0.14725454 -0.016355412 2.350952e-38
-0.058317892 -0.14725454 -0.016355412 2.3509517e-38
-0.056436397 -0.14725454 -0.016355412 1.5945877e-38
-0.054554887 -0.14725454 -0.016355412 1.2992034e-38
-0.05247695 -0.1464123 -0.013285892 4.5064287e-39
-0.050600834 -0.1464123 -0.013285892 8.6523202e-39
-0.048546918 -0.14560573 -0.010346549 1.9252989e-38
-0.046438463 -0.14449625 -0.0063032079 2.2846435e-38
-0.044402935 -0.14366965 -0.0032907892 2.1281259e-38
-0.04237891 -0.14284773 -0.00029541738 2.0641296e-38
-0.040525563 -0.14284773 -0.00029541738 1.8801359e-38
-0.038518168 -0.14203046 0.0026830267 2.3320049e-38
-0.036670052 -0.14203046 0.0026830267 2.3509859e-38
-0.034626439 -0.14091791 0.0067375731 2.3509866e-38
-0.032785431 -0.14091791 0.0067375731 2.3418042e-38
-0.030944422 -0.14091791 0.0067375731 2.3234379e-38
-0.029103413 -0.14091791 0.0067375731 2.3142185e-38
-0.027262397 -0.14091791 0.0067375731 2.3234379e-38
-0.025581345 -0.14203046 0.0026830267 2.3418047e-38
-0.023845505 -0.14284773 -0.00029541738 2.341804e-38
-0.021992166 -0.14284773 -0.00029541738 2.341804e-38
-0.020036992 -0.14203046 0.0026830267 2.3141822e-38
-0.018188871 -0.14203046 0.0026830267 2.3050349e-38
-0.016340755 -0.14203046 0.0026830267 2.3142544e-38
-0.014492638 -0.14203046 0.0026830267 2.2220589e-38
-0.012644522 -0.14203046 0.0026830267 2.3141106e-38
-0.010796402 -0.14203046 0.0026830267 2.3415895e-38
-0.0089482814 -0.14203046 0.0026830267 2.3508091e-38
-0.0071001649 -0.14203046 0.0026830267 2.3509167e-38
-0.0052520484 -0.14203046 0.0026830267 2.3509527e-38
-0.0034039281 -0.14203046 0.0026830267 2.3509527e-38
-0.0014882758 -0.14091791 0.0067375731 2.3509527e-38
0.00035273284 -0.14091791 0.0067375731 2.3509886e-38
0.0021937415 -0.14091791 0.0067375731 2.341805e-38
0.0040347502 -0.14091791 0.0067375731 2.341805e-38
0.0058757607 -0.14091791 0.0067375731 2.3417691e-38
0.0077167694 -0.14091791 0.0067375731 2.323402e-38
0.009557778 -0.14091791 0.0067375731 2.2865243e-38
0.011398789 -0.14091791 0.0067375731 2.3142185e-38
0.013239797 -0.14091791 0.0067375731 2.3233662e-38
0.015080806 -0.14091791 0.0067375731 2.2773408e-38
0.016921815 -0.14091791 0.0067375731 2.3418028e-38
0.018762823 -0.14091791 0.0067375731 2.3418031e-38
0.020603832 -0.14091791 0.0067375731 2.2771973e-38
0.022444842 -0.14091791 0.0067375731 2.0835526e-38
0.024262661 -0.14011143 0.0096766781 1.862318e-38
0.026069293 -0.13927986 0.012707217 1.6596658e-38
0.027899835 -0.13927986 0.012707217 1.521442e-38
0.029730378 -0.13927986 0.012707217 1.4293183e-38
0.03156092 -0.13927986 0.012707217 1.1987238e-38
0.033391461 -0.13927986 0.012707217 9.7745641e-39
0.035277799 -0.14011143 0.0096766781 9.0366529e-39
0.037113652 -0.14011143 0.0096766781 1.0604339e-38
0.038949508 -0.14011143 0.0096766781 1.2357111e-38
0.040785365 -0.14011143 0.0096766781 1.1620968e-38
0.042621218 -0.14011143 0.0096766781 1.254291e-38
0.044457078 -0.14011143 0.0096766781 1.7427834e-38
0.046292931 -0.14011143 0.0096766781 2.2771228e-38
0.048128787 -0.14011143 0.0096766781 2.3230048e-38
0.049964644 -0.14011143 0.0096766781 2.3322962e-38
0.051800497 -0.14011143 0.0096766781 2.2678319e-38
0.053527426 -0.13927986 0.012707217 2.0650029e-38
0.05535797 -0.13927986 0.012707217 1.5395602e-38
0.057069644 -0.13845308 0.015720351 1.806999e-38
0.058894902 -0.13845308 0.015720351 2.3509886e-38
0.060591474 -0.13763104 0.01871608 2.3049626e-38
0.062411483 -0.13763104 0.01871608 2.3049626e-38
-0.065843888 -0.14913605 -0.016355412 2.0557794e-38
-0.063962393 -0.14913605 -0.016355412 2.3509873e-38
-0.062080882 -0.14913605 -0.016355412 2.3509886e-38
-0.060199387 -0.14913605 -0.016355412 2.3509527e-38
-0.058317892 -0.14913605 -0.016355412 2.3509523e-38
-0.056436397 -0.14913605 -0.016355412 1.3088177e-38
-0.054353066 -0.14828841 -0.013285892 7.5524887e-39
-0.052288853 -0.14747669 -0.010346549 1.9285454e-39
-0.050166212 -0.14636014 -0.0063032079 4.3187794e-39
-0.048302345 -0.14636014 -0.0063032079 1.574884e-38
-0.046438463 -0.14636014 -0.0063032079 1.8973853e-38
-0.044402935 -0.14552824 -0.0032907892 1.888308e-38
-0.042544343 -0.14552824 -0.0032907892 1.8611536e-38
-0.040525563 -0.14470108 -0.00029541738 1.9075765e-38
-0.038672231 -0.14470108 -0.00029541738 2.2580657e-38
-0.036670052 -0.14387859 0.0026830267 2.3506956e-38
-0.034626439 -0.14275892 0.0067375731 2.3509143e-38
-0.032785431 -0.14275892 0.0067375731 2.3506998e-38
-0.030944422 -0.14275892 0.0067375731 2.3508809e-38
-0.029103413 -0.14275892 0.0067375731 2.3509168e-38
-0.027262397 -0.14275892 0.0067375731 2.2308105e-38
-0.025581345 -0.14387859 0.0026830267 2.3508807e-38
-0.023845505 -0.14470108 -0.00029541738 2.3507002e-38
-0.021992166 -0.14470108 -0.00029541738 2.3139298e-38
-0.020036992 -0.14387859 0.0026830267 2.3509521e-38
-0.018188871 -0.14387859 0.0026830267 2.3232936e-38
-0.016340755 -0.14387859 0.0026830267 2.3509886e-38
-0.014492638 -0.14387859 0.0026830267 2.3232583e-38
-0.012644522 -0.14387859 0.0026830267 2.3508809e-38
-0.010796402 -0.14387859 0.0026830267 2.3508451e-38
-0.0089482814 -0.14387859 0.0026830267 2.3508807e-38
-0.0071001649 -0.14387859 0.0026830267 2.3508807e-38
-0.0052520484 -0.14387859 0.0026830267 2.3508088e-38
-0.0034039281 -0.14387859 0.0026830267 2.3506644e-38
-0.0014882758 -0.14275892 0.0067375731 2.3506284e-38
0.00035273284 -0.14275892 0.0067375731 2.3507005e-38
0.0021937415 -0.14275892 0.0067375731 2.3508088e-38
0.0040347502 -0.14275892 0.0067375731 2.3505567e-38
0.0058757607 -0.14275892 0.0067375731 2.3506654e-38
0.0077399593 -0.14194728 0.0096766781 2.3508092e-38
0.009575814 -0.14194728 0.0096766781 2.3507016e-38
0.011411671 -0.14194728 0.0096766781 2.350594e-38
0.013239797 -0.14275892 0.0067375731 2.3507016e-38
0.015083382 -0.14194728 0.0096766781 2.3508451e-38
0.016919238 -0.14194728 0.0096766781 2.3324401e-38
0.018755093 -0.14194728 0.0096766781 2.3509879e-38
0.02059095 -0.14194728 0.0096766781 2.3508451e-38
0.022426806 -0.14194728 0.0096766781 2.3508092e-38
0.02423875 -0.14111041 0.012707217 2.3508809e-38
0.026069293 -0.14111041 0.012707217 2.3509527e-38
0.027899835 -0.14111041 0.012707217 2.3326206e-38
0.029730378 -0.14111041 0.012707217 2.2866308e-38
0.03156092 -0.14111041 0.012707217 2.323402e-38
0.033391461 -0.14111041 0.012707217 2.2126972e-38
0.035222001 -0.14111041 0.012707217 2.1020641e-38
0.037052546 -0.14111041 0.012707217 2.0744416e-38
0.03888309 -0.14111041 0.012707217 1.9086673e-38
0.040713631 -0.14111041 0.012707217 1.9732749e-38
0.042544171 -0.14111041 0.012707217 2.2037995e-38
0.044374716 -0.14111041 0.012707217 2.3234374e-38
0.04620526 -0.14111041 0.012707217 2.3324041e-38
0.0480358 -0.14111041 0.012707217 2.3509156e-38
0.049866341 -0.14111041 0.012707217 2.3509161e-38
0.051696885 -0.14111041 0.012707217 2.3415529e-38
0.053527426 -0.14111041 0.012707217 2.350773e-38
0.055244382 -0.14027832 0.015720351 1.9913543e-38
0.056951463 -0.13945107 0.01871608 2.0281968e-38
0.058771469 -0.13945107 0.01871608 2.3509527e-38
0.060591474 -0.13945107 0.01871608 2.341805e-38
0.062235672 -0.13836516 0.022648318 2.3234018e-38
0.064048782 -0.13836516 0.022648318 2.3418043e-38
-0.055757828 -0.14822401 -0.0063032079 1.2628643e-38
-0.053893961 -0.14822401 -0.0063032079 6.6316029e-39
-0.052030094 -0.14822401 -0.0063032079 3.4926271e-39
-0.050166212 -0.14822401 -0.0063032079 3.5815844e-39
-0.048302345 -0.14822401 -0.0063032079 1.2797875e-38
-0.046261527 -0.14738683 -0.0032907892 1.5839559e-38
-0.044402935 -0.14738683 -0.0032907892 1.7684523e-38
-0.04237891 -0.14655443 -0.00029541738 1.7503371e-38
-0.040525563 -0.14655443 -0.00029541738 2.137811e-38
-0.038518168 -0.1457267 0.0026830267 2.3315671e-38
-0.036670052 -0.1457267 0.0026830267 2.3503688e-38
-0.034626439 -0.14459993 0.0067375731 2.3508054e-38
-0.032785431 -0.14459993 0.0067375731 2.3504835e-38
-0.030944422 -0.14459993 0.0067375731 2.3507721e-38
-0.029103413 -0.14459993 0.0067375731 2.350484e-38
-0.027262397 -0.14459993 0.0067375731 2.3507362e-38
-0.025581345 -0.1457267 0.0026830267 2.3503405e-38
-0.023733228 -0.1457267 0.0026830267 1.8153541e-38
-0.021885108 -0.1457267 0.0026830267 1.4282402e-38
-0.020036992 -0.1457267 0.0026830267 1.4283826e-38
-0.018188871 -0.1457267 0.0026830267 1.4377461e-38
-0.016340755 -0.1457267 0.0026830267 1.511504e-38
-0.014492638 -0.1457267 0.0026830267 1.6313585e-38
-0.012644522 -0.1457267 0.0026830267 1.557386e-38
-0.010796402 -0.1457267 0.0026830267 1.5573497e-38
-0.0089482814 -0.1457267 0.0026830267 1.6033394e-38
-0.0071001649 -0.1457267 0.0026830267 1.6770959e-38
-0.0052520484 -0.1457267 0.0026830267 1.7508161e-38
-0.0034039281 -0.1457267 0.0026830267 1.8336841e-38
-0.0014882758 -0.14459993 0.0067375731 1.9258797e-38
0.00035273284 -0.14459993 0.0067375731 2.0180393e-38
0.0021937415 -0.14459993 0.0067375731 1.9718694e-38
0.0040347502 -0.14459993 0.0067375731 1.9626501e-38
0.0058757607 -0.14459993 0.0067375731 1.9441032e-38
0.0077399593 -0.14378314 0.0096766781 1.9625426e-38
0.009575814 -0.14378314 0.0096766781 1.9348483e-38
0.011411671 -0.14378314 0.0096766781 1.8703114e-38
0.013247527 -0.14378314 0.0096766781 1.8979703e-38
0.015083382 -0.14378314 0.0096766781 1.9072975e-38
0.016919238 -0.14378314 0.0096766781 1.9903807e-38
0.018755093 -0.14378314 0.0096766781 2.0272953e-38
0.02059095 -0.14378314 0.0096766781 2.0641405e-38
0.022408208 -0.14294095 0.012707217 2.1194224e-38
0.02423875 -0.14294095 0.012707217 2.202541e-38
0.026069293 -0.14294095 0.012707217 2.2947714e-38
0.027899835 -0.14294095 0.012707217 2.3041338e-38
0.029730378 -0.14294095 0.012707217 2.2765121e-38
0.03156092 -0.14294095 0.012707217 2.1841755e-38
0.033341274 -0.1421036 0.015720351 2.2302747e-38
0.035166532 -0.1421036 0.015720351 2.2394942e-38
0.03699179 -0.1421036 0.015720351 2.1012357e-38
0.038817048 -0.1421036 0.015720351 1.9630482e-38
0.04064231 -0.1421036 0.015720351 2.1659136e-38
0.042544171 -0.14294095 0.012707217 2.3505937e-38
0.044374716 -0.14294095 0.012707217 2.3504488e-38
0.046118088 -0.1421036 0.015720351 2.3509153e-38
0.047943346 -0.1421036 0.015720351 2.3509153e-38
0.049768608 -0.1421036 0.015720351 2.3507009e-38
0.051593866 -0.1421036 0.015720351 2.3508809e-38
0.053527426 -0.14294095 0.012707217 2.3509165e-38
0.055244382 -0.1421036 0.015720351 2.2771602e-38
0.056951463 -0.14127107 0.01871608 2.3509168e-38
0.058771469 -0.14127107 0.01871608 2.2956003e-38
0.060591474 -0.14127107 0.01871608 2.341805e-38
0.062235672 -0.14017828 0.022648318 2.2865232e-38
0.064048782 -0.14017828 0.022648318 2.3418035e-38
-0.053695895 -0.14924543 -0.0032907892 6.448648e-39
-0.051837303 -0.14924543 -0.0032907892 1.3775324e-39
-0.049978711 -0.14924543 -0.0032907892 2.8469004e-39
-0.048120119 -0.14924543 -0.0032907892 6.7165777e-39
-0.046261527 -0.14924543 -0.0032907892 1.3815594e-38
-0.044402935 -0.14924543 -0.0032907892 1.6488879e-38
-0.04237891 -0.14840777 -0.00029541738 1.8978512e-38
-0.040525563 -0.14840777 -0.00029541738 1.9900466e-38
-0.038518168 -0.14757483 0.0026830267 2.1375963e-38
-0.036467448 -0.14644094 0.0067375731 2.2297945e-38
-0.034626439 -0.14644094 0.0067375731 2.0730299e-38
-0.032785431 -0.14644094 0.0067375731 1.8886049e-38
-0.030944422 -0.14644094 0.0067375731 1.934703e-38
-0.029103413 -0.14644094 0.0067375731 1.1787707e-38
-0.027262397 -0.14644094 0.0067375731 9.2058737e-39
-0.025581345 -0.14757483 0.0026830267 3.4904691e-39
-0.023733228 -0.14757483 0.0026830267 3.2142508e-39
-0.021885108 -0.14757483 0.0026830267 2.8472633e-39
-0.020036992 -0.14757483 0.0026830267 1.6530389e-39
-0.018057358 -0.14644094 0.0067375731 2.5746225e-39
-0.016216349 -0.14644094 0.0067375731 1.9296216e-39
-0.014492638 -0.14757483 0.0026830267 1.102026e-39
-0.012644522 -0.14757483 0.0026830267 2.3905984e-39
-0.010796402 -0.14757483 0.0026830267 2.5746267e-39
-0.0089482814 -0.14757483 0.0026830267 3.1278005e-39
-0.0071001649 -0.14757483 0.0026830267 3.7731685e-39
-0.0051702932 -0.14644094 0.0067375731 3.9571996e-39
-0.0033292845 -0.14644094 0.0067375731 3.6795309e-39
-0.0014882758 -0.14644094 0.0067375731 3.3107484e-39
0.00035273284 -0.14644094 0.0067375731 3.4944236e-39
0.0022323914 -0.14561899 0.0096766781 5.0606703e-39
0.004068248 -0.14561899 0.0096766781 5.7056796e-39
0.0059041046 -0.14561899 0.0096766781 4.5986145e-39
0.0077399593 -0.14561899 0.0096766781 3.8610495e-39
0.009575814 -0.14561899 0.0096766781 4.0443618e-39
0.011411671 -0.14561899 0.0096766781 3.767056e-39
0.013247527 -0.14561899 0.0096766781 4.0436429e-39
0.015083382 -0.14561899 0.0096766781 3.9521661e-39
0.016919238 -0.14561899 0.0096766781 3.7688525e-39
0.018755093 -0.14561899 0.0096766781 3.6770212e-39
0.02059095 -0.14561899 0.0096766781 3.4004511e-39
0.022408208 -0.1447715 0.012707217 3.307901e-39
0.02423875 -0.1447715 0.012707217 3.4937201e-39
0.026040237 -0.14392884 0.015720351 3.7706616e-39
0.027865496 -0.14392884 0.015720351 3.4025951e-39
0.029690754 -0.14392884 0.015720351 2.6657545e-39
0.031516016 -0.14392884 0.015720351 2.5725037e-39
0.033341274 -0.14392884 0.015720351 4.6926515e-39
0.035166532 -0.14392884 0.015720351 3.5863011e-39
0.03699179 -0.14392884 0.015720351 3.5866528e-39
0.038817048 -0.14392884 0.015720351 6.259952e-39
0.04064231 -0.14392884 0.015720351 6.9056773e-39
0.042467572 -0.14392884 0.015720351 8.1960658e-39
0.04429283 -0.14392884 0.015720351 1.0686424e-38
0.046118088 -0.14392884 0.015720351 9.3063496e-39
0.047851428 -0.14309107 0.01871608 9.3992613e-39
0.049671434 -0.14309107 0.01871608 9.5829505e-39
0.051593866 -0.14392884 0.015720351 1.0874768e-38
0.053419124 -0.14392884 0.015720351 9.3085104e-39
0.055244382 -0.14392884 0.015720351 1.0323381e-38
0.056796335 -0.14199139 0.022648318 2.1295032e-38
0.058609448 -0.14199139 0.022648318 2.3509527e-38
0.060720161 -0.14392884 0.015720351 2.3417691e-38
0.062545419 -0.14392884 0.015720351 2.1482295e-38
-0.038518168 -0.14942293 0.0026830267 1.8145551e-38
-0.036467448 -0.14828195 0.0067375731 1.8328875e-38
-0.034626439 -0.14828195 0.0067375731 1.9340528e-38
-0.032785431 -0.14828195 0.0067375731 2.1552518e-38
-0.030944422 -0.14828195 0.0067375731 1.9708971e-38
-0.029103413 -0.14828195 0.0067375731 1.095183e-38
-0.027262397 -0.14828195 0.0067375731 6.9895815e-39
-0.025581345 -0.14942293 0.0026830267 4.0414849e-39
-0.023580384 -0.14828195 0.0067375731 4.0440086e-39
-0.021739375 -0.14828195 0.0067375731 4.8759273e-39
-0.019898366 -0.14828195 0.0067375731 3.4958669e-39
-0.018057358 -0.14828195 0.0067375731 3.0370468e-39
-0.016216349 -0.14828195 0.0067375731 3.221801e-39
-0.014492638 -0.14942293 0.0026830267 1.6559172e-39
-0.012644522 -0.14942293 0.0026830267 2.6725831e-39
-0.010796402 -0.14942293 0.0026830267 1.1063335e-39
-0.0089482814 -0.14942293 0.0026830267 5.5388284e-40
-0.0070113018 -0.14828195 0.0067375731 6.4607706e-40
-0.0051702932 -0.14828195 0.0067375731 1.9368131e-39
-0.0033292845 -0.14828195 0.0067375731 2.4899869e-39
-0.0014882758 -0.14828195 0.0067375731 1.7520687e-39
0.00035273284 -0.14828195 0.0067375731 2.9506133e-39
0.0022323914 -0.14745484 0.0096766781 2.6736733e-39
0.004068248 -0.14745484 0.0096766781 3.4094432e-39
0.0059041046 -0.14745484 0.0096766781 3.2246918e-39
0.0077399593 -0.14745484 0.0096766781 3.4994809e-39
0.009575814 -0.14745484 0.0096766781 5.8962015e-39
0.011411671 -0.14745484 0.0096766781 3.4061964e-39
0.013247527 -0.14745484 0.0096766781 2.7604627e-39
0.01508604 -0.14660202 0.012707217 1.6541151e-39
0.01691658 -0.14660202 0.012707217 2.9466462e-39
0.018747123 -0.14660202 0.012707217 2.2094469e-39
0.020577665 -0.14660202 0.012707217 2.9470204e-39
0.022408208 -0.14660202 0.012707217 2.8548303e-39
0.024214976 -0.14575411 0.015720351 1.2885836e-39
0.026040237 -0.14575411 0.015720351 2.5793224e-39
0.027865496 -0.14575411 0.015720351 2.7637137e-39
0.029690754 -0.14575411 0.015720351 8.2760547e-40
0.031516016 -0.14575411 0.015720351 7.3505531e-40
0.033291373 -0.14491107 0.01871608 3.6734899e-40
0.035111383 -0.14491107 0.01871608 2.3934962e-39
0.036931388 -0.14491107 0.01871608 1.3793443e-39
0.038751394 -0.14491107 0.01871608 2.4853289e-39
0.04064231 -0.14575411 0.015720351 2.9463099e-39
0.042467572 -0.14575411 0.015720351 3.4984131e-39
0.04429283 -0.14575411 0.015720351 2.8523178e-39
0.046118088 -0.14575411 0.015720351 5.7089292e-39
0.047851428 -0.14491107 0.01871608 7.7357869e-39
0.049671434 -0.14491107 0.01871608 8.1045694e-39
0.051593866 -0.14575411 0.015720351 6.260654e-39
0.053419124 -0.14575411 0.015720351 3.4040202e-39
0.055244382 -0.14575411 0.015720351 3.7742405e-39
0.056796335 -0.14380451 0.022648318 1.9080157e-38
0.058609448 -0.14380451 0.022648318 2.3509869e-38
0.060720161 -0.14575411 0.015720351 2.3509873e-38
-0.034484722 -0.14929073 0.0096766781 8.4618122e-39
-0.032648869 -0.14929073 0.0096766781 1.2517347e-38
-0.030813016 -0.14929073 0.0096766781 1.4637852e-38
-0.0051110312 -0.14929073 0.0096766781 2.1244385e-39
-0.0032751784 -0.14929073 0.0096766781 1.6634632e-39
0.0022323914 -0.14929073 0.0096766781 9.2484017e-40
0.004068248 -0.14929073 0.0096766781 1.2003495e-39
0.0059041046 -0.14929073 0.0096766781 1.847584e-40
0.0077399593 -0.14929073 0.0096766781 5.6051939e-45
0.0095944125 -0.14843257 0.012707217 1.8424735e-39
0.011424955 -0.14843257 0.012707217 1.1967369e-39
0.013263421 -0.14757936 0.015720351 1.748466e-39
0.015088681 -0.14757936 0.015720351 1.1963726e-39
0.016913939 -0.14757936 0.015720351 1.1056133e-39
0.018739199 -0.14757936 0.015720351 3.6949438e-40
0.020564459 -0.14757936 0.015720351 1.475479e-39
0.022389717 -0.14757936 0.015720351 1.568039e-39
0.024214976 -0.14757936 0.015720351 8.3047953e-40
0.026040237 -0.14757936 0.015720351 8.3120541e-40
0.027865496 -0.14757936 0.015720351 9.2561369e-41
0.029690754 -0.14757936 0.015720351 2.8025969e-45
0.031516016 -0.14757936 0.015720351 7.3828391e-40
0.033291373 -0.14673109 0.01871608 0
0.035111383 -0.14673109 0.01871608 5.5352691e-40
0.036931388 -0.14673109 0.01871608 2.7622395e-40
0.038751394 -0.14673109 0.01871608 9.2051717e-40
0.040571399 -0.14673109 0.01871608 3.6734759e-40
0.042467572 -0.14757936 0.015720351 3.6735179e-40
0.04429283 -0.14757936 0.015720351 7.3468957e-40
0.046118088 -0.14757936 0.015720351 1.5612034e-39
0.047943346 -0.14757936 0.015720351 2.5713939e-39
0.049768608 -0.14757936 0.015720351 3.2163948e-39
0.051593866 -0.14757936 0.015720351 2.3877229e-39
0.053527426 -0.14843257 0.012707217 1.6530389e-39
0.055244382 -0.14757936 0.015720351 2.0218158e-39
0.056796335 -0.14561762 0.022648318 1.6128807e-38
0.058609448 -0.14561762 0.022648318 2.3230753e-38
0.011438161 -0.14940463 0.015720351 1.3786086e-39
0.013263421 -0.14940463 0.015720351 1.102026e-39
0.015091307 -0.14855109 0.01871608 9.1835496e-40
0.016911313 -0.14855109 0.01871608 9.2122482e-40
0.018739199 -0.14940463 0.015720351 3.6949438e-40
0.020564459 -0.14940463 0.015720351 8.3010679e-40
0.022389717 -0.14940463 0.015720351 7.1746481e-43
0.024214976 -0.14940463 0.015720351 1.8474719e-40
0.026040237 -0.14940463 0.015720351 5.5388984e-40
0.027865496 -0.14940463 0.015720351 4.6097815e-40
0.029690754 -0.14940463 0.015720351 1.4751273e-39
0.031516016 -0.14940463 0.015720351 7.3791817e-40
0.033291373 -0.14855109 0.01871608 9.1835496e-41
0.035111383 -0.14855109 0.01871608 8.2974946e-40
0.036852099 -0.14743073 0.022648318 2.7550649e-40
0.038665213 -0.14743073 0.022648318 3.6734198e-40
0.040571399 -0.14855109 0.01871608 7.3468397e-40
0.042391408 -0.14855109 0.01871608 1.1031078e-39
0.04429283 -0.14940463 0.015720351 1.2856969e-39
0.046031423 -0.14855109 0.01871608 2.2976811e-39
0.047851428 -0.14855109 0.01871608 1.6530389e-39
0.049768608 -0.14940463 0.015720351 1.8367099e-39
0.055244382 -0.14940463 0.015720351 1.3775324e-39
0.056951463 -0.14855109 0.01871608 1.1058047e-38
0.058771469 -0.14855109 0.01871608 2.101806e-38
0.036852099 -0.14924385 0.022648318 3.1331941e-39
0.038665213 -0.14924385 0.022648318 3.4090607e-39
0.04591766 -0.14924385 0.022648318 4.9716977e-39
0.047730774 -0.14924385 0.022648318 4.7862204e-39
0.049543887 -0.14924385 0.022648318 8.5662384e-39
0.051356997 -0.14924385 0.022648318 1.2438455e-38
