# .PCD v0.7 - Point Cloud Data file format
VERSION 0.7
FIELDS x y z rgb
SIZE 4 4 4 4
TYPE F F F F
COUNT 1 1 1 1
WIDTH 926
HEIGHT 1
VIEWPOINT 0 0 0 1 0 0 0
POINTS 926
DATA ascii
0.012016537 -0.12618984 -0.00056982413 4.7898315e-39
0.013857545 -0.12618984 -0.00056982413 4.5132474e-39
0.015922489 -0.12724553 -0.0046243705 3.5920114e-39
0.017539563 -0.12618984 -0.00056982413 3.5005375e-39
0.019380571 -0.12618984 -0.00056982413 3.9618771e-39
0.021466842 -0.12724553 -0.0046243705 4.4232126e-39
0.023314958 -0.12724553 -0.0046243705 3.8700388e-39
0.025163075 -0.12724553 -0.0046243705 3.3168651e-39
0.027011199 -0.12724553 -0.0046243705 3.8707591e-39
0.028859315 -0.12724553 -0.0046243705 4.7927168e-39
0.030223077 -0.12542458 0.0023692809 4.7005198e-39
0.032058932 -0.12542458 0.0023692809 4.3317373e-39
0.034108646 -0.12618984 -0.00056982413 4.609043e-39
0.035949655 -0.12618984 -0.00056982413 5.346608e-39
0.043313682 -0.12618984 -0.00056982413 3.4104998e-39
0.045154691 -0.12618984 -0.00056982413 3.7796355e-39
0.046995714 -0.12618984 -0.00056982413 2.7665583e-39
0.048836723 -0.12618984 -0.00056982413 1.4758251e-39
0.05103673 -0.12724553 -0.0046243705 2.7730015e-40
0.05251874 -0.12618984 -0.00056982413 1.1156739e-38
0.054359749 -0.12618984 -0.00056982413 1.7610804e-38
0.056200758 -0.12618984 -0.00056982413 2.286632e-38
0.058041766 -0.12618984 -0.00056982413 2.2867037e-38
0.059882775 -0.12618984 -0.00056982413 2.185325e-38
0.061723784 -0.12618984 -0.00056982413 1.8442366e-38
0.063268483 -0.12542458 0.0023692809 6.2714608e-39
0.065104336 -0.12542458 0.0023692809 5.2569432e-39
0.066940188 -0.12542458 0.0023692809 6.4547647e-39
-0.056325458 -0.13250901 -0.017653946 2.2957412e-38
-0.054454491 -0.13250901 -0.017653946 2.341804e-38
-0.052611873 -0.13327946 -0.020593289 2.3418047e-38
-0.050735757 -0.13327946 -0.020593289 2.3509886e-38
-0.048841603 -0.13250901 -0.017653946 2.3323703e-38
-0.046970636 -0.13250901 -0.017653946 2.3508451e-38
-0.045099676 -0.13250901 -0.017653946 2.3136082e-38
-0.043228712 -0.13250901 -0.017653946 2.3507733e-38
-0.041357748 -0.13250901 -0.017653946 2.211901e-38
-0.039486784 -0.13250901 -0.017653946 2.2670012e-38
-0.037615821 -0.13250901 -0.017653946 2.2112885e-38
-0.035744861 -0.13250901 -0.017653946 1.7499866e-38
-0.033905797 -0.13144915 -0.013610605 1.4547092e-38
-0.032070972 -0.13065951 -0.010598186 7.6324201e-39
-0.03021238 -0.13065951 -0.010598186 8.9260386e-39
-0.028353788 -0.13065951 -0.010598186 7.3641107e-39
-0.026584227 -0.12909363 -0.0046243705 6.0802074e-39
-0.024803644 -0.12803085 -0.00056982413 5.6242683e-39
-0.022962635 -0.12803085 -0.00056982413 5.4427567e-39
-0.021039873 -0.12909363 -0.0046243705 5.1661699e-39
-0.019191755 -0.12909363 -0.0046243705 5.3480472e-39
-0.017343637 -0.12909363 -0.0046243705 6.0823766e-39
-0.015495518 -0.12909363 -0.0046243705 6.9085402e-39
-0.013566457 -0.12987436 -0.0076028146 6.7248692e-39
-0.011713115 -0.12987436 -0.0076028146 6.729188e-39
-0.0097678695 -0.13065951 -0.010598186 6.4558381e-39
-0.0080064368 -0.12987436 -0.0076028146 6.2707237e-39
-0.0061530974 -0.12987436 -0.0076028146 6.4543961e-39
-0.0042997543 -0.12987436 -0.0076028146 7.0072084e-39
-0.0024464149 -0.12987436 -0.0076028146 6.7295397e-39
-0.00071057491 -0.12909363 -0.0046243705 6.1760058e-39
0.0011375453 -0.12909363 -0.0046243705 6.7281006e-39
0.0028114934 -0.12803085 -0.00056982413 6.082734e-39
0.004652502 -0.12803085 -0.00056982413 5.7132326e-39
0.0064935107 -0.12803085 -0.00056982413 6.266049e-39
0.0083345193 -0.12803085 -0.00056982413 5.3440955e-39
0.010175528 -0.12803085 -0.00056982413 6.4504459e-39
0.012016537 -0.12803085 -0.00056982413 5.8054394e-39
0.013857545 -0.12803085 -0.00056982413 6.266419e-39
0.015698554 -0.12803085 -0.00056982413 4.9767591e-39
0.017539563 -0.12803085 -0.00056982413 4.7930825e-39
0.019380571 -0.12803085 -0.00056982413 5.1618651e-39
0.021221584 -0.12803085 -0.00056982413 5.8072317e-39
0.023062592 -0.12803085 -0.00056982413 6.2682098e-39
0.024903601 -0.12803085 -0.00056982413 6.0838186e-39
0.02674461 -0.12803085 -0.00056982413 5.3462535e-39
0.028387217 -0.12726043 0.0023692809 4.5164929e-39
0.030223077 -0.12726043 0.0023692809 4.1480663e-39
0.032058932 -0.12726043 0.0023692809 5.1622182e-39
0.033894785 -0.12726043 0.0023692809 5.1622168e-39
0.035730645 -0.12726043 0.0023692809 5.8075862e-39
0.037566498 -0.12726043 0.0023692809 5.1622168e-39
0.039402358 -0.12726043 0.0023692809 5.0700212e-39
0.041238204 -0.12726043 0.0023692809 5.8075862e-39
0.043313682 -0.12803085 -0.00056982413 5.3466052e-39
0.045154691 -0.12803085 -0.00056982413 5.7157437e-39
0.046995714 -0.12803085 -0.00056982413 4.0569426e-39
0.048836723 -0.12803085 -0.00056982413 4.3342484e-39
0.050677732 -0.12803085 -0.00056982413 2.6750942e-39
0.05251874 -0.12803085 -0.00056982413 1.5950915e-38
0.054359749 -0.12803085 -0.00056982413 2.0561067e-38
0.056200758 -0.12803085 -0.00056982413 2.3142544e-38
0.058041766 -0.12803085 -0.00056982413 2.3142544e-38
0.059882775 -0.12803085 -0.00056982413 2.0470314e-38
0.061432615 -0.12726043 0.0023692809 1.7612605e-38
0.063268483 -0.12726043 0.0023692809 4.9807192e-39
0.065104336 -0.12726043 0.0023692809 4.8881592e-39
0.066940188 -0.12726043 0.0023692809 6.5469575e-39
-0.056272283 -0.13331302 -0.013610605 2.2772686e-38
-0.054454491 -0.13437997 -0.017653946 2.3234379e-38
-0.052583531 -0.13437997 -0.017653946 2.2404628e-38
-0.050712563 -0.13437997 -0.017653946 2.3325497e-38
-0.048841603 -0.13437997 -0.017653946 2.3509168e-38
-0.046970636 -0.13437997 -0.017653946 2.3509168e-38
-0.045099676 -0.13437997 -0.017653946 2.3508807e-38
-0.043228712 -0.13437997 -0.017653946 2.3412644e-38
-0.041361295 -0.13331302 -0.013610605 1.7878734e-38
-0.03949742 -0.13331302 -0.013610605 1.8706328e-38
-0.037633546 -0.13331302 -0.013610605 1.9072237e-38
-0.035769671 -0.13331302 -0.013610605 1.3170277e-38
-0.033929564 -0.1325181 -0.010598186 8.1899169e-39
-0.032099858 -0.13172771 -0.0076028146 9.0196776e-39
-0.030246519 -0.13172771 -0.0076028146 8.930363e-39
-0.028432345 -0.13094176 -0.0046243705 6.906015e-39
-0.026584227 -0.13094176 -0.0046243705 4.8827502e-39
-0.024803644 -0.12987186 -0.00056982413 5.1632958e-39
-0.022962635 -0.12987186 -0.00056982413 5.4424022e-39
-0.021121627 -0.12987186 -0.00056982413 5.258011e-39
-0.019191755 -0.13094176 -0.0046243705 5.2562159e-39
-0.017343637 -0.13094176 -0.0046243705 5.3473325e-39
-0.015495518 -0.13094176 -0.0046243705 6.0816606e-39
-0.013566457 -0.13172771 -0.0076028146 6.0823822e-39
-0.011713115 -0.13172771 -0.0076028146 5.5324511e-39
-0.0098597761 -0.13172771 -0.0076028146 5.9952271e-39
-0.0081030484 -0.13094176 -0.0046243705 5.9023112e-39
-0.0062549282 -0.13094176 -0.0046243705 5.6260802e-39
-0.0044068117 -0.13094176 -0.0046243705 6.7317019e-39
-0.0025586914 -0.13094176 -0.0046243705 6.7309816e-39
-0.00071057491 -0.13094176 -0.0046243705 5.6242711e-39
0.0011375453 -0.13094176 -0.0046243705 6.0841703e-39
0.0028114934 -0.12987186 -0.00056982413 6.2685615e-39
0.004652502 -0.12987186 -0.00056982413 5.346608e-39
0.0064935107 -0.12987186 -0.00056982413 6.0838186e-39
0.0083345193 -0.12987186 -0.00056982413 5.2540635e-39
0.010175528 -0.12987186 -0.00056982413 4.8849264e-39
0.012016537 -0.12987186 -0.00056982413 4.8856523e-39
0.013857545 -0.12987186 -0.00056982413 5.7154158e-39
0.015698554 -0.12987186 -0.00056982413 5.4388261e-39
0.017539563 -0.12987186 -0.00056982413 6.4536913e-39
0.019380571 -0.12987186 -0.00056982413 5.8086764e-39
0.021221584 -0.12987186 -0.00056982413 4.9789157e-39
0.023062592 -0.12987186 -0.00056982413 4.7945245e-39
0.024903601 -0.12987186 -0.00056982413 5.0707484e-39
0.026551364 -0.12909628 0.0023692809 4.7019659e-39
0.028387217 -0.12909628 0.0023692809 4.7019659e-39
0.030223077 -0.12909628 0.0023692809 5.4395281e-39
0.032058932 -0.12909628 0.0023692809 4.7941559e-39
0.033894785 -0.12909628 0.0023692809 4.7019603e-39
0.035730645 -0.12909628 0.0023692809 5.6231949e-39
0.037566498 -0.12909628 0.0023692809 5.0700212e-39
0.039402358 -0.12909628 0.0023692809 5.2544096e-39
0.041238204 -0.12909628 0.0023692809 6.0841703e-39
0.043313682 -0.12987186 -0.00056982413 5.899779e-39
0.045154691 -0.12987186 -0.00056982413 6.3607572e-39
0.046995714 -0.12987186 -0.00056982413 5.5320755e-39
0.04858163 -0.12909628 0.0023692809 2.6743739e-39
0.050417483 -0.12909628 0.0023692809 1.937176e-39
0.052253336 -0.12909628 0.0023692809 2.2312058e-38
0.054089203 -0.12909628 0.0023692809 2.3234379e-38
0.055925056 -0.12909628 0.0023692809 2.1944366e-38
0.057760909 -0.12909628 0.0023692809 2.286632e-38
0.059596762 -0.12909628 0.0023692809 2.3142544e-38
0.061132401 -0.1282966 0.0053998195 1.7150545e-38
0.062962949 -0.1282966 0.0053998195 4.7044882e-39
0.065104336 -0.12909628 0.0023692809 5.1651021e-39
0.066940188 -0.12909628 0.0023692809 6.7313488e-39
-0.073453836 -0.13891099 -0.027668122 1.9637633e-38
-0.071456462 -0.13784705 -0.023662809 1.9639442e-38
-0.06957496 -0.13784705 -0.023662809 2.3234364e-38
-0.067693464 -0.13784705 -0.023662809 2.2773741e-38
-0.065965384 -0.13970654 -0.030663017 2.3509876e-38
-0.060116343 -0.13703169 -0.020593289 2.314075e-38
-0.058240227 -0.13703169 -0.020593289 2.3417691e-38
-0.056272283 -0.13517688 -0.013610605 2.3142185e-38
-0.054408409 -0.13517688 -0.013610605 2.3049991e-38
-0.052544534 -0.13517688 -0.013610605 1.6781062e-38
-0.05068066 -0.13517688 -0.013610605 1.5674347e-38
-0.048816789 -0.13517688 -0.013610605 1.3183975e-38
-0.046952914 -0.13517688 -0.013610605 8.2965165e-39
-0.045089044 -0.13517688 -0.013610605 1.8713532e-38
-0.043225169 -0.13517688 -0.013610605 2.3509146e-38
-0.041361295 -0.13517688 -0.013610605 2.1198496e-38
-0.03949742 -0.13517688 -0.013610605 6.8145383e-39
-0.037646748 -0.13437669 -0.010598186 7.8276154e-39
-0.035788156 -0.13437669 -0.010598186 8.8417673e-39
-0.033929564 -0.13437669 -0.010598186 7.5503082e-39
-0.032099858 -0.13358103 -0.0076028146 8.1042023e-39
-0.030280463 -0.13278987 -0.0046243705 6.9074598e-39
-0.028432345 -0.13278987 -0.0046243705 5.6188789e-39
-0.026644653 -0.13171287 -0.00056982413 6.0816578e-39
-0.024803644 -0.13171287 -0.00056982413 6.3604054e-39
-0.022962635 -0.13171287 -0.00056982413 6.2700077e-39
-0.021180889 -0.13093217 0.0023692809 5.5328056e-39
-0.019345032 -0.13093217 0.0023692809 4.9796318e-39
-0.017343637 -0.13278987 -0.0046243705 5.3476955e-39
-0.015495518 -0.13278987 -0.0046243705 6.2689357e-39
-0.0136474 -0.13278987 -0.0046243705 6.8228297e-39
-0.011799283 -0.13278987 -0.0046243705 5.9948767e-39
-0.0099511649 -0.13278987 -0.0046243705 6.456578e-39
-0.0081030484 -0.13278987 -0.0046243705 6.0870696e-39
-0.0062549282 -0.13278987 -0.0046243705 4.9810751e-39
-0.0044068117 -0.13278987 -0.0046243705 5.9948627e-39
-0.0025586914 -0.13278987 -0.0046243705 6.5473106e-39
-0.00071057491 -0.13278987 -0.0046243705 5.4402428e-39
0.0011375453 -0.13278987 -0.0046243705 6.0852493e-39
0.0028114934 -0.13171287 -0.00056982413 6.5462274e-39
0.004652502 -0.13171287 -0.00056982413 4.1491439e-39
0.006356949 -0.13093217 0.0023692809 4.97855e-39
0.0081928056 -0.13093217 0.0023692809 5.8086764e-39
0.010028662 -0.13093217 0.0023692809 4.978564e-39
0.011864515 -0.13093217 0.0023692809 4.425756e-39
0.013700372 -0.13093217 0.0023692809 4.794184e-39
0.015536228 -0.13093217 0.0023692809 5.5321049e-39
0.017539563 -0.13171287 -0.00056982413 4.4261091e-39
0.019380571 -0.13171287 -0.00056982413 5.3491388e-39
0.021043798 -0.13093217 0.0023692809 5.4402582e-39
0.022879651 -0.13093217 0.0023692809 4.794886e-39
0.024715511 -0.13093217 0.0023692809 4.8870816e-39
0.026352106 -0.13012715 0.0053998195 5.163307e-39
0.028182646 -0.13012715 0.0053998195 5.2555026e-39
0.030013187 -0.13012715 0.0053998195 5.716478e-39
0.031843737 -0.13012715 0.0053998195 5.6239194e-39
0.033674277 -0.13012715 0.0053998195 5.531721e-39
0.035730645 -0.13093217 0.0023692809 6.452957e-39
0.037566498 -0.13093217 0.0023692809 5.7153906e-39
0.039402358 -0.13093217 0.0023692809 5.346608e-39
0.041472673 -0.13171287 -0.00056982413 5.7153878e-39
0.043313682 -0.13171287 -0.00056982413 5.162214e-39
0.045154691 -0.13171287 -0.00056982413 5.3476842e-39
0.046995714 -0.13171287 -0.00056982413 4.7948734e-39
0.04858163 -0.13093217 0.0023692809 3.2275519e-39
0.050417483 -0.13093217 0.0023692809 2.6747439e-39
0.052253336 -0.13093217 0.0023692809 2.341805e-38
0.054089203 -0.13093217 0.0023692809 2.2865961e-38
0.055925056 -0.13093217 0.0023692809 2.3234379e-38
0.057760909 -0.13093217 0.0023692809 2.2958514e-38
0.059596762 -0.13093217 0.0023692809 2.1852525e-38
0.061132401 -0.13012715 0.0053998195 1.7703719e-38
0.062962949 -0.13012715 0.0053998195 5.5335301e-39
0.065104336 -0.13093217 0.0023692809 6.0859794e-39
0.066940188 -0.13093217 0.0023692809 6.6391503e-39
0.068776041 -0.13093217 0.0023692809 5.6239222e-39
-0.079460271 -0.14346536 -0.037638191 1.6408639e-38
-0.077328019 -0.1416003 -0.030663017 1.8437299e-38
-0.075434245 -0.1416003 -0.030663017 1.9820232e-38
-0.073453836 -0.14079951 -0.027668122 2.0006062e-38
-0.071456462 -0.13972856 -0.023662809 2.0008222e-38
-0.06957496 -0.13972856 -0.023662809 2.2221998e-38
-0.067693464 -0.13972856 -0.023662809 2.3418033e-38
-0.065899752 -0.14079951 -0.027668122 2.3418036e-38
-0.064011224 -0.14079951 -0.027668122 2.3509523e-38
-0.061992459 -0.13890781 -0.020593289 2.3140033e-38
-0.060116343 -0.13890781 -0.020593289 2.3509168e-38
-0.058240227 -0.13890781 -0.020593289 2.3049273e-38
-0.056232668 -0.13623528 -0.010598186 2.2958514e-38
-0.054374076 -0.13623528 -0.010598186 1.6597041e-38
-0.052515484 -0.13623528 -0.010598186 1.0143697e-38
-0.050656892 -0.13623528 -0.010598186 7.6540422e-39
-0.048816789 -0.13704078 -0.013610605 7.0072168e-39
-0.046952914 -0.13704078 -0.013610605 4.701589e-39
-0.045089044 -0.13704078 -0.013610605 1.1892112e-38
-0.043225169 -0.13704078 -0.013610605 2.0833651e-38
-0.041361295 -0.13704078 -0.013610605 2.2489951e-38
-0.03949742 -0.13704078 -0.013610605 5.8943868e-39
-0.037646748 -0.13623528 -0.010598186 4.5128915e-39
-0.035788156 -0.13623528 -0.010598186 6.7273845e-39
-0.033953197 -0.13543437 -0.0076028146 5.3458906e-39
-0.032099858 -0.13543437 -0.0076028146 6.8217395e-39
-0.030280463 -0.134638 -0.0046243705 5.8994273e-39
-0.028432345 -0.134638 -0.0046243705 6.1756541e-39
-0.026644653 -0.13355388 -0.00056982413 6.1745751e-39
-0.024803644 -0.13355388 -0.00056982413 5.8057953e-39
-0.022962635 -0.13355388 -0.00056982413 5.3448172e-39
-0.021180889 -0.13276802 0.0023692809 5.6221271e-39
-0.019345032 -0.13276802 0.0023692809 4.3328275e-39
-0.017343637 -0.134638 -0.0046243705 5.1640259e-39
-0.015495518 -0.134638 -0.0046243705 4.1513145e-39
-0.0136474 -0.134638 -0.0046243705 5.2583879e-39
-0.011799283 -0.134638 -0.0046243705 5.5342671e-39
-0.0099511649 -0.134638 -0.0046243705 4.8889005e-39
-0.0082345624 -0.13355388 -0.00056982413 5.4413484e-39
-0.0063935537 -0.13355388 -0.00056982413 5.5338986e-39
-0.004552545 -0.13355388 -0.00056982413 5.4413344e-39
-0.0027115364 -0.13355388 -0.00056982413 5.717194e-39
-0.0008705277 -0.13355388 -0.00056982413 4.611201e-39
0.00097048096 -0.13355388 -0.00056982413 4.9796206e-39
0.0028114934 -0.13355388 -0.00056982413 6.7313348e-39
0.004652502 -0.13355388 -0.00056982413 4.7952293e-39
0.006356949 -0.13276802 0.0023692809 5.0714617e-39
0.0081928056 -0.13276802 0.0023692809 5.1640231e-39
0.010028662 -0.13276802 0.0023692809 4.2417122e-39
0.011864515 -0.13276802 0.0023692809 4.7956147e-39
0.013700372 -0.13276802 0.0023692809 4.7952602e-39
0.015536228 -0.13276802 0.0023692809 4.9800088e-39
0.017199395 -0.13195769 0.0053998195 4.2424409e-39
0.019029936 -0.13195769 0.0053998195 4.9807192e-39
0.021043798 -0.13276802 0.0023692809 5.25659e-39
0.022879651 -0.13276802 0.0023692809 4.6115766e-39
0.024521565 -0.13195769 0.0053998195 4.4271853e-39
0.026153995 -0.13115202 0.0084129535 5.3480598e-39
0.027979253 -0.13115202 0.0084129535 5.9015909e-39
0.030013187 -0.13195769 0.0053998195 5.8093925e-39
0.031843737 -0.13195769 0.0053998195 5.9008692e-39
0.033674277 -0.13195769 0.0053998195 5.6246383e-39
0.035730645 -0.13276802 0.0023692809 5.6239166e-39
0.037566498 -0.13276802 0.0023692809 5.8086652e-39
0.039402358 -0.13276802 0.0023692809 5.8075862e-39
0.041472673 -0.13355388 -0.00056982413 5.5309993e-39
0.043313682 -0.13355388 -0.00056982413 5.4388009e-39
0.045154691 -0.13355388 -0.00056982413 5.4398827e-39
0.046995714 -0.13355388 -0.00056982413 4.0573098e-39
0.04858163 -0.13276802 0.0023692809 1.937176e-39
0.050417483 -0.13276802 0.0023692809 3.4119516e-39
0.051979691 -0.13195769 0.0053998195 2.341805e-38
0.053810239 -0.13195769 0.0053998195 2.3234379e-38
0.055640787 -0.13195769 0.0053998195 2.2681212e-38
0.05747132 -0.13195769 0.0053998195 2.3234379e-38
0.059301868 -0.13195769 0.0053998195 2.1667412e-38
0.061132401 -0.13195769 0.0053998195 1.8533117e-38
0.062962949 -0.13195769 0.0053998195 5.441333e-39
0.064793497 -0.13195769 0.0053998195 5.5328056e-39
-0.079221793 -0.14349405 -0.030663017 2.0925873e-38
-0.077328019 -0.14349405 -0.030663017 2.1295013e-38
-0.075342357 -0.14268802 -0.027668122 2.2216966e-38
-0.073453836 -0.14268802 -0.027668122 2.3509504e-38
-0.071456462 -0.14161004 -0.023662809 2.1575194e-38
-0.06957496 -0.14161004 -0.023662809 2.323436e-38
-0.067693464 -0.14161004 -0.023662809 2.3142524e-38
-0.065899752 -0.14268802 -0.027668122 2.3233648e-38
-0.063868575 -0.14078392 -0.020593289 2.3509883e-38
-0.061938345 -0.13999285 -0.017653946 2.3509527e-38
-0.060000032 -0.13890465 -0.013610605 2.2126249e-38
-0.058136158 -0.13890465 -0.013610605 8.4827392e-39
-0.056232668 -0.13809387 -0.010598186 4.796356e-39
-0.054374076 -0.13809387 -0.010598186 3.8743969e-39
-0.052515484 -0.13809387 -0.010598186 2.3074229e-39
-0.050656892 -0.13809387 -0.010598186 1.753512e-39
-0.048816789 -0.13890465 -0.013610605 2.4899827e-39
-0.046952914 -0.13890465 -0.013610605 1.013419e-39
-0.045081116 -0.13809387 -0.010598186 3.9629197e-39
-0.043222524 -0.13809387 -0.010598186 1.0967993e-38
-0.041361295 -0.13890465 -0.013610605 1.0136815e-38
-0.03950534 -0.13809387 -0.010598186 3.3143497e-39
-0.037646748 -0.13809387 -0.010598186 4.3324575e-39
-0.035788156 -0.13809387 -0.010598186 4.9807052e-39
-0.033953197 -0.13728772 -0.0076028146 3.7843228e-39
-0.032099858 -0.13728772 -0.0076028146 4.2460198e-39
-0.030246519 -0.13728772 -0.0076028146 2.3084767e-39
-0.028432345 -0.13648613 -0.0046243705 2.2137629e-39
-0.026584227 -0.13648613 -0.0046243705 3.1328423e-39
-0.024736108 -0.13648613 -0.0046243705 7.9248571e-39
-0.022962635 -0.13539489 -0.00056982413 9.1216052e-39
-0.021121627 -0.13539489 -0.00056982413 7.8315853e-39
-0.019280616 -0.13539489 -0.00056982413 6.1753023e-39
-0.017439608 -0.13539489 -0.00056982413 7.1919724e-39
-0.015598599 -0.13539489 -0.00056982413 6.54984e-39
-0.01375759 -0.13539489 -0.00056982413 3.7854186e-39
-0.011916582 -0.13539489 -0.00056982413 4.1513355e-39
-0.010075571 -0.13539489 -0.00056982413 4.9800214e-39
-0.0082345624 -0.13539489 -0.00056982413 5.6250264e-39
-0.0063935537 -0.13539489 -0.00056982413 5.5331825e-39
-0.004552545 -0.13539489 -0.00056982413 5.8090407e-39
-0.0027115364 -0.13539489 -0.00056982413 3.4123033e-39
-0.0008705277 -0.13539489 -0.00056982413 5.8097442e-39
0.00084938295 -0.13460387 0.0023692809 6.5469435e-39
0.0026852358 -0.13460387 0.0023692809 4.1498571e-39
0.0045210924 -0.13460387 0.0023692809 3.4122921e-39
0.006356949 -0.13460387 0.0023692809 3.411939e-39
0.0080466811 -0.13378824 0.0053998195 3.965833e-39
0.0098772254 -0.13378824 0.0053998195 3.8740073e-39
0.011707766 -0.13378824 0.0053998195 3.7057758e-40
0.01353831 -0.13378824 0.0053998195 2.1226603e-39
0.015202435 -0.13297729 0.0084129535 3.3212035e-39
0.017027697 -0.13297729 0.0084129535 3.689986e-39
0.018852955 -0.13297729 0.0084129535 4.3353526e-39
0.020678213 -0.13297729 0.0084129535 4.3353526e-39
0.022503471 -0.13297729 0.0084129535 3.4133963e-39
0.024328729 -0.13297729 0.0084129535 2.8598596e-39
0.026153995 -0.13297729 0.0084129535 2.9520552e-39
0.027979253 -0.13297729 0.0084129535 3.1353647e-39
0.030013187 -0.13378824 0.0053998195 2.7669395e-39
0.031843737 -0.13378824 0.0053998195 4.3335463e-39
0.033674277 -0.13378824 0.0053998195 3.6881741e-39
0.035730645 -0.13460387 0.0023692809 3.1346374e-39
0.037335359 -0.13378824 0.0053998195 2.9502433e-39
0.039165907 -0.13378824 0.0053998195 3.0417187e-39
0.041238204 -0.13460387 0.0023692809 3.0417173e-39
0.043074057 -0.13460387 0.0023692809 3.5026955e-39
0.045154691 -0.13539489 -0.00056982413 3.9647526e-39
0.046995714 -0.13539489 -0.00056982413 2.1208484e-39
0.04858163 -0.13460387 0.0023692809 7.1746481e-43
0.050417483 -0.13460387 0.0023692809 8.3047673e-40
0.051979691 -0.13378824 0.0053998195 2.341805e-38
0.053810239 -0.13378824 0.0053998195 2.2958155e-38
0.055640787 -0.13378824 0.0053998195 2.2958155e-38
0.05747132 -0.13378824 0.0053998195 2.2773763e-38
0.059301868 -0.13378824 0.0053998195 2.1943999e-38
0.061132401 -0.13378824 0.0053998195 1.7150179e-38
0.062962949 -0.13378824 0.0053998195 6.0870584e-39
0.064793497 -0.13378824 0.0053998195 6.731346e-39
-0.08300934 -0.14538784 -0.030663017 1.4471829e-38
-0.081115566 -0.14538784 -0.030663017 2.0648936e-38
-0.079221793 -0.14538784 -0.030663017 2.1847835e-38
-0.077328019 -0.14538784 -0.030663017 2.1018071e-38
-0.075342357 -0.14457656 -0.027668122 2.1110264e-38
-0.073453836 -0.14457656 -0.027668122 2.2310249e-38
-0.071456462 -0.14349155 -0.023662809 2.0099715e-38
-0.06957496 -0.14349155 -0.023662809 2.3050698e-38
-0.067693464 -0.14349155 -0.023662809 2.2496804e-38
-0.065899752 -0.14457656 -0.027668122 2.350988e-38
-0.063868575 -0.14266007 -0.020593289 2.3325131e-38
-0.061938345 -0.14186381 -0.017653946 2.3325494e-38
-0.060000032 -0.14076851 -0.013610605 2.221915e-38
-0.058136158 -0.14076851 -0.013610605 1.5687704e-39
-0.056272283 -0.14076851 -0.013610605 1.6613276e-39
-0.054374076 -0.13995247 -0.010598186 4.1516872e-39
-0.052515484 -0.13995247 -0.010598186 4.5197439e-39
-0.050656892 -0.13995247 -0.010598186 3.1357192e-39
-0.048816789 -0.14076851 -0.013610605 2.3052257e-39
-0.046939708 -0.13995247 -0.010598186 5.5173044e-40
-0.045081116 -0.13995247 -0.010598186 9.1871369e-40
-0.043222524 -0.13995247 -0.010598186 9.9531245e-39
-0.041363932 -0.13995247 -0.010598186 8.1996307e-39
-0.03950534 -0.13995247 -0.010598186 7.740819e-39
-0.037646748 -0.13995247 -0.010598186 7.5607437e-39
-0.035788156 -0.13995247 -0.010598186 5.9055384e-39
-0.033953197 -0.13914107 -0.0076028146 5.0790175e-39
-0.032099858 -0.13914107 -0.0076028146 5.0797364e-39
-0.030246519 -0.13914107 -0.0076028146 4.431853e-39
-0.028432345 -0.13833423 -0.0046243705 5.6275193e-39
-0.026584227 -0.13833423 -0.0046243705 8.6645829e-39
-0.024736108 -0.13833423 -0.0046243705 1.3823582e-38
-0.022962635 -0.13723589 -0.00056982413 1.6311427e-38
-0.021121627 -0.13723589 -0.00056982413 1.6311787e-38
-0.019280616 -0.13723589 -0.00056982413 1.603844e-38
-0.017439608 -0.13723589 -0.00056982413 1.5212276e-38
-0.015598599 -0.13723589 -0.00056982413 1.4755973e-38
-0.01375759 -0.13723589 -0.00056982413 1.1529852e-38
-0.011916582 -0.13723589 -0.00056982413 8.1157476e-39
-0.010075571 -0.13723589 -0.00056982413 9.3124957e-39
-0.0082345624 -0.13723589 -0.00056982413 1.0510313e-38
-0.0063935537 -0.13723589 -0.00056982413 1.0787252e-38
-0.004552545 -0.13723589 -0.00056982413 9.3121117e-39
-0.0027115364 -0.13723589 -0.00056982413 2.0290087e-39
-0.0008705277 -0.13723589 -0.00056982413 5.8090253e-39
0.00084938295 -0.13643973 0.0023692809 7.2837897e-39
0.0026852358 -0.13643973 0.0023692809 1.0050014e-38
0.0045210924 -0.13643973 0.0023692809 1.0419157e-38
0.006356949 -0.13643973 0.0023692809 8.3908561e-39
0.0080466811 -0.13561879 0.0053998195 7.1926786e-39
0.0098772254 -0.13561879 0.0053998195 7.6543813e-39
0.011551918 -0.13480256 0.0084129535 9.2374716e-40
0.013377177 -0.13480256 0.0084129535 2.8605757e-39
0.015202435 -0.13480256 0.0084129535 3.4133963e-39
0.016856989 -0.13399105 0.011408683 4.7956119e-39
0.018676994 -0.13399105 0.011408683 5.3487885e-39
0.020497 -0.13399105 0.011408683 5.4409813e-39
0.022317013 -0.13399105 0.011408683 4.7034163e-39
0.024328729 -0.13480256 0.0084129535 4.4261091e-39
0.025957024 -0.13399105 0.011408683 4.3339107e-39
0.027777029 -0.13399105 0.011408683 4.057321e-39
0.029804511 -0.13480256 0.0084129535 3.6888958e-39
0.031629771 -0.13480256 0.0084129535 3.3193944e-39
0.033455029 -0.13480256 0.0084129535 2.5818266e-39
0.035280287 -0.13480256 0.0084129535 2.0282926e-39
0.037335359 -0.13561879 0.0053998195 1.751703e-39
0.039165907 -0.13561879 0.0053998195 1.751703e-39
0.040756062 -0.13480256 0.0084129535 2.028287e-39
0.04258132 -0.13480256 0.0084129535 2.8573274e-39
0.044406578 -0.13480256 0.0084129535 3.4112215e-39
0.04538238 -0.13209651 0.018402334 1.384005e-39
0.04858163 -0.13643973 0.0023692809 1.0761972e-42
0.050417483 -0.13643973 0.0023692809 1.7531561e-39
0.051979691 -0.13561879 0.0053998195 2.2312784e-38
0.053810239 -0.13561879 0.0053998195 2.2865961e-38
0.055640787 -0.13561879 0.0053998195 2.3234379e-38
0.05747132 -0.13561879 0.0053998195 2.2680488e-38
0.059301868 -0.13561879 0.0053998195 2.1205711e-38
0.061132401 -0.13561879 0.0053998195 1.5858719e-38
0.062962949 -0.13561879 0.0053998195 7.1001313e-39
0.064793497 -0.13561879 0.0053998195 7.5607465e-39
0.065997168 -0.13399105 0.011408683 7.5603906e-39
-0.081115566 -0.1472816 -0.030663017 1.8528792e-38
-0.079221793 -0.1472816 -0.030663017 1.8805376e-38
-0.077230878 -0.14646508 -0.027668122 1.7883417e-38
-0.075342357 -0.14646508 -0.027668122 1.7145852e-38
-0.073453836 -0.14646508 -0.027668122 1.723949e-38
-0.071456462 -0.14537306 -0.023662809 2.0283039e-38
-0.06957496 -0.14537306 -0.023662809 2.3233662e-38
-0.067693464 -0.14537306 -0.023662809 2.3509886e-38
-0.065899752 -0.14646508 -0.027668122 2.3509883e-38
-0.063868575 -0.14453618 -0.020593289 2.2587564e-38
-0.061938345 -0.14373477 -0.017653946 1.9084128e-38
-0.060000032 -0.14263238 -0.013610605 1.8439478e-38
-0.058136158 -0.14263238 -0.013610605 8.3083126e-40
-0.056232668 -0.14181106 -0.010598186 2.1523944e-42
-0.054374076 -0.14181106 -0.010598186 1.6620325e-39
-0.052515484 -0.14181106 -0.010598186 1.20069e-39
-0.050656892 -0.14181106 -0.010598186 9.2911693e-41
-0.0487983 -0.14181106 -0.010598186 3.6770072e-40
-0.046939708 -0.14181106 -0.010598186 1.1034609e-39
-0.045073241 -0.14099441 -0.0076028146 6.633007e-39
-0.043219902 -0.14099441 -0.0076028146 2.3508413e-38
-0.041363932 -0.14181106 -0.010598186 2.3505907e-38
-0.039513219 -0.14099441 -0.0076028146 2.3509153e-38
-0.03765988 -0.14099441 -0.0076028146 2.3326196e-38
-0.03580654 -0.14099441 -0.0076028146 2.2775186e-38
-0.033953197 -0.14099441 -0.0076028146 2.2224176e-38
-0.032099858 -0.14099441 -0.0076028146 2.2040504e-38
-0.030246519 -0.14099441 -0.0076028146 2.2224175e-38
-0.028432345 -0.14018236 -0.0046243705 2.2958863e-38
-0.026584227 -0.14018236 -0.0046243705 2.35088e-38
-0.024736108 -0.14018236 -0.0046243705 2.3507005e-38
-0.022962635 -0.1390769 -0.00056982413 2.3507369e-38
-0.021121627 -0.1390769 -0.00056982413 2.3505927e-38
-0.019345032 -0.13827558 0.0023692809 2.3508807e-38
-0.017509177 -0.13827558 0.0023692809 2.3509883e-38
-0.015673321 -0.13827558 0.0023692809 2.2775202e-38
-0.013837464 -0.13827558 0.0023692809 2.2316023e-38
-0.011916582 -0.1390769 -0.00056982413 2.3234379e-38
-0.010165753 -0.13827558 0.0023692809 2.3509527e-38
-0.0083298963 -0.13827558 0.0023692809 2.3509527e-38
-0.0064940434 -0.13827558 0.0023692809 2.166561e-38
-0.004552545 -0.1390769 -0.00056982413 1.6962906e-38
-0.0027115364 -0.1390769 -0.00056982413 1.0232978e-38
-0.0008705277 -0.1390769 -0.00056982413 1.7424233e-38
0.00084938295 -0.13827558 0.0023692809 2.350986e-38
0.0026852358 -0.13827558 0.0023692809 2.350986e-38
0.0045210924 -0.13827558 0.0023692809 2.323399e-38
0.006356949 -0.13827558 0.0023692809 2.3325829e-38
0.0080466811 -0.13744931 0.0053998195 2.3509866e-38
0.0098772254 -0.13744931 0.0053998195 2.3234361e-38
0.011551918 -0.13662781 0.0084129535 1.217197e-38
0.013377177 -0.13662781 0.0084129535 1.5490657e-38
0.015036983 -0.13581105 0.011408683 2.3234376e-38
0.016856989 -0.13581105 0.011408683 2.2865955e-38
0.018676994 -0.13581105 0.011408683 2.3234379e-38
0.020497 -0.13581105 0.011408683 2.341805e-38
0.022317013 -0.13581105 0.011408683 2.341805e-38
0.024137018 -0.13581105 0.011408683 2.3234018e-38
0.025957024 -0.13581105 0.011408683 2.3326213e-38
0.027777029 -0.13581105 0.011408683 2.332621e-38
0.029597035 -0.13581105 0.011408683 2.3049621e-38
0.031417042 -0.13581105 0.011408683 2.3141456e-38
0.033237055 -0.13581105 0.011408683 2.2864868e-38
0.03505706 -0.13581105 0.011408683 2.2864149e-38
0.037105553 -0.13662781 0.0084129535 2.3048896e-38
0.038930811 -0.13662781 0.0084129535 2.3141092e-38
0.040517077 -0.13581105 0.011408683 2.3141089e-38
0.041766882 -0.13390426 0.018402334 2.3508793e-38
0.043574631 -0.13390426 0.018402334 2.3509876e-38
0.04538238 -0.13390426 0.018402334 2.3049978e-38
0.046935081 -0.13310309 0.021340962 1.9916051e-38
0.050149158 -0.13744931 0.0053998195 1.7795196e-38
0.051979691 -0.13744931 0.0053998195 2.3234379e-38
0.053810239 -0.13744931 0.0053998195 2.3234379e-38
0.055640787 -0.13744931 0.0053998195 2.3234379e-38
0.05747132 -0.13744931 0.0053998195 2.341805e-38
0.059301868 -0.13744931 0.0053998195 2.0652537e-38
0.060833916 -0.13662781 0.0084129535 1.5397741e-38
0.062357157 -0.13581105 0.011408683 8.0220876e-39
0.064177155 -0.13581105 0.011408683 7.929529e-39
-0.08100792 -0.14835359 -0.027668122 1.7145133e-38
-0.079119399 -0.14835359 -0.027668122 1.6961815e-38
-0.077230878 -0.14835359 -0.027668122 1.51179e-38
-0.075342357 -0.14835359 -0.027668122 1.3736042e-38
-0.073337957 -0.14725454 -0.023662809 1.4750564e-38
-0.071456462 -0.14725454 -0.023662809 2.0928411e-38
-0.06957496 -0.14725454 -0.023662809 2.2772332e-38
-0.067693464 -0.14725454 -0.023662809 2.3417691e-38
-0.065811962 -0.14725454 -0.023662809 2.3509883e-38
-0.063868575 -0.1464123 -0.020593289 2.3509876e-38
-0.061938345 -0.14560573 -0.017653946 1.714837e-38
-0.060000032 -0.14449625 -0.013610605 1.2723699e-38
-0.05809126 -0.14366965 -0.010598186 1.0761972e-42
-0.056232668 -0.14366965 -0.010598186 1.0761972e-42
-0.054339945 -0.14284773 -0.0076028146 7.3970903e-40
-0.052486598 -0.14284773 -0.0076028146 6.4607706e-40
-0.050633259 -0.14284773 -0.0076028146 6.442834e-40
-0.0487983 -0.14366965 -0.010598186 7.3468397e-40
-0.04692658 -0.14284773 -0.0076028146 1.0101905e-39
-0.045065407 -0.14203046 -0.0046243705 5.2482887e-39
-0.043217286 -0.14203046 -0.0046243705 2.3503745e-38
-0.04136917 -0.14203046 -0.0046243705 2.3508072e-38
-0.039513219 -0.14284773 -0.0076028146 2.3508793e-38
-0.03765988 -0.14284773 -0.0076028146 2.3416233e-38
-0.03580654 -0.14284773 -0.0076028146 2.3234362e-38
-0.0339767 -0.14203046 -0.0046243705 2.2867022e-38
-0.03212858 -0.14203046 -0.0046243705 2.2316002e-38
-0.030246519 -0.14284773 -0.0076028146 2.295886e-38
-0.028432345 -0.14203046 -0.0046243705 2.3049975e-38
-0.026584227 -0.14203046 -0.0046243705 2.3509161e-38
-0.024736108 -0.14203046 -0.0046243705 2.3507003e-38
-0.022962635 -0.14091791 -0.00056982413 2.3507728e-38
-0.021121627 -0.14091791 -0.00056982413 2.3319734e-38
-0.019345032 -0.14011143 0.0023692809 2.3508807e-38
-0.01758091 -0.13927986 0.0053998195 2.3509527e-38
-0.015750367 -0.13927986 0.0053998195 2.2683362e-38
-0.013837464 -0.14011143 0.0023692809 2.2037993e-38
-0.012001609 -0.14011143 0.0023692809 2.3509883e-38
-0.01025874 -0.13927986 0.0053998195 2.2770876e-38
-0.0084281992 -0.13927986 0.0053998195 2.3140016e-38
-0.0064940434 -0.14011143 0.0023692809 2.3509873e-38
-0.0046581868 -0.14011143 0.0023692809 2.3509869e-38
-0.0028223302 -0.14011143 0.0023692809 2.3232197e-38
-0.0008705277 -0.14091791 -0.00056982413 2.2586822e-38
0.00097048096 -0.14091791 -0.00056982413 2.3509859e-38
0.0028114934 -0.14091791 -0.00056982413 2.3139996e-38
0.0045210924 -0.14011143 0.0023692809 2.350986e-38
0.006356949 -0.14011143 0.0023692809 2.3509862e-38
0.0081928056 -0.14011143 0.0023692809 2.258827e-38
0.0098772254 -0.13927986 0.0053998195 2.350987e-38
0.011551918 -0.13845308 0.0084129535 2.2588997e-38
0.013377177 -0.13845308 0.0084129535 2.1759239e-38
0.015036983 -0.13763104 0.011408683 2.3418045e-38
0.016632916 -0.13655205 0.015340921 2.341805e-38
0.01844603 -0.13655205 0.015340921 2.341805e-38
0.02025914 -0.13655205 0.015340921 2.3509886e-38
0.022072254 -0.13655205 0.015340921 2.3509886e-38
0.024137018 -0.13763104 0.011408683 2.3509886e-38
0.025698481 -0.13655205 0.015340921 2.3509886e-38
0.027511587 -0.13655205 0.015340921 2.3509883e-38
0.029597035 -0.13763104 0.011408683 2.350988e-38
0.031417042 -0.13763104 0.011408683 2.3417324e-38
0.03295093 -0.13655205 0.015340921 2.3325129e-38
0.034764044 -0.13655205 0.015340921 2.3417324e-38
0.036877066 -0.13763104 0.011408683 2.3509879e-38
0.038697071 -0.13763104 0.011408683 2.3509879e-38
0.039959148 -0.13571201 0.018402334 2.3417679e-38
0.041527301 -0.13490568 0.021340962 2.3325483e-38
0.043329895 -0.13490568 0.021340962 2.3325846e-38
0.045132488 -0.13490568 0.021340962 2.3418045e-38
0.046935081 -0.13490568 0.021340962 2.268192e-38
0.048737675 -0.13490568 0.021340962 2.1667412e-38
0.051979691 -0.13927986 0.0053998195 2.3234379e-38
0.053810239 -0.13927986 0.0053998195 2.3233662e-38
0.055640787 -0.13927986 0.0053998195 2.304927e-38
0.05747132 -0.13927986 0.0053998195 2.3326213e-38
0.059301868 -0.13927986 0.0053998195 1.8163252e-38
0.060833916 -0.13845308 0.0084129535 1.558141e-38
0.062357157 -0.13763104 0.011408683 9.2202678e-39
0.064177155 -0.13763104 0.011408683 8.5748984e-39
-0.073337957 -0.14913605 -0.023662809 1.3552372e-38
-0.071456462 -0.14913605 -0.023662809 2.1020606e-38
-0.06957496 -0.14913605 -0.023662809 2.2956362e-38
-0.067693464 -0.14913605 -0.023662809 2.3509168e-38
-0.065811962 -0.14913605 -0.023662809 2.2679759e-38
-0.063809305 -0.14747669 -0.017653946 2.3509873e-38
-0.061863907 -0.14636014 -0.013610605 1.6317889e-38
-0.060000032 -0.14636014 -0.013610605 9.4042948e-39
-0.05809126 -0.14552824 -0.010598186 1.8510592e-40
-0.056232668 -0.14552824 -0.010598186 1.0761972e-42
-0.054339945 -0.14470108 -0.0076028146 9.2302129e-40
-0.052486598 -0.14470108 -0.0076028146 2.1204883e-39
-0.050633259 -0.14470108 -0.0076028146 3.962603e-39
-0.0487983 -0.14552824 -0.010598186 4.8816782e-39
-0.046913527 -0.14387859 -0.0046243705 2.1136513e-39
-0.045065407 -0.14387859 -0.0046243705 3.5866192e-39
-0.043217286 -0.14387859 -0.0046243705 1.5571328e-38
-0.04136917 -0.14387859 -0.0046243705 2.3409396e-38
-0.039521053 -0.14387859 -0.0046243705 2.350555e-38
-0.037672937 -0.14387859 -0.0046243705 2.3508068e-38
-0.035824817 -0.14387859 -0.0046243705 2.3509509e-38
-0.0339767 -0.14387859 -0.0046243705 2.3049248e-38
-0.03212858 -0.14387859 -0.0046243705 2.3418033e-38
-0.030280463 -0.14387859 -0.0046243705 2.350987e-38
-0.028432345 -0.14387859 -0.0046243705 2.3416597e-38
-0.026584227 -0.14387859 -0.0046243705 2.3509158e-38
-0.024736108 -0.14387859 -0.0046243705 2.3507002e-38
-0.022962635 -0.14275892 -0.00056982413 2.3508445e-38
-0.021180889 -0.14194728 0.0023692809 2.3508445e-38
-0.019345032 -0.14194728 0.0023692809 2.3508809e-38
-0.01758091 -0.14111041 0.0053998195 2.3509527e-38
-0.015750367 -0.14111041 0.0053998195 2.3234379e-38
-0.013919825 -0.14111041 0.0053998195 2.3234374e-38
-0.012089282 -0.14111041 0.0053998195 2.3416597e-38
-0.01025874 -0.14111041 0.0053998195 2.3508788e-38
-0.0084281992 -0.14111041 0.0053998195 2.3509866e-38
-0.0065976549 -0.14111041 0.0053998195 2.3415507e-38
-0.0046581868 -0.14194728 0.0023692809 2.3230753e-38
-0.0028223302 -0.14194728 0.0023692809 2.3509859e-38
-0.00098647363 -0.14194728 0.0023692809 2.3508779e-38
0.00084938295 -0.14194728 0.0023692809 2.3509499e-38
0.0026852358 -0.14194728 0.0023692809 2.350986e-38
0.0043855999 -0.14111041 0.0053998195 2.3509863e-38
0.0060761403 -0.14027832 0.0084129535 2.3509866e-38
0.0079013985 -0.14027832 0.0084129535 2.3509869e-38
0.0097266603 -0.14027832 0.0084129535 2.3509873e-38
0.011551918 -0.14027832 0.0084129535 2.3509876e-38
0.013216974 -0.13945107 0.011408683 2.2680477e-38
0.014819806 -0.13836516 0.015340921 2.2865229e-38
0.016632916 -0.13836516 0.015340921 2.3325494e-38
0.01844603 -0.13836516 0.015340921 2.3325497e-38
0.02025914 -0.13836516 0.015340921 2.3325494e-38
0.022072254 -0.13836516 0.015340921 2.3233299e-38
0.024137018 -0.13945107 0.011408683 2.3233299e-38
0.025698481 -0.13836516 0.015340921 2.3325494e-38
0.027511587 -0.13836516 0.015340921 2.3325492e-38
0.029597035 -0.13945107 0.011408683 2.3325492e-38
0.031137815 -0.13836516 0.015340921 2.350988e-38
0.03295093 -0.13836516 0.015340921 2.350988e-38
0.034535915 -0.13751976 0.018402334 2.350988e-38
0.036343656 -0.13751976 0.018402334 2.350988e-38
0.038151406 -0.13751976 0.018402334 2.350988e-38
0.039724715 -0.13670824 0.021340962 2.3417323e-38
0.041527301 -0.13670824 0.021340962 2.3325127e-38
0.043329895 -0.13670824 0.021340962 2.3418042e-38
0.045132488 -0.13670824 0.021340962 2.3418045e-38
0.046935081 -0.13670824 0.021340962 2.3234374e-38
0.048737675 -0.13670824 0.021340962 2.2036195e-38
-0.063809305 -0.14934768 -0.017653946 2.3509153e-38
-0.061863907 -0.14822401 -0.013610605 1.3183238e-38
-0.060000032 -0.14822401 -0.013610605 7.0979705e-39
-0.05809126 -0.14738683 -0.010598186 1.8438846e-40
-0.056232668 -0.14738683 -0.010598186 1.8474719e-40
-0.054339945 -0.14655443 -0.0076028146 3.5873241e-43
-0.052486598 -0.14655443 -0.0076028146 1.5658838e-39
-0.050633259 -0.14655443 -0.0076028146 4.5143461e-39
-0.0487983 -0.14738683 -0.010598186 5.8947596e-39
-0.046913527 -0.1457267 -0.0046243705 1.7448744e-39
-0.045065407 -0.1457267 -0.0046243705 2.3877229e-39
-0.043217286 -0.1457267 -0.0046243705 8.6559397e-39
-0.04136917 -0.1457267 -0.0046243705 9.7640795e-39
-0.039521053 -0.1457267 -0.0046243705 1.2531388e-38
-0.037672937 -0.1457267 -0.0046243705 1.4928474e-38
-0.035824817 -0.1457267 -0.0046243705 1.5390174e-38
-0.0339767 -0.1457267 -0.0046243705 1.6128099e-38
-0.03212858 -0.1457267 -0.0046243705 1.6405768e-38
-0.030280463 -0.1457267 -0.0046243705 1.5576368e-38
-0.028432345 -0.1457267 -0.0046243705 1.5208309e-38
-0.026584227 -0.1457267 -0.0046243705 2.2031507e-38
-0.024736108 -0.1457267 -0.0046243705 2.3507e-38
-0.023016743 -0.14378314 0.0023692809 2.2032951e-38
-0.021180889 -0.14378314 0.0023692809 2.3509521e-38
-0.019345032 -0.14378314 0.0023692809 2.3509527e-38
-0.01758091 -0.14294095 0.0053998195 2.258721e-38
-0.015750367 -0.14294095 0.0053998195 2.3509527e-38
-0.013919825 -0.14294095 0.0053998195 2.3140736e-38
-0.012089282 -0.14294095 0.0053998195 2.3509863e-38
-0.01025874 -0.14294095 0.0053998195 2.3509856e-38
-0.0084281992 -0.14294095 0.0053998195 2.3509856e-38
-0.0065976549 -0.14294095 0.0053998195 2.3509855e-38
-0.0046581868 -0.14378314 0.0023692809 2.3509853e-38
-0.0028223302 -0.14378314 0.0023692809 2.3508053e-38
-0.00098647363 -0.14378314 0.0023692809 2.3509856e-38
0.00084938295 -0.14378314 0.0023692809 2.3509859e-38
0.0026852358 -0.14378314 0.0023692809 2.3509502e-38
0.0043855999 -0.14294095 0.0053998195 2.249319e-38
0.0060761403 -0.1421036 0.0084129535 2.3323317e-38
0.0079013985 -0.1421036 0.0084129535 2.350987e-38
0.0097266603 -0.1421036 0.0084129535 2.3509516e-38
0.011396969 -0.14127107 0.011408683 2.2956345e-38
0.013216974 -0.14127107 0.011408683 2.3509879e-38
0.014819806 -0.14017828 0.015340921 2.3049261e-38
0.016632916 -0.14017828 0.015340921 2.3509527e-38
0.01844603 -0.14017828 0.015340921 2.3509527e-38
0.02025914 -0.14017828 0.015340921 2.3509527e-38
0.022317013 -0.14127107 0.011408683 2.3509527e-38
0.023885367 -0.14017828 0.015340921 2.3509527e-38
0.025698481 -0.14017828 0.015340921 2.3509527e-38
0.027511587 -0.14017828 0.015340921 2.3509883e-38
0.029324701 -0.14017828 0.015340921 2.3509883e-38
0.031137815 -0.14017828 0.015340921 2.3509523e-38
0.032728173 -0.13932751 0.018402334 2.3325131e-38
0.034535915 -0.13932751 0.018402334 2.3509523e-38
0.036343656 -0.13932751 0.018402334 2.3509883e-38
0.038151406 -0.13932751 0.018402334 2.3509883e-38
0.039724715 -0.13851084 0.021340962 2.350988e-38
0.041527301 -0.13851084 0.021340962 2.350988e-38
0.043329895 -0.13851084 0.021340962 2.350988e-38
0.045132488 -0.13851084 0.021340962 2.30507e-38
0.046935081 -0.13851084 0.021340962 2.3142538e-38
0.048737675 -0.13851084 0.021340962 2.3234379e-38
-0.05809126 -0.14924543 -0.010598186 2.7550649e-40
-0.056193285 -0.14840777 -0.0076028146 4.5989495e-40
-0.054339945 -0.14840777 -0.0076028146 5.5137171e-40
-0.052486598 -0.14840777 -0.0076028146 5.0678744e-39
-0.050633259 -0.14840777 -0.0076028146 1.1150625e-38
-0.0487983 -0.14924543 -0.010598186 1.1794192e-38
-0.046913527 -0.14757483 -0.0046243705 3.5866206e-39
-0.045065407 -0.14757483 -0.0046243705 1.9285454e-39
-0.043213733 -0.14644094 -0.00056982413 4.4149408e-39
-0.041372724 -0.14644094 -0.00056982413 2.2040519e-39
-0.039521053 -0.14757483 -0.0046243705 3.2189059e-39
-0.037672937 -0.14757483 -0.0046243705 2.9423232e-39
-0.035824817 -0.14757483 -0.0046243705 1.3775324e-39
-0.0339767 -0.14757483 -0.0046243705 2.2062043e-39
-0.03212858 -0.14757483 -0.0046243705 1.7455919e-39
-0.030280463 -0.14757483 -0.0046243705 1.0101905e-39
-0.028432345 -0.14757483 -0.0046243705 2.6689831e-39
-0.026644653 -0.14644094 -0.00056982413 7.0039714e-39
-0.024803644 -0.14644094 -0.00056982413 1.6500837e-38
-0.023016743 -0.14561899 0.0023692809 1.7331321e-38
-0.021180889 -0.14561899 0.0023692809 2.3047454e-38
-0.019411452 -0.1447715 0.0053998195 2.3509879e-38
-0.01758091 -0.1447715 0.0053998195 2.3509879e-38
-0.015750367 -0.1447715 0.0053998195 2.2955622e-38
-0.013919825 -0.1447715 0.0053998195 1.4380338e-38
-0.012089282 -0.1447715 0.0053998195 1.419557e-38
-0.010351194 -0.14392884 0.0084129535 1.6499014e-38
-0.0085259322 -0.14392884 0.0084129535 2.0186839e-38
-0.0067006741 -0.14392884 0.0084129535 2.3506604e-38
-0.0047671143 -0.1447715 0.0053998195 2.3508411e-38
-0.00293657 -0.1447715 0.0053998195 1.8708477e-38
-0.0011060294 -0.1447715 0.0053998195 2.2119711e-38
0.00072451495 -0.1447715 0.0053998195 2.3503368e-38
0.0025550555 -0.1447715 0.0053998195 1.9722273e-38
0.0043855999 -0.1447715 0.0053998195 1.3546247e-38
0.0059369486 -0.14309107 0.011408683 1.6773454e-38
0.0077569541 -0.14309107 0.011408683 2.2859808e-38
0.0097266603 -0.14392884 0.0084129535 1.880357e-38
0.011396969 -0.14309107 0.011408683 8.9397223e-39
0.013216974 -0.14309107 0.011408683 1.7053657e-38
0.014819806 -0.14199139 0.015340921 2.3509516e-38
0.016458469 -0.14113526 0.018402334 2.3509527e-38
0.01826621 -0.14113526 0.018402334 2.3509168e-38
0.02025914 -0.14199139 0.015340921 2.3509168e-38
0.022317013 -0.14309107 0.011408683 2.3509527e-38
0.023885367 -0.14199139 0.015340921 2.3417327e-38
0.025698481 -0.14199139 0.015340921 2.2956346e-38
0.027511587 -0.14199139 0.015340921 2.2403171e-38
0.029324701 -0.14199139 0.015340921 2.212694e-38
0.031137815 -0.14199139 0.015340921 2.1665962e-38
0.032728173 -0.14113526 0.018402334 2.1850353e-38
0.034535915 -0.14113526 0.018402334 2.2403171e-38
0.036343656 -0.14113526 0.018402334 2.3232932e-38
0.038151406 -0.14113526 0.018402334 2.350988e-38
0.039724715 -0.14031343 0.021340962 2.3417324e-38
0.041527301 -0.14031343 0.021340962 2.3325129e-38
0.043077886 -0.13946722 0.024366852 2.350952e-38
0.044875175 -0.13946722 0.024366852 2.3418045e-38
0.046672463 -0.13946722 0.024366852 2.2774116e-38
0.048469752 -0.13946722 0.024366852 2.3050347e-38
-0.054306 -0.14942293 -0.0046243705 1.4715203e-39
-0.052457877 -0.14942293 -0.0046243705 6.816692e-39
-0.046913527 -0.14942293 -0.0046243705 2.2044106e-39
-0.045065407 -0.14942293 -0.0046243705 1.8367099e-39
-0.043213733 -0.14828195 -0.00056982413 2.6650231e-39
-0.041372724 -0.14828195 -0.00056982413 2.3880816e-39
-0.039531715 -0.14828195 -0.00056982413 2.5742638e-39
-0.037690707 -0.14828195 -0.00056982413 1.8377861e-39
-0.035849698 -0.14828195 -0.00056982413 1.0101905e-39
-0.034008689 -0.14828195 -0.00056982413 1.0105492e-39
-0.032167681 -0.14828195 -0.00056982413 1.2871347e-39
-0.030326672 -0.14828195 -0.00056982413 1.1949404e-39
-0.028485663 -0.14828195 -0.00056982413 1.4718791e-39
-0.026644653 -0.14828195 -0.00056982413 6.4514997e-39
-0.024803644 -0.14828195 -0.00056982413 1.1890675e-38
-0.023016743 -0.14745484 0.0023692809 1.3273611e-38
-0.021180889 -0.14745484 0.0023692809 2.2031842e-38
-0.019411452 -0.14660202 0.0053998195 2.3509507e-38
-0.01758091 -0.14660202 0.0053998195 2.3508786e-38
-0.015750367 -0.14660202 0.0053998195 2.3509851e-38
-0.013919825 -0.14660202 0.0053998195 1.1706999e-38
-0.012089282 -0.14660202 0.0053998195 1.0044593e-38
-0.010351194 -0.14575411 0.0084129535 1.2440953e-38
-0.0085259322 -0.14575411 0.0084129535 1.7325877e-38
-0.0067006741 -0.14575411 0.0084129535 2.267071e-38
-0.0047671143 -0.14660202 0.0053998195 2.285296e-38
-0.00293657 -0.14660202 0.0053998195 1.7780039e-38
-0.0012248959 -0.14575411 0.0084129535 1.6120135e-38
0.0006003622 -0.14575411 0.0084129535 1.9346982e-38
0.0024256203 -0.14575411 0.0084129535 1.7870792e-38
0.0042508822 -0.14575411 0.0084129535 1.492125e-38
0.0057542454 -0.14380451 0.015340921 1.4647163e-38
0.0075673554 -0.14380451 0.015340921 1.9627169e-38
0.0093804691 -0.14380451 0.015340921 1.8153141e-38
0.011193579 -0.14380451 0.015340921 7.9212319e-39
0.013006693 -0.14380451 0.015340921 1.6312832e-38
0.014650723 -0.14294298 0.018402334 2.3509143e-38
0.016458469 -0.14294298 0.018402334 2.3509167e-38
0.01826621 -0.14294298 0.018402334 2.3509527e-38
0.02025914 -0.14380451 0.015340921 2.3417333e-38
0.022317013 -0.14491107 0.011408683 2.3233296e-38
0.023885367 -0.14380451 0.015340921 2.3509879e-38
0.025698481 -0.14380451 0.015340921 2.0283741e-38
0.027511587 -0.14380451 0.015340921 1.9730565e-38
0.029324701 -0.14380451 0.015340921 1.9085549e-38
0.031137815 -0.14380451 0.015340921 1.9822395e-38
0.03295093 -0.14380451 0.015340921 1.908483e-38
0.034535915 -0.14294298 0.018402334 2.1574115e-38
0.036343656 -0.14294298 0.018402334 2.3325478e-38
0.038151406 -0.14294298 0.018402334 2.3048896e-38
0.039724715 -0.14211603 0.021340962 2.2310975e-38
0.041527301 -0.14211603 0.021340962 2.2494289e-38
0.043077886 -0.14126451 0.024366852 2.3509524e-38
0.044875175 -0.14126451 0.024366852 2.3509524e-38
0.046672463 -0.14126451 0.024366852 2.3509167e-38
0.048203394 -0.14041798 0.027375098 2.341805e-38
0.049995407 -0.14041798 0.027375098 1.7518257e-38
-0.0248526 -0.14929073 0.0023692809 1.2443477e-38
-0.023072537 -0.14843257 0.0053998195 1.3641303e-38
-0.021241995 -0.14843257 0.0053998195 2.0002451e-38
-0.01947749 -0.14757936 0.0084129535 2.3136759e-38
-0.01765223 -0.14757936 0.0084129535 2.3506978e-38
-0.01582697 -0.14757936 0.0084129535 2.2586084e-38
-0.013919825 -0.14843257 0.0053998195 7.7425762e-39
-0.012089282 -0.14843257 0.0053998195 8.9385984e-39
-0.010351194 -0.14757936 0.0084129535 9.7665542e-39
-0.0085259322 -0.14757936 0.0084129535 1.0041335e-38
-0.0067006741 -0.14757936 0.0084129535 9.393097e-39
-0.0047671143 -0.14843257 0.0053998195 1.1418544e-38
-0.00293657 -0.14843257 0.0053998195 1.6395663e-38
-0.0012248959 -0.14757936 0.0084129535 1.6117972e-38
0.0006003622 -0.14757936 0.0084129535 1.0124534e-38
0.0024256203 -0.14757936 0.0084129535 1.1322021e-38
0.0041169431 -0.14673109 0.011408683 9.2026003e-39
0.005611999 -0.14475073 0.018402334 1.1510703e-38
0.0072780531 -0.14391862 0.021340962 1.6951684e-38
0.0090806466 -0.14391862 0.021340962 1.381814e-38
0.011035232 -0.14475073 0.018402334 5.7989262e-39
0.013006693 -0.14561762 0.015340921 1.6495777e-38
0.014650723 -0.14475073 0.018402334 2.3508058e-38
0.016458469 -0.14475073 0.018402334 2.3509165e-38
0.01826621 -0.14475073 0.018402334 2.3232944e-38
0.02025914 -0.14561762 0.015340921 2.3141106e-38
0.022317013 -0.14673109 0.011408683 2.350988e-38
0.024137018 -0.14673109 0.011408683 2.3509873e-38
0.025698481 -0.14561762 0.015340921 1.9177392e-38
0.027511587 -0.14561762 0.015340921 1.8532373e-38
0.029324701 -0.14561762 0.015340921 1.8809317e-38
0.031137815 -0.14561762 0.015340921 1.834762e-38
0.03295093 -0.14561762 0.015340921 1.7978837e-38
0.034535915 -0.14475073 0.018402334 2.0007143e-38
0.036343656 -0.14475073 0.018402334 2.1481919e-38
0.038151406 -0.14475073 0.018402334 2.1204258e-38
0.039724715 -0.14391862 0.021340962 1.9728775e-38
0.041527301 -0.14391862 0.021340962 1.9820973e-38
