# .PCD v0.7 - Point Cloud Data file format
VERSION 0.7
FIELDS x y z rgb
SIZE 4 4 4 4
TYPE F F F F
COUNT 1 1 1 1
WIDTH 822
HEIGHT 1
VIEWPOINT 0 0 0 1 0 0 0
POINTS 822
DATA ascii
0.035021283 -0.12652399 -0.02830467 8.9324537e-39
0.03698346 -0.12652399 -0.02830467 9.6714593e-39
0.038945638 -0.12652399 -0.02830467 9.9498553e-39
0.049018368 -0.12749799 -0.032286856 5.344785e-39
0.058864169 -0.12749799 -0.032286856 1.6584199e-39
0.060833342 -0.12749799 -0.032286856 4.5989495e-40
0.062802501 -0.12749799 -0.032286856 3.6770072e-40
0.06477166 -0.12749799 -0.032286856 4.2388186e-39
0.066740818 -0.12749799 -0.032286856 8.111035e-39
0.028938165 -0.1274818 -0.024227593 1.1609021e-38
0.030893194 -0.1274818 -0.024227593 1.1884157e-38
0.033059105 -0.12848614 -0.02830467 1.2989056e-38
0.035021283 -0.12848614 -0.02830467 1.4186873e-38
0.03698346 -0.12848614 -0.02830467 1.5293584e-38
0.038945638 -0.12848614 -0.02830467 1.5481226e-38
0.040907823 -0.12848614 -0.02830467 1.5114252e-38
0.04287 -0.12848614 -0.02830467 1.2902643e-38
0.044832177 -0.12848614 -0.02830467 8.1099168e-39
0.046794355 -0.12848614 -0.02830467 2.8558687e-39
0.049018368 -0.12946714 -0.032286856 2.3966912e-39
0.050987527 -0.12946714 -0.032286856 1.1992424e-39
0.052956685 -0.12946714 -0.032286856 1.0761972e-42
0.055139251 -0.13020746 -0.035292123 1.1999641e-39
0.057113685 -0.13020746 -0.035292123 2.7765888e-40
0.058864169 -0.12946714 -0.032286856 1.0761972e-42
0.060833342 -0.12946714 -0.032286856 7.1746481e-43
0.062802501 -0.12946714 -0.032286856 1.4743916e-39
0.06477166 -0.12946714 -0.032286856 2.7647675e-39
0.066740818 -0.12946714 -0.032286856 5.0685764e-39
0.068709977 -0.12946714 -0.032286856 1.0140782e-38
0.026659148 -0.12770687 -0.017254684 6.0798207e-39
0.028938165 -0.12943684 -0.024227593 1.6311724e-38
0.030893194 -0.12943684 -0.024227593 2.0181408e-38
0.032848224 -0.12943684 -0.024227593 2.0456542e-38
0.034803256 -0.12943684 -0.024227593 2.0546931e-38
0.03698346 -0.13044833 -0.02830467 2.2391205e-38
0.038713314 -0.12943684 -0.024227593 1.9076493e-38
0.040668346 -0.12943684 -0.024227593 2.1567944e-38
0.042623378 -0.12943684 -0.024227593 1.7513144e-38
0.044832177 -0.13044833 -0.02830467 1.2259083e-38
0.046794355 -0.13044833 -0.02830467 7.2830512e-39
0.049018368 -0.1314363 -0.032286856 1.3843484e-39
0.050987527 -0.1314363 -0.032286856 1.793662e-42
0.052956685 -0.1314363 -0.032286856 2.0326086e-39
0.055139251 -0.1321819 -0.035292123 3.7273278e-40
0.057113685 -0.1321819 -0.035292123 9.2590656e-40
0.058864169 -0.1314363 -0.032286856 2.4006765e-39
0.060833342 -0.1314363 -0.032286856 2.8598554e-39
0.062802501 -0.1314363 -0.032286856 4.0573126e-39
0.06477166 -0.1314363 -0.032286856 4.0558692e-39
0.066740818 -0.1314363 -0.032286856 6.3603942e-39
0.068709977 -0.1314363 -0.032286856 1.5211542e-38
0.026659148 -0.12964968 -0.017254684 4.6054263e-39
0.028601954 -0.12964968 -0.017254684 1.5113195e-38
0.03054476 -0.12964968 -0.017254684 2.0826428e-38
0.032695815 -0.13065563 -0.021280978 2.2299387e-38
0.034645684 -0.13065563 -0.021280978 2.1836239e-38
0.036758289 -0.13139187 -0.024227593 2.285183e-38
0.038713314 -0.13139187 -0.024227593 2.3409331e-38
0.040668346 -0.13139187 -0.024227593 2.2951957e-38
0.042623378 -0.13139187 -0.024227593 2.203181e-38
0.044578411 -0.13139187 -0.024227593 1.8990806e-38
0.046794355 -0.13241051 -0.02830467 1.1709885e-38
0.049018368 -0.13340546 -0.032286856 1.793662e-42
0.050718717 -0.13241051 -0.02830467 2.8161054e-40
0.052680895 -0.13241051 -0.02830467 1.5745158e-39
0.054925852 -0.13340546 -0.032286856 2.6805102e-39
0.05689501 -0.13340546 -0.032286856 3.0492955e-39
0.058864169 -0.13340546 -0.032286856 5.3527443e-39
0.060833342 -0.13340546 -0.032286856 4.4293433e-39
0.062802501 -0.13340546 -0.032286856 3.5974204e-39
0.06477166 -0.13340546 -0.032286856 3.5956127e-39
0.066416152 -0.13241051 -0.02830467 5.5309965e-39
0.068378337 -0.13241051 -0.02830467 1.2815176e-38
-0.031453378 -0.12455635 0.010710504 1.1982533e-38
-0.029559607 -0.12455635 0.010710504 1.1060222e-38
-0.027665835 -0.12455635 0.010710504 5.7121648e-39
-0.025772063 -0.12455635 0.010710504 4.4210714e-39
-0.0086693689 -0.12554805 0.006768968 3.0327238e-39
-0.0067686848 -0.12554805 0.006768968 3.4911838e-39
0.026659148 -0.13159247 -0.017254684 3.3161294e-39
0.028601954 -0.13159247 -0.017254684 1.0782162e-38
0.03054476 -0.13159247 -0.017254684 1.8986117e-38
0.032695815 -0.13260551 -0.021280978 2.3508737e-38
0.034645684 -0.13260551 -0.021280978 2.3508015e-38
0.036758289 -0.13334687 -0.024227593 2.3506214e-38
0.038713314 -0.13334687 -0.024227593 2.3507295e-38
0.040495269 -0.13260551 -0.021280978 2.350694e-38
0.042445138 -0.13260551 -0.021280978 2.3509831e-38
0.044578411 -0.13334687 -0.024227593 2.3509841e-38
0.046533436 -0.13334687 -0.024227593 2.1851767e-38
0.048488468 -0.13334687 -0.024227593 3.7843116e-39
0.050718717 -0.1343727 -0.02830467 3.6935691e-39
0.052680895 -0.1343727 -0.02830467 4.7091672e-39
0.054643072 -0.1343727 -0.02830467 5.0775966e-39
0.05689501 -0.13537462 -0.032286856 3.4180752e-39
0.058864169 -0.13537462 -0.032286856 5.6293284e-39
0.060833342 -0.13537462 -0.032286856 5.1669055e-39
0.062491797 -0.1343727 -0.02830467 5.2572921e-39
0.064453967 -0.1343727 -0.02830467 7.0072028e-39
0.066416152 -0.1343727 -0.02830467 6.9139225e-39
0.068378337 -0.1343727 -0.02830467 9.1262631e-39
-0.03340219 -0.12821732 0.0037353297 1.1801731e-38
-0.031453378 -0.12645011 0.010710504 1.2352031e-38
-0.029559607 -0.12645011 0.010710504 1.02301e-38
-0.027665835 -0.12645011 0.010710504 7.1858501e-39
-0.025772063 -0.12645011 0.010710504 6.8167159e-39
-0.023880916 -0.12569134 0.013705399 7.3709827e-39
-0.021992395 -0.12569134 0.013705399 3.960473e-39
-0.020103874 -0.12569134 0.013705399 2.8566436e-39
-0.018215351 -0.12569134 0.013705399 6.4645682e-40
-0.0163032 -0.12645011 0.010710504 6.4895813e-40
-0.014371418 -0.12744872 0.006768968 6.4931126e-40
-0.012470735 -0.12744872 0.006768968 7.1746481e-43
0.024088493 -0.12997745 -0.0032119493 4.7923188e-39
0.026518328 -0.13276742 -0.014223907 5.6220879e-39
0.02879609 -0.13455538 -0.021280978 6.5451162e-39
0.030745951 -0.13455538 -0.021280978 1.5766822e-38
0.032695815 -0.13455538 -0.021280978 2.3509814e-38
0.034645684 -0.13455538 -0.021280978 2.3509102e-38
0.036758289 -0.1353019 -0.024227593 2.350803e-38
0.038545407 -0.13455538 -0.021280978 2.3505511e-38
0.040495269 -0.13455538 -0.021280978 2.3509837e-38
0.042445138 -0.13455538 -0.021280978 2.3508753e-38
0.044578411 -0.1353019 -0.024227593 2.3509838e-38
0.046533436 -0.1353019 -0.024227593 2.3234338e-38
0.048488468 -0.1353019 -0.024227593 9.2224104e-39
0.050718717 -0.13633488 -0.02830467 4.1530969e-39
0.052680895 -0.13633488 -0.02830467 5.1676132e-39
0.054643072 -0.13633488 -0.02830467 5.5360426e-39
0.05689501 -0.13734378 -0.032286856 5.4438498e-39
0.058567442 -0.13633488 -0.02830467 5.5346006e-39
0.060529612 -0.13633488 -0.02830467 5.4420379e-39
0.062491797 -0.13633488 -0.02830467 4.7948594e-39
0.064453967 -0.13633488 -0.02830467 8.0206176e-39
0.066740818 -0.13734378 -0.032286856 7.2826812e-39
-0.035336472 -0.13087155 0.00080242357 4.8895858e-39
-0.03340219 -0.13012333 0.0037353297 7.1926758e-39
-0.031496182 -0.13012333 0.0037353297 7.9277227e-39
-0.029559607 -0.1283439 0.010710504 6.726667e-39
-0.027665835 -0.1283439 0.010710504 6.4472089e-39
-0.025772063 -0.1283439 0.010710504 7.737596e-39
-0.023880916 -0.12757985 0.013705399 6.7256133e-39
-0.021992395 -0.12757985 0.013705399 5.252288e-39
-0.020103874 -0.12757985 0.013705399 5.3466445e-39
-0.018196972 -0.1283439 0.010710504 4.4271965e-39
-0.012470735 -0.12934943 0.006768968 3.7839739e-39
-0.010570052 -0.12934943 0.006768968 6.5476806e-39
-0.0086693689 -0.12934943 0.006768968 6.7295313e-39
-0.0067686848 -0.12934943 0.006768968 6.0805563e-39
-0.0048680026 -0.12934943 0.006768968 7.551739e-39
-0.0029673185 -0.12934943 0.006768968 1.5754261e-38
-0.0010666344 -0.12934943 0.006768968 2.0915396e-38
0.00083404779 -0.12934943 0.006768968 2.2666019e-38
0.0028118566 -0.13012333 0.0037353297 2.1651146e-38
0.0047975648 -0.13087155 0.00080242357 2.1099415e-38
0.014750497 -0.13369073 -0.010248516 1.4558935e-38
0.016681017 -0.13369073 -0.010248516 1.2995206e-38
0.018455835 -0.13268389 -0.0063017346 1.2075422e-38
0.020252129 -0.13189565 -0.0032119493 1.1891028e-38
0.022170311 -0.13189565 -0.0032119493 1.3548014e-38
0.028455822 -0.1347049 -0.014223907 2.6721977e-39
0.030745951 -0.13650523 -0.021280978 1.0328359e-38
0.032695815 -0.13650523 -0.021280978 2.3509821e-38
0.034645684 -0.13650523 -0.021280978 2.3322912e-38
0.036758289 -0.13725694 -0.024227593 1.6590836e-38
0.038545407 -0.13650523 -0.021280978 2.1109498e-38
0.040495269 -0.13650523 -0.021280978 2.3508744e-38
0.042445138 -0.13650523 -0.021280978 2.3509823e-38
0.044395 -0.13650523 -0.021280978 2.350983e-38
0.046344861 -0.13650523 -0.021280978 2.3509838e-38
0.04829473 -0.13650523 -0.021280978 1.3186088e-38
0.050244592 -0.13650523 -0.021280978 4.9806884e-39
0.052194454 -0.13650523 -0.021280978 1.2932345e-39
0.054144323 -0.13650523 -0.021280978 2.5836216e-39
0.05660525 -0.13829704 -0.02830467 3.4130292e-39
0.058567442 -0.13829704 -0.02830467 4.4264608e-39
0.060529612 -0.13829704 -0.02830467 3.9651169e-39
0.062491797 -0.13829704 -0.02830467 3.5026926e-39
0.064453967 -0.13829704 -0.02830467 8.2957752e-39
0.066740818 -0.13931294 -0.032286856 8.1110182e-39
-0.041069902 -0.13278268 0.00080242357 1.2010725e-39
-0.039252177 -0.13460748 -0.0063017346 7.4116497e-40
-0.037328579 -0.13460748 -0.0063017346 2.4010366e-39
-0.035336472 -0.13278268 0.00080242357 3.5070199e-39
-0.03340219 -0.13202934 0.0037353297 5.4416861e-39
-0.031496182 -0.13202934 0.0037353297 6.8213864e-39
-0.029576885 -0.1312501 0.006768968 6.3578943e-39
-0.0276762 -0.1312501 0.006768968 6.724523e-39
-0.025772063 -0.13023765 0.010710504 7.0936685e-39
-0.023878289 -0.13023765 0.010710504 5.8061639e-39
-0.021984518 -0.13023765 0.010710504 6.4536941e-39
-0.020090746 -0.13023765 0.010710504 6.179268e-39
-0.018196972 -0.13023765 0.010710504 6.1807099e-39
-0.016272102 -0.1312501 0.006768968 4.8906872e-39
-0.014371418 -0.1312501 0.006768968 4.5219019e-39
-0.012470735 -0.1312501 0.006768968 4.9807192e-39
-0.010570052 -0.1312501 0.006768968 4.1487921e-39
-0.0086693689 -0.1312501 0.006768968 5.7117878e-39
-0.0067686848 -0.1312501 0.006768968 7.1829508e-39
-0.0048680026 -0.1312501 0.006768968 1.0221082e-38
-0.0030467939 -0.13023765 0.010710504 1.8883866e-38
-0.0011530202 -0.13023765 0.010710504 2.3030147e-38
0.00083404779 -0.1312501 0.006768968 2.3120901e-38
0.0028118566 -0.13202934 0.0037353297 2.3488244e-38
0.0047178585 -0.13202934 0.0037353297 2.3397134e-38
0.0067087095 -0.13278268 0.00080242357 2.1739422e-38
0.0087430272 -0.13381381 -0.0032119493 2.1370288e-38
0.010661213 -0.13381381 -0.0032119493 2.2011704e-38
0.012685036 -0.13460748 -0.0063017346 1.9708246e-38
0.014608635 -0.13460748 -0.0063017346 1.8422172e-38
0.016532237 -0.13460748 -0.0063017346 1.6029044e-38
0.018455835 -0.13460748 -0.0063017346 1.5294371e-38
0.020252129 -0.13381381 -0.0032119493 1.7876202e-38
0.022170311 -0.13381381 -0.0032119493 1.861194e-38
0.024088493 -0.13381381 -0.0032119493 1.9256945e-38
0.026518328 -0.13664238 -0.014223907 1.5662771e-38
0.028455822 -0.13664238 -0.014223907 4.5103426e-39
0.030393312 -0.13664238 -0.014223907 9.8619855e-39
0.032330804 -0.13664238 -0.014223907 2.2308746e-38
0.03443037 -0.13742088 -0.017254684 2.3506217e-38
0.036595546 -0.13845511 -0.021280978 2.0644544e-38
0.038545407 -0.13845511 -0.021280978 2.0464098e-38
0.040495269 -0.13845511 -0.021280978 2.2770781e-38
0.042445138 -0.13845511 -0.021280978 2.3509795e-38
0.044395 -0.13845511 -0.021280978 2.2403451e-38
0.046087198 -0.13742088 -0.017254684 2.2588933e-38
0.047830723 -0.13664238 -0.014223907 1.4015832e-38
0.049768217 -0.13664238 -0.014223907 6.3632543e-39
0.051705711 -0.13664238 -0.014223907 2.5832503e-39
0.05689501 -0.1412821 -0.032286856 2.7662346e-39
0.058864169 -0.1412821 -0.032286856 4.0566189e-39
0.060833342 -0.1412821 -0.032286856 4.7009121e-39
0.062802501 -0.1412821 -0.032286856 4.4232434e-39
0.06477166 -0.1412821 -0.032286856 8.9393874e-39
-0.042981051 -0.13469382 0.00080242357 1.8717169e-38
-0.041069902 -0.13469382 0.00080242357 3.1379024e-39
-0.039158762 -0.13469382 0.00080242357 2.9545818e-39
-0.037247613 -0.13469382 0.00080242357 5.0750756e-39
-0.03530819 -0.13393532 0.0037353297 5.3512996e-39
-0.033378251 -0.13315077 0.006768968 5.9952271e-39
-0.031477571 -0.13315077 0.006768968 6.5455268e-39
-0.029576885 -0.13315077 0.006768968 6.4504599e-39
-0.0276762 -0.13315077 0.006768968 7.0011197e-39
-0.025772063 -0.13213144 0.010710504 6.0802396e-39
-0.023878289 -0.13213144 0.010710504 7.3738413e-39
-0.021984518 -0.13213144 0.010710504 4.7026792e-39
-0.020090746 -0.13213144 0.010710504 4.5197327e-39
-0.018172786 -0.13315077 0.006768968 1.1434416e-38
-0.016272102 -0.13315077 0.006768968 1.0144051e-38
-0.014371418 -0.13315077 0.006768968 4.7959818e-39
-0.012470735 -0.13315077 0.006768968 5.4398953e-39
-0.010570052 -0.13315077 0.006768968 8.0184848e-39
-0.0086693689 -0.13315077 0.006768968 1.2346999e-38
-0.0067686848 -0.13315077 0.006768968 1.9165146e-38
-0.0048680026 -0.13315077 0.006768968 2.2941907e-38
-0.0030467939 -0.13213144 0.010710504 2.349688e-38
-0.0011530202 -0.13213144 0.010710504 2.2290069e-38
0.00083404779 -0.13315077 0.006768968 1.989047e-38
0.0027347319 -0.13315077 0.006768968 2.0811711e-38
0.0047178585 -0.13393532 0.0037353297 2.0442574e-38
0.0067087095 -0.13469382 0.00080242357 2.007416e-38
0.0087430272 -0.13573201 -0.0032119493 1.9335158e-38
0.010661213 -0.13573201 -0.0032119493 1.9424115e-38
0.012579395 -0.13573201 -0.0032119493 1.8687622e-38
0.01449758 -0.13573201 -0.0032119493 1.7401913e-38
0.016415762 -0.13573201 -0.0032119493 1.4179029e-38
0.018333944 -0.13573201 -0.0032119493 1.3997534e-38
0.020252129 -0.13573201 -0.0032119493 1.9622175e-38
0.022170311 -0.13573201 -0.0032119493 2.1188027e-38
0.024088493 -0.13573201 -0.0032119493 2.1649712e-38
0.026333621 -0.1375518 -0.010248516 1.8701627e-38
0.028264141 -0.1375518 -0.010248516 6.3502909e-39
0.030393312 -0.13857989 -0.014223907 8.4750952e-39
0.032330804 -0.13857989 -0.014223907 1.8709518e-38
0.03426829 -0.13857989 -0.014223907 2.3501525e-38
0.036595546 -0.14040495 -0.021280978 2.35026e-38
0.038315974 -0.13936369 -0.017254684 2.1568284e-38
0.04025878 -0.13936369 -0.017254684 2.1755552e-38
0.042201586 -0.13936369 -0.017254684 2.3506916e-38
0.044395 -0.14040495 -0.021280978 2.2586403e-38
0.046087198 -0.13936369 -0.017254684 2.3048472e-38
0.047830723 -0.13857989 -0.014223907 1.8623816e-38
0.049768217 -0.13857989 -0.014223907 1.4751617e-38
0.051705711 -0.13857989 -0.014223907 1.3737484e-38
0.060833342 -0.14325126 -0.032286856 8.6649683e-39
0.062802501 -0.14325126 -0.032286856 8.4798568e-39
0.06477166 -0.14325126 -0.032286856 1.0599635e-38
-0.046744198 -0.13584132 0.0037353297 2.2403904e-38
-0.044838198 -0.13584132 0.0037353297 2.3234379e-38
-0.042981051 -0.13660498 0.00080242357 2.3050349e-38
-0.041069902 -0.13660498 0.00080242357 1.2910639e-38
-0.03912019 -0.13584132 0.0037353297 3.4152054e-39
-0.03721419 -0.13584132 0.0037353297 5.2591152e-39
-0.035278931 -0.13505147 0.006768968 6.5502113e-39
-0.033378251 -0.13505147 0.006768968 6.456578e-39
-0.031477571 -0.13505147 0.006768968 5.5321049e-39
-0.029559607 -0.1340252 0.010710504 5.8061779e-39
-0.027665835 -0.1340252 0.010710504 7.2791528e-39
-0.025772063 -0.1340252 0.010710504 7.0943916e-39
-0.023878289 -0.1340252 0.010710504 5.9898167e-39
-0.021984518 -0.1340252 0.010710504 4.7934203e-39
-0.020090746 -0.1340252 0.010710504 7.0986781e-39
-0.018196972 -0.1340252 0.010710504 1.8254368e-38
-0.016272102 -0.13505147 0.006768968 1.6225729e-38
-0.014409428 -0.1340252 0.010710504 6.8210557e-39
-0.012515656 -0.1340252 0.010710504 6.2667735e-39
-0.010621883 -0.1340252 0.010710504 1.0873304e-38
-0.0087281112 -0.1340252 0.010710504 1.6216695e-38
-0.0068343375 -0.1340252 0.010710504 2.2297995e-38
-0.0049405657 -0.1340252 0.010710504 2.3497592e-38
-0.0030467939 -0.1340252 0.010710504 2.2753542e-38
-0.0011530202 -0.1340252 0.010710504 2.0629472e-38
0.00074075162 -0.1340252 0.010710504 2.0258545e-38
0.0027347319 -0.13505147 0.006768968 2.1640766e-38
0.0047178585 -0.13584132 0.0037353297 2.0256038e-38
0.0067087095 -0.13660498 0.00080242357 2.1084728e-38
0.0087430272 -0.13765021 -0.0032119493 2.0621591e-38
0.010661213 -0.13765021 -0.0032119493 2.0158083e-38
0.012579395 -0.13765021 -0.0032119493 1.9145724e-38
0.01449758 -0.13765021 -0.0032119493 1.7490518e-38
0.016415762 -0.13765021 -0.0032119493 1.4636781e-38
0.018333944 -0.13765021 -0.0032119493 1.4270898e-38
0.020252129 -0.13765021 -0.0032119493 1.9802982e-38
0.022170311 -0.13765021 -0.0032119493 2.3495081e-38
0.024088493 -0.13765021 -0.0032119493 2.3122321e-38
0.02615024 -0.13845469 -0.0063017346 1.9529227e-38
0.028073838 -0.13845469 -0.0063017346 8.6530236e-39
0.030194661 -0.1394823 -0.010248516 9.1190268e-39
0.032125182 -0.1394823 -0.010248516 1.5388677e-38
0.03426829 -0.14051737 -0.014223907 2.2208256e-38
0.036373176 -0.1413065 -0.017254684 2.3501883e-38
0.038315974 -0.1413065 -0.017254684 2.3501904e-38
0.04025878 -0.1413065 -0.017254684 2.2028946e-38
0.042201586 -0.1413065 -0.017254684 2.3319685e-38
0.044144392 -0.1413065 -0.017254684 2.3320765e-38
0.046087198 -0.1413065 -0.017254684 2.3509119e-38
0.047830723 -0.14051737 -0.014223907 2.2770479e-38
0.049768217 -0.14051737 -0.014223907 2.0465598e-38
0.051705711 -0.14051737 -0.014223907 1.8622416e-38
0.062802501 -0.14522041 -0.032286856 9.2177539e-39
0.06477166 -0.14522041 -0.032286856 9.7712794e-39
-0.050556205 -0.13774733 0.0037353297 2.3418035e-38
-0.048650205 -0.13774733 0.0037353297 2.3142174e-38
-0.046744198 -0.13774733 0.0037353297 2.3509886e-38
-0.044838198 -0.13774733 0.0037353297 2.3417691e-38
-0.042932197 -0.13774733 0.0037353297 2.2128404e-38
-0.041026197 -0.13774733 0.0037353297 2.0931662e-38
-0.039080299 -0.13695215 0.006768968 8.3934163e-39
-0.037179619 -0.13695215 0.006768968 4.522276e-39
-0.035278931 -0.13695215 0.006768968 5.260197e-39
-0.033378251 -0.13695215 0.006768968 5.9959642e-39
-0.031477571 -0.13695215 0.006768968 5.1640455e-39
-0.029559607 -0.13591899 0.010710504 5.9920111e-39
-0.027665835 -0.13591899 0.010710504 6.6352253e-39
-0.025772063 -0.13591899 0.010710504 6.725965e-39
-0.023878289 -0.13591899 0.010710504 6.4479095e-39
-0.021984518 -0.13591899 0.010710504 5.2500726e-39
-0.020090746 -0.13591899 0.010710504 7.0943551e-39
-0.018196972 -0.13591899 0.010710504 2.018615e-38
-0.016272102 -0.13695215 0.006768968 2.2029732e-38
-0.014409428 -0.13591899 0.010710504 1.6589469e-38
-0.012515656 -0.13591899 0.010710504 1.7695427e-38
-0.010621883 -0.13591899 0.010710504 2.3506982e-38
-0.0087281112 -0.13591899 0.010710504 2.3506989e-38
-0.0068343375 -0.13591899 0.010710504 2.3499415e-38
-0.0049405657 -0.13591899 0.010710504 2.183482e-38
-0.0030467939 -0.13591899 0.010710504 1.8513618e-38
-0.0011530202 -0.13591899 0.010710504 1.9156137e-38
0.00074075162 -0.13591899 0.010710504 2.0261782e-38
0.0027347319 -0.13695215 0.006768968 2.0813885e-38
0.0046354141 -0.13695215 0.006768968 1.9706465e-38
0.0066238623 -0.13774733 0.0037353297 1.9887627e-38
0.0086198542 -0.13851611 0.00080242357 1.9608877e-38
0.010530999 -0.13851611 0.00080242357 1.8408156e-38
0.012579395 -0.13956837 -0.0032119493 1.6657155e-38
0.01449758 -0.13956837 -0.0032119493 1.4080719e-38
0.016415762 -0.13956837 -0.0032119493 1.3162017e-38
0.018333944 -0.13956837 -0.0032119493 1.2703582e-38
0.020086722 -0.13851611 0.00080242357 1.6760894e-38
0.021997867 -0.13851611 0.00080242357 2.155537e-38
0.023909012 -0.13851611 0.00080242357 2.2017049e-38
0.02615024 -0.14037828 -0.0063017346 2.1005073e-38
0.028073838 -0.14037828 -0.0063017346 1.3447915e-38
0.030194661 -0.14141284 -0.010248516 1.2898692e-38
0.032125182 -0.14141284 -0.010248516 1.5204286e-38
0.03426829 -0.14245488 -0.014223907 2.3499709e-38
0.036373176 -0.14324932 -0.017254684 2.3509078e-38
0.038315974 -0.14324932 -0.017254684 2.3508396e-38
0.04025878 -0.14324932 -0.017254684 2.3508413e-38
0.042201586 -0.14324932 -0.017254684 2.350877e-38
0.044144392 -0.14324932 -0.017254684 2.3509129e-38
0.046087198 -0.14324932 -0.017254684 2.3507328e-38
0.047830723 -0.14245488 -0.014223907 2.3506609e-38
0.049768217 -0.14245488 -0.014223907 2.2124041e-38
0.051705711 -0.14245488 -0.014223907 1.8068516e-38
0.066740818 -0.1471896 -0.032286856 9.4953946e-39
0.068378337 -0.14614578 -0.02830467 1.0140395e-38
0.070340507 -0.14614578 -0.02830467 9.5846951e-39
-0.059987813 -0.13885282 0.006768968 1.2444249e-38
-0.058087133 -0.13885282 0.006768968 1.1801038e-38
-0.055985779 -0.13702248 0.013705399 1.2263089e-38
-0.054097258 -0.13702248 0.013705399 1.8071763e-38
-0.052385084 -0.13885282 0.006768968 2.3418032e-38
-0.050484397 -0.13885282 0.006768968 2.3509873e-38
-0.048497334 -0.13781275 0.010710504 2.3049261e-38
-0.04660356 -0.13781275 0.010710504 2.3232583e-38
-0.044709787 -0.13781275 0.010710504 2.3325138e-38
-0.042816013 -0.13781275 0.010710504 2.323402e-38
-0.04098098 -0.13885282 0.006768968 2.2866678e-38
-0.039080299 -0.13885282 0.006768968 1.6599908e-38
-0.037179619 -0.13885282 0.006768968 4.5229977e-39
-0.035240926 -0.13781275 0.010710504 3.2322561e-39
-0.033347152 -0.13781275 0.010710504 5.3513136e-39
-0.031453378 -0.13781275 0.010710504 4.7967021e-39
-0.029559607 -0.13781275 0.010710504 5.7161403e-39
-0.027665835 -0.13781275 0.010710504 4.9764172e-39
-0.025772063 -0.13781275 0.010710504 5.8029269e-39
-0.023878289 -0.13781275 0.010710504 7.7350484e-39
-0.021992395 -0.13702248 0.013705399 7.3644568e-39
-0.020103874 -0.13702248 0.013705399 8.0105507e-39
-0.018215351 -0.13702248 0.013705399 1.9996715e-38
-0.0163032 -0.13781275 0.010710504 2.3501612e-38
-0.014409428 -0.13781275 0.010710504 2.0457713e-38
-0.012515656 -0.13781275 0.010710504 1.9443896e-38
-0.010621883 -0.13781275 0.010710504 2.3507694e-38
-0.0087281112 -0.13781275 0.010710504 2.3505898e-38
-0.0068343375 -0.13781275 0.010710504 1.9624306e-38
-0.0049405657 -0.13781275 0.010710504 1.7503422e-38
-0.0030467939 -0.13781275 0.010710504 1.6212683e-38
-0.0011530202 -0.13781275 0.010710504 1.9991647e-38
0.00074075162 -0.13781275 0.010710504 2.1651182e-38
0.0027347319 -0.13885282 0.006768968 2.0084581e-38
0.0046354141 -0.13885282 0.006768968 1.9990237e-38
0.0066238623 -0.13965334 0.0037353297 1.7312975e-38
0.0085298624 -0.13965334 0.0037353297 1.6296657e-38
0.010530999 -0.14042725 0.00080242357 1.6294119e-38
0.012442144 -0.14042725 0.00080242357 1.6756171e-38
0.014353288 -0.14042725 0.00080242357 1.3441098e-38
0.016415762 -0.14148657 -0.0032119493 1.1323499e-38
0.018175578 -0.14042725 0.00080242357 9.9431122e-39
0.020086722 -0.14042725 0.00080242357 1.3262857e-38
0.021997867 -0.14042725 0.00080242357 1.6672955e-38
0.023909012 -0.14042725 0.00080242357 2.2850762e-38
0.02615024 -0.14230187 -0.0063017346 2.3500109e-38
0.028073838 -0.14230187 -0.0063017346 1.5572371e-38
0.030194661 -0.14334334 -0.010248516 1.2441316e-38
0.032125182 -0.14334334 -0.010248516 1.3086669e-38
0.03426829 -0.14439236 -0.014223907 2.3502944e-38
0.036595546 -0.14625455 -0.021280978 2.3505826e-38
0.038315974 -0.1451921 -0.017254684 2.3508388e-38
0.04025878 -0.1451921 -0.017254684 2.3505522e-38
0.042201586 -0.1451921 -0.017254684 2.350696e-38
0.044144392 -0.1451921 -0.017254684 2.3509119e-38
0.046087198 -0.1451921 -0.017254684 2.3508039e-38
0.047830723 -0.14439236 -0.014223907 2.3320768e-38
0.049768217 -0.14439236 -0.014223907 2.2675767e-38
0.051705711 -0.14439236 -0.014223907 1.7514256e-38
0.066740818 -0.14915876 -0.032286856 7.2830666e-39
0.068378337 -0.14810793 -0.02830467 7.835153e-39
0.070340507 -0.14810793 -0.02830467 6.6351538e-39
-0.065804228 -0.14155935 0.0037353297 1.4838791e-38
-0.063898221 -0.14155935 0.0037353297 2.1753474e-38
-0.059987813 -0.14075352 0.006768968 1.1799236e-38
-0.058087133 -0.14075352 0.006768968 1.1709197e-38
-0.055985779 -0.13891099 0.013705399 1.2539673e-38
-0.054097258 -0.13891099 0.013705399 1.7056894e-38
-0.052284874 -0.13970654 0.010710504 2.332548e-38
-0.0503911 -0.13970654 0.010710504 2.3325127e-38
-0.048497334 -0.13970654 0.010710504 2.314074e-38
-0.046543173 -0.13891099 0.013705399 2.3509168e-38
-0.044654652 -0.13891099 0.013705399 2.3232944e-38
-0.042766131 -0.13891099 0.013705399 2.2865243e-38
-0.040922239 -0.13970654 0.010710504 2.2866678e-38
-0.039028466 -0.13970654 0.010710504 2.2407142e-38
-0.0371347 -0.13970654 0.010710504 5.5371496e-39
-0.035212044 -0.13891099 0.013705399 3.8776255e-39
-0.033323523 -0.13891099 0.013705399 6.4587402e-39
-0.031453378 -0.13970654 0.010710504 5.3502318e-39
-0.029559607 -0.13970654 0.010710504 5.4409869e-39
-0.027665835 -0.13970654 0.010710504 4.9778479e-39
-0.025769437 -0.13891099 0.013705399 8.2925606e-39
-0.023880916 -0.13891099 0.013705399 1.0683151e-38
-0.021992395 -0.13891099 0.013705399 1.6950284e-38
-0.020103874 -0.13891099 0.013705399 1.2525618e-38
-0.01823993 -0.13784705 0.017710712 9.9448667e-39
-0.016358431 -0.13784705 0.017710712 1.2711103e-38
-0.014438309 -0.13891099 0.013705399 2.1469685e-38
-0.012515656 -0.13970654 0.010710504 2.3501214e-38
-0.010661266 -0.13891099 0.013705399 2.3507327e-38
-0.0087727439 -0.13891099 0.013705399 2.3503721e-38
-0.0068343375 -0.13970654 0.010710504 1.7411959e-38
-0.0049405657 -0.13970654 0.010710504 1.6306317e-38
-0.0030467939 -0.13970654 0.010710504 1.6767296e-38
-0.0011530202 -0.13970654 0.010710504 2.2760742e-38
0.00074075162 -0.13970654 0.010710504 2.3506957e-38
0.0026345234 -0.13970654 0.010710504 2.3039861e-38
0.0046354141 -0.14075352 0.006768968 2.3131342e-38
0.0065360982 -0.14075352 0.006768968 1.8333946e-38
0.0085298624 -0.14155935 0.0037353297 1.6487508e-38
0.010435866 -0.14155935 0.0037353297 1.9159e-38
0.012442144 -0.14233841 0.00080242357 2.3493632e-38
0.014353288 -0.14233841 0.00080242357 1.9624308e-38
0.016264433 -0.14233841 0.00080242357 1.3818526e-38
0.018175578 -0.14233841 0.00080242357 1.022437e-38
0.020086722 -0.14233841 0.00080242357 1.3543398e-38
0.021997867 -0.14233841 0.00080242357 1.7967648e-38
0.023909012 -0.14233841 0.00080242357 2.0917886e-38
0.026006678 -0.14340474 -0.0032119493 2.0919349e-38
0.02792486 -0.14340474 -0.0032119493 1.6127346e-38
0.02999744 -0.14422549 -0.0063017346 1.1612999e-38
0.031921044 -0.14422549 -0.0063017346 6.727334e-39
0.033844642 -0.14422549 -0.0063017346 1.9078276e-38
0.036373176 -0.14713491 -0.017254684 2.3504746e-38
0.038315974 -0.14713491 -0.017254684 2.138103e-38
0.040080763 -0.14632986 -0.014223907 1.7969443e-38
0.042018257 -0.14632986 -0.014223907 1.7232238e-38
0.043955743 -0.14632986 -0.014223907 2.2580303e-38
0.045893237 -0.14632986 -0.014223907 2.184418e-38
0.047830723 -0.14632986 -0.014223907 1.8710253e-38
0.049768217 -0.14632986 -0.014223907 1.6682318e-38
-0.073559366 -0.14424954 0.00080242357 1.1153829e-38
-0.071648218 -0.14424954 0.00080242357 1.4104075e-38
-0.069616228 -0.14346536 0.0037353297 2.1293166e-38
-0.067710228 -0.14346536 0.0037353297 1.9264512e-38
-0.065689869 -0.1426542 0.006768968 1.4100497e-38
-0.063789181 -0.1426542 0.006768968 1.8710653e-38
-0.059762821 -0.14079951 0.013705399 1.3089973e-38
-0.0578743 -0.14079951 0.013705399 1.0326615e-38
-0.056072421 -0.1416003 0.010710504 1.4198832e-38
-0.054178648 -0.1416003 0.010710504 1.6410811e-38
-0.052284874 -0.1416003 0.010710504 2.3509879e-38
-0.0503911 -0.1416003 0.010710504 2.2678683e-38
-0.048497334 -0.1416003 0.010710504 2.3509527e-38
-0.046543173 -0.14079951 0.013705399 2.3508809e-38
-0.044654652 -0.14079951 0.013705399 2.2863448e-38
-0.042766131 -0.14079951 0.013705399 2.3417691e-38
-0.04087761 -0.14079951 0.013705399 2.2682649e-38
-0.038989089 -0.14079951 0.013705399 2.2591531e-38
-0.037100568 -0.14079951 0.013705399 9.5008428e-39
-0.035212044 -0.14079951 0.013705399 6.274709e-39
-0.033323523 -0.14079951 0.013705399 6.9197141e-39
-0.031435002 -0.14079951 0.013705399 7.8398655e-39
-0.029546479 -0.14079951 0.013705399 7.4696383e-39
-0.027657958 -0.14079951 0.013705399 5.1629441e-39
-0.025769437 -0.14079951 0.013705399 1.0321216e-38
-0.023880916 -0.14079951 0.013705399 1.455609e-38
-0.022011001 -0.13890781 0.020780232 2.0914705e-38
-0.020134883 -0.13890781 0.020780232 1.9348098e-38
-0.018258767 -0.13890781 0.020780232 5.3354355e-39
-0.016358431 -0.13972856 0.017710712 6.8112732e-39
-0.014476934 -0.13972856 0.017710712 2.1839159e-38
-0.012549787 -0.14079951 0.013705399 2.3503364e-38
-0.010661266 -0.14079951 0.013705399 2.3507676e-38
-0.0087727439 -0.14079951 0.013705399 2.3507306e-38
-0.0068343375 -0.1416003 0.010710504 1.4831187e-38
-0.0049405657 -0.1416003 0.010710504 1.3171667e-38
-0.0030467939 -0.1416003 0.010710504 2.2484505e-38
-0.0011530202 -0.1416003 0.010710504 2.3505853e-38
0.00074075162 -0.1416003 0.010710504 2.3508371e-38
0.0026345234 -0.1416003 0.010710504 2.0923652e-38
0.0045282971 -0.1416003 0.010710504 2.156867e-38
0.0065360982 -0.1426542 0.006768968 2.1014071e-38
0.0084367823 -0.1426542 0.006768968 1.4281626e-38
0.010337463 -0.1426542 0.006768968 2.0364357e-38
0.012238147 -0.1426542 0.006768968 2.2116074e-38
0.01424787 -0.14346536 0.0037353297 1.953785e-38
0.016264433 -0.14424954 0.00080242357 1.1334265e-38
0.018175578 -0.14424954 0.00080242357 1.0228673e-38
0.020086722 -0.14424954 0.00080242357 9.5829337e-39
0.021997867 -0.14424954 0.00080242357 1.3084151e-38
0.023909012 -0.14424954 0.00080242357 1.7048187e-38
0.025820157 -0.14424954 0.00080242357 1.6680508e-38
0.02792486 -0.14532293 -0.0032119493 1.5391222e-38
0.029843042 -0.14532293 -0.0032119493 1.2443128e-38
0.031761229 -0.14532293 -0.0032119493 6.7269851e-39
0.033844642 -0.14614908 -0.0063017346 1.022679e-38
0.036373176 -0.14907773 -0.017254684 2.0736717e-38
0.038315974 -0.14907773 -0.017254684 1.9998798e-38
0.040080763 -0.14826734 -0.014223907 1.6587562e-38
0.042018257 -0.14826734 -0.014223907 1.5942553e-38
0.043955743 -0.14826734 -0.014223907 1.9354513e-38
0.045893237 -0.14826734 -0.014223907 2.0460505e-38
0.047830723 -0.14826734 -0.014223907 1.8525124e-38
0.049768217 -0.14826734 -0.014223907 1.7879765e-38
-0.077093966 -0.14455487 0.006768968 1.355167e-38
-0.073428236 -0.14537133 0.0037353297 1.1246373e-38
-0.071522228 -0.14537133 0.0037353297 1.2167589e-38
-0.06949123 -0.14455487 0.006768968 1.6591895e-38
-0.067435056 -0.14349405 0.010710504 2.2767932e-38
-0.065428384 -0.14268802 0.013705399 2.0646378e-38
-0.063285574 -0.14078392 0.020780232 1.4654401e-38
-0.061308958 -0.13999285 0.023719575 1.1889266e-38
-0.059437998 -0.13999285 0.023719575 1.373534e-38
-0.0578743 -0.14268802 0.013705399 1.4291025e-38
-0.055985779 -0.14268802 0.013705399 1.6780307e-38
-0.054097258 -0.14268802 0.013705399 1.6040952e-38
-0.052208737 -0.14268802 0.013705399 2.3415885e-38
-0.0503911 -0.14349405 0.010710504 2.3509165e-38
-0.048431695 -0.14268802 0.013705399 2.3509168e-38
-0.046543173 -0.14268802 0.013705399 2.350773e-38
-0.044580914 -0.14161004 0.017710712 2.3509168e-38
-0.042699412 -0.14161004 0.017710712 2.3509527e-38
-0.04087761 -0.14268802 0.013705399 2.3050349e-38
-0.038989089 -0.14268802 0.013705399 2.2867037e-38
-0.037100568 -0.14268802 0.013705399 1.1344753e-38
-0.035173416 -0.14161004 0.017710712 8.1182587e-39
-0.033291921 -0.14161004 0.017710712 1.1252186e-38
-0.031435002 -0.14268802 0.013705399 1.0974869e-38
-0.029546479 -0.14268802 0.013705399 8.6678101e-39
-0.027657958 -0.14268802 0.013705399 9.4964848e-39
-0.025769437 -0.14268802 0.013705399 2.0279774e-38
-0.023880916 -0.14268802 0.013705399 2.2948409e-38
-0.022011001 -0.14078392 0.020780232 2.3501943e-38
-0.020134883 -0.14078392 0.020780232 1.8798161e-38
-0.018258767 -0.14078392 0.020780232 4.6925786e-39
-0.016358431 -0.14161004 0.017710712 8.5654887e-39
-0.014476934 -0.14161004 0.017710712 2.2670335e-38
-0.012549787 -0.14268802 0.013705399 2.350335e-38
-0.010661266 -0.14268802 0.013705399 2.3500106e-38
-0.0087727439 -0.14268802 0.013705399 2.3496847e-38
-0.0068343375 -0.14349405 0.010710504 1.455351e-38
-0.0049405657 -0.14349405 0.010710504 1.5659154e-38
-0.0030467939 -0.14349405 0.010710504 2.3505505e-38
-0.0011530202 -0.14349405 0.010710504 2.3509446e-38
0.00074075162 -0.14349405 0.010710504 2.3509073e-38
0.0026345234 -0.14349405 0.010710504 2.1753036e-38
0.0045282971 -0.14349405 0.010710504 2.221546e-38
0.0064220689 -0.14349405 0.010710504 2.1385713e-38
0.0083158407 -0.14349405 0.010710504 1.4377764e-38
0.010209614 -0.14349405 0.010710504 1.7970497e-38
0.012238147 -0.14455487 0.006768968 2.2764669e-38
0.01424787 -0.14537133 0.0037353297 1.9263052e-38
0.016153874 -0.14537133 0.0037353297 4.9749136e-39
0.018059874 -0.14537133 0.0037353297 3.4079845e-39
0.020086722 -0.14616071 0.00080242357 3.3147015e-39
0.021997867 -0.14616071 0.00080242357 7.2769023e-39
0.023909012 -0.14616071 0.00080242357 1.6680124e-38
0.025820157 -0.14616071 0.00080242357 1.668051e-38
0.027731301 -0.14616071 0.00080242357 1.114951e-38
0.029843042 -0.1472411 -0.0032119493 8.1088602e-39
0.031761229 -0.1472411 -0.0032119493 5.4348156e-39
0.033679411 -0.1472411 -0.0032119493 9.5803539e-39
-0.075193278 -0.14645557 0.006768968 1.3919709e-38
-0.072982468 -0.14457656 0.013705399 1.1154165e-38
-0.071093954 -0.14457656 0.013705399 9.6782963e-39
-0.069205426 -0.14457656 0.013705399 1.2073939e-38
-0.0671589 -0.14349155 0.017710712 1.9448522e-38
-0.06516169 -0.14266007 0.020780232 2.0646013e-38
-0.063285574 -0.14266007 0.020780232 1.2717212e-38
-0.061308958 -0.14186381 0.023719575 9.6765713e-39
-0.059437998 -0.14186381 0.023719575 1.4196318e-38
-0.0578743 -0.14457656 0.013705399 1.4659806e-38
-0.055869907 -0.14349155 0.017710712 1.6503718e-38
-0.053988405 -0.14349155 0.017710712 1.5856558e-38
-0.052106909 -0.14349155 0.017710712 2.0095763e-38
-0.050320216 -0.14457656 0.013705399 2.3509163e-38
-0.048431695 -0.14457656 0.013705399 2.3507006e-38
-0.046543173 -0.14457656 0.013705399 2.3507729e-38
-0.044580914 -0.14349155 0.017710712 2.3509168e-38
-0.042699412 -0.14349155 0.017710712 2.2955999e-38
-0.040817916 -0.14349155 0.017710712 2.3234379e-38
-0.038989089 -0.14457656 0.013705399 2.2958873e-38
-0.037100568 -0.14457656 0.013705399 1.6230398e-38
-0.035173416 -0.14349155 0.017710712 1.0606819e-38
-0.033291921 -0.14349155 0.017710712 1.1528407e-38
-0.031435002 -0.14457656 0.013705399 1.1803903e-38
-0.029546479 -0.14457656 0.013705399 1.0972334e-38
-0.027657958 -0.14457656 0.013705399 1.1340029e-38
-0.025769437 -0.14457656 0.013705399 1.9082301e-38
-0.023880916 -0.14457656 0.013705399 2.34137e-38
-0.022011001 -0.14266007 0.020780232 2.3135674e-38
-0.020134883 -0.14266007 0.020780232 1.82493e-38
-0.018258767 -0.14266007 0.020780232 4.8812775e-39
-0.01638265 -0.14266007 0.020780232 8.8452986e-39
-0.012549787 -0.14457656 0.013705399 2.2300114e-38
-0.010661266 -0.14457656 0.013705399 2.2021368e-38
-0.0087727439 -0.14457656 0.013705399 1.9715377e-38
-0.0068343375 -0.14538784 0.010710504 1.1231581e-38
-0.0049957018 -0.14457656 0.013705399 1.3443222e-38
-0.0031071808 -0.14457656 0.013705399 2.3499027e-38
-0.0011530202 -0.14538784 0.010710504 2.3505843e-38
0.00074075162 -0.14538784 0.010710504 2.3509429e-38
0.0026345234 -0.14538784 0.010710504 2.3503667e-38
0.0045282971 -0.14538784 0.010710504 2.3412197e-38
0.0064220689 -0.14538784 0.010710504 2.1845605e-38
0.0083158407 -0.14538784 0.010710504 1.852584e-38
0.010209614 -0.14538784 0.010710504 1.8891011e-38
0.012103388 -0.14538784 0.010710504 2.2302247e-38
0.013997158 -0.14538784 0.010710504 1.7879028e-38
0.016039515 -0.14645557 0.006768968 2.9455518e-39
0.018059874 -0.14727734 0.0037353297 3.8682298e-39
0.020086722 -0.14807184 0.00080242357 3.5901981e-39
0.021997867 -0.14807184 0.00080242357 8.934623e-39
0.023909012 -0.14807184 0.00080242357 1.8060546e-38
0.025820157 -0.14807184 0.00080242357 1.6954586e-38
0.027731301 -0.14807184 0.00080242357 1.0685659e-38
0.029642446 -0.14807184 0.00080242357 8.1989006e-39
0.031553589 -0.14807184 0.00080242357 5.3401102e-39
0.033464737 -0.14807184 0.00080242357 7.9179725e-39
-0.076903917 -0.1472816 0.010710504 1.2536799e-38
-0.075193278 -0.14835624 0.006768968 1.2721165e-38
-0.073292598 -0.14835624 0.006768968 1.0785737e-38
-0.071093954 -0.14646508 0.013705399 8.9400039e-39
-0.069205426 -0.14646508 0.013705399 9.7690359e-39
-0.0671589 -0.14537306 0.017710712 1.2901903e-38
-0.06516169 -0.14453618 0.020780232 1.520539e-38
-0.063285574 -0.14453618 0.020780232 1.345406e-38
-0.061308958 -0.14373477 0.023719575 1.3639907e-38
-0.059437998 -0.14373477 0.023719575 1.5579255e-38
-0.057751402 -0.14537306 0.017710712 1.4751641e-38
-0.055869907 -0.14537306 0.017710712 1.6319683e-38
-0.053988405 -0.14537306 0.017710712 1.6409369e-38
-0.052106909 -0.14537306 0.017710712 1.5946596e-38
-0.050320216 -0.14646508 0.013705399 2.0648573e-38
-0.048431695 -0.14646508 0.013705399 2.3506637e-38
-0.046543173 -0.14646508 0.013705399 2.3508802e-38
-0.044580914 -0.14537306 0.017710712 2.3509521e-38
-0.042699412 -0.14537306 0.017710712 2.2955273e-38
-0.040817916 -0.14537306 0.017710712 2.341805e-38
-0.038989089 -0.14646508 0.013705399 2.3142544e-38
-0.037100568 -0.14646508 0.013705399 2.1761417e-38
-0.035173416 -0.14537306 0.017710712 1.3925143e-38
-0.033291921 -0.14537306 0.017710712 1.1804275e-38
-0.031435002 -0.14646508 0.013705399 1.4108075e-38
-0.029546479 -0.14646508 0.013705399 1.6964687e-38
-0.027657958 -0.14646508 0.013705399 1.6594814e-38
-0.025769437 -0.14646508 0.013705399 1.9082654e-38
-0.023884427 -0.14537306 0.017710712 2.2309145e-38
-0.022002928 -0.14537306 0.017710712 2.2770123e-38
-0.020121429 -0.14537306 0.017710712 1.9911694e-38
-0.018215351 -0.14646508 0.013705399 6.4503954e-39
-0.01632683 -0.14646508 0.013705399 7.1868534e-39
-0.0068343375 -0.1472816 0.010710504 1.0215987e-38
-0.0049957018 -0.14646508 0.013705399 1.2335071e-38
-0.0031071808 -0.14646508 0.013705399 2.3493984e-38
-0.0012186579 -0.14646508 0.013705399 2.3499363e-38
0.00066986308 -0.14646508 0.013705399 2.3504394e-38
0.0026345234 -0.1472816 0.010710504 2.3501874e-38
0.0045282971 -0.1472816 0.010710504 2.2764314e-38
0.0064220689 -0.1472816 0.010710504 2.2489533e-38
0.008223949 -0.14646508 0.013705399 2.2672485e-38
0.01011247 -0.14646508 0.013705399 2.1654729e-38
0.012103388 -0.1472816 0.010710504 2.1194107e-38
0.013997158 -0.1472816 0.010710504 1.529647e-38
0.015890932 -0.1472816 0.010710504 2.2987573e-39
0.017940199 -0.14835624 0.006768968 3.8671381e-39
0.020086722 -0.14998297 0.00080242357 3.7738649e-39
0.021997867 -0.14998297 0.00080242357 8.5644041e-39
0.023909012 -0.14998297 0.00080242357 1.4002506e-38
0.025820157 -0.14998297 0.00080242357 1.3265327e-38
0.027731301 -0.14998297 0.00080242357 8.6566418e-39
0.029642446 -0.14998297 0.00080242357 5.7085424e-39
0.031553589 -0.14998297 0.00080242357 1.9285454e-39
0.033464737 -0.14998297 0.00080242357 3.3064366e-39
-0.076903917 -0.14917539 0.010710504 1.2813388e-38
-0.075010143 -0.14917539 0.010710504 1.2536414e-38
-0.07311637 -0.14917539 0.010710504 1.2075394e-38
-0.071093954 -0.14835359 0.013705399 1.1797703e-38
-0.069205426 -0.14835359 0.013705399 8.5697711e-39
-0.0671589 -0.14725454 0.017710712 9.4910225e-39
-0.06516169 -0.1464123 0.020780232 1.0687806e-38
-0.063285574 -0.1464123 0.020780232 1.1517955e-38
-0.061308958 -0.14560573 0.023719575 1.3547716e-38
-0.059437998 -0.14560573 0.023719575 1.5117922e-38
-0.057751402 -0.14725454 0.017710712 1.5857632e-38
-0.055869907 -0.14725454 0.017710712 1.5673595e-38
-0.053988405 -0.14725454 0.017710712 1.6132055e-38
-0.052106909 -0.14725454 0.017710712 1.3825726e-38
-0.050320216 -0.14835359 0.013705399 1.7145125e-38
-0.048431695 -0.14835359 0.013705399 2.3508424e-38
-0.046543173 -0.14835359 0.013705399 2.3509149e-38
-0.044580914 -0.14725454 0.017710712 2.3508071e-38
-0.042699412 -0.14725454 0.017710712 2.350952e-38
-0.04087761 -0.14835359 0.013705399 2.3509886e-38
-0.038989089 -0.14835359 0.013705399 2.3234379e-38
-0.037054919 -0.14725454 0.017710712 2.2958873e-38
-0.035173416 -0.14725454 0.017710712 1.5768338e-38
-0.033291921 -0.14725454 0.017710712 1.1711003e-38
-0.031410422 -0.14725454 0.017710712 1.3830409e-38
-0.029546479 -0.14835359 0.013705399 1.6318241e-38
-0.027647424 -0.14725454 0.017710712 1.7146909e-38
-0.025765926 -0.14725454 0.017710712 2.0188997e-38
-0.023884427 -0.14725454 0.017710712 2.1848875e-38
-0.022002928 -0.14725454 0.017710712 2.2862305e-38
-0.020103874 -0.14835359 0.013705399 2.0648888e-38
-0.018215351 -0.14835359 0.013705399 7.3709098e-39
-0.01632683 -0.14835359 0.013705399 6.1709149e-39
-0.0049957018 -0.14835359 0.013705399 1.2519094e-38
-0.0031071808 -0.14835359 0.013705399 2.3493978e-38
-0.0012186579 -0.14835359 0.013705399 2.3495769e-38
0.00066986308 -0.14835359 0.013705399 2.3498288e-38
0.0026345234 -0.14917539 0.010710504 2.3499732e-38
0.0045282971 -0.14917539 0.010710504 2.2946922e-38
0.0064220689 -0.14917539 0.010710504 2.2670335e-38
0.008223949 -0.14835359 0.013705399 2.2668896e-38
0.01011247 -0.14835359 0.013705399 2.2941885e-38
0.012000991 -0.14835359 0.013705399 2.2020282e-38
0.013889512 -0.14835359 0.013705399 1.6862002e-38
0.015890932 -0.14917539 0.010710504 6.6304567e-39
0.017784705 -0.14917539 0.010710504 6.631921e-39
-0.0671589 -0.14913605 0.017710712 9.398108e-39
-0.06516169 -0.14828841 0.020780232 8.8438959e-39
-0.063179925 -0.14747669 0.023719575 9.3971019e-39
-0.061308958 -0.14747669 0.023719575 1.170345e-38
-0.059437998 -0.14747669 0.023719575 1.2905233e-38
-0.057751402 -0.14913605 0.017710712 1.4013722e-38
-0.055869907 -0.14913605 0.017710712 1.2723332e-38
-0.053988405 -0.14913605 0.017710712 1.4011907e-38
-0.052106909 -0.14913605 0.017710712 1.216691e-38
-0.042699412 -0.14913605 0.017710712 2.350987e-38
-0.040817916 -0.14913605 0.017710712 2.3140737e-38
-0.038936414 -0.14913605 0.017710712 2.2957078e-38
-0.037054919 -0.14913605 0.017710712 2.3142544e-38
-0.035173416 -0.14913605 0.017710712 1.6135325e-38
-0.033291921 -0.14913605 0.017710712 8.6678311e-39
-0.031410422 -0.14913605 0.017710712 1.0049312e-38
-0.027647424 -0.14913605 0.017710712 1.0692499e-38
-0.025765926 -0.14913605 0.017710712 1.2719712e-38
-0.063179925 -0.14934768 0.023719575 8.4751498e-39
-0.061308958 -0.14934768 0.023719575 9.674793e-39
-0.059437998 -0.14934768 0.023719575 9.9546183e-39
