# .PCD v0.7 - Point Cloud Data file format
VERSION 0.7
FIELDS x y z rgb
SIZE 4 4 4 4
TYPE F F F F
COUNT 1 1 1 1
WIDTH 927
HEIGHT 1
VIEWPOINT 0 0 0 1 0 0 0
POINTS 927
DATA ascii
-0.011065304 -0.12876706 -0.018018216 2.3509873e-38
-0.0091943406 -0.12876706 -0.018018216 2.2217691e-38
-0.0073233768 -0.12876706 -0.018018216 1.4934942e-38
-0.005452415 -0.12876706 -0.018018216 1.3737453e-38
-0.0035814513 -0.12876706 -0.018018216 1.2999156e-38
-0.0020365138 -0.12616767 -0.0079670846 9.9559902e-39
-0.00018317439 -0.12616767 -0.0079670846 8.6638066e-39
0.0016701687 -0.12616767 -0.0079670846 7.9251486e-39
0.0029197652 -0.12202574 0.0080486834 1.1519699e-38
0.0047450271 -0.12202574 0.0080486834 1.4560374e-38
0.0064468514 -0.121251 0.011044413 1.7325524e-38
0.0082668569 -0.121251 0.011044413 1.6773052e-38
0.010086866 -0.121251 0.011044413 1.917086e-38
0.012046063 -0.12202574 0.0080486834 1.6774159e-38
0.014304442 -0.12434883 -0.00093409419 7.0947111e-39
0.016145451 -0.12434883 -0.00093409419 9.2159266e-39
0.01798646 -0.12434883 -0.00093409419 2.1387194e-38
0.020044291 -0.1253974 -0.0049886405 2.350987e-38
0.021892412 -0.1253974 -0.0049886405 2.2955267e-38
0.023740528 -0.1253974 -0.0049886405 2.3231857e-38
0.025588648 -0.1253974 -0.0049886405 2.2771958e-38
0.027436765 -0.1253974 -0.0049886405 2.2770879e-38
0.029284881 -0.1253974 -0.0049886405 2.2771958e-38
0.031132998 -0.1253974 -0.0049886405 2.3324052e-38
0.037813656 -0.12280498 0.0050355494 2.1295749e-38
0.039644197 -0.12280498 0.0050355494 2.1204632e-38
0.041250207 -0.12202574 0.0080486834 2.1572335e-38
0.043760583 -0.12434883 -0.00093409419 2.1296828e-38
0.045601591 -0.12434883 -0.00093409419 2.1387944e-38
0.0474426 -0.12434883 -0.00093409419 2.1112436e-38
0.049283609 -0.12434883 -0.00093409419 2.1203553e-38
0.051124617 -0.12434883 -0.00093409419 2.0928405e-38
0.052965641 -0.12434883 -0.00093409419 1.7612602e-38
0.05480665 -0.12434883 -0.00093409419 1.235817e-38
0.056647658 -0.12434883 -0.00093409419 1.392514e-38
0.058854774 -0.1253974 -0.0049886405 2.2867037e-38
0.06070289 -0.1253974 -0.0049886405 2.2591531e-38
0.062551007 -0.1253974 -0.0049886405 2.1023487e-38
0.064399123 -0.1253974 -0.0049886405 1.8349816e-38
0.06624724 -0.1253974 -0.0049886405 7.9317094e-39
-0.027903972 -0.13063805 -0.018018216 6.3567943e-39
-0.026072001 -0.12958528 -0.013974875 6.6340987e-39
-0.024208127 -0.12958528 -0.013974875 7.3731028e-39
-0.022291083 -0.13063805 -0.018018216 1.4565805e-38
-0.020420119 -0.13063805 -0.018018216 1.5489566e-38
-0.018549157 -0.13063805 -0.018018216 1.4291744e-38
-0.01675263 -0.12958528 -0.013974875 1.6781751e-38
-0.014888758 -0.12958528 -0.013974875 2.2958859e-38
-0.012936266 -0.13063805 -0.018018216 2.3509876e-38
-0.011161009 -0.12958528 -0.013974875 2.3509873e-38
-0.0092971362 -0.12958528 -0.013974875 2.3509869e-38
-0.0074332617 -0.12958528 -0.013974875 1.6316785e-38
-0.0055693872 -0.12958528 -0.013974875 1.5394788e-38
-0.0037055146 -0.12958528 -0.013974875 1.401184e-38
-0.0020365138 -0.12802102 -0.0079670846 1.0691369e-38
-0.00018317439 -0.12802102 -0.0079670846 9.7683339e-39
0.0016701687 -0.12802102 -0.0079670846 9.3066257e-39
0.0047450271 -0.12385099 0.0080486834 1.5573068e-38
0.0064468514 -0.123071 0.011044413 1.7970511e-38
0.0082668569 -0.123071 0.011044413 1.7234362e-38
0.010220805 -0.12385099 0.0080486834 2.3043409e-38
0.012046063 -0.12385099 0.0080486834 2.3509453e-38
0.014304442 -0.12618984 -0.00093409419 9.8605547e-39
0.016145451 -0.12618984 -0.00093409419 9.3081068e-39
0.01798646 -0.12618984 -0.00093409419 2.341513e-38
0.020044291 -0.12724553 -0.0049886405 2.3509869e-38
0.021892412 -0.12724553 -0.0049886405 2.3509161e-38
0.023740528 -0.12724553 -0.0049886405 2.3509883e-38
0.025350494 -0.12618984 -0.00093409419 2.3509886e-38
0.027191507 -0.12618984 -0.00093409419 2.3509527e-38
0.029032515 -0.12618984 -0.00093409419 2.3509886e-38
0.030873524 -0.12618984 -0.00093409419 2.3509527e-38
0.032714531 -0.12618984 -0.00093409419 2.3509886e-38
0.034555539 -0.12618984 -0.00093409419 2.3509527e-38
0.035983108 -0.12463553 0.0050355494 2.3509886e-38
0.037813656 -0.12463553 0.0050355494 2.3509527e-38
0.039644197 -0.12463553 0.0050355494 2.3509886e-38
0.041250207 -0.12385099 0.0080486834 2.3509527e-38
0.043075472 -0.12385099 0.0080486834 2.3509886e-38
0.045372277 -0.12542458 0.0020050108 2.3509527e-38
0.04720813 -0.12542458 0.0020050108 2.3509886e-38
0.049043983 -0.12542458 0.0020050108 2.3509527e-38
0.051124617 -0.12618984 -0.00093409419 2.341805e-38
0.052965641 -0.12618984 -0.00093409419 2.3142544e-38
0.05480665 -0.12618984 -0.00093409419 2.1853604e-38
0.056647658 -0.12618984 -0.00093409419 2.0378118e-38
0.058488667 -0.12618984 -0.00093409419 2.1576661e-38
0.060329676 -0.12618984 -0.00093409419 2.2958873e-38
0.062170684 -0.12618984 -0.00093409419 2.2313147e-38
0.064399123 -0.12724553 -0.0049886405 1.9362889e-38
0.06624724 -0.12724553 -0.0049886405 8.2072173e-39
0.068095356 -0.12724553 -0.0049886405 6.1789121e-39
-0.027903972 -0.13250901 -0.018018216 6.5415485e-39
-0.026072001 -0.13144915 -0.013974875 5.9894509e-39
-0.024208127 -0.13144915 -0.013974875 6.174561e-39
-0.022344254 -0.13144915 -0.013974875 1.530337e-38
-0.020480379 -0.13144915 -0.013974875 1.6964697e-38
-0.018549157 -0.13250901 -0.018018216 1.7149452e-38
-0.01675263 -0.13144915 -0.013974875 2.0100794e-38
-0.014888758 -0.13144915 -0.013974875 2.341804e-38
-0.013024883 -0.13144915 -0.013974875 2.249572e-38
-0.011161009 -0.13144915 -0.013974875 2.3324757e-38
-0.0092971362 -0.13144915 -0.013974875 2.3509866e-38
-0.0074332617 -0.13144915 -0.013974875 1.7974863e-38
-0.0056565367 -0.13065951 -0.010962456 2.0372262e-38
-0.003981242 -0.12909363 -0.0049886405 2.0832863e-38
-0.0022646394 -0.12803085 -0.00093409419 2.1199862e-38
-0.0004236307 -0.12803085 -0.00093409419 2.2397689e-38
0.001417378 -0.12803085 -0.00093409419 2.2765383e-38
0.0029197652 -0.12567626 0.0080486834 2.2857581e-38
0.0046268459 -0.124891 0.011044413 2.2211144e-38
0.0064468514 -0.124891 0.011044413 2.2026749e-38
0.0083955433 -0.12567626 0.0080486834 2.0184606e-38
0.010220805 -0.12567626 0.0080486834 2.1845925e-38
0.012326872 -0.12726043 0.0020050108 2.2674995e-38
0.014162729 -0.12726043 0.0020050108 9.8612568e-39
0.015998585 -0.12726043 0.0020050108 1.106089e-38
0.01798646 -0.12803085 -0.00093409419 2.3509481e-38
0.019827468 -0.12803085 -0.00093409419 2.3415155e-38
0.021668477 -0.12803085 -0.00093409419 2.3509524e-38
0.023740528 -0.12909363 -0.0049886405 2.3509527e-38
0.025350494 -0.12803085 -0.00093409419 2.3509886e-38
0.027191507 -0.12803085 -0.00093409419 2.341769e-38
0.029032515 -0.12803085 -0.00093409419 2.3325494e-38
0.030873524 -0.12803085 -0.00093409419 2.3233299e-38
0.032521285 -0.12726043 0.0020050108 2.3233299e-38
0.034357138 -0.12726043 0.0020050108 2.3325494e-38
0.035983108 -0.12646608 0.0050355494 2.3509886e-38
0.03759969 -0.12567626 0.0080486834 2.3325494e-38
0.039424948 -0.12567626 0.0080486834 2.341769e-38
0.041250207 -0.12567626 0.0080486834 2.3509886e-38
0.043075472 -0.12567626 0.0080486834 2.3509886e-38
0.045135826 -0.12646608 0.0050355494 2.341769e-38
0.046725988 -0.12567626 0.0080486834 2.3325494e-38
0.048551247 -0.12567626 0.0080486834 2.3325494e-38
0.050879851 -0.12726043 0.0020050108 2.3326213e-38
0.052715704 -0.12726043 0.0020050108 2.3234379e-38
0.054551557 -0.12726043 0.0020050108 2.1667415e-38
0.05638741 -0.12726043 0.0020050108 2.2220592e-38
0.058223262 -0.12726043 0.0020050108 2.3142544e-38
0.06005913 -0.12726043 0.0020050108 2.2497178e-38
0.062170684 -0.12803085 -0.00093409419 2.3050708e-38
0.064399123 -0.12909363 -0.0049886405 2.0284845e-38
0.06624724 -0.12909363 -0.0049886405 5.5335427e-39
-0.059929825 -0.13702248 -0.028032392 2.2865587e-38
-0.058041304 -0.13702248 -0.028032392 2.3418045e-38
-0.056152783 -0.13702248 -0.028032392 2.3418042e-38
-0.052226491 -0.13437997 -0.018018216 2.3509873e-38
-0.050355531 -0.13437997 -0.018018216 2.3509869e-38
-0.029799748 -0.13331302 -0.013974875 6.3578845e-39
-0.027959643 -0.1325181 -0.010962456 6.2656847e-39
-0.026101051 -0.1325181 -0.010962456 7.0043245e-39
-0.024276596 -0.13172771 -0.0079670846 6.174924e-39
-0.022423256 -0.13172771 -0.0079670846 1.558032e-38
-0.020525275 -0.1325181 -0.010962456 1.7149089e-38
-0.018616505 -0.13331302 -0.013974875 2.0284104e-38
-0.01675263 -0.13331302 -0.013974875 2.3142171e-38
-0.014888758 -0.13331302 -0.013974875 2.341804e-38
-0.013024883 -0.13331302 -0.013974875 2.3509873e-38
-0.011161009 -0.13331302 -0.013974875 2.3509509e-38
-0.0092971362 -0.13331302 -0.013974875 2.1294647e-38
-0.0074332617 -0.13331302 -0.013974875 1.7144381e-38
-0.0056565367 -0.1325181 -0.010962456 2.1293139e-38
-0.003981242 -0.13094176 -0.0049886405 2.2214003e-38
-0.0022646394 -0.12987186 -0.00093409419 2.350584e-38
-0.0004236307 -0.12987186 -0.00093409419 2.3509087e-38
0.001417378 -0.12987186 -0.00093409419 2.3509802e-38
0.0029197652 -0.1275015 0.0080486834 2.3502959e-38
0.0046268459 -0.126711 0.011044413 2.2487375e-38
0.0064468514 -0.126711 0.011044413 2.1382095e-38
0.0083955433 -0.1275015 0.0080486834 1.622091e-38
0.010491015 -0.12909628 0.0020050108 2.3321768e-38
0.012326872 -0.12909628 0.0020050108 2.3509792e-38
0.014162729 -0.12909628 0.0020050108 1.2812948e-38
0.015998585 -0.12909628 0.0020050108 1.2629649e-38
0.01798646 -0.12987186 -0.00093409419 2.3509844e-38
0.019827468 -0.12987186 -0.00093409419 2.3509873e-38
0.021668477 -0.12987186 -0.00093409419 2.3048191e-38
0.023509486 -0.12987186 -0.00093409419 2.3509886e-38
0.025350494 -0.12987186 -0.00093409419 2.341805e-38
0.027191507 -0.12987186 -0.00093409419 2.341805e-38
0.029032515 -0.12987186 -0.00093409419 2.341805e-38
0.030873524 -0.12987186 -0.00093409419 2.341805e-38
0.032521285 -0.12909628 0.0020050108 2.341805e-38
0.034357138 -0.12909628 0.0020050108 2.341805e-38
0.035983108 -0.1282966 0.0050355494 2.341805e-38
0.03759969 -0.1275015 0.0080486834 2.341805e-38
0.039424948 -0.1275015 0.0080486834 2.341805e-38
0.041250207 -0.1275015 0.0080486834 2.341805e-38
0.043075472 -0.1275015 0.0080486834 2.341805e-38
0.045135826 -0.1282966 0.0050355494 2.341805e-38
0.046725988 -0.1275015 0.0080486834 2.341805e-38
0.048551247 -0.1275015 0.0080486834 2.341805e-38
0.050627455 -0.1282966 0.0050355494 2.341805e-38
0.052457988 -0.1282966 0.0050355494 2.3325856e-38
0.054288536 -0.1282966 0.0050355494 2.341805e-38
0.056119084 -0.1282966 0.0050355494 2.2957075e-38
0.057949618 -0.1282966 0.0050355494 2.3234379e-38
0.059780166 -0.1282966 0.0050355494 2.341805e-38
0.061894983 -0.12909628 0.0020050108 2.3142544e-38
0.064011693 -0.12987186 -0.00093409419 1.7242028e-38
0.065852702 -0.12987186 -0.00093409419 3.8736612e-39
-0.07908868 -0.14075352 -0.034968823 1.4290663e-38
-0.077188 -0.14075352 -0.034968823 1.5397008e-38
-0.075396352 -0.14155935 -0.038002461 1.5213336e-38
-0.073490351 -0.14155935 -0.038002461 1.585835e-38
-0.071260951 -0.13891099 -0.028032392 1.5581766e-38
-0.06937243 -0.13891099 -0.028032392 1.7057259e-38
-0.067483909 -0.13891099 -0.028032392 2.1298261e-38
-0.065595388 -0.13891099 -0.028032392 2.3509876e-38
-0.063783005 -0.13970654 -0.031027287 2.3509879e-38
-0.061889231 -0.13970654 -0.031027287 2.3233652e-38
-0.059929825 -0.13891099 -0.028032392 2.3234012e-38
-0.058041304 -0.13891099 -0.028032392 2.3418045e-38
-0.056152783 -0.13891099 -0.028032392 2.3418043e-38
-0.054146416 -0.13703169 -0.020957559 2.2864502e-38
-0.052226491 -0.13625093 -0.018018216 2.0374496e-38
-0.050355531 -0.13625093 -0.018018216 2.0926225e-38
-0.048484564 -0.13625093 -0.018018216 2.3509859e-38
-0.042846866 -0.13517688 -0.013974875 1.8345823e-38
-0.040982991 -0.13517688 -0.013974875 2.3418025e-38
-0.039103318 -0.13358103 -0.0079670846 2.0468486e-38
-0.037247367 -0.13278987 -0.0049886405 8.6670913e-39
-0.035399251 -0.13278987 -0.0049886405 9.1270016e-39
-0.03355113 -0.13278987 -0.0049886405 9.8634877e-39
-0.03170301 -0.13278987 -0.0049886405 7.0043385e-39
-0.029854894 -0.13278987 -0.0049886405 5.712878e-39
-0.028006777 -0.13278987 -0.0049886405 5.9891006e-39
-0.026158657 -0.13278987 -0.0049886405 7.5571424e-39
-0.02431054 -0.13278987 -0.0049886405 5.9905383e-39
-0.022462422 -0.13278987 -0.0049886405 1.4658367e-38
-0.020614304 -0.13278987 -0.0049886405 1.7333483e-38
-0.018766185 -0.13278987 -0.0049886405 2.2220215e-38
-0.016863234 -0.13358103 -0.0079670846 2.341804e-38
-0.014949499 -0.13437669 -0.010962456 2.2588278e-38
-0.013090905 -0.13437669 -0.010962456 2.350987e-38
-0.011373714 -0.13278987 -0.0049886405 2.3509869e-38
-0.0095255952 -0.13278987 -0.0049886405 1.8067081e-38
-0.0075151287 -0.13437669 -0.010962456 1.4931689e-38
-0.0057431925 -0.13358103 -0.0079670846 1.8710954e-38
-0.004105648 -0.13171287 -0.00093409419 1.9724735e-38
-0.0022646394 -0.13171287 -0.00093409419 2.258138e-38
-0.0004236307 -0.13171287 -0.00093409419 2.3042005e-38
0.0013117362 -0.13093217 0.0020050108 2.3226026e-38
0.003033353 -0.13012715 0.0050355494 1.9721873e-38
0.0047450271 -0.12932678 0.0080486834 1.7785412e-38
0.0065702852 -0.12932678 0.0080486834 1.6127314e-38
0.0087814163 -0.13171287 -0.00093409419 1.6498941e-38
0.010491015 -0.13093217 0.0020050108 2.3046263e-38
0.012326872 -0.13093217 0.0020050108 2.3322873e-38
0.014162729 -0.13093217 0.0020050108 1.4104049e-38
0.015998585 -0.13093217 0.0020050108 1.4751231e-38
0.017834438 -0.13093217 0.0020050108 2.332581e-38
0.019827468 -0.13171287 -0.00093409419 2.3509876e-38
0.021668477 -0.13171287 -0.00093409419 2.3232944e-38
0.023509486 -0.13171287 -0.00093409419 2.341805e-38
0.025350494 -0.13171287 -0.00093409419 2.3326213e-38
0.027013721 -0.13093217 0.0020050108 2.3326213e-38
0.028849574 -0.13093217 0.0020050108 2.341805e-38
0.030685434 -0.13093217 0.0020050108 2.341805e-38
0.032322027 -0.13012715 0.0050355494 2.341805e-38
0.034152567 -0.13012715 0.0050355494 2.3234018e-38
0.035774432 -0.12932678 0.0080486834 2.2865235e-38
0.03759969 -0.12932678 0.0080486834 2.341805e-38
0.039424948 -0.12932678 0.0080486834 2.3326213e-38
0.041250207 -0.12932678 0.0080486834 2.3141822e-38
0.043075472 -0.12932678 0.0080486834 2.3141822e-38
0.04490073 -0.12932678 0.0080486834 2.3326213e-38
0.046725988 -0.12932678 0.0080486834 2.341805e-38
0.048551247 -0.12932678 0.0080486834 2.341805e-38
0.050376505 -0.12932678 0.0080486834 2.341805e-38
0.052201763 -0.12932678 0.0080486834 2.3233299e-38
0.054027021 -0.12932678 0.0080486834 2.3509886e-38
0.056119084 -0.13012715 0.0050355494 2.3141106e-38
0.057949618 -0.13012715 0.0050355494 2.304927e-38
0.059780166 -0.13012715 0.0050355494 2.2957075e-38
0.061894983 -0.13093217 0.0020050108 2.341805e-38
0.064011693 -0.13171287 -0.00093409419 1.9177057e-38
-0.07908868 -0.1426542 -0.034968823 1.6411163e-38
-0.077188 -0.1426542 -0.034968823 1.724092e-38
-0.075145639 -0.1416003 -0.031027287 1.724092e-38
-0.073149472 -0.14079951 -0.028032392 1.6319329e-38
-0.071260951 -0.14079951 -0.028032392 1.465981e-38
-0.06937243 -0.14079951 -0.028032392 1.5213347e-38
-0.067483909 -0.14079951 -0.028032392 2.3418043e-38
-0.065595388 -0.14079951 -0.028032392 2.2956345e-38
-0.063783005 -0.1416003 -0.031027287 2.3509879e-38
-0.061889231 -0.1416003 -0.031027287 2.350988e-38
-0.059929825 -0.14079951 -0.028032392 2.2588645e-38
-0.058041304 -0.14079951 -0.028032392 2.3234376e-38
-0.056152783 -0.14079951 -0.028032392 2.3418043e-38
-0.054146416 -0.13890781 -0.020957559 2.2772307e-38
-0.052270301 -0.13890781 -0.020957559 1.5211178e-38
-0.050355531 -0.13812189 -0.018018216 1.0876177e-38
-0.048438489 -0.13704078 -0.013974875 2.3508054e-38
-0.046545565 -0.13623528 -0.010962456 2.3509129e-38
-0.044686973 -0.13623528 -0.010962456 1.4286686e-38
-0.042828381 -0.13623528 -0.010962456 1.2444216e-38
-0.040956657 -0.13543437 -0.0079670846 2.2402788e-38
-0.039103318 -0.13543437 -0.0079670846 2.3326189e-38
-0.037247367 -0.134638 -0.0049886405 1.5305177e-38
-0.035399251 -0.134638 -0.0049886405 1.3460196e-38
-0.03355113 -0.134638 -0.0049886405 1.2168381e-38
-0.03170301 -0.134638 -0.0049886405 1.106059e-38
-0.029854894 -0.134638 -0.0049886405 7.1887298e-39
-0.028006777 -0.134638 -0.0049886405 6.8192228e-39
-0.026158657 -0.134638 -0.0049886405 5.34445e-39
-0.024356749 -0.13355388 -0.00093409419 4.9760291e-39
-0.02251574 -0.13355388 -0.00093409419 1.4473977e-38
-0.02067473 -0.13355388 -0.00093409419 1.7978497e-38
-0.018833721 -0.13355388 -0.00093409419 2.3142174e-38
-0.016992712 -0.13355388 -0.00093409419 2.3418043e-38
-0.015151704 -0.13355388 -0.00093409419 2.2403887e-38
-0.013310693 -0.13355388 -0.00093409419 2.350987e-38
-0.011469685 -0.13355388 -0.00093409419 2.3509866e-38
-0.0096286759 -0.13355388 -0.00093409419 1.7329513e-38
-0.0076774769 -0.134638 -0.0049886405 1.6129877e-38
-0.0058293603 -0.134638 -0.0049886405 1.622205e-38
-0.004105648 -0.13355388 -0.00093409419 1.6129492e-38
-0.0023599733 -0.13276802 0.0020050108 1.7234421e-38
-0.00052412041 -0.13276802 0.0020050108 2.350409e-38
0.0013117362 -0.13276802 0.0020050108 2.3505162e-38
0.003033353 -0.13195769 0.0050355494 1.8340043e-38
0.0048638936 -0.13195769 0.0050355494 1.7233698e-38
0.0066944379 -0.13195769 0.0050355494 1.5483404e-38
0.0085249785 -0.13195769 0.0050355494 1.4194789e-38
0.010491015 -0.13276802 0.0020050108 2.2955521e-38
0.012326872 -0.13276802 0.0020050108 2.2679675e-38
0.014162729 -0.13276802 0.0020050108 1.5212203e-38
0.015998585 -0.13276802 0.0020050108 1.2908406e-38
0.017834438 -0.13276802 0.0020050108 2.3142503e-38
0.019670295 -0.13276802 0.0020050108 2.3418045e-38
0.021506151 -0.13276802 0.0020050108 2.3233662e-38
0.023342008 -0.13276802 0.0020050108 2.3233662e-38
0.024999859 -0.13195769 0.0050355494 2.341805e-38
0.026830399 -0.13195769 0.0050355494 2.341805e-38
0.028660947 -0.13195769 0.0050355494 2.341805e-38
0.030491488 -0.13195769 0.0050355494 2.341805e-38
0.032123916 -0.13115202 0.0080486834 2.341805e-38
0.033949174 -0.13115202 0.0080486834 2.341805e-38
0.035774432 -0.13115202 0.0080486834 2.3141822e-38
0.03759969 -0.13115202 0.0080486834 2.341805e-38
0.039424948 -0.13115202 0.0080486834 2.341805e-38
0.041250207 -0.13115202 0.0080486834 2.341805e-38
0.043075472 -0.13115202 0.0080486834 2.341805e-38
0.04490073 -0.13115202 0.0080486834 2.3141822e-38
0.046725988 -0.13115202 0.0080486834 2.3326213e-38
0.048551247 -0.13115202 0.0080486834 2.341805e-38
0.050376505 -0.13115202 0.0080486834 2.341805e-38
0.052201763 -0.13115202 0.0080486834 2.3141103e-38
0.054027021 -0.13115202 0.0080486834 2.3509527e-38
0.055852294 -0.13115202 0.0080486834 2.3509527e-38
0.057677552 -0.13115202 0.0080486834 2.2680125e-38
0.05950281 -0.13115202 0.0080486834 2.3509886e-38
0.061894983 -0.13276802 0.0020050108 2.3325856e-38
-0.0846145 -0.14349405 -0.031027287 1.060141e-38
-0.082720727 -0.14349405 -0.031027287 1.1983623e-38
-0.080826953 -0.14349405 -0.031027287 1.4657649e-38
-0.078933187 -0.14349405 -0.031027287 2.0558887e-38
-0.077039413 -0.14349405 -0.031027287 2.2034014e-38
-0.075037993 -0.14268802 -0.028032392 2.083655e-38
-0.073012531 -0.14161004 -0.024027079 1.7424957e-38
-0.071131036 -0.14161004 -0.024027079 1.3645658e-38
-0.06937243 -0.14268802 -0.028032392 1.4106999e-38
-0.067483909 -0.14268802 -0.028032392 2.2865587e-38
-0.065595388 -0.14268802 -0.028032392 2.3509879e-38
-0.063783005 -0.14349405 -0.031027287 2.3509521e-38
-0.061889231 -0.14349405 -0.031027287 2.3509883e-38
-0.059929825 -0.14268802 -0.028032392 2.3141819e-38
-0.058041304 -0.14268802 -0.028032392 2.1943999e-38
-0.056152783 -0.14268802 -0.028032392 9.77345e-39
-0.054264262 -0.14268802 -0.028032392 5.8083079e-39
-0.052270301 -0.14078392 -0.020957559 2.7636857e-39
-0.050355531 -0.13999285 -0.018018216 8.5698411e-39
-0.048438489 -0.13890465 -0.013974875 2.0185044e-38
-0.046545565 -0.13809387 -0.010962456 2.0369789e-38
-0.044686973 -0.13809387 -0.010962456 1.400829e-38
-0.04281 -0.13728772 -0.0079670846 1.3272532e-38
-0.040956657 -0.13728772 -0.0079670846 2.2401344e-38
-0.039095484 -0.13648613 -0.0049886405 2.350986e-38
-0.037247367 -0.13648613 -0.0049886405 2.0744719e-38
-0.035399251 -0.13648613 -0.0049886405 1.9821695e-38
-0.033561796 -0.13539489 -0.00093409419 1.8161097e-38
-0.031720787 -0.13539489 -0.00093409419 1.7330974e-38
-0.029854894 -0.13648613 -0.0049886405 1.6408293e-38
-0.028006777 -0.13648613 -0.0049886405 1.3365115e-38
-0.026158657 -0.13648613 -0.0049886405 9.3092237e-39
-0.024356749 -0.13539489 -0.00093409419 1.0785433e-38
-0.02251574 -0.13539489 -0.00093409419 1.8622424e-38
-0.02067473 -0.13539489 -0.00093409419 1.9822412e-38
-0.018833721 -0.13539489 -0.00093409419 2.3418043e-38
-0.016992712 -0.13539489 -0.00093409419 2.3418045e-38
-0.015151704 -0.13539489 -0.00093409419 2.3325843e-38
-0.013310693 -0.13539489 -0.00093409419 2.3509873e-38
-0.011469685 -0.13539489 -0.00093409419 2.3509146e-38
-0.0096286759 -0.13539489 -0.00093409419 1.8804643e-38
-0.0077876672 -0.13539489 -0.00093409419 1.8896115e-38
-0.0059466586 -0.13539489 -0.00093409419 1.6315345e-38
-0.004105648 -0.13539489 -0.00093409419 7.3712952e-39
-0.0023599733 -0.13460387 0.0020050108 9.7676795e-39
-0.0006277319 -0.13378824 0.0050355494 8.7524514e-39
0.0012028087 -0.13378824 0.0050355494 1.0504519e-38
0.003033353 -0.13378824 0.0050355494 1.5667828e-38
0.0048638936 -0.13378824 0.0050355494 1.5944061e-38
0.0066944379 -0.13378824 0.0050355494 2.3509846e-38
0.0085249785 -0.13378824 0.0050355494 2.3509807e-38
0.010355523 -0.13378824 0.0050355494 2.3509804e-38
0.012186063 -0.13378824 0.0050355494 2.2403465e-38
0.014016604 -0.13378824 0.0050355494 1.604306e-38
0.015847148 -0.13378824 0.0050355494 1.7058299e-38
0.017677689 -0.13378824 0.0050355494 2.323435e-38
0.019508233 -0.13378824 0.0050355494 2.2774116e-38
0.021338774 -0.13378824 0.0050355494 2.2681212e-38
0.023169318 -0.13378824 0.0050355494 2.341805e-38
0.024999859 -0.13378824 0.0050355494 2.3234015e-38
0.026648136 -0.13297729 0.0080486834 2.2680844e-38
0.028473394 -0.13297729 0.0080486834 2.2957428e-38
0.030298652 -0.13297729 0.0080486834 2.3141822e-38
0.032123916 -0.13297729 0.0080486834 2.3049624e-38
0.033949174 -0.13297729 0.0080486834 2.2957431e-38
0.035774432 -0.13297729 0.0080486834 2.2957428e-38
0.037386961 -0.13217102 0.011044413 2.3234018e-38
0.039206974 -0.13217102 0.011044413 2.2680841e-38
0.04102698 -0.13217102 0.011044413 2.2865235e-38
0.042846985 -0.13217102 0.011044413 2.3418047e-38
0.044666991 -0.13217102 0.011044413 2.341805e-38
0.046486996 -0.13217102 0.011044413 2.3049624e-38
0.048307002 -0.13217102 0.011044413 2.3141822e-38
0.050376505 -0.13297729 0.0080486834 2.3509883e-38
0.052201763 -0.13297729 0.0080486834 2.3509883e-38
0.054027021 -0.13297729 0.0080486834 2.350952e-38
0.055852294 -0.13297729 0.0080486834 2.3509523e-38
0.057677552 -0.13297729 0.0080486834 2.3509883e-38
0.05950281 -0.13297729 0.0080486834 2.3509883e-38
-0.085715964 -0.14076851 -0.013974875 1.1523009e-38
-0.0846145 -0.14538784 -0.031027287 1.0231909e-38
-0.082720727 -0.14538784 -0.031027287 1.3550228e-38
-0.080538526 -0.14349155 -0.024027079 1.6869265e-38
-0.078657031 -0.14349155 -0.024027079 2.2309165e-38
-0.076775528 -0.14349155 -0.024027079 2.3508065e-38
-0.074894033 -0.14349155 -0.024027079 2.1572676e-38
-0.073012531 -0.14349155 -0.024027079 1.7608628e-38
-0.071131036 -0.14349155 -0.024027079 1.4382504e-38
-0.06937243 -0.14457656 -0.028032392 1.6226783e-38
-0.067483909 -0.14457656 -0.028032392 2.350988e-38
-0.065595388 -0.14457656 -0.028032392 2.3509521e-38
-0.063783005 -0.14538784 -0.031027287 2.3047463e-38
-0.061889231 -0.14538784 -0.031027287 2.3048907e-38
-0.059929825 -0.14457656 -0.028032392 2.3326213e-38
-0.058041304 -0.14457656 -0.028032392 2.3234379e-38
-0.056079045 -0.14349155 -0.024027079 5.2558642e-39
-0.054197542 -0.14349155 -0.024027079 3.8714794e-39
-0.052270301 -0.14266007 -0.020957559 6.9114072e-39
-0.050355531 -0.14186381 -0.018018216 8.6605906e-39
-0.048438489 -0.14076851 -0.013974875 1.8247847e-38
-0.046516679 -0.13914107 -0.0079670846 1.8062013e-38
-0.04466334 -0.13914107 -0.0079670846 1.5389418e-38
-0.04281 -0.13914107 -0.0079670846 1.6313181e-38
-0.040956657 -0.13914107 -0.0079670846 2.350769e-38
-0.039095484 -0.13833423 -0.0049886405 2.3509496e-38
-0.037247367 -0.13833423 -0.0049886405 2.3509867e-38
-0.035399251 -0.13833423 -0.0049886405 2.3048542e-38
-0.033561796 -0.13723589 -0.00093409419 2.3508804e-38
-0.031720787 -0.13723589 -0.00093409419 1.9359277e-38
-0.029854894 -0.13833423 -0.0049886405 2.1018074e-38
-0.028006777 -0.13833423 -0.0049886405 2.3230048e-38
-0.026158657 -0.13833423 -0.0049886405 1.4840964e-38
-0.02431054 -0.13833423 -0.0049886405 1.2444957e-38
-0.022462422 -0.13833423 -0.0049886405 2.1112788e-38
-0.020614304 -0.13833423 -0.0049886405 2.1758882e-38
-0.018766185 -0.13833423 -0.0049886405 2.2866308e-38
-0.016918069 -0.13833423 -0.0049886405 2.2774116e-38
-0.015151704 -0.13723589 -0.00093409419 2.2957782e-38
-0.013310693 -0.13723589 -0.00093409419 2.3509876e-38
-0.011539254 -0.13643973 0.0020050108 2.3509869e-38
-0.0097033978 -0.13643973 0.0020050108 2.1294647e-38
-0.0078675412 -0.13643973 0.0020050108 2.1570512e-38
-0.0060316864 -0.13643973 0.0020050108 1.7606466e-38
-0.0041958299 -0.13643973 0.0020050108 9.1241163e-39
-0.0024582762 -0.13561879 0.0050355494 8.5705936e-39
-0.0006277319 -0.13561879 0.0050355494 6.725965e-39
0.0012028087 -0.13561879 0.0050355494 8.0170499e-39
0.003033353 -0.13561879 0.0050355494 1.3364752e-38
0.0048638936 -0.13561879 0.0050355494 1.6683442e-38
0.0066944379 -0.13561879 0.0050355494 2.3509504e-38
0.0085249785 -0.13561879 0.0050355494 2.3324357e-38
0.010355523 -0.13561879 0.0050355494 2.3509818e-38
0.012186063 -0.13561879 0.0050355494 2.3509839e-38
0.013871321 -0.13480256 0.0080486834 1.5489903e-38
0.015696583 -0.13480256 0.0080486834 1.788843e-38
0.017521841 -0.13480256 0.0080486834 2.2775172e-38
0.0193471 -0.13480256 0.0080486834 2.3234379e-38
0.021172358 -0.13480256 0.0080486834 2.3234379e-38
0.023169318 -0.13561879 0.0050355494 2.341805e-38
0.024822878 -0.13480256 0.0080486834 2.3325847e-38
0.026648136 -0.13480256 0.0080486834 2.3325492e-38
0.028473394 -0.13480256 0.0080486834 2.350988e-38
0.030298652 -0.13480256 0.0080486834 2.3509883e-38
0.032123916 -0.13480256 0.0080486834 2.350988e-38
0.033949174 -0.13480256 0.0080486834 2.3417687e-38
0.035774432 -0.13480256 0.0080486834 2.350988e-38
0.037386961 -0.13399105 0.011044413 2.3509883e-38
0.039206974 -0.13399105 0.011044413 2.350988e-38
0.04102698 -0.13399105 0.011044413 2.3509883e-38
0.042846985 -0.13399105 0.011044413 2.3418043e-38
0.044666991 -0.13399105 0.011044413 2.3509883e-38
0.046486996 -0.13399105 0.011044413 2.350988e-38
0.048307002 -0.13399105 0.011044413 2.3509883e-38
0.050127015 -0.13399105 0.011044413 2.3141456e-38
0.051947027 -0.13399105 0.011044413 2.3509879e-38
0.053767025 -0.13399105 0.011044413 2.3509879e-38
0.055587038 -0.13399105 0.011044413 2.3325129e-38
0.057677552 -0.13480256 0.0080486834 2.350988e-38
0.05950281 -0.13480256 0.0080486834 2.350988e-38
-0.085715964 -0.14263238 -0.013974875 1.1614844e-38
-0.08385209 -0.14263238 -0.013974875 9.7698515e-39
-0.081988215 -0.14263238 -0.013974875 1.4194879e-38
-0.080290943 -0.14373477 -0.018018216 1.7145133e-38
-0.078535929 -0.14453618 -0.020957559 2.2492837e-38
-0.076659821 -0.14453618 -0.020957559 2.3414791e-38
-0.074783705 -0.14453618 -0.020957559 2.0096467e-38
-0.072907589 -0.14453618 -0.020957559 1.5395214e-38
-0.071131036 -0.14537306 -0.024027079 1.3736056e-38
-0.069249533 -0.14537306 -0.024027079 1.7424607e-38
-0.067368038 -0.14537306 -0.024027079 2.2955267e-38
-0.065486535 -0.14537306 -0.024027079 2.3509521e-38
-0.063706867 -0.14646508 -0.028032392 2.3509165e-38
-0.061889231 -0.1472816 -0.031027287 2.3509886e-38
-0.059929825 -0.14646508 -0.028032392 2.0561067e-38
-0.058041304 -0.14646508 -0.028032392 1.9824221e-38
-0.056079045 -0.14537306 -0.024027079 1.8510732e-40
-0.054197542 -0.14537306 -0.024027079 2.7586522e-40
-0.052270301 -0.14453618 -0.020957559 2.024327e-39
-0.050355531 -0.14373477 -0.018018216 6.6312008e-39
-0.048404157 -0.14181106 -0.010962456 1.7877259e-38
-0.046516679 -0.14099441 -0.0079670846 1.8521183e-38
-0.04466334 -0.14099441 -0.0079670846 1.6954581e-38
-0.04279172 -0.14018236 -0.0049886405 1.8247486e-38
-0.0409436 -0.14018236 -0.0049886405 2.3509488e-38
-0.039095484 -0.14018236 -0.0049886405 2.3507698e-38
-0.037247367 -0.14018236 -0.0049886405 2.3509869e-38
-0.035399251 -0.14018236 -0.0049886405 2.3509879e-38
-0.033561796 -0.1390769 -0.00093409419 2.3509524e-38
-0.031720787 -0.1390769 -0.00093409419 2.3508079e-38
-0.029854894 -0.14018236 -0.0049886405 2.3509517e-38
-0.028006777 -0.14018236 -0.0049886405 2.3509156e-38
-0.026197758 -0.1390769 -0.00093409419 2.3509514e-38
-0.024356749 -0.1390769 -0.00093409419 2.3508077e-38
-0.02251574 -0.1390769 -0.00093409419 2.3140736e-38
-0.02067473 -0.1390769 -0.00093409419 2.3418047e-38
-0.018833721 -0.1390769 -0.00093409419 2.3234376e-38
-0.016992712 -0.1390769 -0.00093409419 2.3142539e-38
-0.015151704 -0.1390769 -0.00093409419 2.3326208e-38
-0.013375109 -0.13827558 0.0020050108 2.3509876e-38
-0.011539254 -0.13827558 0.0020050108 2.350987e-38
-0.0097033978 -0.13827558 0.0020050108 2.3509147e-38
-0.0078675412 -0.13827558 0.0020050108 2.3509147e-38
-0.0060316864 -0.13827558 0.0020050108 2.3509517e-38
-0.0041958299 -0.13827558 0.0020050108 2.3509524e-38
-0.0024582762 -0.13744931 0.0050355494 2.2769811e-38
-0.0006277319 -0.13744931 0.0050355494 2.3508809e-38
0.0012028087 -0.13744931 0.0050355494 2.3507e-38
0.003033353 -0.13744931 0.0050355494 2.0280509e-38
0.0047450271 -0.13662781 0.0080486834 2.0925171e-38
0.0065702852 -0.13662781 0.0080486834 2.04649e-38
0.0083955433 -0.13662781 0.0080486834 2.3509848e-38
0.010220805 -0.13662781 0.0080486834 2.3509842e-38
0.012186063 -0.13744931 0.0050355494 2.3140714e-38
0.013871321 -0.13662781 0.0080486834 1.3829679e-38
0.015696583 -0.13662781 0.0080486834 1.6781374e-38
0.017521841 -0.13662781 0.0080486834 2.2682621e-38
0.0193471 -0.13662781 0.0080486834 2.3142539e-38
0.021172358 -0.13662781 0.0080486834 2.2773763e-38
0.02299762 -0.13662781 0.0080486834 2.3233296e-38
0.024822878 -0.13662781 0.0080486834 2.350988e-38
0.026466923 -0.13581105 0.011044413 2.350988e-38
0.028286936 -0.13581105 0.011044413 2.350988e-38
0.030298652 -0.13662781 0.0080486834 2.350952e-38
0.032123916 -0.13662781 0.0080486834 2.3325847e-38
0.033949174 -0.13662781 0.0080486834 2.350988e-38
0.035774432 -0.13662781 0.0080486834 2.350988e-38
0.037386961 -0.13581105 0.011044413 2.2771955e-38
0.039206974 -0.13581105 0.011044413 2.350988e-38
0.04102698 -0.13581105 0.011044413 2.350952e-38
0.042846985 -0.13581105 0.011044413 2.2680478e-38
0.044666991 -0.13581105 0.011044413 2.350952e-38
0.046486996 -0.13581105 0.011044413 2.350988e-38
0.048307002 -0.13581105 0.011044413 2.350988e-38
0.050127015 -0.13581105 0.011044413 2.3509518e-38
0.051947027 -0.13581105 0.011044413 2.2772309e-38
0.053425744 -0.13473894 0.01497665 2.3509873e-38
0.055238858 -0.13473894 0.01497665 2.3141092e-38
0.057051972 -0.13473894 0.01497665 2.3509879e-38
-0.085715964 -0.14449625 -0.013974875 1.0508497e-38
-0.08385209 -0.14449625 -0.013974875 9.3081545e-39
-0.081988215 -0.14449625 -0.013974875 1.5116113e-38
-0.080124341 -0.14449625 -0.013974875 1.7973455e-38
-0.078419976 -0.14560573 -0.018018216 2.2767626e-38
-0.076549016 -0.14560573 -0.018018216 2.3505907e-38
-0.074678056 -0.14560573 -0.018018216 1.9357464e-38
-0.072807088 -0.14560573 -0.018018216 1.4932438e-38
-0.071031466 -0.1464123 -0.020957559 1.5209747e-38
-0.069249533 -0.14725454 -0.024027079 2.1018797e-38
-0.067279235 -0.1464123 -0.020957559 2.3509521e-38
-0.065403119 -0.1464123 -0.020957559 2.3508442e-38
-0.063706867 -0.14835359 -0.028032392 2.3508085e-38
-0.061818346 -0.14835359 -0.028032392 2.3509886e-38
-0.059929825 -0.14835359 -0.028032392 1.7703006e-38
-0.058041304 -0.14835359 -0.028032392 1.5582866e-38
-0.056079045 -0.14725454 -0.024027079 9.2911693e-41
-0.054146416 -0.1464123 -0.020957559 1.5658698e-39
-0.052270301 -0.1464123 -0.020957559 1.0101905e-39
-0.050355531 -0.14560573 -0.018018216 5.4312156e-39
-0.048404157 -0.14366965 -0.010962456 1.8981442e-38
-0.046516679 -0.14284773 -0.0079670846 1.999451e-38
-0.04466334 -0.14284773 -0.0079670846 1.5846069e-38
-0.04279172 -0.14203046 -0.0049886405 1.6401412e-38
-0.0409436 -0.14203046 -0.0049886405 2.3509126e-38
-0.039095484 -0.14203046 -0.0049886405 2.34137e-38
-0.037243813 -0.14091791 -0.00093409419 2.3509866e-38
-0.035402805 -0.14091791 -0.00093409419 2.3509516e-38
-0.033561796 -0.14091791 -0.00093409419 2.2770876e-38
-0.031720787 -0.14091791 -0.00093409419 2.350952e-38
-0.029854894 -0.14203046 -0.0049886405 2.3509157e-38
-0.028006777 -0.14203046 -0.0049886405 2.2861265e-38
-0.026197758 -0.14091791 -0.00093409419 2.3509514e-38
-0.024356749 -0.14091791 -0.00093409419 2.3509517e-38
-0.02251574 -0.14091791 -0.00093409419 2.3509879e-38
-0.02067473 -0.14091791 -0.00093409419 2.3141819e-38
-0.018882677 -0.14011143 0.0020050108 2.3234379e-38
-0.01704682 -0.14011143 0.0020050108 2.3142544e-38
-0.015272072 -0.13927986 0.0050355494 2.3142539e-38
-0.013441529 -0.13927986 0.0050355494 2.2957064e-38
-0.011610987 -0.13927986 0.0050355494 2.3048891e-38
-0.0097804442 -0.13927986 0.0050355494 2.3509866e-38
-0.0079499017 -0.13927986 0.0050355494 2.3509866e-38
-0.0061193593 -0.13927986 0.0050355494 2.3509876e-38
-0.0042888168 -0.13927986 0.0050355494 2.3417687e-38
-0.0024582762 -0.13927986 0.0050355494 2.3509527e-38
-0.0006277319 -0.13927986 0.0050355494 2.3509527e-38
0.0012028087 -0.13927986 0.0050355494 2.3416953e-38
0.003033353 -0.13927986 0.0050355494 2.350987e-38
0.0047450271 -0.13845308 0.0080486834 2.3509165e-38
0.0065702852 -0.13845308 0.0080486834 2.3509521e-38
0.0083955433 -0.13845308 0.0080486834 2.3509858e-38
0.010220805 -0.13845308 0.0080486834 2.3509493e-38
0.012186063 -0.13927986 0.0050355494 2.3509873e-38
0.013871321 -0.13845308 0.0080486834 2.2495722e-38
0.015696583 -0.13845308 0.0080486834 2.3509866e-38
0.017521841 -0.13845308 0.0080486834 2.3509866e-38
0.0193471 -0.13845308 0.0080486834 2.065217e-38
0.021172358 -0.13845308 0.0080486834 2.1113152e-38
0.02299762 -0.13845308 0.0080486834 2.1481215e-38
0.024822878 -0.13845308 0.0080486834 2.1481215e-38
0.026466923 -0.13763104 0.011044413 2.0927321e-38
0.028286936 -0.13763104 0.011044413 1.9729498e-38
0.030298652 -0.13845308 0.0080486834 1.9820973e-38
0.032123916 -0.13845308 0.0080486834 2.0467063e-38
0.033949174 -0.13845308 0.0080486834 2.1111712e-38
0.035774432 -0.13845308 0.0080486834 2.0651454e-38
0.037386961 -0.13763104 0.011044413 2.1203907e-38
0.039206974 -0.13763104 0.011044413 2.0374867e-38
0.04102698 -0.13763104 0.011044413 2.0558538e-38
0.042846985 -0.13763104 0.011044413 2.157341e-38
0.044666991 -0.13763104 0.011044413 2.2679038e-38
0.046486996 -0.13763104 0.011044413 2.221878e-38
0.047986418 -0.13655205 0.01497665 2.2679038e-38
0.049799532 -0.13655205 0.01497665 2.3509876e-38
0.05161263 -0.13655205 0.01497665 2.2587915e-38
0.053425744 -0.13655205 0.01497665 2.3509869e-38
0.054967791 -0.13571201 0.018038064 2.2864502e-38
0.056510195 -0.13490568 0.020976692 2.3417676e-38
0.058312789 -0.13490568 0.020976692 2.3509876e-38
-0.085715964 -0.14636014 -0.013974875 9.7698515e-39
-0.08385209 -0.14636014 -0.013974875 9.2155959e-39
-0.081988215 -0.14636014 -0.013974875 1.539198e-38
-0.080124341 -0.14636014 -0.013974875 1.8064932e-38
-0.078419976 -0.14747669 -0.018018216 1.8710658e-38
-0.076549016 -0.14747669 -0.018018216 1.6866743e-38
-0.074678056 -0.14747669 -0.018018216 1.3456224e-38
-0.072807088 -0.14747669 -0.018018216 1.1981818e-38
-0.071031466 -0.14828841 -0.020957559 1.5301224e-38
-0.069249533 -0.14913605 -0.024027079 2.2953827e-38
-0.067279235 -0.14828841 -0.020957559 2.3508802e-38
-0.065403119 -0.14828841 -0.020957559 2.3509163e-38
-0.06360504 -0.14913605 -0.024027079 2.3416248e-38
-0.061723538 -0.14913605 -0.024027079 2.3232944e-38
-0.059842043 -0.14913605 -0.024027079 1.5397758e-38
-0.05796054 -0.14913605 -0.024027079 1.106528e-38
-0.055968419 -0.14747669 -0.018018216 3.5873241e-43
-0.054030105 -0.14636014 -0.013974875 1.3814785e-39
-0.052166231 -0.14636014 -0.013974875 1.1938615e-39
-0.050302364 -0.14636014 -0.013974875 7.1825683e-39
-0.048370019 -0.14470108 -0.0079670846 1.8703771e-38
-0.046516679 -0.14470108 -0.0079670846 1.8056238e-38
-0.044639841 -0.14387859 -0.0049886405 1.1879852e-38
-0.04279172 -0.14387859 -0.0049886405 1.4371664e-38
-0.0409436 -0.14387859 -0.0049886405 2.3508765e-38
-0.039084822 -0.14275892 -0.00093409419 2.3509495e-38
-0.037243813 -0.14275892 -0.00093409419 2.3509507e-38
-0.035402805 -0.14275892 -0.00093409419 2.3509517e-38
-0.033561796 -0.14275892 -0.00093409419 2.350952e-38
-0.031720787 -0.14275892 -0.00093409419 2.3509517e-38
-0.029879775 -0.14275892 -0.00093409419 2.3509517e-38
-0.028038766 -0.14275892 -0.00093409419 2.3509156e-38
-0.026197758 -0.14275892 -0.00093409419 2.3509514e-38
-0.024356749 -0.14275892 -0.00093409419 2.2586123e-38
-0.02251574 -0.14275892 -0.00093409419 2.350988e-38
-0.02067473 -0.14275892 -0.00093409419 2.3234015e-38
-0.018882677 -0.14194728 0.0020050108 2.3050707e-38
-0.017102614 -0.14111041 0.0050355494 2.2682286e-38
-0.015272072 -0.14111041 0.0050355494 2.2682283e-38
-0.013441529 -0.14111041 0.0050355494 2.3418045e-38
-0.011682307 -0.14027832 0.0080486834 2.3509873e-38
-0.0098570473 -0.14027832 0.0080486834 2.3509869e-38
-0.0079499017 -0.14111041 0.0050355494 2.3324753e-38
-0.0061193593 -0.14111041 0.0050355494 2.2957417e-38
-0.0042888168 -0.14111041 0.0050355494 2.3142174e-38
-0.0024582762 -0.14111041 0.0050355494 2.3509883e-38
-0.0006277319 -0.14111041 0.0050355494 2.3509876e-38
0.0012028087 -0.14111041 0.0050355494 2.3233634e-38
0.003033353 -0.14111041 0.0050355494 2.3509863e-38
0.0047450271 -0.14027832 0.0080486834 2.3509879e-38
0.0065702852 -0.14027832 0.0080486834 2.3231854e-38
0.0083955433 -0.14027832 0.0080486834 2.3324393e-38
0.010220805 -0.14027832 0.0080486834 2.3508784e-38
0.012046063 -0.14027832 0.0080486834 2.3509165e-38
0.013871321 -0.14027832 0.0080486834 2.3509165e-38
0.015696583 -0.14027832 0.0080486834 2.3509149e-38
0.017521841 -0.14027832 0.0080486834 2.3509504e-38
0.0193471 -0.14027832 0.0080486834 2.1665956e-38
0.021172358 -0.14027832 0.0080486834 2.3509873e-38
0.02299762 -0.14027832 0.0080486834 2.3509876e-38
0.024822878 -0.14027832 0.0080486834 2.3509876e-38
0.026466923 -0.13945107 0.011044413 2.3416603e-38
0.028286936 -0.13945107 0.011044413 2.3232209e-38
0.030298652 -0.14027832 0.0080486834 2.3509879e-38
0.032123916 -0.14027832 0.0080486834 2.3509876e-38
0.03374695 -0.13945107 0.011044413 2.3509879e-38
0.035566956 -0.13945107 0.011044413 2.3232209e-38
0.037386961 -0.13945107 0.011044413 2.3509518e-38
0.039206974 -0.13945107 0.011044413 2.34166e-38
0.04102698 -0.13945107 0.011044413 2.3509158e-38
0.042547069 -0.13836516 0.01497665 2.3508795e-38
0.044360183 -0.13836516 0.01497665 2.3232211e-38
0.046173297 -0.13836516 0.01497665 2.3509876e-38
0.047986418 -0.13836516 0.01497665 2.3509879e-38
0.049799532 -0.13836516 0.01497665 2.3508793e-38
0.05161263 -0.13836516 0.01497665 2.350987e-38
0.053160056 -0.13751976 0.018038064 2.3509867e-38
0.054707602 -0.13670824 0.020976692 2.3509869e-38
0.056510195 -0.13670824 0.020976692 2.350987e-38
0.058312789 -0.13670824 0.020976692 2.3509873e-38
-0.085575998 -0.14738683 -0.010962456 1.0137915e-38
-0.083717406 -0.14738683 -0.010962456 8.4769519e-39
-0.081988215 -0.14822401 -0.013974875 1.225661e-38
-0.080124341 -0.14822401 -0.013974875 1.7603953e-38
-0.078419976 -0.14934768 -0.018018216 1.4837363e-38
-0.076549016 -0.14934768 -0.018018216 1.18871e-38
-0.074678056 -0.14934768 -0.018018216 1.0228658e-38
-0.072807088 -0.14934768 -0.018018216 1.0782196e-38
-0.070936128 -0.14934768 -0.018018216 1.4747331e-38
-0.067194201 -0.14934768 -0.018018216 2.3509163e-38
-0.065323234 -0.14934768 -0.018018216 2.3507006e-38
-0.055968419 -0.14934768 -0.018018216 2.7730295e-40
-0.054030105 -0.14822401 -0.013974875 5.5101298e-40
-0.052166231 -0.14822401 -0.013974875 1.3775324e-39
-0.050302364 -0.14822401 -0.013974875 7.9183326e-39
-0.048370019 -0.14655443 -0.0079670846 1.5752069e-38
-0.046487957 -0.1457267 -0.0049886405 1.4459168e-38
-0.044639841 -0.1457267 -0.0049886405 8.5590091e-39
-0.04279172 -0.1457267 -0.0049886405 1.2895092e-38
-0.040925831 -0.14459993 -0.00093409419 2.3504442e-38
-0.039084822 -0.14459993 -0.00093409419 2.3507337e-38
-0.037243813 -0.14459993 -0.00093409419 2.3509149e-38
-0.035402805 -0.14459993 -0.00093409419 2.3509514e-38
-0.033561796 -0.14459993 -0.00093409419 2.350952e-38
-0.031720787 -0.14459993 -0.00093409419 2.3509517e-38
-0.029879775 -0.14459993 -0.00093409419 2.3508075e-38
-0.028038766 -0.14459993 -0.00093409419 2.2491764e-38
-0.026197758 -0.14459993 -0.00093409419 2.3322243e-38
-0.024356749 -0.14459993 -0.00093409419 2.350952e-38
-0.02251574 -0.14459993 -0.00093409419 2.3417324e-38
-0.020718534 -0.14378314 0.0020050108 2.3142542e-38
-0.018933155 -0.14294095 0.0050355494 2.3142544e-38
-0.017102614 -0.14294095 0.0050355494 2.286632e-38
-0.015272072 -0.14294095 0.0050355494 2.3142544e-38
-0.013441529 -0.14294095 0.0050355494 2.3418045e-38
-0.011682307 -0.1421036 0.0080486834 2.268083e-38
-0.0098570473 -0.1421036 0.0080486834 2.3509507e-38
-0.0080317892 -0.1421036 0.0080486834 2.3509144e-38
-0.0061193593 -0.14294095 0.0050355494 2.3509869e-38
-0.0042888168 -0.14294095 0.0050355494 2.3234362e-38
-0.0024582762 -0.14294095 0.0050355494 2.2865937e-38
-0.0006277319 -0.14294095 0.0050355494 2.3509863e-38
0.0010945071 -0.1421036 0.0080486834 2.3326175e-38
0.0029197652 -0.1421036 0.0080486834 2.2865556e-38
0.0047450271 -0.1421036 0.0080486834 2.350987e-38
0.0065702852 -0.1421036 0.0080486834 2.3508077e-38
0.0083955433 -0.1421036 0.0080486834 2.3509866e-38
0.010220805 -0.1421036 0.0080486834 2.3509511e-38
0.012046063 -0.1421036 0.0080486834 2.3414456e-38
0.013871321 -0.1421036 0.0080486834 2.3507732e-38
0.015696583 -0.1421036 0.0080486834 2.3509511e-38
0.017521841 -0.1421036 0.0080486834 2.3509863e-38
0.0193471 -0.1421036 0.0080486834 2.3508423e-38
0.021172358 -0.1421036 0.0080486834 2.3509866e-38
0.02299762 -0.1421036 0.0080486834 2.3508793e-38
0.024822878 -0.1421036 0.0080486834 2.3508432e-38
0.026466923 -0.14127107 0.011044413 2.3509517e-38
0.028286936 -0.14127107 0.011044413 2.3509873e-38
0.030106941 -0.14127107 0.011044413 2.3509517e-38
0.031926945 -0.14127107 0.011044413 2.3231846e-38
0.03374695 -0.14127107 0.011044413 2.3415881e-38
0.035566956 -0.14127107 0.011044413 2.3509873e-38
0.037107736 -0.14017828 0.01497665 2.3509517e-38
0.03892085 -0.14017828 0.01497665 2.2955259e-38
0.040733963 -0.14017828 0.01497665 2.3509517e-38
0.042547069 -0.14017828 0.01497665 2.3509873e-38
0.044360183 -0.14017828 0.01497665 2.3323685e-38
0.046173297 -0.14017828 0.01497665 2.3509873e-38
0.047736809 -0.13932751 0.018038064 2.3509517e-38
0.049544558 -0.13932751 0.018038064 2.2679388e-38
0.051352307 -0.13932751 0.018038064 2.3141444e-38
0.053160056 -0.13932751 0.018038064 2.2312399e-38
0.054707602 -0.13851084 0.020976692 2.3509866e-38
0.056510195 -0.13851084 0.020976692 2.3326195e-38
-0.08743459 -0.14924543 -0.010962456 1.4104122e-38
-0.085575998 -0.14924543 -0.010962456 1.078364e-38
-0.083717406 -0.14924543 -0.010962456 6.7263111e-39
-0.053979933 -0.14924543 -0.010962456 9.1907243e-40
-0.052121341 -0.14924543 -0.010962456 5.2493565e-39
-0.050223358 -0.14840777 -0.0079670846 8.287841e-39
-0.048336074 -0.14757483 -0.0049886405 1.4646807e-38
-0.046487957 -0.14757483 -0.0049886405 1.4276939e-38
-0.044639841 -0.14757483 -0.0049886405 7.8232447e-39
-0.042766839 -0.14644094 -0.00093409419 9.9448344e-39
-0.040925831 -0.14644094 -0.00093409419 1.8060578e-38
-0.039084822 -0.14644094 -0.00093409419 1.9077259e-38
-0.037243813 -0.14644094 -0.00093409419 2.1567627e-38
-0.035402805 -0.14644094 -0.00093409419 2.0738232e-38
-0.033561796 -0.14644094 -0.00093409419 1.9171987e-38
-0.031720787 -0.14644094 -0.00093409419 1.2717937e-38
-0.029879775 -0.14644094 -0.00093409419 1.4377458e-38
-0.028038766 -0.14644094 -0.00093409419 1.3732092e-38
-0.026197758 -0.14644094 -0.00093409419 5.2515327e-39
-0.024356749 -0.14644094 -0.00093409419 8.4798175e-39
-0.02251574 -0.14644094 -0.00093409419 1.8530583e-38
-0.020718534 -0.14561899 0.0020050108 2.056033e-38
-0.018933155 -0.1447715 0.0050355494 2.2681193e-38
-0.017102614 -0.1447715 0.0050355494 2.3418045e-38
-0.015272072 -0.1447715 0.0050355494 2.3418043e-38
-0.013441529 -0.1447715 0.0050355494 2.2403527e-38
-0.011610987 -0.1447715 0.0050355494 1.7239125e-38
-0.0098570473 -0.14392884 0.0080486834 1.9635123e-38
-0.0080317892 -0.14392884 0.0080486834 2.2770129e-38
-0.0061193593 -0.1447715 0.0050355494 2.1110605e-38
-0.0042888168 -0.1447715 0.0050355494 1.9267055e-38
-0.0024582762 -0.1447715 0.0050355494 1.963584e-38
-0.00073075108 -0.14392884 0.0080486834 1.9635838e-38
0.0010945071 -0.14392884 0.0080486834 1.8715311e-38
0.0029197652 -0.14392884 0.0080486834 1.8346531e-38
0.0046268459 -0.14309107 0.011044413 1.797597e-38
0.0064468514 -0.14309107 0.011044413 1.8343679e-38
0.0082668569 -0.14309107 0.011044413 1.8528422e-38
0.010220805 -0.14392884 0.0080486834 2.0371619e-38
0.012046063 -0.14392884 0.0080486834 1.9263843e-38
0.013871321 -0.14392884 0.0080486834 1.8802146e-38
0.015696583 -0.14392884 0.0080486834 1.7973088e-38
0.017521841 -0.14392884 0.0080486834 1.640647e-38
0.0193471 -0.14392884 0.0080486834 1.8987947e-38
0.021172358 -0.14392884 0.0080486834 2.2030766e-38
0.02299762 -0.14392884 0.0080486834 2.1386124e-38
0.024822878 -0.14392884 0.0080486834 2.0833313e-38
0.026466923 -0.14309107 0.011044413 2.0925509e-38
0.028286936 -0.14309107 0.011044413 2.0464531e-38
0.030106941 -0.14309107 0.011044413 1.7790857e-38
0.031926945 -0.14309107 0.011044413 1.5854749e-38
0.03374695 -0.14309107 0.011044413 1.8251835e-38
0.035294622 -0.14199139 0.01497665 2.2492834e-38
0.037107736 -0.14199139 0.01497665 1.815964e-38
0.03892085 -0.14199139 0.01497665 1.2351315e-38
0.040733963 -0.14199139 0.01497665 1.456401e-38
0.042313576 -0.14113526 0.018038064 2.0649278e-38
0.044121325 -0.14113526 0.018038064 1.9726603e-38
0.045929067 -0.14113526 0.018038064 1.6961453e-38
0.047497228 -0.14031343 0.020976692 1.8435864e-38
0.049299821 -0.14031343 0.020976692 2.0280847e-38
0.051102415 -0.14031343 0.020976692 1.9268483e-38
0.052905008 -0.14031343 0.020976692 2.0282635e-38
0.054707602 -0.14031343 0.020976692 2.3509853e-38
-0.048336074 -0.14942293 -0.0049886405 1.4281996e-38
-0.046487957 -0.14942293 -0.0049886405 1.1976022e-38
-0.044639841 -0.14942293 -0.0049886405 8.1949195e-39
-0.042766839 -0.14828195 -0.00093409419 9.8544409e-39
-0.040925831 -0.14828195 -0.00093409419 1.4834087e-38
-0.039084822 -0.14828195 -0.00093409419 1.7969101e-38
-0.037241235 -0.14745484 0.0020050108 1.9075086e-38
-0.035405379 -0.14745484 0.0020050108 2.0733162e-38
-0.033569522 -0.14745484 0.0020050108 1.5017033e-38
-0.031733669 -0.14745484 0.0020050108 9.0254103e-39
-0.029879775 -0.14828195 -0.00093409419 9.8562556e-39
-0.028038766 -0.14828195 -0.00093409419 1.3545165e-38
-0.026197758 -0.14828195 -0.00093409419 5.3419123e-39
-0.024356749 -0.14828195 -0.00093409419 7.7422273e-39
-0.02251574 -0.14828195 -0.00093409419 1.7147261e-38
-0.02067473 -0.14828195 -0.00093409419 1.7885549e-38
-0.018933155 -0.14660202 0.0050355494 2.2771921e-38
-0.017102614 -0.14660202 0.0050355494 2.3324387e-38
-0.015272072 -0.14660202 0.0050355494 2.3509863e-38
-0.013441529 -0.14660202 0.0050355494 2.3509143e-38
-0.011610987 -0.14660202 0.0050355494 1.5206847e-38
-0.0097804442 -0.14660202 0.0050355494 1.5667812e-38
-0.0079499017 -0.14660202 0.0050355494 1.7602116e-38
-0.0061193593 -0.14660202 0.0050355494 2.0180357e-38
-0.0042888168 -0.14660202 0.0050355494 1.7967305e-38
-0.0025560092 -0.14575411 0.0080486834 1.6585818e-38
-0.00073075108 -0.14575411 0.0080486834 1.5665668e-38
0.0010945071 -0.14575411 0.0080486834 1.4284894e-38
0.0029197652 -0.14575411 0.0080486834 1.447037e-38
0.0046268459 -0.14491107 0.011044413 1.4930998e-38
0.0064468514 -0.14491107 0.011044413 1.382465e-38
0.0082668569 -0.14491107 0.011044413 1.4653322e-38
0.010086866 -0.14491107 0.011044413 1.3915393e-38
0.012046063 -0.14575411 0.0080486834 1.4282736e-38
0.013871321 -0.14575411 0.0080486834 1.4743348e-38
0.015696583 -0.14575411 0.0080486834 1.5019205e-38
