# .PCD v0.7 - Point Cloud Data file format
VERSION 0.7
FIELDS x y z rgb
SIZE 4 4 4 4
TYPE F F F F
COUNT 1 1 1 1
WIDTH 934
HEIGHT 1
VIEWPOINT 0 0 0 1 0 0 0
POINTS 934
DATA ascii
-0.014573077 -0.1283439 -0.011756876 2.3501171e-38
-0.012679305 -0.1283439 -0.011756876 2.3503693e-38
-0.010785533 -0.1283439 -0.011756876 2.3505135e-38
-0.0088917594 -0.1283439 -0.011756876 2.3508746e-38
-0.0070688762 -0.12757985 -0.0087619815 1.7693586e-38
-0.0053602215 -0.12577499 -0.0016871486 1.9168364e-38
-0.0035639852 -0.12502514 0.0012521949 2.073641e-38
-0.0016930234 -0.12502514 0.0012521949 1.6865262e-38
0.00017794035 -0.12502514 0.0012521949 1.4101554e-38
0.0020489041 -0.12502514 0.0012521949 1.5303348e-38
0.0039198678 -0.12502514 0.0012521949 1.7888074e-38
0.0057908315 -0.12502514 0.0012521949 1.2082997e-38
0.0076617952 -0.12502514 0.0012521949 3.7864696e-39
0.0096487124 -0.12577499 -0.0016871486 2.7712303e-39
0.011524832 -0.12577499 -0.0016871486 9.0380009e-39
0.013400948 -0.12577499 -0.0016871486 1.7146879e-38
0.015593382 -0.12757985 -0.0087619815 2.3508004e-38
0.017481903 -0.12757985 -0.0087619815 2.3506909e-38
0.019370424 -0.12757985 -0.0087619815 2.3502944e-38
0.021258945 -0.12757985 -0.0087619815 2.3505467e-38
0.022940299 -0.12655805 -0.0047566686 2.3506188e-38
0.024821797 -0.12655805 -0.0047566686 2.3507274e-38
0.026924508 -0.12757985 -0.0087619815 2.1109831e-38
0.028813029 -0.12757985 -0.0087619815 2.1291346e-38
0.051475294 -0.12757985 -0.0087619815 9.3099495e-39
0.052242346 -0.12399365 0.0052955355 1.1999823e-39
0.053860627 -0.12322514 0.0083079543 1.7571288e-39
0.055469744 -0.12246101 0.011303326 2.1672099e-38
0.057323091 -0.12246101 0.011303326 2.2498978e-38
0.059176423 -0.12246101 0.011303326 2.2405347e-38
0.061029769 -0.12246101 0.011303326 2.1298281e-38
0.062883101 -0.12246101 0.011303326 1.5304486e-38
-0.052630931 -0.13278268 -0.021664957 2.0651105e-38
-0.05071979 -0.13278268 -0.021664957 2.3416597e-38
-0.048808642 -0.13278268 -0.021664957 2.3509863e-38
-0.046897501 -0.13278268 -0.021664957 2.3509859e-38
-0.044986352 -0.13278268 -0.021664957 2.3324387e-38
-0.043075211 -0.13278268 -0.021664957 2.3231121e-38
-0.041140929 -0.13202934 -0.01873205 1.4379611e-38
-0.039234921 -0.13202934 -0.01873205 9.3995766e-39
-0.037315622 -0.1312501 -0.015698412 1.6221323e-38
-0.035414942 -0.1312501 -0.015698412 1.7694306e-38
-0.033510804 -0.13023765 -0.011756876 1.538833e-38
-0.031617031 -0.13023765 -0.011756876 1.2806114e-38
-0.029723257 -0.13023765 -0.011756876 2.3503316e-38
-0.027829485 -0.13023765 -0.011756876 2.2855423e-38
-0.025935711 -0.13023765 -0.011756876 2.1103702e-38
-0.02404194 -0.13023765 -0.011756876 1.557232e-38
-0.022148166 -0.13023765 -0.011756876 1.501879e-38
-0.020254396 -0.13023765 -0.011756876 1.4926596e-38
-0.018360622 -0.13023765 -0.011756876 1.7415881e-38
-0.01646685 -0.13023765 -0.011756876 2.2118224e-38
-0.014622962 -0.1294684 -0.0087619815 2.3504762e-38
-0.012734441 -0.1294684 -0.0087619815 2.3508365e-38
-0.01084592 -0.1294684 -0.0087619815 2.3506567e-38
-0.0088917594 -0.13023765 -0.011756876 2.2120027e-38
-0.0070688762 -0.1294684 -0.0087619815 8.75274e-39
-0.005434949 -0.1268961 0.0012521949 1.0136392e-38
-0.0037557371 -0.12508373 0.0083079543 1.2994102e-38
-0.0018971451 -0.12508373 0.0083079543 1.1056926e-38
0.00017794035 -0.1268961 0.0012521949 1.5575602e-38
0.0020489041 -0.1268961 0.0012521949 1.6316415e-38
0.0039198678 -0.1268961 0.0012521949 1.7241623e-38
0.0057908315 -0.1268961 0.0012521949 1.134435e-38
0.0076617952 -0.1268961 0.0012521949 2.955267e-39
0.0096487124 -0.12765111 -0.0016871486 2.9549027e-39
0.011524832 -0.12765111 -0.0016871486 1.5951954e-38
0.013400948 -0.12765111 -0.0016871486 1.9267379e-38
0.015277063 -0.12765111 -0.0016871486 2.3508364e-38
0.017481903 -0.1294684 -0.0087619815 2.3506195e-38
0.019370424 -0.1294684 -0.0087619815 2.3504747e-38
0.0210588 -0.12843956 -0.0047566686 2.3508709e-38
0.02278153 -0.12765111 -0.0016871486 2.3508354e-38
0.02465765 -0.12765111 -0.0016871486 2.3508358e-38
0.026533766 -0.12765111 -0.0016871486 2.1939236e-38
0.028409882 -0.12765111 -0.0016871486 2.1751968e-38
0.030113349 -0.1268961 0.0012521949 1.7234749e-38
0.031984314 -0.1268961 0.0012521949 1.4747999e-38
0.049586765 -0.1294684 -0.0087619815 1.4376734e-38
0.051475294 -0.1294684 -0.0087619815 1.2167646e-38
0.05200202 -0.12508373 0.0083079543 4.057321e-39
0.053860627 -0.12508373 0.0083079543 3.6006728e-39
0.055719219 -0.12508373 0.0083079543 2.2499695e-38
0.057577811 -0.12508373 0.0083079543 2.2958873e-38
0.059436403 -0.12508373 0.0083079543 2.2773408e-38
0.061294995 -0.12508373 0.0083079543 2.2128039e-38
0.063153587 -0.12508373 0.0083079543 1.5950211e-38
0.065012179 -0.12508373 0.0083079543 1.0878733e-38
0.066870771 -0.12508373 0.0083079543 6.3611467e-39
-0.05454208 -0.13469382 -0.021664957 2.3142544e-38
-0.052630931 -0.13469382 -0.021664957 2.341805e-38
-0.05071979 -0.13469382 -0.021664957 2.3048893e-38
-0.048808642 -0.13469382 -0.021664957 2.3324745e-38
-0.046897501 -0.13469382 -0.021664957 2.3508046e-38
-0.044986352 -0.13469382 -0.021664957 2.3509483e-38
-0.043075211 -0.13469382 -0.021664957 2.350913e-38
-0.041140929 -0.13393532 -0.01873205 1.5021723e-38
-0.03921631 -0.13315077 -0.015698412 1.1150566e-38
-0.037298344 -0.13213144 -0.011756876 1.9079388e-38
-0.035404574 -0.13213144 -0.011756876 1.9632578e-38
-0.033510804 -0.13213144 -0.011756876 1.3916083e-38
-0.031617031 -0.13213144 -0.011756876 1.3822423e-38
-0.029723257 -0.13213144 -0.011756876 2.3503315e-38
-0.027829485 -0.13213144 -0.011756876 2.3505113e-38
-0.02595409 -0.13135691 -0.0087619815 2.3509795e-38
-0.024065569 -0.13135691 -0.0087619815 2.3503674e-38
-0.022177048 -0.13135691 -0.0087619815 2.3507637e-38
-0.020288527 -0.13135691 -0.0087619815 2.3508721e-38
-0.018400006 -0.13135691 -0.0087619815 2.3505483e-38
-0.016511483 -0.13135691 -0.0087619815 2.2949069e-38
-0.014689676 -0.13032107 -0.0047566686 2.3134179e-38
-0.012808179 -0.13032107 -0.0047566686 2.3506202e-38
-0.010926681 -0.13032107 -0.0047566686 2.3506922e-38
-0.0089573972 -0.13135691 -0.0087619815 2.0094242e-38
-0.007163683 -0.13032107 -0.0047566686 5.3436779e-39
-0.005434949 -0.12876706 0.0012521949 5.3443954e-39
-0.0037557371 -0.12694232 0.0083079543 4.6983183e-39
-0.0018971451 -0.12694232 0.0083079543 1.0871812e-38
5.3877011e-05 -0.12772138 0.0052955355 2.1198093e-38
0.0020489041 -0.12876706 0.0012521949 2.1385736e-38
0.0039198678 -0.12876706 0.0012521949 2.0282636e-38
0.0056455005 -0.12772138 0.0052955355 1.3094627e-38
0.0075093713 -0.12772138 0.0052955355 2.6772396e-39
0.0095327552 -0.12876706 0.0012521949 2.3080913e-39
0.011403719 -0.12876706 0.0012521949 1.9085887e-38
0.013274683 -0.12876706 0.0012521949 2.3047401e-38
0.015145646 -0.12876706 0.0012521949 2.3509814e-38
0.017153183 -0.12952723 -0.0016871486 2.35044e-38
0.019029299 -0.12952723 -0.0016871486 2.3134531e-38
0.020556489 -0.12772138 0.0052955355 2.3505477e-38
0.022420364 -0.12772138 0.0052955355 2.3507281e-38
0.024500461 -0.12876706 0.0012521949 2.350981e-38
0.026371425 -0.12876706 0.0012521949 2.3507649e-38
0.028242389 -0.12876706 0.0012521949 2.2766486e-38
0.030113349 -0.12876706 0.0012521949 1.7787926e-38
0.031984314 -0.12876706 0.0012521949 1.5577763e-38
0.033603609 -0.12772138 0.0052955355 1.5856522e-38
0.035467483 -0.12772138 0.0052955355 1.2170513e-38
0.037597202 -0.12876706 0.0012521949 5.163293e-39
0.039468169 -0.12876706 0.0012521949 5.3466052e-39
0.041059099 -0.12772138 0.0052955355 6.1745638e-39
0.04270906 -0.12694232 0.0083079543 6.0794829e-39
0.044567652 -0.12694232 0.0083079543 8.5676803e-39
0.046426244 -0.12694232 0.0083079543 1.2624288e-38
0.048822984 -0.12876706 0.0012521949 1.5483434e-38
0.050693952 -0.12876706 0.0012521949 1.1430075e-38
0.05200202 -0.12694232 0.0083079543 4.5186509e-39
0.053860627 -0.12694232 0.0083079543 8.1175314e-39
0.055719219 -0.12694232 0.0083079543 2.2316024e-38
0.057577811 -0.12694232 0.0083079543 2.286632e-38
0.059436403 -0.12694232 0.0083079543 2.3234379e-38
0.061294995 -0.12694232 0.0083079543 2.2864882e-38
0.063153587 -0.12694232 0.0083079543 1.2723363e-38
0.065012179 -0.12694232 0.0083079543 8.1128623e-39
0.066870771 -0.12694232 0.0083079543 6.1767541e-39
-0.056695424 -0.1394823 -0.032715894 2.2867037e-38
-0.05454208 -0.13660498 -0.021664957 2.2958873e-38
-0.052630931 -0.13660498 -0.021664957 2.3049632e-38
-0.05071979 -0.13660498 -0.021664957 2.3509524e-38
-0.048808642 -0.13660498 -0.021664957 2.3509507e-38
-0.046897501 -0.13660498 -0.021664957 2.350913e-38
-0.044986352 -0.13660498 -0.021664957 2.3506244e-38
-0.043075211 -0.13660498 -0.021664957 2.3508047e-38
-0.041085891 -0.1340252 -0.011756876 1.6863474e-38
-0.039192118 -0.1340252 -0.011756876 1.3269635e-38
-0.037298344 -0.1340252 -0.011756876 1.7696467e-38
-0.035404574 -0.1340252 -0.011756876 2.1108807e-38
-0.033510804 -0.1340252 -0.011756876 1.8619878e-38
-0.031617031 -0.1340252 -0.011756876 1.4930937e-38
-0.029723257 -0.1340252 -0.011756876 2.1936359e-38
-0.027842613 -0.13324542 -0.0087619815 2.3509821e-38
-0.02595409 -0.13324542 -0.0087619815 2.3509113e-38
-0.024065569 -0.13324542 -0.0087619815 2.3507328e-38
-0.022177048 -0.13324542 -0.0087619815 2.3506251e-38
-0.020288527 -0.13324542 -0.0087619815 2.3508409e-38
-0.018400006 -0.13324542 -0.0087619815 2.1658367e-38
-0.016511483 -0.13324542 -0.0087619815 1.6127697e-38
-0.014689676 -0.13220255 -0.0047566686 1.8065233e-38
-0.012808179 -0.13220255 -0.0047566686 2.3505848e-38
-0.010926681 -0.13220255 -0.0047566686 2.3508368e-38
-0.0089573972 -0.13324542 -0.0087619815 1.659298e-38
-0.0074016172 -0.12958528 0.0052955355 4.0551111e-39
-0.0055377446 -0.12958528 0.0052955355 7.0975697e-39
-0.0037557371 -0.12880091 0.0083079543 7.0961306e-39
-0.0018971451 -0.12880091 0.0083079543 9.3048572e-39
-3.8554892e-05 -0.12880091 0.0083079543 1.8892124e-38
0.0019177515 -0.12958528 0.0052955355 1.9356351e-38
0.003781626 -0.12958528 0.0052955355 1.8345088e-38
0.0056455005 -0.12958528 0.0052955355 9.4968365e-39
0.0075093713 -0.12958528 0.0052955355 1.2925129e-39
0.0095327552 -0.13063805 0.0012521949 5.8097274e-39
0.011403719 -0.13063805 0.0012521949 2.3233611e-38
0.013274683 -0.13063805 0.0012521949 2.3508746e-38
0.015145646 -0.13063805 0.0012521949 2.3506936e-38
0.01701661 -0.13063805 0.0012521949 2.2121116e-38
0.018887574 -0.13063805 0.0012521949 2.1752687e-38
0.020405961 -0.12880091 0.0083079543 2.2490975e-38
0.022264553 -0.12880091 0.0083079543 2.2953036e-38
0.024123145 -0.12880091 0.0083079543 2.3508378e-38
0.026148112 -0.12958528 0.0052955355 2.3508738e-38
0.028011987 -0.12958528 0.0052955355 2.3508019e-38
0.029875861 -0.12958528 0.0052955355 1.6590108e-38
0.031739734 -0.12958528 0.0052955355 1.4379585e-38
0.033603609 -0.12958528 0.0052955355 1.5487742e-38
0.035467483 -0.12958528 0.0052955355 1.1893926e-38
0.037597202 -0.13063805 0.0012521949 5.1632902e-39
0.039468169 -0.13063805 0.0012521949 5.4391568e-39
0.041059099 -0.12958528 0.0052955355 6.2674755e-39
0.04270906 -0.12880091 0.0083079543 7.0947111e-39
0.044567652 -0.12880091 0.0083079543 1.0412309e-38
0.046426244 -0.12880091 0.0083079543 1.354696e-38
0.048514597 -0.12958528 0.0052955355 1.4378163e-38
0.050378472 -0.12958528 0.0052955355 1.0692864e-38
0.05200202 -0.12880091 0.0083079543 8.9436767e-39
0.053860627 -0.12880091 0.0083079543 1.7521477e-38
0.055719219 -0.12880091 0.0083079543 2.2867034e-38
0.057833977 -0.12958528 0.0052955355 2.2774479e-38
0.059697844 -0.12958528 0.0052955355 2.341805e-38
0.061561711 -0.12958528 0.0052955355 2.3417691e-38
0.063425593 -0.12958528 0.0052955355 9.4961527e-39
0.06528946 -0.12958528 0.0052955355 5.5310217e-39
0.067153342 -0.12958528 0.0052955355 6.4529808e-39
0.068443127 -0.12802102 0.011303326 6.5440975e-39
-0.070344985 -0.14245488 -0.036691286 1.1524769e-38
-0.068407498 -0.14245488 -0.036691286 2.0561381e-38
-0.066348024 -0.14141284 -0.032715894 2.2498585e-38
-0.064417504 -0.14141284 -0.032715894 2.3142534e-38
-0.062486984 -0.14141284 -0.032715894 2.277376e-38
-0.060556464 -0.14141284 -0.032715894 2.2312784e-38
-0.058625944 -0.14141284 -0.032715894 2.2958151e-38
-0.056695424 -0.14141284 -0.032715894 2.3234379e-38
-0.054623023 -0.13956837 -0.025679329 2.3416974e-38
-0.052630931 -0.13851611 -0.021664957 1.7422827e-38
-0.05071979 -0.13851611 -0.021664957 1.7605395e-38
-0.048764937 -0.13774733 -0.01873205 2.3504458e-38
-0.046858929 -0.13774733 -0.01873205 2.3508762e-38
-0.044986352 -0.13851611 -0.021664957 2.0088512e-38
-0.043075211 -0.13851611 -0.021664957 2.2209011e-38
-0.041085891 -0.13591899 -0.011756876 2.3223883e-38
-0.039192118 -0.13591899 -0.011756876 2.2489195e-38
-0.037285216 -0.13513394 -0.0087619815 1.9265236e-38
-0.035396695 -0.13513394 -0.0087619815 2.2861969e-38
-0.033510804 -0.13591899 -0.011756876 2.3415498e-38
-0.031617031 -0.13591899 -0.011756876 1.815708e-38
-0.029723257 -0.13591899 -0.011756876 1.6864897e-38
-0.027842613 -0.13513394 -0.0087619815 1.8707386e-38
-0.02595409 -0.13513394 -0.0087619815 1.9075108e-38
-0.024065569 -0.13513394 -0.0087619815 1.6677676e-38
-0.022177048 -0.13513394 -0.0087619815 1.2989496e-38
-0.020288527 -0.13513394 -0.0087619815 1.3911451e-38
-0.018400006 -0.13513394 -0.0087619815 1.2621062e-38
-0.016511483 -0.13513394 -0.0087619815 1.1885281e-38
-0.014689676 -0.13408406 -0.0047566686 1.2440602e-38
-0.012808179 -0.13408406 -0.0047566686 1.778866e-38
-0.010926681 -0.13408406 -0.0047566686 1.9265585e-38
-0.0090451818 -0.13408406 -0.0047566686 1.4102998e-38
-0.0074016172 -0.13144915 0.0052955355 6.1752617e-39
-0.0055377446 -0.13144915 0.0052955355 7.1890619e-39
-0.0037557371 -0.13065951 0.0083079543 5.435903e-39
-0.0018971451 -0.13065951 0.0083079543 1.0410854e-38
-3.8554892e-05 -0.13065951 0.0083079543 2.0459452e-38
0.0019177515 -0.13144915 0.0052955355 1.9171243e-38
0.003781626 -0.13144915 0.0052955355 1.7330218e-38
0.0056455005 -0.13144915 0.0052955355 1.1063442e-38
0.0075093713 -0.13144915 0.0052955355 1.4765426e-39
0.0093732458 -0.13144915 0.0052955355 5.5324244e-39
0.01123712 -0.13144915 0.0052955355 2.3509845e-38
0.013100995 -0.13144915 0.0052955355 2.3509838e-38
0.014964869 -0.13144915 0.0052955355 2.3508027e-38
0.016828744 -0.13144915 0.0052955355 2.3505861e-38
0.018692618 -0.13144915 0.0052955355 2.35073e-38
0.020405961 -0.13065951 0.0083079543 2.3509821e-38
0.022264553 -0.13065951 0.0083079543 2.3509828e-38
0.024123145 -0.13065951 0.0083079543 2.3509837e-38
0.026148112 -0.13144915 0.0052955355 2.3509837e-38
0.028011987 -0.13144915 0.0052955355 2.3136725e-38
0.029875861 -0.13144915 0.0052955355 1.6959621e-38
0.031557508 -0.13065951 0.0083079543 1.6316421e-38
0.0334161 -0.13065951 0.0083079543 1.5304075e-38
0.035274692 -0.13065951 0.0083079543 9.4972008e-39
0.037133284 -0.13065951 0.0083079543 4.0576643e-39
0.038991876 -0.13065951 0.0083079543 5.0710974e-39
0.040643021 -0.12987436 0.011303326 5.5306308e-39
0.042284861 -0.12909363 0.01428177 6.2663895e-39
0.044132978 -0.12909363 0.01428177 9.3995962e-39
0.045981102 -0.12909363 0.01428177 1.1335704e-38
0.047829218 -0.12909363 0.01428177 1.124423e-38
0.049677335 -0.12909363 0.01428177 8.4812483e-39
0.051763065 -0.12987436 0.011303326 1.3738205e-38
0.053860627 -0.13065951 0.0083079543 2.295886e-38
0.055719219 -0.13065951 0.0083079543 2.2591519e-38
0.057833977 -0.13144915 0.0052955355 2.2958507e-38
0.059697844 -0.13144915 0.0052955355 2.3509886e-38
0.061561711 -0.13144915 0.0052955355 2.2587929e-38
0.063425593 -0.13144915 0.0052955355 6.9146722e-39
0.064736448 -0.12987436 0.011303326 3.7793048e-39
0.066589795 -0.12987436 0.011303326 5.8998042e-39
0.068443127 -0.12987436 0.011303326 6.5440975e-39
-0.077768527 -0.14230187 -0.028769115 1.9913118e-38
-0.072282478 -0.14439236 -0.036691286 1.419593e-38
-0.070344985 -0.14439236 -0.036691286 1.1340379e-38
-0.068278544 -0.14334334 -0.032715894 2.185177e-38
-0.066348024 -0.14334334 -0.032715894 2.2682985e-38
-0.064417504 -0.14334334 -0.032715894 2.3142534e-38
-0.062486984 -0.14334334 -0.032715894 2.341804e-38
-0.060556464 -0.14334334 -0.032715894 2.3509873e-38
-0.058625944 -0.14334334 -0.032715894 2.3324756e-38
-0.056541204 -0.14148657 -0.025679329 2.3506989e-38
-0.05454208 -0.14042725 -0.021664957 2.2766909e-38
-0.052630931 -0.14042725 -0.021664957 1.5666395e-38
-0.050554752 -0.13781275 -0.011756876 1.6401424e-38
-0.048660979 -0.13781275 -0.011756876 2.3501191e-38
-0.046767205 -0.13781275 -0.011756876 2.35073e-38
-0.044952929 -0.13965334 -0.01873205 1.6584336e-38
-0.042979665 -0.13781275 -0.011756876 1.4557475e-38
-0.041085891 -0.13781275 -0.011756876 1.7970156e-38
-0.039192118 -0.13781275 -0.011756876 2.1292083e-38
-0.037285216 -0.13702248 -0.0087619815 1.8159959e-38
-0.035396695 -0.13702248 -0.0087619815 2.3509845e-38
-0.033510804 -0.13781275 -0.011756876 2.3414777e-38
-0.031619653 -0.13702248 -0.0087619815 2.3501209e-38
-0.029731134 -0.13702248 -0.0087619815 1.7136833e-38
-0.027842613 -0.13702248 -0.0087619815 1.5107099e-38
-0.02595409 -0.13702248 -0.0087619815 1.5936508e-38
-0.024065569 -0.13702248 -0.0087619815 1.6212744e-38
-0.022177048 -0.13702248 -0.0087619815 1.3999695e-38
-0.020288527 -0.13702248 -0.0087619815 1.1602608e-38
-0.018400006 -0.13702248 -0.0087619815 1.1419296e-38
-0.016511483 -0.13702248 -0.0087619815 1.1327815e-38
-0.014622962 -0.13702248 -0.0087619815 1.2619986e-38
-0.012734441 -0.13702248 -0.0087619815 1.621633e-38
-0.01084592 -0.13702248 -0.0087619815 1.5941538e-38
-0.0092654917 -0.13331302 0.0052955355 1.1149161e-38
-0.0074016172 -0.13331302 0.0052955355 6.3560642e-39
-0.0055377446 -0.13331302 0.0052955355 6.7248467e-39
-0.0037557371 -0.1325181 0.0083079543 8.8449819e-39
-0.0018971451 -0.1325181 0.0083079543 9.488901e-39
-3.8554892e-05 -0.1325181 0.0083079543 2.0921159e-38
0.0018200371 -0.1325181 0.0083079543 1.9448195e-38
0.0035762172 -0.13172771 0.011303326 1.8528408e-38
0.0054295603 -0.13172771 0.011303326 1.6226043e-38
0.0073958132 -0.1325181 0.0083079543 4.3335295e-39
0.0092544053 -0.1325181 0.0083079543 5.3483975e-39
0.01123712 -0.13331302 0.0052955355 2.2865203e-38
0.013100995 -0.13331302 0.0052955355 2.3509848e-38
0.014964869 -0.13331302 0.0052955355 2.3509841e-38
0.016828744 -0.13331302 0.0052955355 2.3509841e-38
0.018692618 -0.13331302 0.0052955355 2.3509838e-38
0.020405961 -0.1325181 0.0083079543 2.3509838e-38
0.022264553 -0.1325181 0.0083079543 2.3417286e-38
0.024123145 -0.1325181 0.0083079543 2.2681162e-38
0.025981737 -0.1325181 0.0083079543 2.2404575e-38
0.027840329 -0.1325181 0.0083079543 2.2216941e-38
0.029698921 -0.1325181 0.0083079543 1.6961434e-38
0.031557508 -0.1325181 0.0083079543 1.7332023e-38
0.0334161 -0.1325181 0.0083079543 1.5028577e-38
0.035274692 -0.1325181 0.0083079543 8.6678059e-39
0.037133284 -0.1325181 0.0083079543 4.7044756e-39
0.038991876 -0.1325181 0.0083079543 6.7317005e-39
0.040643021 -0.13172771 0.011303326 6.3618334e-39
0.042284861 -0.13094176 0.01428177 4.4246405e-39
0.044132978 -0.13094176 0.01428177 8.9407817e-39
0.045981102 -0.13094176 0.01428177 1.1153474e-38
0.047829218 -0.13094176 0.01428177 9.8634568e-39
0.049677335 -0.13094176 0.01428177 5.6235439e-39
0.051763065 -0.13172771 0.011303326 1.5859421e-38
0.053616412 -0.13172771 0.011303326 2.2958857e-38
0.055719219 -0.1325181 0.0083079543 2.2958863e-38
0.057577811 -0.1325181 0.0083079543 2.3418045e-38
0.059436403 -0.1325181 0.0083079543 2.3509883e-38
0.061294995 -0.1325181 0.0083079543 2.314074e-38
0.063153587 -0.1325181 0.0083079543 5.7157661e-39
0.064736448 -0.13172771 0.011303326 2.9495413e-39
0.066589795 -0.13172771 0.011303326 5.715413e-39
0.068443127 -0.13172771 0.011303326 5.3466333e-39
-0.083722711 -0.14527388 -0.032715894 1.3646004e-38
-0.081615724 -0.14422549 -0.028769115 1.3737115e-38
-0.079692133 -0.14422549 -0.028769115 2.0467028e-38
-0.077768527 -0.14422549 -0.028769115 2.249388e-38
-0.075844921 -0.14422549 -0.028769115 2.3231442e-38
-0.07392133 -0.14422549 -0.028769115 2.1755963e-38
-0.072139591 -0.14527388 -0.032715894 1.355056e-38
-0.070209064 -0.14527388 -0.032715894 1.2353462e-38
-0.068278544 -0.14527388 -0.032715894 2.3509863e-38
-0.066348024 -0.14527388 -0.032715894 2.3142537e-38
-0.064417504 -0.14527388 -0.032715894 2.2406048e-38
-0.062486984 -0.14527388 -0.032715894 2.2220568e-38
-0.060556464 -0.14527388 -0.032715894 2.3509863e-38
-0.058625944 -0.14527388 -0.032715894 2.3509139e-38
-0.056541204 -0.14340474 -0.025679329 2.0828257e-38
-0.05454208 -0.14233841 -0.021664957 2.1009047e-38
-0.052576937 -0.14155935 -0.01873205 1.7595277e-38
-0.050554752 -0.13970654 -0.011756876 1.7132487e-38
-0.048660979 -0.13970654 -0.011756876 1.9622476e-38
-0.046767205 -0.13970654 -0.011756876 1.8057663e-38
-0.044918358 -0.14075352 -0.015698412 1.5386145e-38
-0.042979665 -0.13970654 -0.011756876 1.4467071e-38
-0.041062262 -0.13891099 -0.0087619815 1.3454727e-38
-0.039173741 -0.13891099 -0.0087619815 1.4378492e-38
-0.037285216 -0.13891099 -0.0087619815 1.3550901e-38
-0.035396695 -0.13891099 -0.0087619815 2.3509844e-38
-0.033508174 -0.13891099 -0.0087619815 2.350877e-38
-0.031619653 -0.13891099 -0.0087619815 2.3506985e-38
-0.029731134 -0.13891099 -0.0087619815 2.3506273e-38
-0.027842613 -0.13891099 -0.0087619815 2.3502316e-38
-0.02595409 -0.13891099 -0.0087619815 2.1192748e-38
-0.024065569 -0.13891099 -0.0087619815 1.9072252e-38
-0.022177048 -0.13891099 -0.0087619815 1.9440679e-38
-0.020288527 -0.13891099 -0.0087619815 1.5199684e-38
-0.018452674 -0.13784705 -0.0047566686 1.5107132e-38
-0.016616922 -0.13703169 -0.0016871486 1.3264299e-38
-0.014740806 -0.13703169 -0.0016871486 1.2620364e-38
-0.012864688 -0.13703169 -0.0016871486 1.1883877e-38
-0.011129366 -0.13517688 0.0052955355 1.0502735e-38
-0.0092654917 -0.13517688 0.0052955355 9.397818e-39
-0.0074016172 -0.13517688 0.0052955355 8.5698496e-39
-0.0055377446 -0.13517688 0.0052955355 8.84787e-39
-0.0037557371 -0.13437669 0.0083079543 1.4378882e-38
-0.0018971451 -0.13437669 0.0083079543 1.7971989e-38
-3.8554892e-05 -0.13437669 0.0083079543 2.3505167e-38
0.0018200371 -0.13437669 0.0083079543 2.0831857e-38
0.0035762172 -0.13358103 0.011303326 1.8528774e-38
0.0054295603 -0.13358103 0.011303326 1.4197386e-38
0.0073958132 -0.13437669 0.0083079543 3.5041346e-39
0.0092544053 -0.13437669 0.0083079543 8.1139161e-39
0.011113001 -0.13437669 0.0083079543 2.3509863e-38
0.013100995 -0.13517688 0.0052955355 2.2956324e-38
0.014964869 -0.13517688 0.0052955355 2.2218394e-38
0.016828744 -0.13517688 0.0052955355 2.2955957e-38
0.018547369 -0.13437669 0.0083079543 2.3232543e-38
0.020256283 -0.13358103 0.011303326 2.2865203e-38
0.022109622 -0.13358103 0.011303326 2.3326185e-38
0.023962962 -0.13358103 0.011303326 2.3234357e-38
0.025981737 -0.13437669 0.0083079543 2.3418028e-38
0.027840329 -0.13437669 0.0083079543 2.258718e-38
0.029698921 -0.13437669 0.0083079543 1.2998834e-38
0.031557508 -0.13437669 0.0083079543 1.2262354e-38
0.0334161 -0.13437669 0.0083079543 1.3001003e-38
0.035274692 -0.13437669 0.0083079543 8.9458389e-39
0.037133284 -0.13437669 0.0083079543 5.0736225e-39
0.038991876 -0.13437669 0.0083079543 6.3636396e-39
0.040643021 -0.13358103 0.011303326 6.362918e-39
0.042284861 -0.13278987 0.01428177 7.191594e-39
0.044132978 -0.13278987 0.01428177 9.4957603e-39
0.045981102 -0.13278987 0.01428177 9.9570944e-39
0.047829218 -0.13278987 0.01428177 9.4961162e-39
0.049677335 -0.13278987 0.01428177 6.731332e-39
0.051525451 -0.13278987 0.01428177 2.1023099e-38
0.053373568 -0.13278987 0.01428177 2.2867019e-38
0.055719219 -0.13437669 0.0083079543 2.2867023e-38
0.057577811 -0.13437669 0.0083079543 2.2589e-38
0.059436403 -0.13437669 0.0083079543 2.350988e-38
0.061294995 -0.13437669 0.0083079543 2.3509883e-38
0.063153587 -0.13437669 0.0083079543 5.6235705e-39
0.065012179 -0.13437669 0.0083079543 4.0558888e-39
-0.081792183 -0.14720438 -0.032715894 1.3275767e-38
-0.079692133 -0.14614908 -0.028769115 2.0374105e-38
-0.077768527 -0.14614908 -0.028769115 2.3230014e-38
-0.075844921 -0.14614908 -0.028769115 2.2400253e-38
-0.073804855 -0.14532293 -0.025679329 2.1386099e-38
-0.071886674 -0.14532293 -0.025679329 1.4196286e-38
-0.070074126 -0.14614908 -0.028769115 1.4012634e-38
-0.068278544 -0.14720438 -0.032715894 2.3509876e-38
-0.066348024 -0.14720438 -0.032715894 2.3142544e-38
-0.064417504 -0.14720438 -0.032715894 2.3142541e-38
-0.062486984 -0.14720438 -0.032715894 2.350987e-38
-0.060556464 -0.14720438 -0.032715894 2.3508781e-38
-0.058532521 -0.14614908 -0.028769115 2.3508054e-38
-0.056541204 -0.14532293 -0.025679329 1.9992366e-38
-0.05454208 -0.14424954 -0.021664957 2.1093302e-38
-0.052576937 -0.14346536 -0.01873205 2.0537596e-38
-0.050554752 -0.1416003 -0.011756876 1.9338685e-38
-0.048660979 -0.1416003 -0.011756876 1.8788025e-38
-0.046767205 -0.1416003 -0.011756876 1.6488174e-38
-0.044918358 -0.1426542 -0.015698412 1.5663814e-38
-0.042979665 -0.1416003 -0.011756876 1.4192292e-38
-0.041062262 -0.14079951 -0.0087619815 1.6039093e-38
-0.039173741 -0.14079951 -0.0087619815 1.6962139e-38
-0.037285216 -0.14079951 -0.0087619815 1.6224222e-38
-0.035396695 -0.14079951 -0.0087619815 2.3507321e-38
-0.033508174 -0.14079951 -0.0087619815 2.3509492e-38
-0.031619653 -0.14079951 -0.0087619815 2.3508788e-38
-0.029731134 -0.14079951 -0.0087619815 2.3508797e-38
-0.027842613 -0.14079951 -0.0087619815 2.3508441e-38
-0.02595409 -0.14079951 -0.0087619815 2.3508085e-38
-0.024097171 -0.13972856 -0.0047566686 2.2765481e-38
-0.022215672 -0.13972856 -0.0047566686 2.1013769e-38
-0.020334173 -0.13972856 -0.0047566686 2.1197089e-38
-0.018493038 -0.13890781 -0.0016871486 1.8431939e-38
-0.016660728 -0.13812189 0.0012521949 1.8156431e-38
-0.014789766 -0.13812189 0.0012521949 1.5299082e-38
-0.012993239 -0.13704078 0.0052955355 1.4286367e-38
-0.011129366 -0.13704078 0.0052955355 1.2721192e-38
-0.0092654917 -0.13704078 0.0052955355 1.1616638e-38
-0.0074016172 -0.13704078 0.0052955355 1.1525875e-38
-0.0055377446 -0.13704078 0.0052955355 1.1803539e-38
-0.0036738701 -0.13704078 0.0052955355 1.5121134e-38
-0.0018099956 -0.13704078 0.0052955355 2.1202084e-38
-3.8554892e-05 -0.13623528 0.0083079543 2.3320786e-38
0.0018200371 -0.13623528 0.0083079543 1.9818795e-38
0.0036786292 -0.13623528 0.0083079543 1.8529141e-38
0.0055372212 -0.13623528 0.0083079543 1.5304458e-38
0.0073958132 -0.13623528 0.0083079543 1.0695398e-38
0.0092544053 -0.13623528 0.0083079543 1.170955e-38
0.011113001 -0.13623528 0.0083079543 2.2773386e-38
0.012971593 -0.13623528 0.0083079543 2.3326196e-38
0.014830185 -0.13623528 0.0083079543 2.3509869e-38
0.016828744 -0.13704078 0.0052955355 2.3509869e-38
0.018547369 -0.13623528 0.0083079543 2.3326195e-38
0.020256283 -0.13543437 0.011303326 2.3142524e-38
0.022109622 -0.13543437 0.011303326 2.3234367e-38
0.023962962 -0.13543437 0.011303326 2.2958863e-38
0.025816301 -0.13543437 0.011303326 2.3050697e-38
0.027840329 -0.13623528 0.0083079543 2.3509873e-38
0.029698921 -0.13623528 0.0083079543 1.3000289e-38
0.031557508 -0.13623528 0.0083079543 1.0787956e-38
0.0334161 -0.13623528 0.0083079543 1.1065985e-38
0.035274692 -0.13623528 0.0083079543 6.6416755e-39
0.037133284 -0.13623528 0.0083079543 5.5360454e-39
0.038991876 -0.13623528 0.0083079543 6.45728e-39
0.040643021 -0.13543437 0.011303326 5.0736225e-39
0.042284861 -0.134638 0.01428177 5.7186276e-39
0.044132978 -0.134638 0.01428177 1.2079044e-38
0.045981102 -0.134638 0.01428177 1.2632574e-38
0.047829218 -0.134638 0.01428177 8.0227924e-39
0.049677335 -0.134638 0.01428177 4.2434947e-39
0.051525451 -0.134638 0.01428177 1.9917473e-38
0.053373568 -0.134638 0.01428177 2.2775183e-38
0.055719219 -0.13623528 0.0083079543 2.2499676e-38
0.057577811 -0.13623528 0.0083079543 2.3234369e-38
0.059436403 -0.13623528 0.0083079543 2.3509879e-38
0.061294995 -0.13623528 0.0083079543 2.1665607e-38
0.063153587 -0.13623528 0.0083079543 5.7157661e-39
-0.083722711 -0.14913492 -0.032715894 7.8369634e-39
-0.081792183 -0.14913492 -0.032715894 1.2261968e-38
-0.079861663 -0.14913492 -0.032715894 2.1941066e-38
-0.077641219 -0.1472411 -0.025679329 2.3506607e-38
-0.07572303 -0.1472411 -0.025679329 2.1753813e-38
-0.073804855 -0.1472411 -0.025679329 1.9172685e-38
-0.071886674 -0.1472411 -0.025679329 1.2536044e-38
-0.070074126 -0.14807267 -0.028769115 1.3734614e-38
-0.068150528 -0.14807267 -0.028769115 2.314074e-38
-0.066226922 -0.14807267 -0.028769115 2.2589371e-38
-0.064303324 -0.14807267 -0.028769115 2.2865955e-38
-0.062379725 -0.14807267 -0.028769115 2.3509874e-38
-0.060456119 -0.14807267 -0.028769115 2.3320434e-38
-0.058459386 -0.1472411 -0.025679329 2.3499418e-38
-0.056453221 -0.14616071 -0.021664957 1.7589882e-38
-0.05454208 -0.14616071 -0.021664957 1.7675575e-38
-0.052521087 -0.14455487 -0.015698412 2.0439271e-38
-0.050554752 -0.14349405 -0.011756876 2.2651966e-38
-0.048660979 -0.14349405 -0.011756876 2.3488205e-38
-0.046767205 -0.14349405 -0.011756876 2.3032271e-38
-0.044873439 -0.14349405 -0.011756876 2.3223148e-38
-0.042950783 -0.14268802 -0.0087619815 2.1754499e-38
-0.041062262 -0.14268802 -0.0087619815 2.2955574e-38
-0.039149161 -0.14161004 -0.0047566686 2.3509485e-38
-0.037254207 -0.14078392 -0.0016871486 2.3509853e-38
-0.035378091 -0.14078392 -0.0016871486 2.350913e-38
-0.033504665 -0.14161004 -0.0047566686 2.3509136e-38
-0.031623166 -0.14161004 -0.0047566686 2.3509866e-38
-0.029741667 -0.14161004 -0.0047566686 2.3325483e-38
-0.027842613 -0.14268802 -0.0087619815 2.2403172e-38
-0.02595409 -0.14268802 -0.0087619815 2.3509527e-38
-0.024097171 -0.14161004 -0.0047566686 2.3508809e-38
-0.022215672 -0.14161004 -0.0047566686 2.3508451e-38
-0.020334173 -0.14161004 -0.0047566686 2.3508092e-38
-0.018493038 -0.14078392 -0.0016871486 2.3507016e-38
-0.016660728 -0.13999285 0.0012521949 2.3508451e-38
-0.014789766 -0.13999285 0.0012521949 2.323186e-38
-0.013103843 -0.13728772 0.011303326 2.350988e-38
-0.011250503 -0.13728772 0.011303326 2.2866307e-38
-0.0093971621 -0.13728772 0.011303326 2.2775192e-38
-0.0074016172 -0.13890465 0.0052955355 2.2775195e-38
-0.0055377446 -0.13890465 0.0052955355 2.2040504e-38
-0.0036738701 -0.13890465 0.0052955355 2.2958863e-38
-0.0018099956 -0.13890465 0.0052955355 2.3231841e-38
-3.8554892e-05 -0.13809387 0.0083079543 2.3509504e-38
0.0018200371 -0.13809387 0.0083079543 2.3414794e-38
0.0036786292 -0.13809387 0.0083079543 2.350987e-38
0.0055372212 -0.13809387 0.0083079543 2.3509876e-38
0.0073958132 -0.13809387 0.0083079543 2.3509879e-38
0.0092544053 -0.13809387 0.0083079543 2.2772672e-38
0.011113001 -0.13809387 0.0083079543 2.3418043e-38
0.012971593 -0.13809387 0.0083079543 2.3234369e-38
0.014830185 -0.13809387 0.0083079543 2.3142174e-38
0.016828744 -0.13890465 0.0052955355 2.3326206e-38
0.018547369 -0.13809387 0.0083079543 2.3418043e-38
0.020256283 -0.13728772 0.011303326 2.3234374e-38
0.022109622 -0.13728772 0.011303326 2.2958864e-38
0.023962962 -0.13728772 0.011303326 2.2775196e-38
0.025816301 -0.13728772 0.011303326 2.2958873e-38
0.027840329 -0.13809387 0.0083079543 2.277376e-38
0.029698921 -0.13809387 0.0083079543 1.4937131e-38
0.031557508 -0.13809387 0.0083079543 1.1526612e-38
0.0334161 -0.13809387 0.0083079543 1.0882321e-38
0.035274692 -0.13809387 0.0083079543 9.9610839e-39
0.037133284 -0.13809387 0.0083079543 1.0790842e-38
0.038991876 -0.13809387 0.0083079543 1.097523e-38
0.040850468 -0.13809387 0.0083079543 1.0238023e-38
0.042284861 -0.13648613 0.01428177 1.1251809e-38
0.044132978 -0.13648613 0.01428177 1.8534182e-38
0.045981102 -0.13648613 0.01428177 1.8073561e-38
0.047829218 -0.13648613 0.01428177 1.2357432e-38
0.049677335 -0.13648613 0.01428177 8.3930197e-39
0.051525451 -0.13648613 0.01428177 1.8257595e-38
0.053373568 -0.13648613 0.01428177 2.295886e-38
0.055221699 -0.13648613 0.01428177 2.3142534e-38
0.057323091 -0.13728772 0.011303326 2.323365e-38
0.059436403 -0.13809387 0.0083079543 2.3509879e-38
-0.077641219 -0.1491593 -0.025679329 2.2952003e-38
-0.07572303 -0.1491593 -0.025679329 2.0922623e-38
-0.073804855 -0.1491593 -0.025679329 1.7328052e-38
-0.071886674 -0.1491593 -0.025679329 1.1797759e-38
-0.069968484 -0.1491593 -0.025679329 1.4840964e-38
-0.068150528 -0.1499963 -0.028769115 2.3509527e-38
-0.066226922 -0.1499963 -0.028769115 2.341805e-38
-0.064303324 -0.1499963 -0.028769115 2.341805e-38
-0.06229575 -0.1491593 -0.025679329 2.3509883e-38
-0.060377568 -0.1491593 -0.025679329 2.1382898e-38
-0.058459386 -0.1491593 -0.025679329 2.100583e-38
-0.056453221 -0.14807184 -0.021664957 1.6019327e-38
-0.054482937 -0.14727734 -0.01873205 1.6657826e-38
-0.052521087 -0.14645557 -0.015698412 2.2370703e-38
-0.050554752 -0.14538784 -0.011756876 2.3481015e-38
-0.048660979 -0.14538784 -0.011756876 2.3486059e-38
-0.046767205 -0.14538784 -0.011756876 2.0541923e-38
-0.044839308 -0.14457656 -0.0087619815 2.2024617e-38
-0.042950783 -0.14457656 -0.0087619815 2.2584633e-38
-0.04103066 -0.14349155 -0.0047566686 2.3509846e-38
-0.039149161 -0.14349155 -0.0047566686 2.3508423e-38
-0.037254207 -0.14266007 -0.0016871486 2.3508793e-38
-0.035378091 -0.14266007 -0.0016871486 2.3505544e-38
-0.033504665 -0.14349155 -0.0047566686 2.35059e-38
-0.031623166 -0.14349155 -0.0047566686 2.34173e-38
-0.029741667 -0.14349155 -0.0047566686 2.3142524e-38
-0.027860168 -0.14349155 -0.0047566686 2.3234374e-38
-0.02597867 -0.14349155 -0.0047566686 2.3325856e-38
-0.024097171 -0.14349155 -0.0047566686 2.2955285e-38
-0.022245273 -0.14266007 -0.0016871486 2.2493238e-38
-0.020369157 -0.14266007 -0.0016871486 2.3414822e-38
-0.018531691 -0.14186381 0.0012521949 2.3508809e-38
-0.016660728 -0.14186381 0.0012521949 2.332405e-38
-0.014789766 -0.14186381 0.0012521949 2.3509869e-38
-0.013103843 -0.13914107 0.011303326 2.3418031e-38
-0.011250503 -0.13914107 0.011303326 2.3142524e-38
-0.0093971621 -0.13914107 0.011303326 2.2775188e-38
-0.0074016172 -0.14076851 0.0052955355 2.2591525e-38
-0.0055377446 -0.14076851 0.0052955355 2.2499695e-38
-0.0036738701 -0.14076851 0.0052955355 2.2775202e-38
-0.0018099956 -0.14076851 0.0052955355 2.3509518e-38
-3.8554892e-05 -0.13995247 0.0083079543 2.3508435e-38
0.0018200371 -0.13995247 0.0083079543 2.3509514e-38
0.003781626 -0.14076851 0.0052955355 2.3509517e-38
0.0055372212 -0.13995247 0.0083079543 2.2863429e-38
0.0073958132 -0.13995247 0.0083079543 2.3140737e-38
0.0091362391 -0.13914107 0.011303326 2.3232933e-38
0.010989578 -0.13914107 0.011303326 2.2864513e-38
0.012971593 -0.13995247 0.0083079543 2.3418047e-38
0.014830185 -0.13995247 0.0083079543 2.3049624e-38
0.016688777 -0.13995247 0.0083079543 2.3049626e-38
0.018547369 -0.13995247 0.0083079543 2.341805e-38
0.020256283 -0.13914107 0.011303326 2.3234379e-38
0.022109622 -0.13914107 0.011303326 2.2865955e-38
0.023803683 -0.13833423 0.01428177 2.2866674e-38
0.025651803 -0.13833423 0.01428177 2.3142544e-38
0.02766964 -0.13914107 0.011303326 2.3142544e-38
0.029522983 -0.13914107 0.011303326 2.3142544e-38
0.031376317 -0.13914107 0.011303326 2.2867037e-38
0.0334161 -0.13995247 0.0083079543 2.0378118e-38
0.035274692 -0.13995247 0.0083079543 1.8165779e-38
0.037133284 -0.13995247 0.0083079543 1.6783561e-38
0.038789682 -0.13914107 0.011303326 1.567721e-38
0.040643021 -0.13914107 0.011303326 1.6783555e-38
0.042284861 -0.13833423 0.01428177 1.7152695e-38
0.044132978 -0.13833423 0.01428177 2.2958863e-38
0.045981102 -0.13833423 0.01428177 2.2867023e-38
0.047829218 -0.13833423 0.01428177 1.9087358e-38
0.049677335 -0.13833423 0.01428177 1.567612e-38
0.051525451 -0.13833423 0.01428177 1.7427118e-38
0.053373568 -0.13833423 0.01428177 2.314253e-38
0.055221699 -0.13833423 0.01428177 2.3234367e-38
0.057323091 -0.13914107 0.011303326 2.323365e-38
-0.056388944 -0.14918335 -0.01873205 1.6849091e-38
-0.054482937 -0.14918335 -0.01873205 1.7856368e-38
-0.052521087 -0.14835624 -0.015698412 2.3477768e-38
-0.050554752 -0.1472816 -0.011756876 2.2372146e-38
-0.048660979 -0.1472816 -0.011756876 1.9795713e-38
-0.046767205 -0.1472816 -0.011756876 1.9804356e-38
-0.044839308 -0.14646508 -0.0087619815 1.8152036e-38
-0.042950783 -0.14646508 -0.0087619815 1.9357058e-38
-0.04103066 -0.14537306 -0.0047566686 2.3509838e-38
-0.039149161 -0.14537306 -0.0047566686 2.35095e-38
-0.037254207 -0.14453618 -0.0016871486 2.2304843e-38
-0.035378091 -0.14453618 -0.0016871486 1.7506703e-38
-0.033501975 -0.14453618 -0.0016871486 1.1146637e-38
-0.031625859 -0.14453618 -0.0016871486 1.4841299e-38
-0.02974974 -0.14453618 -0.0016871486 2.0559236e-38
-0.027873622 -0.14453618 -0.0016871486 2.3509869e-38
-0.02597867 -0.14537306 -0.0047566686 2.3508801e-38
-0.024121389 -0.14453618 -0.0016871486 2.3508448e-38
-0.022245273 -0.14453618 -0.0016871486 2.3508092e-38
-0.020369157 -0.14453618 -0.0016871486 2.3508086e-38
-0.018531691 -0.14373477 0.0012521949 2.3506999e-38
-0.016660728 -0.14373477 0.0012521949 2.350879e-38
-0.014907291 -0.14181106 0.0083079543 2.35095e-38
-0.013048699 -0.14181106 0.0083079543 2.3509853e-38
-0.011190107 -0.14181106 0.0083079543 2.3509855e-38
-0.0093315132 -0.14181106 0.0083079543 2.3049242e-38
-0.0073059127 -0.14373477 0.0012521949 2.2865581e-38
-0.005434949 -0.14373477 0.0012521949 2.2681564e-38
-0.0036738701 -0.14263238 0.0052955355 2.3141822e-38
-0.0018099956 -0.14263238 0.0052955355 2.3509521e-38
5.3877011e-05 -0.14263238 0.0052955355 2.3507e-38
0.0019177515 -0.14263238 0.0052955355 2.3507e-38
0.0036786292 -0.14181106 0.0083079543 2.3509161e-38
0.0055372212 -0.14181106 0.0083079543 2.3508441e-38
0.0073958132 -0.14181106 0.0083079543 2.350952e-38
0.0091362391 -0.14099441 0.011303326 2.3509521e-38
0.010989578 -0.14099441 0.011303326 2.3508444e-38
0.012842922 -0.14099441 0.011303326 2.3509883e-38
0.014696261 -0.14099441 0.011303326 2.341769e-38
0.016688777 -0.14181106 0.0083079543 2.3325494e-38
0.01840294 -0.14099441 0.011303326 2.3509886e-38
0.020256283 -0.14099441 0.011303326 2.3509886e-38
0.022109622 -0.14099441 0.011303326 2.3509886e-38
0.023803683 -0.14018236 0.01428177 2.3509886e-38
0.025651803 -0.14018236 0.01428177 2.3509527e-38
0.02749992 -0.14018236 0.01428177 2.2404631e-38
0.02934804 -0.14018236 0.01428177 2.3050349e-38
0.031376317 -0.14099441 0.011303326 2.3142544e-38
0.033044271 -0.14018236 0.01428177 2.249754e-38
0.034892388 -0.14018236 0.01428177 2.2774481e-38
0.036740512 -0.14018236 0.01428177 2.3142544e-38
0.038588628 -0.14018236 0.01428177 2.2958867e-38
0.040436745 -0.14018236 0.01428177 2.2958867e-38
0.042284861 -0.14018236 0.01428177 2.213054e-38
0.044132978 -0.14018236 0.01428177 2.2958866e-38
0.045678966 -0.1390769 0.018336317 2.1668839e-38
0.047519974 -0.1390769 0.018336317 2.3050696e-38
0.049360983 -0.1390769 0.018336317 2.3418038e-38
0.051201992 -0.1390769 0.018336317 2.3509873e-38
0.053373568 -0.14018236 0.01428177 2.350987e-38
0.055221699 -0.14018236 0.01428177 2.2772307e-38
-0.050554752 -0.14917539 -0.011756876 2.163853e-38
-0.048660979 -0.14917539 -0.011756876 1.9798219e-38
-0.046727829 -0.14835359 -0.0087619815 1.7407969e-38
-0.044839308 -0.14835359 -0.0087619815 1.4648217e-38
-0.042950783 -0.14835359 -0.0087619815 1.6774109e-38
-0.041062262 -0.14835359 -0.0087619815 2.3506922e-38
-0.039149161 -0.14725454 -0.0047566686 2.3509475e-38
-0.037267663 -0.14725454 -0.0047566686 2.1197394e-38
-0.035378091 -0.1464123 -0.0016871486 1.7598158e-38
-0.033499397 -0.14560573 0.0012521949 5.6127272e-39
-0.031628434 -0.14560573 0.0012521949 6.0755159e-39
-0.02974974 -0.1464123 -0.0016871486 1.0685662e-38
-0.027886508 -0.14560573 0.0012521949 1.400434e-38
-0.026015544 -0.14560573 0.0012521949 1.5385833e-38
-0.024121389 -0.1464123 -0.0016871486 1.8426844e-38
-0.022273619 -0.14560573 0.0012521949 2.1561133e-38
-0.020402655 -0.14560573 0.0012521949 2.3034466e-38
-0.018531691 -0.14560573 0.0012521949 2.3496886e-38
-0.016660728 -0.14560573 0.0012521949 2.284972e-38
-0.014907291 -0.14366965 0.0083079543 2.2758606e-38
-0.013048699 -0.14366965 0.0083079543 2.3496534e-38
-0.011190107 -0.14366965 0.0083079543 2.3505537e-38
-0.0093315132 -0.14366965 0.0083079543 2.3507339e-38
-0.0073059127 -0.14560573 0.0012521949 2.3507701e-38
-0.005434949 -0.14560573 0.0012521949 2.350806e-38
-0.0036738701 -0.14449625 0.0052955355 2.3508425e-38
-0.0018099956 -0.14449625 0.0052955355 2.0832245e-38
5.3877011e-05 -0.14449625 0.0052955355 2.0648937e-38
0.0019177515 -0.14449625 0.0052955355 1.9449674e-38
0.0036786292 -0.14366965 0.0083079543 1.7974184e-38
0.0055372212 -0.14366965 0.0083079543 1.9633702e-38
0.0073958132 -0.14366965 0.0083079543 2.2583962e-38
0.0091362391 -0.14284773 0.011303326 2.3508802e-38
0.010989578 -0.14284773 0.011303326 2.3508802e-38
0.012842922 -0.14284773 0.011303326 2.3507722e-38
0.014696261 -0.14284773 0.011303326 2.3509165e-38
0.016688777 -0.14366965 0.0083079543 2.3509168e-38
0.01840294 -0.14284773 0.011303326 2.3508808e-38
0.020256283 -0.14284773 0.011303326 2.3508086e-38
0.022109622 -0.14284773 0.011303326 2.3508807e-38
0.023803683 -0.14203046 0.01428177 2.3506643e-38
0.025651803 -0.14203046 0.01428177 2.2308105e-38
0.02749992 -0.14203046 0.01428177 2.3509168e-38
0.02934804 -0.14203046 0.01428177 2.2772332e-38
0.031196157 -0.14203046 0.01428177 2.314075e-38
0.033044271 -0.14203046 0.01428177 2.3232944e-38
0.034892388 -0.14203046 0.01428177 2.3233299e-38
0.036740512 -0.14203046 0.01428177 2.3418045e-38
0.038588628 -0.14203046 0.01428177 2.3418043e-38
0.040436745 -0.14203046 0.01428177 2.3049978e-38
0.041996948 -0.14091791 0.018336317 2.2590076e-38
0.043837957 -0.14091791 0.018336317 2.3234369e-38
0.045678966 -0.14091791 0.018336317 2.341804e-38
0.047519974 -0.14091791 0.018336317 2.3418039e-38
0.049360983 -0.14091791 0.018336317 2.1941467e-38
0.051201992 -0.14091791 0.018336317 2.350951e-38
0.053043 -0.14091791 0.018336317 2.3231121e-38
-0.042912155 -0.14913605 -0.0047566686 1.8616564e-38
-0.04103066 -0.14913605 -0.0047566686 2.2305122e-38
-0.039149161 -0.14913605 -0.0047566686 2.138176e-38
-0.037267663 -0.14913605 -0.0047566686 1.7784347e-38
-0.035378091 -0.14828841 -0.0016871486 1.6398889e-38
-0.033499397 -0.14747669 0.0012521949 3.3071541e-39
-0.031628434 -0.14747669 0.0012521949 2.7550649e-39
-0.02975747 -0.14747669 0.0012521949 2.3877229e-39
-0.027886508 -0.14747669 0.0012521949 3.3082303e-39
-0.026015544 -0.14747669 0.0012521949 3.7677665e-39
-0.024144581 -0.14747669 0.0012521949 5.2421567e-39
-0.022273619 -0.14747669 0.0012521949 7.6377829e-39
-0.020402655 -0.14747669 0.0012521949 1.0770636e-38
-0.018531691 -0.14747669 0.0012521949 1.4918724e-38
-0.016660728 -0.14747669 0.0012521949 1.7868989e-38
-0.014857113 -0.14636014 0.0052955355 1.7869354e-38
-0.013048699 -0.14552824 0.0083079543 1.6855568e-38
-0.011190107 -0.14552824 0.0083079543 1.5381522e-38
-0.0093315132 -0.14552824 0.0083079543 1.1511106e-38
-0.0073059127 -0.14747669 0.0012521949 6.7183755e-39
-0.005434949 -0.14747669 0.0012521949 5.3358012e-39
-0.0036738701 -0.14636014 0.0052955355 4.5089258e-39
-0.0018099956 -0.14636014 0.0052955355 1.8388665e-39
5.3877011e-05 -0.14636014 0.0052955355 3.038853e-39
0.0018200371 -0.14552824 0.0083079543 3.3150784e-39
0.0036786292 -0.14552824 0.0083079543 2.0232578e-39
0.0055372212 -0.14552824 0.0083079543 3.5891416e-39
0.0072828997 -0.14470108 0.011303326 5.2490188e-39
0.0091362391 -0.14470108 0.011303326 1.0135031e-38
0.010989578 -0.14470108 0.011303326 1.4930286e-38
0.012842922 -0.14470108 0.011303326 1.5944801e-38
0.014696261 -0.14470108 0.011303326 1.7973826e-38
0.0165496 -0.14470108 0.011303326 1.9909937e-38
0.01840294 -0.14470108 0.011303326 2.1016282e-38
0.020256283 -0.14470108 0.011303326 2.295167e-38
0.022109622 -0.14470108 0.011303326 2.3508085e-38
0.023803683 -0.14387859 0.01428177 2.3508082e-38
0.025651803 -0.14387859 0.01428177 2.3319734e-38
0.02749992 -0.14387859 0.01428177 1.1337197e-38
0.02934804 -0.14387859 0.01428177 7.2820338e-39
0.031196157 -0.14387859 0.01428177 8.018873e-39
0.033044271 -0.14387859 0.01428177 9.1255723e-39
0.034892388 -0.14387859 0.01428177 8.6649473e-39
0.036740512 -0.14387859 0.01428177 9.1262799e-39
0.038588628 -0.14387859 0.01428177 9.1262771e-39
0.04015594 -0.14275892 0.018336317 8.4819839e-39
0.041996948 -0.14275892 0.018336317 9.3124635e-39
0.043624096 -0.14194728 0.021275422 9.4968547e-39
0.045459956 -0.14194728 0.021275422 8.205397e-39
0.047295809 -0.14194728 0.021275422 7.1901661e-39
0.049131669 -0.14194728 0.021275422 9.5858106e-39
0.050967522 -0.14194728 0.021275422 2.1846749e-38
0.052803375 -0.14194728 0.021275422 2.2490676e-38
-0.033499397 -0.14934768 0.0012521949 5.2443105e-39
-0.031628434 -0.14934768 0.0012521949 4.8798551e-39
-0.02975747 -0.14934768 0.0012521949 1.9314153e-39
-0.027886508 -0.14934768 0.0012521949 2.5756987e-39
-0.024144581 -0.14934768 0.0012521949 1.9285454e-39
-0.022273619 -0.14934768 0.0012521949 2.0203809e-39
-0.020402655 -0.14934768 0.0012521949 3.0305714e-39
-0.018531691 -0.14934768 0.0012521949 6.5332542e-39
-0.016660728 -0.14934768 0.0012521949 6.2570204e-39
-0.014857113 -0.14822401 0.0052955355 7.7332295e-39
-0.013048699 -0.14738683 0.0083079543 7.1804215e-39
-0.011190107 -0.14738683 0.0083079543 6.0751613e-39
-0.0093315132 -0.14738683 0.0083079543 3.2181898e-39
-0.0073059127 -0.14934768 0.0012521949 1.3775324e-39
-0.005434949 -0.14934768 0.0012521949 2.0207481e-39
-0.0036738701 -0.14822401 0.0052955355 2.3909725e-39
-0.0018099956 -0.14822401 0.0052955355 3.8678977e-39
-3.8554892e-05 -0.14738683 0.0083079543 2.9462959e-39
0.0018200371 -0.14738683 0.0083079543 3.8668102e-39
0.0036786292 -0.14738683 0.0083079543 3.95828e-39
0.0055372212 -0.14738683 0.0083079543 4.3259821e-39
0.0072828997 -0.14655443 0.011303326 1.8367099e-39
0.0091362391 -0.14655443 0.011303326 3.0341643e-39
0.010989578 -0.14655443 0.011303326 5.1553855e-39
0.012842922 -0.14655443 0.011303326 7.6453891e-39
0.014696261 -0.14655443 0.011303326 8.7520996e-39
0.0165496 -0.14655443 0.011303326 9.7662544e-39
0.01840294 -0.14655443 0.011303326 1.022723e-38
0.02010745 -0.1457267 0.01428177 1.1148107e-38
0.021955566 -0.1457267 0.01428177 1.1792392e-38
0.023803683 -0.1457267 0.01428177 1.1146661e-38
0.025651803 -0.1457267 0.01428177 9.4885857e-39
0.02749992 -0.1457267 0.01428177 8.2007433e-39
0.02934804 -0.1457267 0.01428177 2.6708104e-39
0.031196157 -0.1457267 0.01428177 1.1027588e-39
0.032791905 -0.14459993 0.018336317 1.7477611e-39
0.034632914 -0.14459993 0.018336317 2.8544604e-39
0.036473922 -0.14459993 0.018336317 4.1455523e-39
0.038314931 -0.14459993 0.018336317 4.238464e-39
0.04015594 -0.14459993 0.018336317 4.4239329e-39
0.041996948 -0.14459993 0.018336317 3.5026969e-39
0.043624096 -0.14378314 0.021275422 4.1480663e-39
0.045459956 -0.14378314 0.021275422 3.3175867e-39
0.047295809 -0.14378314 0.021275422 5.5101298e-40
0.048895217 -0.14294095 0.02430596 2.5771392e-39
0.050725766 -0.14294095 0.02430596 1.7972367e-38
0.052556299 -0.14294095 0.02430596 2.147472e-38
-0.013048699 -0.14924543 0.0083079543 2.5749812e-39
-0.011190107 -0.14924543 0.0083079543 2.6671754e-39
-0.0093315132 -0.14924543 0.0083079543 3.0363237e-39
-3.8554892e-05 -0.14924543 0.0083079543 2.0232578e-39
0.0018200371 -0.14924543 0.0083079543 3.5902206e-39
0.0036786292 -0.14924543 0.0083079543 2.9441281e-39
0.0055372212 -0.14924543 0.0083079543 3.1277991e-39
0.0072828997 -0.14840777 0.011303326 3.0352433e-39
0.0091362391 -0.14840777 0.011303326 4.510016e-39
0.010989578 -0.14840777 0.011303326 3.3121945e-39
0.012842922 -0.14840777 0.011303326 3.3125575e-39
0.014696261 -0.14840777 0.011303326 3.1281662e-39
0.016411213 -0.14757483 0.01428177 2.7604627e-39
0.01825933 -0.14757483 0.01428177 3.0359706e-39
0.02010745 -0.14757483 0.01428177 3.2199989e-39
0.021955566 -0.14757483 0.01428177 3.1274389e-39
0.023803683 -0.14757483 0.01428177 2.6653818e-39
0.025651803 -0.14757483 0.01428177 1.8370687e-39
0.02749992 -0.14757483 0.01428177 1.8399567e-39
0.02934804 -0.14757483 0.01428177 1.3804247e-39
0.031196157 -0.14757483 0.01428177 2.7626347e-39
0.032791905 -0.14644094 0.018336317 2.9470204e-39
0.034632914 -0.14644094 0.018336317 2.7622648e-39
0.036473922 -0.14644094 0.018336317 2.5782266e-39
0.038314931 -0.14644094 0.018336317 3.6845714e-39
0.03995239 -0.14561899 0.021275422 7.0968859e-39
0.041788243 -0.14561899 0.021275422 7.7422553e-39
0.043624096 -0.14561899 0.021275422 7.2812771e-39
0.045459956 -0.14561899 0.021275422 5.8983427e-39
0.047295809 -0.14561899 0.021275422 3.1310333e-39
0.048660122 -0.14392884 0.027319094 4.1437433e-39
0.05048538 -0.14392884 0.027319094 1.677346e-38
0.052310638 -0.14392884 0.027319094 2.0552039e-38
