# .PCD v0.7 - Point Cloud Data file format
VERSION 0.7
FIELDS x y z rgb
SIZE 4 4 4 4
TYPE F F F F
COUNT 1 1 1 1
WIDTH 940
HEIGHT 1
VIEWPOINT 0 0 0 1 0 0 0
POINTS 940
DATA ascii
0.021628123 -0.12306587 -0.04804055 7.5567794e-39
0.023551725 -0.12306587 -0.04804055 7.5571424e-39
0.019797944 -0.12596865 -0.051987331 6.7277208e-39
0.021295823 -0.12174667 -0.034969848 6.910317e-39
0.023196504 -0.12174667 -0.034969848 6.9106799e-39
0.025097188 -0.12174667 -0.034969848 6.1749156e-39
0.027180944 -0.12322696 -0.040936392 5.8986916e-39
0.029092088 -0.12322696 -0.040936392 5.5306308e-39
0.021295823 -0.12364738 -0.034969848 8.7534939e-39
0.023089387 -0.12266256 -0.031028312 8.4772714e-39
0.024896517 -0.12191428 -0.028033417 8.8482203e-39
0.026662141 -0.12091358 -0.024028104 7.835153e-39
0.02854364 -0.12091358 -0.024028104 6.5440582e-39
0.030219696 -0.11941226 -0.01801924 6.0841591e-39
0.03209066 -0.11941226 -0.01801924 6.4533045e-39
0.021195613 -0.12455635 -0.031028312 1.3822809e-38
0.023089387 -0.12455635 -0.031028312 1.3177086e-38
0.024896517 -0.12380283 -0.028033417 1.244133e-38
0.026662141 -0.12279506 -0.024028104 1.1335707e-38
0.02854364 -0.12279506 -0.024028104 9.2159266e-39
0.030219696 -0.12128322 -0.01801924 7.0965061e-39
0.03209066 -0.12128322 -0.01801924 5.6224551e-39
0.033961624 -0.12128322 -0.01801924 4.5168306e-39
0.036227643 -0.12380283 -0.028033417 4.9796066e-39
0.021195613 -0.12645011 -0.031028312 1.391213e-38
0.023089387 -0.12645011 -0.031028312 1.3635188e-38
0.024896517 -0.12569134 -0.028033417 1.289799e-38
0.026785038 -0.12569134 -0.028033417 1.3635919e-38
0.02854364 -0.12467657 -0.024028104 1.0133564e-38
0.030219696 -0.12315418 -0.01801924 9.2123253e-39
0.03209066 -0.12315418 -0.01801924 7.7386343e-39
0.033961624 -0.12315418 -0.01801924 3.6845406e-39
0.036227643 -0.12569134 -0.028033417 3.5945001e-39
0.038116165 -0.12569134 -0.028033417 6.8238653e-39
-0.038481746 -0.12066682 -0.00093511865 9.8605744e-39
-0.036555707 -0.11991702 0.0020039864 1.0322626e-38
-0.034719855 -0.11991702 0.0020039864 1.0323702e-38
-0.032806948 -0.11914389 0.0050345249 1.6039856e-38
-0.030976407 -0.11914389 0.0050345249 1.5669691e-38
0.021119475 -0.12757985 -0.028033417 1.1513962e-38
0.022899143 -0.12655805 -0.024028104 1.5386181e-38
0.024780642 -0.12655805 -0.024028104 1.5662064e-38
0.026785038 -0.12757985 -0.028033417 1.6123046e-38
0.02854364 -0.12655805 -0.024028104 1.344937e-38
0.030320194 -0.12577499 -0.020958584 1.086897e-38
0.03209066 -0.12502514 -0.01801924 1.0962598e-38
0.033961624 -0.12502514 -0.01801924 1.0226828e-38
0.036227643 -0.12757985 -0.028033417 7.9255283e-39
0.038116165 -0.12757985 -0.028033417 6.8213388e-39
-0.058283977 -0.12020047 0.008047659 1.1527001e-38
-0.044004772 -0.12250783 -0.00093511865 8.2932907e-39
-0.042163763 -0.12250783 -0.00093511865 8.2925522e-39
-0.040322755 -0.12250783 -0.00093511865 9.5832672e-39
-0.038391564 -0.12175287 0.0020039864 8.4776203e-39
-0.036555707 -0.12175287 0.0020039864 8.5712438e-39
-0.034637492 -0.12097444 0.0050345249 8.3875743e-39
-0.032806948 -0.12097444 0.0050345249 1.548702e-38
-0.030976407 -0.12097444 0.0050345249 2.1570538e-38
0.017342433 -0.1294684 -0.028033417 1.1513965e-38
0.019230954 -0.1294684 -0.028033417 8.8413707e-39
0.021119475 -0.1294684 -0.028033417 1.1055487e-38
0.022815727 -0.12765111 -0.020958584 1.3821004e-38
0.024691842 -0.12765111 -0.020958584 2.1379273e-38
0.026567958 -0.12765111 -0.020958584 1.9165151e-38
0.028444074 -0.12765111 -0.020958584 1.6306721e-38
0.030219696 -0.1268961 -0.01801924 1.1328151e-38
0.031945329 -0.12585752 -0.0139759 1.0867525e-38
0.0338092 -0.12585752 -0.0139759 1.2435924e-38
0.035554234 -0.12508373 -0.010963481 1.0225024e-38
0.03741283 -0.12508373 -0.010963481 8.2910738e-39
0.039271422 -0.12508373 -0.010963481 8.8471287e-39
-0.0494067 -0.12358873 0.0020039864 3.5941484e-39
-0.047570843 -0.12358873 0.0020039864 8.268782e-40
-0.044004772 -0.12434883 -0.00093511865 4.0515644e-39
-0.042163763 -0.12434883 -0.00093511865 6.0802074e-39
-0.040322755 -0.12434883 -0.00093511865 1.1519724e-38
-0.038391564 -0.12358873 0.0020039864 1.0690299e-38
-0.036468036 -0.12280498 0.0050345249 1.087576e-38
-0.034637492 -0.12280498 0.0050345249 9.8630547e-39
-0.032806948 -0.12280498 0.0050345249 1.4472857e-38
-0.030976407 -0.12280498 0.0050345249 2.1110256e-38
-0.029079825 -0.12202574 0.008047659 2.3509154e-38
-0.027254567 -0.12202574 0.008047659 2.0372699e-38
-0.016428735 -0.1253974 -0.004989665 2.2858293e-38
-0.014580618 -0.1253974 -0.004989665 2.2767179e-38
-0.012750777 -0.12616767 -0.0079681091 2.3320717e-38
-0.010897436 -0.12616767 -0.0079681091 2.3137419e-38
-0.0090255989 -0.12434883 -0.00093511865 1.7882651e-38
-0.0071845902 -0.12434883 -0.00093511865 5.4344512e-39
0.015170463 -0.12772138 -0.0139759 2.3505867e-38
0.017254647 -0.13032107 -0.024028104 2.3506601e-38
0.019136146 -0.13032107 -0.024028104 2.3507679e-38
0.021017645 -0.13032107 -0.024028104 2.350586e-38
0.022735845 -0.12876706 -0.01801924 2.3504426e-38
0.024606805 -0.12876706 -0.01801924 2.35059e-38
0.026567958 -0.12952723 -0.020958584 2.3502673e-38
0.028348733 -0.12876706 -0.01801924 2.110198e-38
0.030081455 -0.12772138 -0.0139759 1.0497671e-38
0.031945329 -0.12772138 -0.0139759 1.2433049e-38
0.0338092 -0.12772138 -0.0139759 2.1283825e-38
0.035554234 -0.12694232 -0.010963481 1.602903e-38
0.03741283 -0.12694232 -0.010963481 4.1376196e-39
0.039271422 -0.12694232 -0.010963481 8.5658671e-39
0.048203535 -0.13469382 -0.040936392 4.8881382e-39
0.05011468 -0.13469382 -0.040936392 7.0100824e-39
0.052240498 -0.13573201 -0.044950765 8.117509e-39
0.054158684 -0.13573201 -0.044950765 9.5915629e-39
-0.060109235 -0.12385099 0.008047659 2.3508809e-38
-0.058283977 -0.12385099 0.008047659 1.8253329e-38
-0.056458712 -0.12385099 0.008047659 1.1062411e-38
-0.054633453 -0.12385099 0.008047659 1.2260926e-38
-0.052808195 -0.12385099 0.008047659 1.1893186e-38
-0.051112369 -0.12463553 0.0050345249 7.6514596e-39
-0.049281836 -0.12463553 0.0050345249 4.6079388e-39
-0.047451288 -0.12463553 0.0050345249 1.9332089e-39
-0.045620747 -0.12463553 0.0050345249 1.6548326e-39
-0.043790203 -0.12463553 0.0050345249 4.1437461e-39
-0.042063273 -0.12542458 0.0020039864 5.3422682e-39
-0.040227421 -0.12542458 0.0020039864 1.2534225e-38
-0.038391564 -0.12542458 0.0020039864 1.2534922e-38
-0.036468036 -0.12463553 0.0050345249 1.3181007e-38
-0.034555607 -0.12385099 0.008047659 1.2351265e-38
-0.032730348 -0.12385099 0.008047659 1.2905534e-38
-0.030976407 -0.12463553 0.0050345249 1.622459e-38
-0.029079825 -0.12385099 0.008047659 2.3507694e-38
-0.027194165 -0.123071 0.011043388 2.3509859e-38
-0.025374159 -0.123071 0.011043388 1.2628959e-38
-0.02355415 -0.123071 0.011043388 7.8354739e-39
-0.018276855 -0.12724553 -0.004989665 2.3509817e-38
-0.016428735 -0.12724553 -0.004989665 2.3507702e-38
-0.014580618 -0.12724553 -0.004989665 2.3508067e-38
-0.012707618 -0.12618984 -0.00093511865 2.3506956e-38
-0.010866608 -0.12618984 -0.00093511865 2.3509116e-38
-0.0090255989 -0.12618984 -0.00093511865 2.3045294e-38
-0.0071845902 -0.12618984 -0.00093511865 1.520687e-38
-0.0053435815 -0.12618984 -0.00093511865 6.0755159e-39
-0.0035103029 -0.12542458 0.0020039864 1.0407606e-38
0.013306591 -0.12958528 -0.0139759 2.3504053e-38
0.015170463 -0.12958528 -0.0139759 2.3506953e-38
0.017034337 -0.12958528 -0.0139759 2.3508049e-38
0.018898211 -0.12958528 -0.0139759 2.3509489e-38
0.020762086 -0.12958528 -0.0139759 2.3509835e-38
0.02262596 -0.12958528 -0.0139759 2.3509841e-38
0.024489835 -0.12958528 -0.0139759 2.3509149e-38
0.026477769 -0.13063805 -0.01801924 2.3508435e-38
0.02821758 -0.12958528 -0.0139759 2.3508065e-38
0.030081455 -0.12958528 -0.0139759 1.0314717e-38
0.031945329 -0.12958528 -0.0139759 1.0311469e-38
0.0338092 -0.12958528 -0.0139759 2.2388007e-38
0.035554234 -0.12880091 -0.010963481 2.2017787e-38
0.03741283 -0.12880091 -0.010963481 1.2799306e-38
0.039400823 -0.12958528 -0.0139759 9.0214544e-39
0.041264698 -0.12958528 -0.0139759 1.3266058e-38
0.048203535 -0.13660498 -0.040936392 2.9513111e-39
0.05011468 -0.13660498 -0.040936392 4.2445653e-39
0.052240498 -0.13765021 -0.044950765 6.8281981e-39
0.053936969 -0.13660498 -0.040936392 1.4018741e-38
0.055848114 -0.13660498 -0.040936392 1.2909887e-38
0.057759259 -0.13660498 -0.040936392 1.1802106e-38
0.0596704 -0.13660498 -0.040936392 1.0050389e-38
0.061581548 -0.13660498 -0.040936392 8.5763376e-39
-0.061934493 -0.12567626 0.008047659 2.2311696e-38
-0.060109235 -0.12567626 0.008047659 2.3508809e-38
-0.058283977 -0.12567626 0.008047659 2.3508451e-38
-0.056458712 -0.12567626 0.008047659 2.2586137e-38
-0.054633453 -0.12567626 0.008047659 1.2076172e-38
-0.052808195 -0.12567626 0.008047659 1.1983951e-38
-0.050982937 -0.12567626 0.008047659 1.2445283e-38
-0.049157679 -0.12567626 0.008047659 8.4798035e-39
-0.047332421 -0.12567626 0.008047659 4.6065165e-39
-0.045507159 -0.12567626 0.008047659 4.1444621e-39
-0.043681901 -0.12567626 0.008047659 5.8958119e-39
-0.042063273 -0.12726043 0.0020039864 7.0032161e-39
-0.040227421 -0.12726043 0.0020039864 1.5393e-38
-0.038298577 -0.12646608 0.0050345249 1.5762134e-38
-0.036468036 -0.12646608 0.0050345249 1.6499342e-38
-0.034555607 -0.12567626 0.008047659 1.3642371e-38
-0.032730348 -0.12567626 0.008047659 1.1983575e-38
-0.030976407 -0.12646608 0.0050345249 1.3920397e-38
-0.029079825 -0.12567626 0.008047659 2.3509837e-38
-0.027194165 -0.124891 0.011043388 2.3509851e-38
-0.025374159 -0.124891 0.011043388 1.5027485e-38
-0.02355415 -0.124891 0.011043388 1.0510232e-38
-0.021868862 -0.12726043 0.0020039864 2.2310542e-38
-0.020124972 -0.12909363 -0.004989665 2.3509821e-38
-0.018276855 -0.12909363 -0.004989665 2.3509129e-38
-0.016428735 -0.12909363 -0.004989665 2.3507016e-38
-0.014580618 -0.12909363 -0.004989665 2.3507016e-38
-0.012707618 -0.12803085 -0.00093511865 2.3506986e-38
-0.010866608 -0.12803085 -0.00093511865 2.3506981e-38
-0.0090178689 -0.12726043 0.0020039864 2.3508451e-38
-0.0071820142 -0.12726043 0.0020039864 2.3228631e-38
-0.0053461576 -0.12726043 0.0020039864 1.6311764e-38
-0.0035103029 -0.12726043 0.0020039864 1.1516123e-38
0.013306591 -0.13144915 -0.0139759 2.3509453e-38
0.015170463 -0.13144915 -0.0139759 2.3509834e-38
0.016968317 -0.13065951 -0.010963481 2.3508057e-38
0.018826909 -0.13065951 -0.010963481 2.3509863e-38
0.020685501 -0.13065951 -0.010963481 2.3509859e-38
0.022544093 -0.13065951 -0.010963481 2.350986e-38
0.024402685 -0.13065951 -0.010963481 2.3233285e-38
0.026353706 -0.13144915 -0.0139759 2.3507353e-38
0.02821758 -0.13144915 -0.0139759 2.3504821e-38
0.029978458 -0.13065951 -0.010963481 1.3635555e-38
0.03183705 -0.13065951 -0.010963481 1.4922682e-38
0.033695642 -0.13065951 -0.010963481 2.3309599e-38
0.035554234 -0.13065951 -0.010963481 2.3492914e-38
0.03741283 -0.13065951 -0.010963481 1.8328886e-38
0.039400823 -0.13144915 -0.0139759 1.1692612e-38
0.041264698 -0.13144915 -0.0139759 1.4369534e-38
0.043316439 -0.13250901 -0.01801924 1.3175315e-38
0.045187403 -0.13250901 -0.01801924 4.3281345e-39
0.047058366 -0.13250901 -0.01801924 3.3179356e-39
0.050322317 -0.13956837 -0.044950765 1.845681e-39
0.052240498 -0.13956837 -0.044950765 5.8122413e-39
0.053936969 -0.13851611 -0.040936392 1.8534885e-38
0.055848114 -0.13851611 -0.040936392 2.1943981e-38
0.057586987 -0.13774733 -0.038003486 2.2588281e-38
0.059492994 -0.13774733 -0.038003486 1.9730217e-38
0.061581548 -0.13851611 -0.040936392 1.4475784e-38
0.063749604 -0.13956837 -0.044950765 1.1248937e-38
0.065667786 -0.13956837 -0.044950765 1.0696485e-38
0.067314982 -0.13851611 -0.040936392 1.2540398e-38
0.069226131 -0.13851611 -0.040936392 1.4846008e-38
0.071422331 -0.13956837 -0.044950765 1.1987224e-38
-0.064093545 -0.12909628 0.0020039864 2.3509518e-38
-0.061934493 -0.1275015 0.008047659 2.3140387e-38
-0.060109235 -0.1275015 0.008047659 2.2677981e-38
-0.058283977 -0.1275015 0.008047659 2.3508809e-38
-0.056458712 -0.1275015 0.008047659 2.3508081e-38
-0.054633453 -0.1275015 0.008047659 1.502643e-38
-0.052808195 -0.1275015 0.008047659 1.2352387e-38
-0.050982937 -0.1275015 0.008047659 1.4195944e-38
-0.049157679 -0.1275015 0.008047659 1.2904137e-38
-0.047332421 -0.1275015 0.008047659 7.1872893e-39
-0.045507159 -0.1275015 0.008047659 6.4504291e-39
-0.043681901 -0.1275015 0.008047659 7.0957817e-39
-0.042063273 -0.12909628 0.0020039864 7.6496519e-39
-0.040227421 -0.12909628 0.0020039864 1.456396e-38
-0.038298577 -0.1282966 0.0050345249 1.5024589e-38
-0.036468036 -0.1282966 0.0050345249 1.6039107e-38
-0.034555607 -0.1275015 0.008047659 1.5025676e-38
-0.032730348 -0.1275015 0.008047659 1.4104788e-38
-0.030976407 -0.1282966 0.0050345249 1.2632509e-38
-0.029079825 -0.1275015 0.008047659 2.1207072e-38
-0.027194165 -0.126711 0.011043388 2.3509848e-38
-0.025374159 -0.126711 0.011043388 1.512112e-38
-0.02355415 -0.126711 0.011043388 9.9592047e-39
-0.021778792 -0.1275015 0.008047659 2.3509809e-38
-0.019993156 -0.1282966 0.0050345249 2.3509839e-38
-0.018230647 -0.12987186 -0.00093511865 2.3505553e-38
-0.016389634 -0.12987186 -0.00093511865 2.3503786e-38
-0.014548627 -0.12987186 -0.00093511865 2.3507733e-38
-0.012689582 -0.12909628 0.0020039864 2.3508804e-38
-0.010853725 -0.12909628 0.0020039864 2.350952e-38
-0.0090178689 -0.12909628 0.0020039864 2.3508451e-38
-0.0071820142 -0.12909628 0.0020039864 2.3415539e-38
-0.0053461576 -0.12909628 0.0020039864 2.0187589e-38
0.015170463 -0.13331302 -0.0139759 2.3414394e-38
0.016902667 -0.13172771 -0.0079681091 2.3508786e-38
0.018756006 -0.13172771 -0.0079681091 2.3509883e-38
0.020609349 -0.13172771 -0.0079681091 2.3234379e-38
0.022462688 -0.13172771 -0.0079681091 2.1852525e-38
0.024316028 -0.13172771 -0.0079681091 2.2497526e-38
0.026261274 -0.1325181 -0.010963481 2.3509869e-38
0.028119866 -0.1325181 -0.010963481 2.3509853e-38
0.029876046 -0.13172771 -0.0079681091 1.4652218e-38
0.031729389 -0.13172771 -0.0079681091 1.5201422e-38
0.033582728 -0.13172771 -0.0079681091 2.3127003e-38
0.035436068 -0.13172771 -0.0079681091 2.3506595e-38
0.037289407 -0.13172771 -0.0079681091 2.3495084e-38
0.039400823 -0.13331302 -0.0139759 1.4458127e-38
0.041264698 -0.13331302 -0.0139759 1.3630898e-38
0.043128572 -0.13331302 -0.0139759 1.4555741e-38
0.044992447 -0.13331302 -0.0139759 9.6729713e-39
0.046856318 -0.13331302 -0.0139759 5.8032702e-39
0.049081359 -0.13515557 -0.020958584 3.0399096e-39
0.051706754 -0.13885282 -0.034969848 5.7153738e-39
0.053607438 -0.13885282 -0.034969848 1.7332389e-38
0.055508118 -0.13885282 -0.034969848 1.9820973e-38
0.057408806 -0.13885282 -0.034969848 2.3509527e-38
0.059492994 -0.13965334 -0.038003486 2.2863803e-38
0.061398994 -0.13965334 -0.038003486 1.7332425e-38
0.063749604 -0.14148657 -0.044950765 1.3184341e-38
0.065210998 -0.13965334 -0.038003486 1.069578e-38
0.067117006 -0.13965334 -0.038003486 1.1156759e-38
0.068812907 -0.13885282 -0.034969848 1.429141e-38
0.070713587 -0.13885282 -0.034969848 1.5397758e-38
0.072614275 -0.13885282 -0.034969848 1.4752388e-38
0.074221246 -0.13781275 -0.031028312 1.0418473e-38
0.07611502 -0.13781275 -0.031028312 6.1774729e-39
0.078008786 -0.13781275 -0.031028312 6.0845584e-39
-0.063759752 -0.12932678 0.008047659 2.314074e-38
-0.061774291 -0.12853102 0.011043388 2.3509527e-38
-0.059954286 -0.12853102 0.011043388 2.3509168e-38
-0.05813428 -0.12853102 0.011043388 2.3509527e-38
-0.056124672 -0.12748651 0.014975626 2.3509876e-38
-0.054311559 -0.12748651 0.014975626 1.3736412e-38
-0.052674264 -0.12853102 0.011043388 1.3920087e-38
-0.050854251 -0.12853102 0.011043388 1.8898299e-38
-0.049034245 -0.12853102 0.011043388 1.3456972e-38
-0.04721424 -0.12853102 0.011043388 8.3865625e-39
-0.045394231 -0.12853102 0.011043388 9.9545847e-39
-0.043574225 -0.12853102 0.011043388 1.0785043e-38
-0.041959662 -0.13012715 0.0050345249 1.0600994e-38
-0.040129118 -0.13012715 0.0050345249 1.6777745e-38
-0.038298577 -0.13012715 0.0050345249 1.9358525e-38
-0.036468036 -0.13012715 0.0050345249 2.3046e-38
-0.034555607 -0.12932678 0.008047659 2.3138906e-38
-0.032730348 -0.12932678 0.008047659 2.2126178e-38
-0.030905087 -0.12932678 0.008047659 2.1391106e-38
-0.029079825 -0.12932678 0.008047659 2.0930856e-38
-0.027194165 -0.12853102 0.011043388 2.3142154e-38
-0.025374159 -0.12853102 0.011043388 2.3418028e-38
-0.02355415 -0.12853102 0.011043388 2.2313805e-38
-0.021778792 -0.12932678 0.008047659 2.3142482e-38
-0.019993156 -0.13012715 0.0050345249 2.3509853e-38
-0.018197149 -0.13093217 0.0020039864 2.3509514e-38
-0.016361292 -0.13093217 0.0020039864 2.3508451e-38
-0.014525437 -0.13093217 0.0020039864 2.3506297e-38
-0.012689582 -0.13093217 0.0020039864 2.3508798e-38
-0.010853725 -0.13093217 0.0020039864 2.350988e-38
-0.0090178689 -0.13093217 0.0020039864 2.3141109e-38
-0.0071820142 -0.13093217 0.0020039864 2.3417691e-38
-0.0053461576 -0.13093217 0.0020039864 2.350988e-38
0.0039872201 -0.13517688 -0.0139759 2.3509866e-38
0.0058510946 -0.13517688 -0.0139759 2.350842e-38
0.0076753553 -0.13437669 -0.010963481 1.7604636e-38
0.0095339464 -0.13437669 -0.010963481 1.6313868e-38
0.011342646 -0.13358103 -0.0079681091 1.7419844e-38
0.013141152 -0.13278987 -0.004989665 2.3508368e-38
0.014989271 -0.13278987 -0.004989665 2.3508752e-38
0.016837388 -0.13278987 -0.004989665 2.3509153e-38
0.018685509 -0.13278987 -0.004989665 2.3230788e-38
0.020533625 -0.13278987 -0.004989665 2.3509168e-38
0.022462688 -0.13358103 -0.0079681091 2.3509168e-38
0.024316028 -0.13358103 -0.0079681091 2.3509879e-38
0.026169367 -0.13358103 -0.0079681091 2.3508423e-38
0.028022707 -0.13358103 -0.0079681091 2.3228941e-38
0.029876046 -0.13358103 -0.0079681091 1.6495766e-38
0.031729389 -0.13358103 -0.0079681091 1.9258387e-38
0.033582728 -0.13358103 -0.0079681091 2.3498663e-38
0.035436068 -0.13358103 -0.0079681091 2.3505875e-38
0.037289407 -0.13358103 -0.0079681091 2.3497246e-38
0.039400823 -0.13517688 -0.0139759 1.5105661e-38
0.041264698 -0.13517688 -0.0139759 1.1880626e-38
0.043128572 -0.13517688 -0.0139759 1.4463913e-38
0.044992447 -0.13517688 -0.0139759 1.243849e-38
0.046856318 -0.13517688 -0.0139759 7.461358e-39
0.049081359 -0.13703169 -0.020958584 5.1582609e-39
0.05080029 -0.13625093 -0.01801924 5.6210257e-39
0.052671254 -0.13625093 -0.01801924 1.2443867e-38
0.055112857 -0.13891099 -0.028033417 1.7238778e-38
0.057177287 -0.13970654 -0.031028312 2.2586137e-38
0.059309486 -0.14075352 -0.034969848 2.2862725e-38
0.061398994 -0.14155935 -0.038003486 1.9544406e-38
0.063304998 -0.14155935 -0.038003486 1.7885603e-38
0.065011539 -0.14075352 -0.034969848 1.4566924e-38
0.066912226 -0.14075352 -0.034969848 1.1340076e-38
0.068812907 -0.14075352 -0.034969848 1.1709582e-38
0.070713587 -0.14075352 -0.034969848 1.4198864e-38
0.072614275 -0.14075352 -0.034969848 1.5673994e-38
0.074221246 -0.13970654 -0.031028312 1.2354228e-38
0.07611502 -0.13970654 -0.031028312 7.0990775e-39
0.078008786 -0.13970654 -0.031028312 6.2689539e-39
0.07990256 -0.13970654 -0.031028312 6.9143233e-39
-0.063759752 -0.13115202 0.008047659 2.3325492e-38
-0.061774291 -0.13035102 0.011043388 2.3232944e-38
-0.059954286 -0.13035102 0.011043388 2.3509527e-38
-0.05813428 -0.13035102 0.011043388 2.3233299e-38
-0.055977061 -0.12848105 0.01803704 2.3509518e-38
-0.054169312 -0.12848105 0.01803704 1.5765441e-38
-0.052361578 -0.12848105 0.01803704 1.5764011e-38
-0.050553828 -0.12848105 0.01803704 1.9635878e-38
-0.048746079 -0.12848105 0.01803704 1.9450779e-38
-0.047059111 -0.1292996 0.014975626 1.1061329e-38
-0.045245998 -0.1292996 0.014975626 1.1891783e-38
-0.043432888 -0.1292996 0.014975626 1.2998829e-38
-0.04175422 -0.13035102 0.011043388 1.6317497e-38
-0.03993421 -0.13035102 0.011043388 1.705471e-38
-0.038114205 -0.13035102 0.011043388 2.3507353e-38
-0.036380865 -0.13115202 0.008047659 2.3507722e-38
-0.034555607 -0.13115202 0.008047659 2.3509869e-38
-0.032730348 -0.13115202 0.008047659 2.3509863e-38
-0.030905087 -0.13115202 0.008047659 2.3325829e-38
-0.029079825 -0.13115202 0.008047659 2.2681546e-38
-0.027254567 -0.13115202 0.008047659 2.3234379e-38
-0.025429308 -0.13115202 0.008047659 2.3142544e-38
-0.02360405 -0.13115202 0.008047659 2.2036562e-38
-0.021778792 -0.13115202 0.008047659 2.3234374e-38
-0.01995353 -0.13115202 0.008047659 2.2773729e-38
-0.018162612 -0.13195769 0.0050345249 2.3509853e-38
-0.016332068 -0.13195769 0.0050345249 2.2310605e-38
-0.014501526 -0.13195769 0.0050345249 2.3509873e-38
-0.012670984 -0.13195769 0.0050345249 2.3049958e-38
-0.010840441 -0.13195769 0.0050345249 2.3142525e-38
-0.0090098986 -0.13195769 0.0050345249 2.2958873e-38
-0.0071793562 -0.13195769 0.0050345249 2.2958873e-38
-0.0053488156 -0.13195769 0.0050345249 2.2772688e-38
0.00024098624 -0.13623528 -0.010963481 2.2403524e-38
0.0020995783 -0.13623528 -0.010963481 2.3509521e-38
0.0039872201 -0.13704078 -0.0139759 2.3508802e-38
0.0058510946 -0.13704078 -0.0139759 2.3508432e-38
0.0076753553 -0.13623528 -0.010963481 1.9538957e-38
0.0094893062 -0.13543437 -0.0079681091 1.9353093e-38
0.011342646 -0.13543437 -0.0079681091 2.082821e-38
0.013141152 -0.134638 -0.004989665 2.3501897e-38
0.014989271 -0.134638 -0.004989665 2.3508043e-38
0.016837388 -0.134638 -0.004989665 2.3507358e-38
0.018685509 -0.134638 -0.004989665 2.3506298e-38
0.020533625 -0.134638 -0.004989665 2.3507374e-38
0.022381745 -0.134638 -0.004989665 2.3507733e-38
0.024229862 -0.134638 -0.004989665 2.3508075e-38
0.026077978 -0.134638 -0.004989665 2.3508416e-38
0.028022707 -0.13543437 -0.0079681091 2.1379625e-38
0.029876046 -0.13543437 -0.0079681091 1.704534e-38
0.031729389 -0.13543437 -0.0079681091 1.934914e-38
0.033582728 -0.13543437 -0.0079681091 2.3498304e-38
0.035436068 -0.13543437 -0.0079681091 2.3507676e-38
0.037289407 -0.13543437 -0.0079681091 2.1193791e-38
0.039400823 -0.13704078 -0.0139759 1.4188024e-38
0.041264698 -0.13704078 -0.0139759 1.2253008e-38
0.043128572 -0.13704078 -0.0139759 1.3361166e-38
0.044992447 -0.13704078 -0.0139759 1.2256261e-38
0.046856318 -0.13704078 -0.0139759 8.6613473e-39
0.049081359 -0.13890781 -0.020958584 6.0798655e-39
0.05080029 -0.13812189 -0.01801924 5.8036303e-39
0.052671254 -0.13812189 -0.01801924 8.7549709e-39
0.054884624 -0.13972856 -0.024028104 1.4379634e-38
0.057001378 -0.14079951 -0.028033417 2.3507728e-38
0.059309486 -0.1426542 -0.034969848 2.2954557e-38
0.061398994 -0.14346536 -0.038003486 2.1756376e-38
0.063304998 -0.14346536 -0.038003486 1.8991229e-38
0.065011539 -0.1426542 -0.034969848 1.37368e-38
0.066912226 -0.1426542 -0.034969848 1.3644967e-38
0.068812907 -0.1426542 -0.034969848 1.189325e-38
0.070433699 -0.1416003 -0.031028312 1.1525191e-38
0.072327472 -0.1416003 -0.031028312 1.5950581e-38
0.074221246 -0.1416003 -0.031028312 1.1156408e-38
0.07611502 -0.1416003 -0.031028312 6.731374e-39
0.078008786 -0.1416003 -0.031028312 8.4820092e-39
0.07990256 -0.1416003 -0.031028312 6.1771184e-39
-0.063759752 -0.13297729 0.008047659 2.3418043e-38
-0.061774291 -0.13217102 0.011043388 2.3141822e-38
-0.0597509 -0.13111271 0.014975626 2.3049273e-38
-0.057784811 -0.13028879 0.01803704 2.3141467e-38
-0.055835366 -0.1294979 0.020975668 2.3418047e-38
-0.05403278 -0.1294979 0.020975668 2.2587927e-38
-0.052230187 -0.1294979 0.020975668 2.2956715e-38
-0.050427593 -0.1294979 0.020975668 2.3509168e-38
-0.048625007 -0.1294979 0.020975668 2.3508809e-38
-0.046938337 -0.13028879 0.01803704 2.3508809e-38
-0.045130596 -0.13028879 0.01803704 2.267868e-38
-0.04332285 -0.13028879 0.01803704 2.3509866e-38
-0.041619774 -0.13111271 0.014975626 2.3416935e-38
-0.039806664 -0.13111271 0.014975626 2.350986e-38
-0.03799355 -0.13111271 0.014975626 2.3138948e-38
-0.0362942 -0.13217102 0.011043388 2.3508451e-38
-0.03447419 -0.13217102 0.011043388 2.3509168e-38
-0.032654185 -0.13217102 0.011043388 2.3509524e-38
-0.030834176 -0.13217102 0.011043388 2.3509886e-38
-0.02901417 -0.13217102 0.011043388 2.3234379e-38
-0.027194165 -0.13217102 0.011043388 2.3142544e-38
-0.025374159 -0.13217102 0.011043388 2.2036572e-38
-0.02355415 -0.13217102 0.011043388 2.2958155e-38
-0.021734145 -0.13217102 0.011043388 2.1759271e-38
-0.01995353 -0.13297729 0.008047659 2.3234369e-38
-0.018128272 -0.13297729 0.008047659 2.350986e-38
-0.016303014 -0.13297729 0.008047659 2.3509863e-38
-0.014501526 -0.13378824 0.0050345249 2.3509863e-38
-0.012670984 -0.13378824 0.0050345249 2.2958484e-38
-0.010827235 -0.13297729 0.008047659 2.3234367e-38
-0.0090019749 -0.13297729 0.008047659 2.2958873e-38
-0.0071793562 -0.13378824 0.0050345249 2.2774843e-38
-0.0053488156 -0.13378824 0.0050345249 2.3509168e-38
-0.0035103029 -0.13460387 0.0020039864 2.3508451e-38
-0.0016615642 -0.13539489 -0.00093511865 2.3509876e-38
0.00024098624 -0.13809387 -0.010963481 2.350987e-38
0.0020995783 -0.13809387 -0.010963481 2.3509158e-38
0.0039581703 -0.13809387 -0.010963481 2.350556e-38
0.0058167633 -0.13809387 -0.010963481 2.3505913e-38
0.0076359659 -0.13728772 -0.0079681091 2.0457317e-38
0.0094893062 -0.13728772 -0.0079681091 1.9717567e-38
0.011293036 -0.13648613 -0.004989665 2.0177455e-38
0.013066509 -0.13539489 -0.00093511865 2.1558599e-38
0.014907517 -0.13539489 -0.00093511865 2.1834126e-38
0.016748529 -0.13539489 -0.00093511865 2.0082797e-38
0.018589538 -0.13539489 -0.00093511865 1.8332176e-38
0.020430546 -0.13539489 -0.00093511865 1.7227269e-38
0.022381745 -0.13648613 -0.004989665 1.6765564e-38
0.024229862 -0.13648613 -0.004989665 1.6579715e-38
0.026077978 -0.13648613 -0.004989665 1.574994e-38
0.027926095 -0.13648613 -0.004989665 1.4919811e-38
0.029774215 -0.13648613 -0.004989665 1.6118349e-38
0.031729389 -0.13728772 -0.0079681091 2.0545171e-38
0.033582728 -0.13728772 -0.0079681091 2.3499394e-38
0.035436068 -0.13728772 -0.0079681091 2.2853311e-38
0.037289407 -0.13728772 -0.0079681091 1.0778212e-38
0.039400823 -0.13890465 -0.0139759 6.7241363e-39
0.041264698 -0.13890465 -0.0139759 6.1724143e-39
0.043128572 -0.13890465 -0.0139759 8.2947228e-39
0.044992447 -0.13890465 -0.0139759 8.1110574e-39
0.047358628 -0.14161004 -0.024028104 6.0827536e-39
0.049240127 -0.14161004 -0.024028104 4.790933e-39
0.050957479 -0.14078392 -0.020958584 4.5139817e-39
0.052833594 -0.14078392 -0.020958584 6.5426415e-39
0.054884624 -0.14161004 -0.024028104 1.1060227e-38
0.057001378 -0.14268802 -0.028033417 2.2401009e-38
0.059309486 -0.14455487 -0.034969848 2.350736e-38
0.061398994 -0.14537133 -0.038003486 2.2309538e-38
0.063304998 -0.14537133 -0.038003486 1.8806467e-38
0.065210998 -0.14537133 -0.038003486 1.2353498e-38
0.066912226 -0.14455487 -0.034969848 1.2538253e-38
0.068812907 -0.14455487 -0.034969848 1.2538971e-38
0.070433699 -0.14349405 -0.031028312 1.2724084e-38
0.072327472 -0.14349405 -0.031028312 1.7057279e-38
0.074221246 -0.14349405 -0.031028312 1.3369454e-38
0.07611502 -0.14349405 -0.031028312 7.4689334e-39
0.078008786 -0.14349405 -0.031028312 7.1916249e-39
-0.063594297 -0.13399105 0.011043388 2.0653962e-38
-0.061564013 -0.13292582 0.014975626 2.3142535e-38
-0.0597509 -0.13292582 0.014975626 2.3234379e-38
-0.057784811 -0.13209651 0.01803704 2.2865243e-38
-0.055835366 -0.13130049 0.020975668 2.3049991e-38
-0.05403278 -0.13130049 0.020975668 2.3233662e-38
-0.052230187 -0.13130049 0.020975668 2.341805e-38
-0.05029761 -0.13048081 0.024001557 2.3141106e-38
-0.048500329 -0.13048081 0.024001557 2.3416615e-38
-0.046703037 -0.13048081 0.024001557 2.3508809e-38
-0.045019817 -0.13130049 0.020975668 2.3509168e-38
-0.043217227 -0.13130049 0.020975668 2.3509158e-38
-0.041515104 -0.13209651 0.01803704 2.3509869e-38
-0.039707359 -0.13209651 0.01803704 2.3509873e-38
-0.03799355 -0.13292582 0.014975626 2.3508809e-38
-0.036180437 -0.13292582 0.014975626 2.2492871e-38
-0.03447419 -0.13399105 0.011043388 2.3508092e-38
-0.032654185 -0.13399105 0.011043388 2.2400675e-38
-0.030834176 -0.13399105 0.011043388 2.3509168e-38
-0.02901417 -0.13399105 0.011043388 2.3048914e-38
-0.027194165 -0.13399105 0.011043388 2.2404631e-38
-0.025374159 -0.13399105 0.011043388 2.2958155e-38
-0.02355415 -0.13399105 0.011043388 2.2957796e-38
-0.021734145 -0.13399105 0.011043388 2.3141467e-38
-0.01995353 -0.13480256 0.008047659 2.3416974e-38
-0.018128272 -0.13480256 0.008047659 2.3048554e-38
-0.016303014 -0.13480256 0.008047659 2.3509863e-38
-0.014477751 -0.13480256 0.008047659 2.3325829e-38
-0.012652493 -0.13480256 0.008047659 2.3233299e-38
-0.010827235 -0.13480256 0.008047659 2.3417691e-38
-0.0090019749 -0.13480256 0.008047659 2.3142544e-38
-0.0071793562 -0.13561879 0.0050345249 2.3325856e-38
-0.0053488156 -0.13561879 0.0050345249 2.3508092e-38
-0.0035103029 -0.13643973 0.0020039864 2.055423e-38
-0.0016615642 -0.13723589 -0.00093511865 1.9448939e-38
0.00022260472 -0.13914107 -0.0079681091 2.0093939e-38
0.002075945 -0.13914107 -0.0079681091 2.2950564e-38
0.0039581703 -0.13995247 -0.010963481 2.350806e-38
0.0058167633 -0.13995247 -0.010963481 2.3507339e-38
0.0076359659 -0.13914107 -0.0079681091 1.8885308e-38
0.0094449176 -0.13833423 -0.004989665 1.8330317e-38
0.011293036 -0.13833423 -0.004989665 1.860402e-38
0.013066509 -0.13723589 -0.00093511865 1.970822e-38
0.014907517 -0.13723589 -0.00093511865 2.0260329e-38
0.016748529 -0.13723589 -0.00093511865 1.915328e-38
0.018589538 -0.13723589 -0.00093511865 1.7586317e-38
0.020430546 -0.13723589 -0.00093511865 1.5928941e-38
0.022271555 -0.13723589 -0.00093511865 1.4730033e-38
0.024112564 -0.13723589 -0.00093511865 1.4543118e-38
0.026077978 -0.13833423 -0.004989665 1.1592497e-38
0.027926095 -0.13833423 -0.004989665 1.2791759e-38
0.029774215 -0.13833423 -0.004989665 1.7496254e-38
0.031622332 -0.13833423 -0.004989665 2.0541587e-38
0.033582728 -0.13914107 -0.0079681091 2.1097643e-38
0.035436068 -0.13914107 -0.0079681091 1.8243541e-38
0.037289407 -0.13914107 -0.0079681091 7.0925531e-39
0.039271422 -0.13995247 -0.010963481 5.1604091e-39
0.041264698 -0.14076851 -0.0139759 5.0714603e-39
0.043128572 -0.14076851 -0.0139759 6.0874213e-39
0.045187403 -0.14186381 -0.01801924 5.3505807e-39
0.047058366 -0.14186381 -0.01801924 4.4275482e-39
0.048929326 -0.14186381 -0.01801924 4.2424409e-39
0.050957479 -0.14266007 -0.020958584 3.964775e-39
0.052833594 -0.14266007 -0.020958584 4.793807e-39
0.05470971 -0.14266007 -0.020958584 9.6783607e-39
0.056766119 -0.14349155 -0.024028104 2.157123e-38
0.059309486 -0.14645557 -0.034969848 2.313892e-38
0.061398994 -0.14727734 -0.038003486 2.2494632e-38
0.063304998 -0.14727734 -0.038003486 2.02823e-38
0.065210998 -0.14727734 -0.038003486 1.299957e-38
0.066912226 -0.14645557 -0.034969848 1.1063825e-38
0.068812907 -0.14645557 -0.034969848 1.1064546e-38
0.070713587 -0.14645557 -0.034969848 1.0235507e-38
0.072327472 -0.14538784 -0.031028312 1.355455e-38
0.074221246 -0.14538784 -0.031028312 1.2356007e-38
0.07611502 -0.14538784 -0.031028312 6.9164631e-39
0.078008786 -0.14538784 -0.031028312 5.8104715e-39
0.07990256 -0.14538784 -0.031028312 6.1792512e-39
-0.063594297 -0.13581105 0.011043388 1.4569405e-38
-0.061564013 -0.13473894 0.014975626 2.2590073e-38
-0.059592545 -0.13390426 0.01803704 2.3234379e-38
-0.05763796 -0.13310309 0.020975668 2.323402e-38
-0.055835366 -0.13310309 0.020975668 2.2680138e-38
-0.05389218 -0.1322781 0.024001557 2.3141467e-38
-0.052094899 -0.1322781 0.024001557 2.3509883e-38
-0.05029761 -0.1322781 0.024001557 2.3509883e-38
-0.048500329 -0.1322781 0.024001557 2.3509168e-38
-0.046703037 -0.1322781 0.024001557 2.2586138e-38
-0.045019817 -0.13310309 0.020975668 2.3138942e-38
-0.043217227 -0.13310309 0.020975668 2.3509517e-38
-0.041414633 -0.13310309 0.020975668 2.2770863e-38
-0.039707359 -0.13390426 0.01803704 2.3416234e-38
-0.037899617 -0.13390426 0.01803704 2.3508809e-38
-0.036091872 -0.13390426 0.01803704 2.3508451e-38
-0.034367327 -0.13473894 0.014975626 2.3506298e-38
-0.032554217 -0.13473894 0.014975626 2.3508809e-38
-0.030834176 -0.13581105 0.011043388 2.2218057e-38
-0.02901417 -0.13581105 0.011043388 2.3509873e-38
-0.027114876 -0.13473894 0.014975626 2.3050703e-38
-0.025301766 -0.13473894 0.014975626 2.212876e-38
-0.023488652 -0.13473894 0.014975626 2.0836962e-38
-0.021675542 -0.13473894 0.014975626 1.6226467e-38
-0.019914135 -0.13581105 0.011043388 1.9267117e-38
-0.018128272 -0.13662781 0.008047659 2.3508451e-38
-0.016303014 -0.13662781 0.008047659 2.350986e-38
-0.014477751 -0.13662781 0.008047659 2.3509496e-38
-0.012652493 -0.13662781 0.008047659 2.3509168e-38
-0.010840441 -0.13744931 0.0050345249 2.3324421e-38
-0.0090098986 -0.13744931 0.0050345249 2.2864868e-38
-0.0071793562 -0.13744931 0.0050345249 2.3509873e-38
-0.0053488156 -0.13744931 0.0050345249 2.3505927e-38
-0.0035103029 -0.13827558 0.0020039864 1.6494372e-38
-0.0016615642 -0.1390769 -0.00093511865 1.0503791e-38
0.00020432752 -0.14018236 -0.004989665 1.0411222e-38
0.002075945 -0.14099441 -0.0079681091 1.72319e-38
0.0039292853 -0.14099441 -0.0079681091 2.2577812e-38
0.0057826256 -0.14099441 -0.0079681091 2.1744817e-38
0.0075967992 -0.14018236 -0.004989665 1.3905305e-38
0.0093844915 -0.1390769 -0.00093511865 1.4547423e-38
0.011176544 -0.13827558 0.0020039864 1.3991728e-38
0.013012401 -0.13827558 0.0020039864 1.4265807e-38
0.014848256 -0.13827558 0.0020039864 1.4816831e-38
0.016684111 -0.13827558 0.0020039864 1.4354422e-38
0.018519968 -0.13827558 0.0020039864 1.3341348e-38
0.020355824 -0.13827558 0.0020039864 1.2236058e-38
0.022191681 -0.13827558 0.0020039864 1.0945315e-38
0.024112564 -0.1390769 -0.00093511865 1.334133e-38
0.025953572 -0.1390769 -0.00093511865 1.4908302e-38
0.027926095 -0.14018236 -0.004989665 1.7122441e-38
0.029774215 -0.14018236 -0.004989665 1.6111173e-38
0.031622332 -0.14018236 -0.004989665 1.0120979e-38
0.033470452 -0.14018236 -0.004989665 5.7924662e-39
0.035318568 -0.14018236 -0.004989665 5.796785e-39
0.037289407 -0.14099441 -0.0079681091 2.3905928e-39
0.03914275 -0.14099441 -0.0079681091 4.1476991e-39
0.041130014 -0.14181106 -0.010963481 4.5200816e-39
0.043128572 -0.14263238 -0.0139759 4.3378525e-39
0.045187403 -0.14373477 -0.01801924 3.0481997e-39
0.047058366 -0.14373477 -0.01801924 3.5081031e-39
0.048929326 -0.14373477 -0.01801924 4.2449548e-39
0.050957479 -0.14453618 -0.020958584 3.5985148e-39
0.052833594 -0.14453618 -0.020958584 3.4119544e-39
0.05470971 -0.14453618 -0.020958584 7.558213e-39
0.056766119 -0.14537306 -0.024028104 1.9081935e-38
0.059309486 -0.14835624 -0.034969848 2.0649624e-38
0.061210167 -0.14835624 -0.034969848 2.0742185e-38
0.063110858 -0.14835624 -0.034969848 1.9728758e-38
0.065011539 -0.14835624 -0.034969848 1.1985047e-38
0.066912226 -0.14835624 -0.034969848 7.4681865e-39
0.068539932 -0.1472816 -0.031028312 6.730983e-39
0.070433699 -0.1472816 -0.031028312 7.5614626e-39
0.072327472 -0.1472816 -0.031028312 8.207555e-39
0.073998079 -0.14646508 -0.028033417 8.2997507e-39
0.0758866 -0.14646508 -0.028033417 4.7041183e-39
0.077775121 -0.14646508 -0.028033417 4.61228e-39
0.079663634 -0.14646508 -0.028033417 7.1015592e-39
0.081552163 -0.14646508 -0.028033417 7.3770671e-39
-0.063594297 -0.13763104 0.011043388 1.2725495e-38
-0.061564013 -0.13655205 0.014975626 2.3234361e-38
-0.059592545 -0.13571201 0.01803704 2.3233662e-38
-0.05763796 -0.13490568 0.020975668 2.3233303e-38
-0.055835366 -0.13490568 0.020975668 2.3509527e-38
-0.05389218 -0.13407536 0.024001557 2.3509886e-38
-0.052094899 -0.13407536 0.024001557 2.3417323e-38
-0.05029761 -0.13407536 0.024001557 2.3509879e-38
-0.048500329 -0.13407536 0.024001557 2.3509168e-38
-0.046703037 -0.13407536 0.024001557 2.3509521e-38
-0.044905752 -0.13407536 0.024001557 2.3509511e-38
-0.043108467 -0.13407536 0.024001557 2.3322947e-38
-0.041414633 -0.13490568 0.020975668 2.3509851e-38
-0.03961204 -0.13490568 0.020975668 2.3508416e-38
-0.037899617 -0.13571201 0.01803704 2.3321527e-38
-0.036091872 -0.13571201 0.01803704 2.3508444e-38
-0.034367327 -0.13655205 0.014975626 2.350879e-38
-0.032554217 -0.13655205 0.014975626 2.3509851e-38
-0.030741103 -0.13655205 0.014975626 2.3509834e-38
-0.028927989 -0.13655205 0.014975626 2.3509825e-38
-0.027114876 -0.13655205 0.014975626 2.2958801e-38
-0.025301766 -0.13655205 0.014975626 2.083832e-38
-0.023488652 -0.13655205 0.014975626 1.3460559e-38
-0.021675542 -0.13655205 0.014975626 1.1062408e-38
-0.019914135 -0.13763104 0.011043388 1.1060592e-38
-0.01809413 -0.13763104 0.011043388 2.3509507e-38
-0.016303014 -0.13845308 0.008047659 2.3509853e-38
-0.014477751 -0.13845308 0.008047659 2.3509853e-38
-0.012652493 -0.13845308 0.008047659 2.3509149e-38
-0.010827235 -0.13845308 0.008047659 2.3509507e-38
-0.0090019749 -0.13845308 0.008047659 2.3508765e-38
-0.0071793562 -0.13927986 0.0050345249 2.3509846e-38
-0.0053488156 -0.13927986 0.0050345249 2.3508065e-38
-0.0035103029 -0.14011143 0.0020039864 1.658511e-38
-0.0016615642 -0.14091791 -0.00093511865 8.6580613e-39
0.00020432752 -0.14203046 -0.004989665 7.6442625e-39
0.002052445 -0.14203046 -0.004989665 1.3543711e-38
0.0039005633 -0.14203046 -0.004989665 1.5479104e-38
0.0057486817 -0.14203046 -0.004989665 1.5291843e-38
0.0075967992 -0.14203046 -0.004989665 1.4827987e-38
0.0093406886 -0.14011143 0.0020039864 1.5101323e-38
0.011176544 -0.14011143 0.0020039864 1.3807703e-38
0.012956607 -0.13927986 0.0050345249 1.2974712e-38
0.01478715 -0.13927986 0.0050345249 1.297184e-38
0.016617693 -0.13927986 0.0050345249 1.2417952e-38
0.018448234 -0.13927986 0.0050345249 1.2233912e-38
0.020278778 -0.13927986 0.0050345249 1.186583e-38
0.022109319 -0.13927986 0.0050345249 1.1037141e-38
0.024027534 -0.14011143 0.0020039864 1.389594e-38
0.025953572 -0.14091791 -0.00093511865 1.6939845e-38
0.027794581 -0.14091791 -0.00093511865 1.6478878e-38
0.02963559 -0.14091791 -0.00093511865 1.1779071e-38
0.031622332 -0.14203046 -0.004989665 5.7885243e-39
0.033470452 -0.14203046 -0.004989665 2.9387359e-39
0.035318568 -0.14203046 -0.004989665 2.3877229e-39
0.037166689 -0.14203046 -0.004989665 1.3775324e-39
0.03914275 -0.14284773 -0.0079681091 3.5012507e-39
0.041130014 -0.14366965 -0.010963481 4.5193543e-39
0.043128572 -0.14449625 -0.0139759 3.5080792e-39
0.045187403 -0.14560573 -0.01801924 2.5868474e-39
0.047058366 -0.14560573 -0.01801924 3.6921272e-39
0.048929326 -0.14560573 -0.01801924 4.1527536e-39
0.050957479 -0.1464123 -0.020958584 2.9531454e-39
0.052833594 -0.1464123 -0.020958584 1.8446287e-39
0.05470971 -0.1464123 -0.020958584 6.5440582e-39
0.056766119 -0.14725454 -0.024028104 1.8160333e-38
0.068539932 -0.14917539 -0.031028312 5.7168297e-39
0.070433699 -0.14917539 -0.031028312 6.2707237e-39
0.072327472 -0.14917539 -0.031028312 5.4409631e-39
0.073998079 -0.14835359 -0.028033417 5.4416833e-39
0.0758866 -0.14835359 -0.028033417 3.1367926e-39
0.077775121 -0.14835359 -0.028033417 3.3215412e-39
0.079344109 -0.14725454 -0.024028104 6.7327767e-39
0.081225604 -0.14725454 -0.024028104 6.917168e-39
0.083107099 -0.14725454 -0.024028104 7.7469286e-39
-0.063594297 -0.13945107 0.011043388 1.3739293e-38
-0.061400294 -0.13751976 0.01803704 2.350987e-38
-0.059592545 -0.13751976 0.01803704 2.3233296e-38
-0.05763796 -0.13670824 0.020975668 2.2772321e-38
-0.055835366 -0.13670824 0.020975668 2.350988e-38
-0.05389218 -0.13587265 0.024001557 2.3509879e-38
-0.052094899 -0.13587265 0.024001557 2.3047101e-38
-0.05029761 -0.13587265 0.024001557 2.3139297e-38
-0.048500329 -0.13587265 0.024001557 2.341409e-38
-0.046703037 -0.13587265 0.024001557 2.3508075e-38
-0.044905752 -0.13587265 0.024001557 2.3322937e-38
-0.043108467 -0.13587265 0.024001557 1.4471781e-38
-0.041311178 -0.13587265 0.024001557 1.9818759e-38
-0.039513893 -0.13587265 0.024001557 2.3506595e-38
-0.037716605 -0.13587265 0.024001557 2.350879e-38
-0.036006857 -0.13670824 0.020975668 1.8064211e-38
-0.03428413 -0.13751976 0.01803704 1.7141877e-38
-0.03247638 -0.13751976 0.01803704 2.0185752e-38
-0.030741103 -0.13836516 0.014975626 1.8713116e-38
-0.028927989 -0.13836516 0.014975626 1.6687319e-38
-0.027114876 -0.13836516 0.014975626 1.438315e-38
-0.025301766 -0.13836516 0.014975626 2.950574e-39
-0.023488652 -0.13836516 0.014975626 1.5655166e-39
-0.021675542 -0.13836516 0.014975626 5.5101298e-40
-0.019914135 -0.13945107 0.011043388 2.3938242e-39
-0.01809413 -0.13945107 0.011043388 2.2399537e-38
-0.016274124 -0.13945107 0.011043388 2.3412959e-38
-0.014477751 -0.14027832 0.008047659 2.3504795e-38
-0.012652493 -0.14027832 0.008047659 2.3505884e-38
-0.010827235 -0.14027832 0.008047659 2.3509121e-38
-0.0090019749 -0.14027832 0.008047659 2.3229997e-38
-0.0071767149 -0.14027832 0.008047659 2.2122571e-38
-0.0053514568 -0.14027832 0.008047659 2.350444e-38
-0.0035182731 -0.14111041 0.0050345249 1.7415927e-38
-0.0016615642 -0.14275892 -0.00093511865 9.6725607e-39
0.0001794463 -0.14275892 -0.00093511865 4.787284e-39
0.002020455 -0.14275892 -0.00093511865 7.2758513e-39
0.0038614636 -0.14275892 -0.00093511865 7.366619e-39
0.0057024732 -0.14275892 -0.00093511865 7.3648324e-39
0.0075048329 -0.14194728 0.0020039864 1.0036342e-38
0.0093406886 -0.14194728 0.0020039864 1.0955045e-38
0.011126067 -0.14111041 0.0050345249 1.0860327e-38
0.012956607 -0.14111041 0.0050345249 1.2515893e-38
0.01478715 -0.14111041 0.0050345249 1.4634598e-38
0.016617693 -0.14111041 0.0050345249 1.6200131e-38
0.018448234 -0.14111041 0.0050345249 1.7398309e-38
0.020278778 -0.14111041 0.0050345249 1.804438e-38
0.022109319 -0.14111041 0.0050345249 1.7401523e-38
0.024027534 -0.14194728 0.0020039864 1.639062e-38
0.02586339 -0.14194728 0.0020039864 1.2612411e-38
0.027794581 -0.14275892 -0.00093511865 6.6189927e-39
0.02963559 -0.14275892 -0.00093511865 4.3162711e-39
0.031622332 -0.14387859 -0.004989665 4.1326127e-39
0.033470452 -0.14387859 -0.004989665 3.4897643e-39
0.035318568 -0.14387859 -0.004989665 2.0203809e-39
0.037166689 -0.14387859 -0.004989665 1.9285454e-39
0.03914275 -0.14470108 -0.0079681091 2.1161625e-39
0.041130014 -0.14552824 -0.010963481 3.5948743e-39
0.042988606 -0.14552824 -0.010963481 2.2144551e-39
0.044847198 -0.14552824 -0.010963481 1.6627247e-39
0.04670579 -0.14552824 -0.010963481 2.8609162e-39
0.048929326 -0.14747669 -0.01801924 2.9513279e-39
0.05080029 -0.14747669 -0.01801924 2.4889289e-39
0.052671254 -0.14747669 -0.01801924 2.0268619e-39
0.054542217 -0.14747669 -0.01801924 4.5146782e-39
0.056766119 -0.14913605 -0.024028104 1.4840215e-38
0.077462614 -0.14913605 -0.024028104 2.3070347e-39
0.079344109 -0.14913605 -0.024028104 5.6260746e-39
0.080735698 -0.14747669 -0.01801924 5.9948571e-39
0.082606658 -0.14747669 -0.01801924 7.4699872e-39
-0.063594297 -0.14127107 0.011043388 1.3462354e-38
-0.061243147 -0.13851084 0.020975668 2.3233288e-38
-0.059440553 -0.13851084 0.020975668 2.3509873e-38
-0.05763796 -0.13851084 0.020975668 2.3509869e-38
-0.055689469 -0.13766994 0.024001557 2.3509862e-38
-0.05389218 -0.13766994 0.024001557 2.3509866e-38
-0.052094899 -0.13766994 0.024001557 2.3508802e-38
-0.05029761 -0.13766994 0.024001557 2.2307742e-38
-0.048500329 -0.13766994 0.024001557 2.2305947e-38
-0.046703037 -0.13766994 0.024001557 2.2491395e-38
-0.044905752 -0.13766994 0.024001557 1.9449976e-38
-0.043108467 -0.13766994 0.024001557 1.3641985e-38
-0.041311178 -0.13766994 0.024001557 1.2535271e-38
-0.039513893 -0.13766994 0.024001557 2.3137066e-38
-0.037716605 -0.13766994 0.024001557 2.3506621e-38
-0.036006857 -0.13851084 0.020975668 1.3822132e-38
-0.034204267 -0.13851084 0.020975668 9.3034531e-39
-0.03247638 -0.13932751 0.01803704 1.1425009e-38
-0.030834176 -0.14127107 0.011043388 1.7235828e-38
-0.02901417 -0.14127107 0.011043388 1.6223834e-38
-0.027114876 -0.14017828 0.014975626 1.428739e-38
-0.025301766 -0.14017828 0.014975626 2.8547995e-39
-0.023488652 -0.14017828 0.014975626 2.0236319e-39
-0.021675542 -0.14017828 0.014975626 2.3916914e-39
-0.019914135 -0.14127107 0.011043388 3.589845e-39
-0.01809413 -0.14127107 0.011043388 2.1199538e-38
-0.016274124 -0.14127107 0.011043388 2.3509809e-38
-0.014477751 -0.1421036 0.008047659 2.3509806e-38
-0.012652493 -0.1421036 0.008047659 2.3509818e-38
-0.010827235 -0.1421036 0.008047659 2.3509824e-38
-0.0090019749 -0.1421036 0.008047659 2.3508381e-38
-0.0071767149 -0.1421036 0.008047659 2.3227468e-38
-0.0053514568 -0.1421036 0.008047659 2.3504416e-38
-0.0035182731 -0.14294095 0.0050345249 1.8155992e-38
-0.0016877307 -0.14294095 0.0050345249 1.0966172e-38
0.00016140938 -0.14378314 0.0020039864 3.1295815e-39
0.001997265 -0.14378314 0.0020039864 2.3923864e-39
0.0038331207 -0.14378314 0.0020039864 2.9448539e-39
0.0056689773 -0.14378314 0.0020039864 2.4817262e-39
0.0075048329 -0.14378314 0.0020039864 2.4799199e-39
0.0093406886 -0.14378314 0.0020039864 4.7829834e-39
0.011126067 -0.14294095 0.0050345249 5.8871589e-39
0.012956607 -0.14294095 0.0050345249 9.29444e-39
0.014726396 -0.1421036 0.008047659 1.2888276e-38
0.016551655 -0.1421036 0.008047659 1.5283215e-38
0.018448234 -0.14294095 0.0050345249 1.6942021e-38
0.020278778 -0.14294095 0.0050345249 1.7955801e-38
0.022109319 -0.14294095 0.0050345249 1.7129991e-38
0.024027534 -0.14378314 0.0020039864 1.3818141e-38
0.02586339 -0.14378314 0.0020039864 8.195658e-39
0.027699247 -0.14378314 0.0020039864 2.8469004e-39
0.029774215 -0.1457267 -0.004989665 2.2040519e-39
0.031622332 -0.1457267 -0.004989665 2.2959e-39
0.033470452 -0.1457267 -0.004989665 2.2040687e-39
0.035318568 -0.1457267 -0.004989665 2.0203907e-39
0.037166689 -0.1457267 -0.004989665 2.1122178e-39
0.03914275 -0.14655443 -0.0079681091 1.2856969e-39
0.04099609 -0.14655443 -0.0079681091 3.4990759e-39
0.042849429 -0.14655443 -0.0079681091 3.2246456e-39
0.044702768 -0.14655443 -0.0079681091 3.7785312e-39
0.04670579 -0.14738683 -0.010963481 4.3310002e-39
0.048720192 -0.14822401 -0.0139759 2.4863855e-39
0.050584067 -0.14822401 -0.0139759 1.9317922e-39
0.052671254 -0.14934768 -0.01801924 2.2994929e-39
0.054542217 -0.14934768 -0.01801924 4.0515476e-39
0.080735698 -0.14934768 -0.01801924 6.3632907e-39
0.082606658 -0.14934768 -0.01801924 7.5618325e-39
-0.061243147 -0.14031343 0.020975668 2.1758157e-38
-0.059440553 -0.14031343 0.020975668 2.350987e-38
-0.05763796 -0.14031343 0.020975668 2.3509869e-38
-0.055689469 -0.13946722 0.024001557 2.3508423e-38
-0.05389218 -0.13946722 0.024001557 2.3508787e-38
-0.052094899 -0.13946722 0.024001557 2.35088e-38
-0.05029761 -0.13946722 0.024001557 1.788019e-38
-0.048500329 -0.13946722 0.024001557 1.6588725e-38
-0.046703037 -0.13946722 0.024001557 1.6496867e-38
-0.044905752 -0.13946722 0.024001557 1.7143277e-38
-0.043108467 -0.13946722 0.024001557 1.6129102e-38
-0.041311178 -0.13946722 0.024001557 1.6681913e-38
-0.039513893 -0.13946722 0.024001557 1.824854e-38
-0.037716605 -0.13946722 0.024001557 1.9259499e-38
-0.035919316 -0.13946722 0.024001557 1.6769871e-38
-0.034204267 -0.14031343 0.020975668 9.8551822e-39
-0.03247638 -0.14113526 0.01803704 8.9346496e-39
-0.030668639 -0.14113526 0.01803704 1.133316e-38
-0.028860893 -0.14113526 0.01803704 1.456145e-38
-0.027053148 -0.14113526 0.01803704 1.2440976e-38
-0.025245406 -0.14113526 0.01803704 2.6682615e-39
-0.023488652 -0.14199139 0.014975626 2.8519507e-39
-0.021675542 -0.14199139 0.014975626 1.1938615e-39
-0.019862428 -0.14199139 0.014975626 3.588766e-39
-0.01809413 -0.14309107 0.011043388 1.520539e-38
-0.016274124 -0.14309107 0.011043388 2.1474308e-38
-0.014454116 -0.14309107 0.011043388 2.2396617e-38
-0.012652493 -0.14392884 0.008047659 2.2118606e-38
-0.010827235 -0.14392884 0.008047659 2.0182863e-38
-0.0090019749 -0.14392884 0.008047659 2.0552002e-38
-0.0071767149 -0.14392884 0.008047659 2.0460527e-38
-0.0053514568 -0.14392884 0.008047659 1.9816598e-38
-0.0035261968 -0.14392884 0.008047659 1.2626421e-38
-0.0016877307 -0.1447715 0.0050345249 7.5567458e-39
0.0001428118 -0.1447715 0.0050345249 1.4725965e-39
0.001997265 -0.14561899 0.0020039864 6.4284847e-40
0.0038331207 -0.14561899 0.0020039864 8.2652367e-40
0.0056689773 -0.14561899 0.0020039864 1.3782653e-39
0.0075048329 -0.14561899 0.0020039864 1.2856997e-39
0.0092955232 -0.1447715 0.0050345249 1.9296216e-39
0.011126067 -0.1447715 0.0050345249 2.0203809e-39
0.012901136 -0.14392884 0.008047659 3.2167535e-39
0.014726396 -0.14392884 0.008047659 4.505679e-39
0.016551655 -0.14392884 0.008047659 4.688641e-39
0.018376913 -0.14392884 0.008047659 4.7797646e-39
0.020202175 -0.14392884 0.008047659 5.1481814e-39
0.022027433 -0.14392884 0.008047659 4.4138505e-39
0.023852691 -0.14392884 0.008047659 2.8526401e-39
0.025770403 -0.1447715 0.0050345249 1.0101905e-39
0.027600944 -0.1447715 0.0050345249 1.3775324e-39
0.0295351 -0.14561899 0.0020039864 2.9387513e-39
0.031370956 -0.14561899 0.0020039864 5.7010315e-39
