# .PCD v0.7 - Point Cloud Data file format
VERSION 0.7
FIELDS x y z rgb
SIZE 4 4 4 4
TYPE F F F F
COUNT 1 1 1 1
WIDTH 953
HEIGHT 1
VIEWPOINT 0 0 0 1 0 0 0
POINTS 953
DATA ascii
-0.07070367 -0.14835624 -0.036827836 2.2773358e-38
-0.068654403 -0.1472816 -0.0328863 2.2957752e-38
-0.066652983 -0.14646508 -0.029891405 2.3142143e-38
-0.064627521 -0.14537306 -0.025886092 2.2773363e-38
-0.062646456 -0.14453618 -0.022816572 2.249642e-38
-0.06077034 -0.14453618 -0.022816572 2.2773726e-38
-0.058809191 -0.14373477 -0.019877229 2.3326185e-38
-0.056938224 -0.14373477 -0.019877229 2.3142157e-38
-0.055067264 -0.14373477 -0.019877229 2.3142157e-38
-0.053196296 -0.14373477 -0.019877229 2.3326192e-38
-0.051236719 -0.14263238 -0.015833888 2.3418032e-38
-0.049312107 -0.14181106 -0.012821469 2.3418032e-38
-0.047453515 -0.14181106 -0.012821469 2.3418033e-38
-0.045545027 -0.14099441 -0.0098260976 2.3326199e-38
-0.043647297 -0.14018236 -0.0068476535 2.3325843e-38
-0.041745864 -0.1390769 -0.0027931072 2.3509879e-38
-0.039871357 -0.13827558 0.00014599785 2.350988e-38
-0.03800628 -0.13744931 0.0031765364 2.350988e-38
-0.036175735 -0.13744931 0.0031765364 2.3509883e-38
-0.034326702 -0.13662781 0.0061896704 2.3509886e-38
-0.032501444 -0.13662781 0.0061896704 2.3509886e-38
-0.030668307 -0.13581105 0.0091853999 2.3509886e-38
-0.028844854 -0.13473894 0.013117637 2.3509886e-38
-0.027034424 -0.13390426 0.016179051 2.3509886e-38
-0.025234409 -0.13310309 0.019117679 2.3509886e-38
-0.023445079 -0.1322781 0.022143569 2.3509886e-38
-0.021647792 -0.1322781 0.022143569 2.3509886e-38
-0.019850507 -0.1322781 0.022143569 2.3509886e-38
-0.018082229 -0.13145791 0.025151815 2.3509886e-38
-0.0163243 -0.13064255 0.028142419 2.3509886e-38
-0.014537531 -0.13064255 0.028142419 2.3509886e-38
-0.012795071 -0.12983195 0.031115498 2.3509886e-38
-0.011064442 -0.12899835 0.034172978 2.3509886e-38
-0.0093441978 -0.12816976 0.0372121 2.3509886e-38
-0.0076322183 -0.1273735 0.040132608 2.3509886e-38
-0.0059322994 -0.12655462 0.043136086 2.3509886e-38
-0.0041718185 -0.12655462 0.043136086 2.3509886e-38
-0.0024872459 -0.12574057 0.046121802 2.3509886e-38
-0.00073200092 -0.12574057 0.046121802 2.3509886e-38
0.00093452819 -0.1249045 0.049188402 2.3509886e-38
0.0025938861 -0.12410025 0.052138176 2.3509886e-38
0.004338583 -0.12410025 0.052138176 2.3509886e-38
0.0059796888 -0.12327419 0.055168059 2.3509886e-38
0.0077190716 -0.12327419 0.055168059 2.3509886e-38
0.0094584543 -0.12327419 0.055168059 2.3509886e-38
0.011197837 -0.12327419 0.055168059 2.3509886e-38
0.012813138 -0.12245311 0.058179583 2.3509886e-38
0.014547242 -0.12245311 0.058179583 2.3509886e-38
0.016281346 -0.12245311 0.058179583 2.3509886e-38
0.017921144 -0.12189974 0.060209241 2.3509886e-38
0.019507954 -0.12108697 0.063190252 2.3509886e-38
0.021085208 -0.12027912 0.066153318 2.3509886e-38
0.022805331 -0.12027912 0.066153318 2.3509886e-38
0.024362886 -0.11945029 0.069193333 2.3509886e-38
0.026077678 -0.11945029 0.069193333 2.3509886e-38
0.0279657 -0.12027912 0.066153318 2.3509886e-38
0.029685823 -0.12027912 0.066153318 2.3509886e-38
0.031222055 -0.11945029 0.069193333 2.3509886e-38
0.032936849 -0.11945029 0.069193333 2.3509886e-38
0.034846194 -0.12027912 0.066153318 2.3509886e-38
0.036761135 -0.12108697 0.063190252 2.3509886e-38
0.038486451 -0.12108697 0.063190252 2.3509886e-38
0.040418223 -0.12189974 0.060209241 2.3509886e-38
0.042148769 -0.12189974 0.060209241 2.3509886e-38
0.044027001 -0.12245311 0.058179583 2.3509886e-38
0.045761101 -0.12245311 0.058179583 2.3509886e-38
0.047495209 -0.12245311 0.058179583 2.3509886e-38
0.049464278 -0.12327419 0.055168059 2.3509886e-38
0.051203668 -0.12327419 0.055168059 2.3509886e-38
0.052943051 -0.12327419 0.055168059 2.3509886e-38
0.054682434 -0.12327419 0.055168059 2.3509886e-38
0.056679465 -0.12410025 0.052138176 2.3509886e-38
0.058424167 -0.12410025 0.052138176 2.3509886e-38
0.060430042 -0.1249045 0.049188402 2.3509886e-38
0.062456824 -0.12574057 0.046121802 2.3509886e-38
0.064486898 -0.12655462 0.043136086 2.3509886e-38
0.066247381 -0.12655462 0.043136086 2.3509886e-38
0.068007864 -0.12655462 0.043136086 2.3509886e-38
0.070060603 -0.1273735 0.040132608 2.3509886e-38
0.071826346 -0.1273735 0.040132608 2.3509886e-38
0.074192934 -0.12899835 0.034172978 2.3509886e-38
0.076282732 -0.12983195 0.031115498 2.3509527e-38
0.078064285 -0.12983195 0.031115498 2.3509886e-38
0.079845838 -0.12983195 0.031115498 2.3324775e-38
0.08194799 -0.13064255 0.028142419 2.2587929e-38
0.083734758 -0.13064255 0.028142419 2.1941841e-38
0.085521527 -0.13064255 0.028142419 2.1481219e-38
0.087308295 -0.13064255 0.028142419 2.0835847e-38
0.089095064 -0.13064255 0.028142419 2.0558538e-38
0.090881832 -0.13064255 0.028142419 1.9729498e-38
0.093022533 -0.13145791 0.025151815 1.9176324e-38
0.094814546 -0.13145791 0.025151815 1.8899738e-38
0.096973129 -0.1322781 0.022143569 1.8715347e-38
0.099144451 -0.13310309 0.019117679 1.8531675e-38
0.10131543 -0.13390426 0.016179051 1.8531319e-38
0.10312318 -0.13390426 0.016179051 1.8808625e-38
0.10493093 -0.13390426 0.016179051 1.8808625e-38
0.10673866 -0.13390426 0.016179051 1.5766172e-38
0.10854641 -0.13390426 0.016179051 3.0438949e-39
0.10996 -0.13310309 0.019117679 1.6602402e-39
0.11176259 -0.13310309 0.019117679 2.9516993e-39
0.11356518 -0.13310309 0.019117679 2.7665878e-39
-0.068654403 -0.14917539 -0.0328863 2.2588969e-38
-0.066652983 -0.14835359 -0.029891405 2.2865556e-38
-0.064627521 -0.14725454 -0.025886092 2.2957754e-38
-0.062646456 -0.1464123 -0.022816572 2.2865203e-38
-0.06077034 -0.1464123 -0.022816572 2.295812e-38
-0.058809191 -0.14560573 -0.019877229 2.3326187e-38
-0.056938224 -0.14560573 -0.019877229 2.2957763e-38
-0.055067264 -0.14560573 -0.019877229 2.3049958e-38
-0.053196296 -0.14560573 -0.019877229 2.3234353e-38
-0.051236719 -0.14449625 -0.015833888 2.3326189e-38
-0.049312107 -0.14366965 -0.012821469 2.3418029e-38
-0.047453515 -0.14366965 -0.012821469 2.3418032e-38
-0.045545027 -0.14284773 -0.0098260976 2.3326196e-38
-0.043647297 -0.14203046 -0.0068476535 2.3234004e-38
-0.041745864 -0.14091791 -0.0027931072 2.3509876e-38
-0.039871357 -0.14011143 0.00014599785 2.3509879e-38
-0.03800628 -0.13927986 0.0031765364 2.350988e-38
-0.036175735 -0.13927986 0.0031765364 2.3509883e-38
-0.034326702 -0.13845308 0.0061896704 2.3509883e-38
-0.032501444 -0.13845308 0.0061896704 2.3509886e-38
-0.030668307 -0.13763104 0.0091853999 2.3509886e-38
-0.0288483 -0.13763104 0.0091853999 2.3509886e-38
-0.02703174 -0.13655205 0.013117637 2.3509886e-38
-0.025234409 -0.13490568 0.019117679 2.3509886e-38
-0.023431817 -0.13490568 0.019117679 2.3509886e-38
-0.021647792 -0.13407536 0.022143569 2.3509886e-38
-0.019850507 -0.13407536 0.022143569 2.3509886e-38
-0.018082229 -0.13324992 0.025151815 2.3509886e-38
-0.016290218 -0.13324992 0.025151815 2.3509886e-38
-0.014498205 -0.13324992 0.025151815 2.3509886e-38
-0.012795071 -0.13161351 0.031115498 2.3509886e-38
-0.011064442 -0.13077454 0.034172978 2.3509886e-38
-0.0093441978 -0.12994061 0.0372121 2.3509886e-38
-0.0075733308 -0.12994061 0.0372121 2.3509886e-38
-0.0058664717 -0.12913923 0.040132608 2.3509886e-38
-0.004242491 -0.12749584 0.046121802 2.3509886e-38
-0.0024872459 -0.12749584 0.046121802 2.3509886e-38
-0.00081534125 -0.12665437 0.049188402 2.3509886e-38
0.00093452819 -0.12665437 0.049188402 2.3509886e-38
0.0025938861 -0.12584494 0.052138176 2.3509886e-38
0.0042403024 -0.12501357 0.055168059 2.3509886e-38
0.0059796888 -0.12501357 0.055168059 2.3509886e-38
0.0077190716 -0.12501357 0.055168059 2.3509886e-38
0.0094584543 -0.12501357 0.055168059 2.3509886e-38
0.011197837 -0.12501357 0.055168059 2.3509886e-38
0.012813138 -0.12418722 0.058179583 2.3509886e-38
0.014547242 -0.12418722 0.058179583 2.3509886e-38
0.016190598 -0.12363027 0.060209241 2.3509886e-38
0.017782638 -0.12281232 0.063190252 2.3509886e-38
0.019365085 -0.12199925 0.066153318 2.3509886e-38
0.020933298 -0.12116508 0.069193333 2.3509886e-38
0.02264809 -0.12116508 0.069193333 2.3509886e-38
0.024362886 -0.12116508 0.069193333 2.3509886e-38
0.026077678 -0.12116508 0.069193333 2.3509886e-38
0.027792471 -0.12116508 0.069193333 2.3509886e-38
0.029507263 -0.12116508 0.069193333 2.3509886e-38
0.031222055 -0.12116508 0.069193333 2.3509886e-38
0.032936849 -0.12116508 0.069193333 2.3509886e-38
0.034846194 -0.12199925 0.066153318 2.3509886e-38
0.036566317 -0.12199925 0.066153318 2.3509886e-38
0.038486451 -0.12281232 0.063190252 2.3509886e-38
0.040418223 -0.12363027 0.060209241 2.3509886e-38
0.042148769 -0.12363027 0.060209241 2.3509886e-38
0.043879315 -0.12363027 0.060209241 2.3509886e-38
0.045609862 -0.12363027 0.060209241 2.3509886e-38
0.047495209 -0.12418722 0.058179583 2.3509886e-38
0.049229309 -0.12418722 0.058179583 2.3509886e-38
0.051203668 -0.12501357 0.055168059 2.3509886e-38
0.052943051 -0.12501357 0.055168059 2.3509886e-38
0.054682434 -0.12501357 0.055168059 2.3509886e-38
0.056679465 -0.12584494 0.052138176 2.3509886e-38
0.058424167 -0.12584494 0.052138176 2.3509886e-38
0.060430042 -0.12665437 0.049188402 2.3509886e-38
0.062456824 -0.12749584 0.046121802 2.3509886e-38
0.064212061 -0.12749584 0.046121802 2.3509886e-38
0.065967314 -0.12749584 0.046121802 2.3509886e-38
0.068007864 -0.12831511 0.043136086 2.3509886e-38
0.069768332 -0.12831511 0.043136086 2.3509886e-38
0.071826346 -0.12913923 0.040132608 2.341769e-38
0.073886536 -0.12994061 0.0372121 2.341805e-38
0.075969122 -0.13077454 0.034172978 2.3509886e-38
0.078064285 -0.13161351 0.031115498 2.341805e-38
0.079845838 -0.13161351 0.031115498 2.3233299e-38
0.08194799 -0.13242932 0.028142419 2.2312061e-38
0.083734758 -0.13242932 0.028142419 2.129719e-38
0.085521527 -0.13242932 0.028142419 2.0559623e-38
0.087308295 -0.13242932 0.028142419 2.0282673e-38
0.089095064 -0.13242932 0.028142419 1.9821693e-38
0.090881832 -0.13242932 0.028142419 1.926852e-38
0.093022533 -0.13324992 0.025151815 1.8807541e-38
0.094814546 -0.13324992 0.025151815 1.8530954e-38
0.096973129 -0.13407536 0.022143569 1.8530954e-38
0.099144451 -0.13490568 0.019117679 1.8439478e-38
0.10131543 -0.13571201 0.016179051 1.8439479e-38
0.10312318 -0.13571201 0.016179051 1.8808262e-38
0.10493093 -0.13571201 0.016179051 1.8808262e-38
0.10635481 -0.13490568 0.019117679 1.5581059e-38
0.1081574 -0.13490568 0.019117679 2.766585e-39
0.10996 -0.13490568 0.019117679 1.0141491e-39
0.11176259 -0.13490568 0.019117679 2.3978024e-39
0.11356518 -0.13490568 0.019117679 2.3970836e-39
-0.064627521 -0.14913605 -0.025886092 2.2957398e-38
-0.062646456 -0.14828841 -0.022816572 2.2865206e-38
-0.06077034 -0.14828841 -0.022816572 2.2957763e-38
-0.058809191 -0.14747669 -0.019877229 2.3326187e-38
-0.056938224 -0.14747669 -0.019877229 2.2773729e-38
-0.055067264 -0.14747669 -0.019877229 2.295812e-38
-0.053196296 -0.14747669 -0.019877229 2.3142154e-38
-0.051236719 -0.14636014 -0.015833888 2.3326187e-38
-0.049312107 -0.14552824 -0.012821469 2.3418026e-38
-0.047453515 -0.14552824 -0.012821469 2.3418029e-38
-0.045495421 -0.14387859 -0.0068476535 2.3233999e-38
-0.043647297 -0.14387859 -0.0068476535 2.3234001e-38
-0.041707218 -0.14194728 0.00014599785 2.3509873e-38
-0.039836824 -0.14111041 0.0031765364 2.3509876e-38
-0.03800628 -0.14111041 0.0031765364 2.3509879e-38
-0.03615196 -0.14027832 0.0061896704 2.350988e-38
-0.034326702 -0.14027832 0.0061896704 2.350988e-38
-0.032501444 -0.14027832 0.0061896704 2.3509883e-38
-0.030668307 -0.13945107 0.0091853999 2.3509886e-38
-0.0288483 -0.13945107 0.0091853999 2.3509886e-38
-0.02703174 -0.13836516 0.013117637 2.3509886e-38
-0.025234409 -0.13670824 0.019117679 2.3509886e-38
-0.023431817 -0.13670824 0.019117679 2.3509886e-38
-0.021629225 -0.13670824 0.019117679 2.3509886e-38
-0.019850507 -0.13587265 0.022143569 2.3509886e-38
-0.018082229 -0.13504194 0.025151815 2.3509886e-38
-0.0163243 -0.13421609 0.028142419 2.3509886e-38
-0.014537531 -0.13421609 0.028142419 2.3509886e-38
-0.012750763 -0.13421609 0.028142419 2.3509886e-38
-0.011013515 -0.13339506 0.031115498 2.3509886e-38
-0.0092882477 -0.13255073 0.034172978 2.3509886e-38
-0.0075733308 -0.1317115 0.0372121 2.3509886e-38
-0.0059322994 -0.13007559 0.043136086 2.3509886e-38
-0.004242491 -0.12925108 0.046121802 2.3509886e-38
-0.0024872459 -0.12925108 0.046121802 2.3509886e-38
-0.00081534125 -0.12840421 0.049188402 2.3509886e-38
0.00093452819 -0.12840421 0.049188402 2.3509886e-38
0.0025938861 -0.12758966 0.052138176 2.3509886e-38
0.0042403024 -0.12675296 0.055168059 2.3509886e-38
0.0059796888 -0.12675296 0.055168059 2.3509886e-38
0.0077190716 -0.12675296 0.055168059 2.3509886e-38
0.0093449298 -0.12592132 0.058179583 2.3509886e-38
0.011079034 -0.12592132 0.058179583 2.3509886e-38
0.012813138 -0.12592132 0.058179583 2.3509886e-38
0.014460055 -0.12536083 0.060209241 2.3509886e-38
0.016057318 -0.12453763 0.063190252 2.3509886e-38
0.017644962 -0.12371938 0.066153318 2.3509886e-38
0.019218506 -0.12287988 0.069193333 2.3509886e-38
0.020787032 -0.12207155 0.072120398 2.3509886e-38
0.022496695 -0.12207155 0.072120398 2.3509886e-38
0.024206353 -0.12207155 0.072120398 2.3509886e-38
0.025801873 -0.12150083 0.07418707 2.3509886e-38
0.027507911 -0.12150083 0.07418707 2.3509886e-38
0.029335337 -0.12207155 0.072120398 2.3509886e-38
0.031044999 -0.12207155 0.072120398 2.3509886e-38
0.032936849 -0.12287988 0.069193333 2.3509886e-38
0.034651637 -0.12287988 0.069193333 2.3509886e-38
0.036566317 -0.12371938 0.066153318 2.3509886e-38
0.03828644 -0.12371938 0.066153318 2.3509886e-38
0.040211774 -0.12453763 0.063190252 2.3509886e-38
0.04193709 -0.12453763 0.063190252 2.3509886e-38
0.043879315 -0.12536083 0.060209241 2.3509886e-38
0.045609862 -0.12536083 0.060209241 2.3509886e-38
0.047495209 -0.12592132 0.058179583 2.3509886e-38
0.049229309 -0.12592132 0.058179583 2.3509886e-38
0.051203668 -0.12675296 0.055168059 2.3509886e-38
0.052943051 -0.12675296 0.055168059 2.3509886e-38
0.054682434 -0.12675296 0.055168059 2.3509886e-38
0.056679465 -0.12758966 0.052138176 2.3509886e-38
0.058424167 -0.12758966 0.052138176 2.3509886e-38
0.060430042 -0.12840421 0.049188402 2.3509886e-38
0.062179916 -0.12840421 0.049188402 2.3509886e-38
0.064212061 -0.12925108 0.046121802 2.3509886e-38
0.065967314 -0.12925108 0.046121802 2.3509886e-38
0.068007864 -0.13007559 0.043136086 2.3509886e-38
0.069768332 -0.13007559 0.043136086 2.341805e-38
0.071528815 -0.13007559 0.043136086 2.3326213e-38
0.073886536 -0.1317115 0.0372121 2.341805e-38
0.075969122 -0.13255073 0.034172978 2.341805e-38
0.078064285 -0.13339506 0.031115498 2.341805e-38
0.079845838 -0.13339506 0.031115498 2.2957431e-38
0.08194799 -0.13421609 0.028142419 2.1667412e-38
0.083734758 -0.13421609 0.028142419 2.065254e-38
0.085521527 -0.13421609 0.028142419 1.9914972e-38
0.087308295 -0.13421609 0.028142419 1.9361435e-38
0.089095064 -0.13421609 0.028142419 1.9176324e-38
0.090881832 -0.13421609 0.028142419 1.8715346e-38
0.093022533 -0.13504194 0.025151815 1.8438759e-38
0.09517584 -0.13587265 0.022143569 1.8438759e-38
0.096973129 -0.13587265 0.022143569 1.8438759e-38
0.099144451 -0.13670824 0.019117679 1.8439478e-38
0.10131543 -0.13751976 0.016179051 1.8439478e-38
0.10312318 -0.13751976 0.016179051 1.8070695e-38
0.10493093 -0.13751976 0.016179051 1.8439478e-38
0.10635481 -0.13670824 0.019117679 1.5765806e-38
0.1081574 -0.13670824 0.019117679 3.2271988e-39
0.10996 -0.13670824 0.019117679 1.2910919e-39
0.11176259 -0.13670824 0.019117679 2.4896337e-39
0.11356518 -0.13670824 0.019117679 2.3052439e-39
-0.055067264 -0.14934768 -0.019877229 2.2865922e-38
-0.053196296 -0.14934768 -0.019877229 2.3142511e-38
-0.051236719 -0.14822401 -0.015833888 2.3326187e-38
-0.049312107 -0.14738683 -0.012821469 2.3418023e-38
-0.047453515 -0.14738683 -0.012821469 2.3326189e-38
-0.045495421 -0.1457267 -0.0068476535 2.3234355e-38
-0.043647297 -0.1457267 -0.0068476535 2.3141804e-38
-0.041707218 -0.14378314 0.00014599785 2.350987e-38
-0.039836824 -0.14294095 0.0031765364 2.3509873e-38
-0.03800628 -0.14294095 0.0031765364 2.3509876e-38
-0.03615196 -0.1421036 0.0061896704 2.3509879e-38
-0.034326702 -0.1421036 0.0061896704 2.350988e-38
-0.032501444 -0.1421036 0.0061896704 2.350988e-38
-0.030668307 -0.14127107 0.0091853999 2.3509883e-38
-0.0288483 -0.14127107 0.0091853999 2.3509883e-38
-0.02703174 -0.14017828 0.013117637 2.3509886e-38
-0.025234409 -0.13851084 0.019117679 2.3509886e-38
-0.023431817 -0.13851084 0.019117679 2.3509886e-38
-0.021647792 -0.13766994 0.022143569 2.3509886e-38
-0.019850507 -0.13766994 0.022143569 2.3509886e-38
-0.018082229 -0.13683395 0.025151815 2.3509886e-38
-0.0163243 -0.13600285 0.028142419 2.3509886e-38
-0.014537531 -0.13600285 0.028142419 2.3509886e-38
-0.012750763 -0.13600285 0.028142419 2.3509886e-38
-0.011013515 -0.13517661 0.031115498 2.3509886e-38
-0.0092882477 -0.13432692 0.034172978 2.3509886e-38
-0.0075733308 -0.13348235 0.0372121 2.3509886e-38
-0.0059322994 -0.13183604 0.043136086 2.3509886e-38
-0.004242491 -0.13100632 0.046121802 2.3509886e-38
-0.0024872459 -0.13100632 0.046121802 2.3509886e-38
-0.00081534125 -0.13015409 0.049188402 2.3509886e-38
0.00093452819 -0.13015409 0.049188402 2.3509886e-38
0.0025938861 -0.12933435 0.052138176 2.3509886e-38
0.0042403024 -0.12849234 0.055168059 2.3509886e-38
0.0059796888 -0.12849234 0.055168059 2.3509886e-38
0.0077190716 -0.12849234 0.055168059 2.3509886e-38
0.0093449298 -0.12765543 0.058179583 2.3509886e-38
0.011079034 -0.12765543 0.058179583 2.3509886e-38
0.012729509 -0.12709136 0.060209241 2.3509886e-38
0.014460055 -0.12709136 0.060209241 2.3509886e-38
0.015924839 -0.12543948 0.066153318 2.3509886e-38
0.017503714 -0.12459467 0.069193333 2.3509886e-38
0.019218506 -0.12459467 0.069193333 2.3509886e-38
0.020787032 -0.12378122 0.072120398 2.3509886e-38
0.022496695 -0.12378122 0.072120398 2.3509886e-38
0.024095835 -0.1232069 0.07418707 2.3509886e-38
0.025801873 -0.1232069 0.07418707 2.3509886e-38
0.027507911 -0.1232069 0.07418707 2.3509886e-38
0.029335337 -0.12378122 0.072120398 2.3509886e-38
0.031044999 -0.12378122 0.072120398 2.3509886e-38
0.032936849 -0.12459467 0.069193333 2.3509886e-38
0.034651637 -0.12459467 0.069193333 2.3509886e-38
0.036566317 -0.12543948 0.066153318 2.3509886e-38
0.03828644 -0.12543948 0.066153318 2.3509886e-38
0.040211774 -0.12626295 0.063190252 2.3509886e-38
0.04193709 -0.12626295 0.063190252 2.3509886e-38
0.043879315 -0.12709136 0.060209241 2.3509886e-38
0.045609862 -0.12709136 0.060209241 2.3509886e-38
0.047495209 -0.12765543 0.058179583 2.3509886e-38
0.049229309 -0.12765543 0.058179583 2.3509886e-38
0.051203668 -0.12849234 0.055168059 2.3509886e-38
0.052943051 -0.12849234 0.055168059 2.3509886e-38
0.054682434 -0.12849234 0.055168059 2.3509886e-38
0.056679465 -0.12933435 0.052138176 2.3509886e-38
0.058424167 -0.12933435 0.052138176 2.3509886e-38
0.06016887 -0.12933435 0.052138176 2.3509886e-38
0.062179916 -0.13015409 0.049188402 2.3509886e-38
0.063929789 -0.13015409 0.049188402 2.3509886e-38
0.065967314 -0.13100632 0.046121802 2.3509886e-38
0.067722552 -0.13100632 0.046121802 2.341805e-38
0.069477804 -0.13100632 0.046121802 2.341805e-38
0.071528815 -0.13183604 0.043136086 2.341805e-38
0.073886536 -0.13348235 0.0372121 2.3234379e-38
0.075969122 -0.13432692 0.034172978 2.3142542e-38
0.078064285 -0.13517661 0.031115498 2.277376e-38
0.079845838 -0.13517661 0.031115498 2.212839e-38
0.08194799 -0.13600285 0.028142419 2.1022762e-38
0.083734758 -0.13600285 0.028142419 2.0100086e-38
0.085521527 -0.13600285 0.028142419 1.9362877e-38
0.087308295 -0.13600285 0.028142419 1.9084849e-38
0.089095064 -0.13600285 0.028142419 1.880826e-38
0.090881832 -0.13600285 0.028142419 1.8439478e-38
0.093022533 -0.13683395 0.025151815 1.8162891e-38
0.09517584 -0.13766994 0.022143569 1.8070692e-38
0.096973129 -0.13766994 0.022143569 1.8070692e-38
0.099144451 -0.13851084 0.019117679 1.8070332e-38
0.10131543 -0.13932751 0.016179051 1.7978137e-38
0.10351234 -0.14017828 0.013117637 1.770155e-38
0.10493093 -0.13932751 0.016179051 1.8439115e-38
0.10673866 -0.13932751 0.016179051 1.6041672e-38
0.10854641 -0.13932751 0.016179051 3.687814e-39
0.10996 -0.13851084 0.019117679 1.9357411e-39
0.11176259 -0.13851084 0.019117679 3.2268358e-39
0.11356518 -0.13851084 0.019117679 3.1342843e-39
-0.049312107 -0.14924543 -0.012821469 2.3418023e-38
-0.047453515 -0.14924543 -0.012821469 2.3234351e-38
-0.045495421 -0.14757483 -0.0068476535 2.3142514e-38
-0.043647297 -0.14757483 -0.0068476535 2.305068e-38
-0.041707218 -0.14561899 0.00014599785 2.3418028e-38
-0.039836824 -0.1447715 0.0031765364 2.3509866e-38
-0.03800628 -0.1447715 0.0031765364 2.3509869e-38
-0.03615196 -0.14392884 0.0061896704 2.3509873e-38
-0.034326702 -0.14392884 0.0061896704 2.3509879e-38
-0.032501444 -0.14392884 0.0061896704 2.350988e-38
-0.030668307 -0.14309107 0.0091853999 2.3509527e-38
-0.0288483 -0.14309107 0.0091853999 2.3509527e-38
-0.02703174 -0.14199139 0.013117637 2.3509886e-38
-0.025218628 -0.14199139 0.013117637 2.3509886e-38
-0.023431817 -0.14031343 0.019117679 2.3509886e-38
-0.021647792 -0.13946722 0.022143569 2.3509886e-38
-0.019850507 -0.13946722 0.022143569 2.3509886e-38
-0.018082229 -0.13862596 0.025151815 2.3509886e-38
-0.0163243 -0.13778962 0.028142419 2.3509886e-38
-0.014537531 -0.13778962 0.028142419 2.3509886e-38
-0.012750763 -0.13778962 0.028142419 2.3509886e-38
-0.011013515 -0.13695817 0.031115498 2.3509886e-38
-0.0092882477 -0.13610314 0.034172978 2.3509886e-38
-0.0075733308 -0.13525321 0.0372121 2.3509886e-38
-0.0059322994 -0.13359652 0.043136086 2.3509886e-38
-0.004242491 -0.13276155 0.046121802 2.3509886e-38
-0.0024872459 -0.13276155 0.046121802 2.3509886e-38
-0.00081534125 -0.13190396 0.049188402 2.3509886e-38
0.00093452819 -0.13190396 0.049188402 2.3509886e-38
0.0025938861 -0.13107903 0.052138176 2.3509886e-38
0.0042403024 -0.13023172 0.055168059 2.3509886e-38
0.0058767218 -0.12938951 0.058179583 2.3509886e-38
0.0076108258 -0.12938951 0.058179583 2.3509886e-38
0.0093449298 -0.12938951 0.058179583 2.3509886e-38
0.010998962 -0.12882192 0.060209241 2.3509886e-38
0.012729509 -0.12882192 0.060209241 2.3509886e-38
0.014331998 -0.12798826 0.063190252 2.3509886e-38
0.015788922 -0.12630944 0.069193333 2.3509886e-38
0.017503714 -0.12630944 0.069193333 2.3509886e-38
0.019077374 -0.12549089 0.072120398 2.3509886e-38
0.020683764 -0.12491293 0.07418707 2.3509886e-38
0.022389797 -0.12491293 0.07418707 2.3509886e-38
0.024095835 -0.12491293 0.07418707 2.3509886e-38
0.025801873 -0.12491293 0.07418707 2.3509886e-38
0.027507911 -0.12491293 0.07418707 2.3509886e-38
0.029213948 -0.12491293 0.07418707 2.3509886e-38
0.031044999 -0.12549089 0.072120398 2.3509886e-38
0.03275466 -0.12549089 0.072120398 2.3509886e-38
0.034651637 -0.12630944 0.069193333 2.3509886e-38
0.036366433 -0.12630944 0.069193333 2.3509886e-38
0.03828644 -0.12715961 0.066153318 2.3509886e-38
0.040211774 -0.12798826 0.063190252 2.3509886e-38
0.042148769 -0.12882192 0.060209241 2.3509886e-38
0.043879315 -0.12882192 0.060209241 2.3509886e-38
0.045609862 -0.12882192 0.060209241 2.3509886e-38
0.047495209 -0.12938951 0.058179583 2.3509886e-38
0.049229309 -0.12938951 0.058179583 2.3509886e-38
0.051203668 -0.13023172 0.055168059 2.3509886e-38
0.052943051 -0.13023172 0.055168059 2.3509886e-38
0.05493477 -0.13107903 0.052138176 2.3509886e-38
0.056679465 -0.13107903 0.052138176 2.3509886e-38
0.058424167 -0.13107903 0.052138176 2.3509886e-38
0.06016887 -0.13107903 0.052138176 2.3509886e-38
0.062179916 -0.13190396 0.049188402 2.3509886e-38
0.063929789 -0.13190396 0.049188402 2.3509886e-38
0.065967314 -0.13276155 0.046121802 2.3509886e-38
0.067722552 -0.13276155 0.046121802 2.341805e-38
0.069477804 -0.13276155 0.046121802 2.341805e-38
0.071528815 -0.13359652 0.043136086 2.341805e-38
0.073886536 -0.13525321 0.0372121 2.3234379e-38
0.075969122 -0.13610314 0.034172978 2.3049626e-38
0.077745311 -0.13610314 0.034172978 2.2313137e-38
0.079845838 -0.13695817 0.031115498 2.1575217e-38
0.08194799 -0.13778962 0.028142419 2.0745812e-38
0.083734758 -0.13778962 0.028142419 1.98235e-38
0.085521527 -0.13778962 0.028142419 1.9178486e-38
0.087308295 -0.13778962 0.028142419 1.9177404e-38
0.089095064 -0.13778962 0.028142419 1.8900457e-38
0.090881832 -0.13778962 0.028142419 1.8439479e-38
0.093022533 -0.13862596 0.025151815 1.8070695e-38
0.09517584 -0.13946722 0.022143569 1.7794108e-38
0.096973129 -0.13946722 0.022143569 1.7609717e-38
0.099144451 -0.14031343 0.019117679 1.7424963e-38
0.10131543 -0.14113526 0.016179051 1.7332767e-38
0.10351234 -0.14199139 0.013117637 1.7793745e-38
0.10532545 -0.14199139 0.013117637 1.8439115e-38
0.10713857 -0.14199139 0.013117637 1.6042028e-38
0.10895168 -0.14199139 0.013117637 3.7800068e-39
0.11035416 -0.14113526 0.016179051 2.1204855e-39
0.1121619 -0.14113526 0.016179051 3.7800068e-39
0.11396965 -0.14113526 0.016179051 4.0565937e-39
-0.043647297 -0.14942293 -0.0068476535 2.2958836e-38
-0.041707218 -0.14745484 0.00014599785 2.3050673e-38
-0.039836824 -0.14660202 0.0031765364 2.2866638e-38
-0.03800628 -0.14660202 0.0031765364 2.3050316e-38
-0.03615196 -0.14575411 0.0061896704 2.3418029e-38
-0.034326702 -0.14575411 0.0061896704 2.3509873e-38
-0.032501444 -0.14575411 0.0061896704 2.3508801e-38
-0.030668307 -0.14491107 0.0091853999 2.3508451e-38
-0.0288483 -0.14491107 0.0091853999 2.3509168e-38
-0.02703174 -0.14380451 0.013117637 2.3509527e-38
-0.025218628 -0.14380451 0.013117637 2.3509886e-38
-0.023431817 -0.14211603 0.019117679 2.3509886e-38
-0.021629225 -0.14211603 0.019117679 2.3509886e-38
-0.019850507 -0.14126451 0.022143569 2.3509886e-38
-0.018082229 -0.14041798 0.025151815 2.3509886e-38
-0.0163243 -0.13957639 0.028142419 2.3509886e-38
-0.014537531 -0.13957639 0.028142419 2.3509886e-38
-0.012750763 -0.13957639 0.028142419 2.3509886e-38
-0.011013515 -0.13873972 0.031115498 2.3509886e-38
-0.0092882477 -0.13787933 0.034172978 2.3509886e-38
-0.0075733308 -0.13702409 0.0372121 2.3509886e-38
-0.0059322994 -0.13535701 0.043136086 2.3509886e-38
-0.004242491 -0.13451682 0.046121802 2.3509886e-38
-0.0024872459 -0.13451682 0.046121802 2.3509886e-38
-0.00073200092 -0.13451682 0.046121802 2.3509886e-38
0.00093452819 -0.13365383 0.049188402 2.3509886e-38
0.0025938861 -0.13282375 0.052138176 2.3509886e-38
0.0042403024 -0.13197111 0.055168059 2.3509886e-38
0.0058767218 -0.13112362 0.058179583 2.3509886e-38
0.0076108258 -0.13112362 0.058179583 2.3509886e-38
0.0092684198 -0.13055246 0.060209241 2.3509886e-38
0.010998962 -0.13055246 0.060209241 2.3509886e-38
0.012606682 -0.12971358 0.063190252 2.3509886e-38
0.014074126 -0.12802424 0.069193333 2.3509886e-38
0.015658053 -0.12720053 0.072120398 2.3509886e-38
0.017367711 -0.12720053 0.072120398 2.3509886e-38
0.018977726 -0.12661897 0.07418707 2.3509886e-38
0.020683764 -0.12661897 0.07418707 2.3509886e-38
0.022389797 -0.12661897 0.07418707 2.3509886e-38
0.024095835 -0.12661897 0.07418707 2.3509886e-38
0.025801873 -0.12661897 0.07418707 2.3509886e-38
0.027507911 -0.12661897 0.07418707 2.3509886e-38
0.029213948 -0.12661897 0.07418707 2.3509883e-38
0.030919986 -0.12661897 0.07418707 2.3509886e-38
0.03275466 -0.12720053 0.072120398 2.3509886e-38
0.034651637 -0.12802424 0.069193333 2.3509886e-38
0.036366433 -0.12802424 0.069193333 2.3509886e-38
0.03828644 -0.12887974 0.066153318 2.3509886e-38
0.040006563 -0.12887974 0.066153318 2.3509886e-38
0.04193709 -0.12971358 0.063190252 2.3509886e-38
0.043879315 -0.13055246 0.060209241 2.3509886e-38
0.045609862 -0.13055246 0.060209241 2.3509886e-38
0.047495209 -0.13112362 0.058179583 2.3509886e-38
0.049229309 -0.13112362 0.058179583 2.3509886e-38
0.051203668 -0.13197111 0.055168059 2.3509886e-38
0.052943051 -0.13197111 0.055168059 2.3509886e-38
0.05493477 -0.13282375 0.052138176 2.3509886e-38
0.056679465 -0.13282375 0.052138176 2.3509886e-38
0.058424167 -0.13282375 0.052138176 2.341769e-38
0.06016887 -0.13282375 0.052138176 2.3141103e-38
0.061913557 -0.13282375 0.052138176 2.3048907e-38
0.063929789 -0.13365383 0.049188402 2.3233299e-38
0.065679647 -0.13365383 0.049188402 2.341769e-38
0.067722552 -0.13451682 0.046121802 2.3417687e-38
0.069477804 -0.13451682 0.046121802 2.3417687e-38
0.071528815 -0.13535701 0.043136086 2.3509883e-38
0.073886536 -0.13702409 0.0372121 2.3234015e-38
0.075969122 -0.13787933 0.034172978 2.2680122e-38
0.077745311 -0.13787933 0.034172978 2.0652534e-38
0.079845838 -0.13873972 0.031115498 2.102132e-38
0.08194799 -0.13957639 0.028142419 2.0283752e-38
0.083734758 -0.13957639 0.028142419 1.9914972e-38
0.085521527 -0.13957639 0.028142419 1.8255451e-38
0.087308295 -0.13957639 0.028142419 1.8807906e-38
0.089095064 -0.13957639 0.028142419 1.8531319e-38
0.090881832 -0.13957639 0.028142419 1.7978145e-38
0.093022533 -0.14041798 0.025151815 1.7609363e-38
0.09517584 -0.14126451 0.022143569 1.7332776e-38
0.096973129 -0.14126451 0.022143569 1.7240936e-38
0.099144451 -0.14211603 0.019117679 1.7240216e-38
0.10131543 -0.14294298 0.016179051 1.7148376e-38
0.10351234 -0.14380451 0.013117637 1.7609354e-38
0.10532545 -0.14380451 0.013117637 1.742496e-38
0.10713857 -0.14380451 0.013117637 1.6226417e-38
0.10854641 -0.14294298 0.016179051 2.5814608e-39
0.11035416 -0.14294298 0.016179051 2.3963479e-39
0.1121619 -0.14294298 0.016179051 3.871478e-39
-0.041707218 -0.14929073 0.00014599785 2.2683319e-38
-0.039836824 -0.14843257 0.0031765364 2.2314896e-38
-0.03800628 -0.14843257 0.0031765364 2.2681528e-38
-0.03615196 -0.14757936 0.0061896704 2.3234348e-38
-0.034326702 -0.14757936 0.0061896704 2.350987e-38
-0.032488316 -0.14673109 0.0091853999 2.3509879e-38
-0.030668307 -0.14673109 0.0091853999 2.3508451e-38
-0.0288483 -0.14673109 0.0091853999 2.3509168e-38
-0.02703174 -0.14561762 0.013117637 2.3509527e-38
-0.025218628 -0.14561762 0.013117637 2.3509886e-38
-0.023431817 -0.14391862 0.019117679 2.3509886e-38
-0.021629225 -0.14391862 0.019117679 2.3509886e-38
-0.019850507 -0.1430618 0.022143569 2.3509886e-38
-0.018082229 -0.14220999 0.025151815 2.3509886e-38
-0.0163243 -0.14136316 0.028142419 2.3509886e-38
-0.014537531 -0.14136316 0.028142419 2.3509886e-38
-0.012795071 -0.14052127 0.031115498 2.3509886e-38
-0.011013515 -0.14052127 0.031115498 2.3509886e-38
-0.0092882477 -0.13965552 0.034172978 2.3509886e-38
-0.0075733308 -0.13879494 0.0372121 2.3509886e-38
-0.0058664717 -0.13796796 0.040132608 2.3509886e-38
-0.004242491 -0.13627206 0.046121802 2.3509886e-38
-0.0024872459 -0.13627206 0.046121802 2.3509886e-38
-0.00081534125 -0.13540371 0.049188402 2.3509886e-38
0.00093452819 -0.13540371 0.049188402 2.3509886e-38
0.0025938861 -0.13456844 0.052138176 2.3509886e-38
0.0042403024 -0.13371049 0.055168059 2.3509886e-38
0.0058767218 -0.13285773 0.058179583 2.3509886e-38
0.0076108258 -0.13285773 0.058179583 2.3509886e-38
0.0091560464 -0.1314389 0.063190252 2.3509886e-38
0.010881362 -0.1314389 0.063190252 2.3509886e-38
0.012484593 -0.13059987 0.066153318 2.3509886e-38
0.014074126 -0.12973903 0.069193333 2.3509886e-38
0.015658053 -0.1289102 0.072120398 2.3509886e-38
0.017271688 -0.128325 0.07418707 2.3509886e-38
0.018977726 -0.128325 0.07418707 2.3509886e-38
0.020683764 -0.128325 0.07418707 2.3509886e-38
0.022389797 -0.128325 0.07418707 2.3509886e-38
0.024095835 -0.128325 0.07418707 2.3509886e-38
0.025801873 -0.128325 0.07418707 2.3509886e-38
0.027507911 -0.128325 0.07418707 2.3509883e-38
0.029213948 -0.128325 0.07418707 2.3509883e-38
0.030919986 -0.128325 0.07418707 2.3509883e-38
0.03275466 -0.1289102 0.072120398 2.3509883e-38
0.034651637 -0.12973903 0.069193333 2.3509886e-38
0.036366433 -0.12973903 0.069193333 2.3509886e-38
0.03828644 -0.13059987 0.066153318 2.3509886e-38
0.040006563 -0.13059987 0.066153318 2.3509886e-38
0.04193709 -0.1314389 0.063190252 2.3509886e-38
0.043879315 -0.13228302 0.060209241 2.3509886e-38
0.045609862 -0.13228302 0.060209241 2.3509886e-38
0.047495209 -0.13285773 0.058179583 2.3509886e-38
0.049229309 -0.13285773 0.058179583 2.3509886e-38
0.051203668 -0.13371049 0.055168059 2.3509886e-38
0.052943051 -0.13371049 0.055168059 2.3509886e-38
0.054682434 -0.13371049 0.055168059 2.3509886e-38
0.056679465 -0.13456844 0.052138176 2.3509886e-38
0.058424167 -0.13456844 0.052138176 2.341769e-38
0.06016887 -0.13456844 0.052138176 2.341769e-38
0.061913557 -0.13456844 0.052138176 2.3509886e-38
0.063929789 -0.13540371 0.049188402 2.3509886e-38
0.065679647 -0.13540371 0.049188402 2.3509886e-38
0.067722552 -0.13627206 0.046121802 2.3417687e-38
0.069477804 -0.13627206 0.046121802 2.31411e-38
0.071528815 -0.13711749 0.043136086 2.3417687e-38
0.073886536 -0.13879494 0.0372121 2.2864513e-38
0.075969122 -0.13965552 0.034172978 2.2403891e-38
0.078064285 -0.14052127 0.031115498 2.0375587e-38
0.079845838 -0.14052127 0.031115498 2.0652174e-38
0.08194799 -0.14136316 0.028142419 1.9822414e-38
0.083734758 -0.14136316 0.028142419 1.9453631e-38
0.085521527 -0.14136316 0.028142419 1.8070697e-38
0.087308295 -0.14136316 0.028142419 1.8070343e-38
0.089095064 -0.14136316 0.028142419 1.7885952e-38
0.091230519 -0.14220999 0.025151815 1.7701561e-38
0.093378566 -0.1430618 0.022143569 1.751717e-38
0.09517584 -0.1430618 0.022143569 1.7424971e-38
0.097341858 -0.14391862 0.019117679 1.7333132e-38
0.099144451 -0.14391862 0.019117679 1.7240217e-38
0.10131543 -0.14475073 0.016179051 1.714802e-38
0.10351234 -0.14561762 0.013117637 1.6963985e-38
0.10532545 -0.14561762 0.013117637 1.7517156e-38
0.10713857 -0.14561762 0.013117637 1.6503001e-38
0.10854641 -0.14475073 0.016179051 2.6736565e-39
0.11035416 -0.14475073 0.016179051 2.3963479e-39
-0.03615196 -0.14940463 0.0061896704 2.2865922e-38
-0.034326702 -0.14940463 0.0061896704 2.3509869e-38
-0.032488316 -0.14855109 0.0091853999 2.3509876e-38
-0.030668307 -0.14855109 0.0091853999 2.3509168e-38
-0.0288483 -0.14855109 0.0091853999 2.3509168e-38
-0.02703174 -0.14743073 0.013117637 2.3509527e-38
-0.025226681 -0.14655848 0.016179051 2.3509886e-38
-0.023431817 -0.14572121 0.019117679 2.3509886e-38
-0.021647792 -0.14485909 0.022143569 2.3509886e-38
-0.019874241 -0.14400201 0.025151815 2.3509886e-38
-0.018082229 -0.14400201 0.025151815 2.3509886e-38
-0.0163243 -0.14314993 0.028142419 2.3509886e-38
-0.014537531 -0.14314993 0.028142419 2.3509886e-38
-0.012795071 -0.14230286 0.031115498 2.3509886e-38
-0.011013515 -0.14230286 0.031115498 2.3509886e-38
-0.0092882477 -0.1414317 0.034172978 2.3509886e-38
-0.0075733308 -0.14056583 0.0372121 2.3509886e-38
-0.0058664717 -0.13973372 0.040132608 2.3509886e-38
-0.004242491 -0.1380273 0.046121802 2.3509886e-38
-0.0024872459 -0.1380273 0.046121802 2.3509886e-38
-0.00081534125 -0.13715358 0.049188402 2.3509886e-38
0.00093452819 -0.13715358 0.049188402 2.3509886e-38
0.0025938861 -0.13631313 0.052138176 2.3509886e-38
0.0042403024 -0.13544987 0.055168059 2.3509886e-38
0.0058767218 -0.13459183 0.058179583 2.3509886e-38
0.0075378735 -0.13401355 0.060209241 2.3509886e-38
0.0091560464 -0.13316421 0.063190252 2.3509886e-38
0.010881362 -0.13316421 0.063190252 2.3509886e-38
0.012484593 -0.13231997 0.066153318 2.3509886e-38
0.014074126 -0.13145383 0.069193333 2.3509886e-38
0.015658053 -0.13061987 0.072120398 2.3509886e-38
0.017271688 -0.13003103 0.07418707 2.3509886e-38
0.018977726 -0.13003103 0.07418707 2.3509886e-38
0.020683764 -0.13003103 0.07418707 2.3509886e-38
0.022389797 -0.13003103 0.07418707 2.3509886e-38
0.024095835 -0.13003103 0.07418707 2.3509886e-38
0.025801873 -0.13003103 0.07418707 2.3509886e-38
0.027507911 -0.13003103 0.07418707 2.3509886e-38
0.029213948 -0.13003103 0.07418707 2.3509886e-38
0.030919986 -0.13003103 0.07418707 2.3509886e-38
0.03275466 -0.13061987 0.072120398 2.3509886e-38
0.034651637 -0.13145383 0.069193333 2.3509886e-38
0.036366433 -0.13145383 0.069193333 2.3509886e-38
0.03828644 -0.13231997 0.066153318 2.3509886e-38
0.040006563 -0.13231997 0.066153318 2.3509886e-38
0.04193709 -0.13316421 0.063190252 2.3509886e-38
0.043879315 -0.13401355 0.060209241 2.3509886e-38
0.045609862 -0.13401355 0.060209241 2.3509886e-38
0.047495209 -0.13459183 0.058179583 2.3509886e-38
0.049229309 -0.13459183 0.058179583 2.3509886e-38
0.051203668 -0.13544987 0.055168059 2.3509886e-38
0.052943051 -0.13544987 0.055168059 2.3509886e-38
0.054682434 -0.13544987 0.055168059 2.3509886e-38
0.056421824 -0.13544987 0.055168059 2.3509886e-38
0.058424167 -0.13631313 0.052138176 2.3509886e-38
0.06016887 -0.13631313 0.052138176 2.3509886e-38
0.061913557 -0.13631313 0.052138176 2.3509886e-38
0.063929789 -0.13715358 0.049188402 2.3509886e-38
0.065679647 -0.13715358 0.049188402 2.3509886e-38
0.067722552 -0.1380273 0.046121802 2.3233296e-38
0.069477804 -0.1380273 0.046121802 2.2956709e-38
0.071528815 -0.13887797 0.043136086 2.3417687e-38
0.073592104 -0.13973372 0.040132608 2.3048905e-38
0.075657405 -0.14056583 0.0372121 2.2772674e-38
0.077745311 -0.1414317 0.034172978 2.074437e-38
0.079521514 -0.1414317 0.034172978 2.0652174e-38
0.081627391 -0.14230286 0.031115498 1.9545827e-38
0.083734758 -0.14314993 0.028142419 1.9361435e-38
0.085521527 -0.14314993 0.028142419 1.8162892e-38
0.087646492 -0.14400201 0.025151815 1.7886671e-38
0.089438505 -0.14400201 0.025151815 1.7886671e-38
0.091581278 -0.14485909 0.022143569 1.7794475e-38
0.093378566 -0.14485909 0.022143569 1.770228e-38
0.095539264 -0.14572121 0.019117679 1.742569e-38
0.097341858 -0.14572121 0.019117679 1.71491e-38
0.099144451 -0.14572121 0.019117679 1.6964349e-38
0.10131543 -0.14655848 0.016179051 1.6779956e-38
0.10312318 -0.14655848 0.016179051 1.7148736e-38
0.10532545 -0.14743073 0.013117637 1.7702266e-38
0.10713857 -0.14743073 0.013117637 1.6779588e-38
0.10895168 -0.14743073 0.013117637 3.4112215e-39
-0.02703174 -0.14924385 0.013117637 2.3509527e-38
-0.025234409 -0.14752381 0.019117679 2.3509886e-38
-0.023431817 -0.14752381 0.019117679 2.3509886e-38
-0.021647792 -0.14665638 0.022143569 2.3509886e-38
-0.019874241 -0.14579402 0.025151815 2.3509886e-38
-0.018111069 -0.1449367 0.028142419 2.3509886e-38
-0.0163243 -0.1449367 0.028142419 2.3509886e-38
-0.014537531 -0.1449367 0.028142419 2.3509886e-38
-0.012795071 -0.14408441 0.031115498 2.3509886e-38
-0.011013515 -0.14408441 0.031115498 2.3509886e-38
-0.0092882477 -0.14320792 0.034172978 2.3509886e-38
-0.0075733308 -0.14233668 0.0372121 2.3509886e-38
-0.0058664717 -0.14149947 0.040132608 2.3509886e-38
-0.004242491 -0.13978253 0.046121802 2.3509886e-38
-0.0024872459 -0.13978253 0.046121802 2.3509886e-38
-0.00081534125 -0.13890342 0.049188402 2.3509886e-38
0.0008491911 -0.13805781 0.052138176 2.3509886e-38
0.0025009196 -0.13718925 0.055168059 2.3509886e-38
0.0042403024 -0.13718925 0.055168059 2.3509886e-38
0.0058767218 -0.13632594 0.058179583 2.3509886e-38
0.0075378735 -0.13574408 0.060209241 2.3509886e-38
0.0091560464 -0.13488953 0.063190252 2.3509886e-38
0.010881362 -0.13488953 0.063190252 2.3509886e-38
0.012484593 -0.1340401 0.066153318 2.3509886e-38
0.014074126 -0.13316862 0.069193333 2.3509886e-38
0.015788922 -0.13316862 0.069193333 2.3509886e-38
0.017367711 -0.13232954 0.072120398 2.3509886e-38
0.018977726 -0.13173707 0.07418707 2.3509886e-38
0.020683764 -0.13173707 0.07418707 2.3509886e-38
0.022389797 -0.13173707 0.07418707 2.3509886e-38
0.024095835 -0.13173707 0.07418707 2.3509886e-38
0.025801873 -0.13173707 0.07418707 2.3509886e-38
0.027507911 -0.13173707 0.07418707 2.3509886e-38
0.029213948 -0.13173707 0.07418707 2.3509886e-38
0.030919986 -0.13173707 0.07418707 2.3509886e-38
0.03275466 -0.13232954 0.072120398 2.3509886e-38
0.034651637 -0.13316862 0.069193333 2.3509886e-38
0.036366433 -0.13316862 0.069193333 2.3509886e-38
0.038081229 -0.13316862 0.069193333 2.3509886e-38
0.040006563 -0.1340401 0.066153318 2.3509886e-38
0.04193709 -0.13488953 0.063190252 2.3509886e-38
0.043879315 -0.13574408 0.060209241 2.3509886e-38
0.045609862 -0.13574408 0.060209241 2.3509886e-38
0.047495209 -0.13632594 0.058179583 2.3509886e-38
0.049229309 -0.13632594 0.058179583 2.3509886e-38
0.051203668 -0.13718925 0.055168059 2.3509886e-38
0.052943051 -0.13718925 0.055168059 2.3509886e-38
0.054682434 -0.13718925 0.055168059 2.3509886e-38
0.056421824 -0.13718925 0.055168059 2.3509886e-38
0.058424167 -0.13805781 0.052138176 2.3509886e-38
0.06016887 -0.13805781 0.052138176 2.3509886e-38
0.061913557 -0.13805781 0.052138176 2.341769e-38
0.063929789 -0.13890342 0.049188402 2.3325494e-38
0.065679647 -0.13890342 0.049188402 2.3141103e-38
0.067722552 -0.13978253 0.046121802 2.3048905e-38
0.069477804 -0.13978253 0.046121802 2.2956709e-38
0.071528815 -0.14063846 0.043136086 2.3325492e-38
0.073592104 -0.14149947 0.040132608 2.3048905e-38
0.075657405 -0.14233668 0.0372121 2.2957065e-38
0.077745311 -0.14320792 0.034172978 2.0928761e-38
0.079521514 -0.14320792 0.034172978 2.0652174e-38
0.081627391 -0.14408441 0.031115498 1.926924e-38
0.083734758 -0.1449367 0.028142419 1.9177044e-38
0.085521527 -0.1449367 0.028142419 1.8347283e-38
0.087646492 -0.14579402 0.025151815 1.7978867e-38
0.089438505 -0.14579402 0.025151815 1.7795196e-38
0.091581278 -0.14665638 0.022143569 1.7978867e-38
0.093736671 -0.14752381 0.019117679 1.7794475e-38
0.095539264 -0.14752381 0.019117679 1.7517886e-38
0.097341858 -0.14752381 0.019117679 1.7241296e-38
0.099144451 -0.14752381 0.019117679 1.71491e-38
0.10131543 -0.14836623 0.016179051 1.7148739e-38
0.10312318 -0.14836623 0.016179051 1.8070692e-38
0.10532545 -0.14924385 0.013117637 1.7148736e-38
0.10713857 -0.14924385 0.013117637 1.5489571e-38
0.10895168 -0.14924385 0.013117637 3.6885272e-39
-0.027037 -0.1493264 0.019117679 2.3509527e-38
-0.025234409 -0.1493264 0.019117679 2.3509886e-38
-0.023431817 -0.1493264 0.019117679 2.3509886e-38
-0.021647792 -0.14845367 0.022143569 2.3509886e-38
-0.019874241 -0.14758603 0.025151815 2.3509886e-38
-0.018111069 -0.14672346 0.028142419 2.3509886e-38
-0.0163243 -0.14672346 0.028142419 2.3509886e-38
-0.014537531 -0.14672346 0.028142419 2.3509886e-38
-0.012795071 -0.14586596 0.031115498 2.3509886e-38
-0.011064442 -0.14498411 0.034172978 2.3509886e-38
-0.0092882477 -0.14498411 0.034172978 2.3509886e-38
-0.0075733308 -0.14410757 0.0372121 2.3509886e-38
-0.0058664717 -0.1432652 0.040132608 2.3509886e-38
-0.004242491 -0.14153777 0.046121802 2.3509886e-38
-0.0024872459 -0.14153777 0.046121802 2.3509886e-38
-0.00081534125 -0.1406533 0.049188402 2.3509886e-38
0.0008491911 -0.13980253 0.052138176 2.3509886e-38
0.0025009196 -0.13892864 0.055168059 2.3509886e-38
0.0041426215 -0.13806005 0.058179583 2.3509886e-38
0.0058767218 -0.13806005 0.058179583 2.3509886e-38
0.0075378735 -0.13747464 0.060209241 2.3509886e-38
0.0091560464 -0.13661484 0.063190252 2.3509886e-38
0.010881362 -0.13661484 0.063190252 2.3509886e-38
0.012606682 -0.13661484 0.063190252 2.3509886e-38
0.014074126 -0.13488342 0.069193333 2.3509886e-38
0.015788922 -0.13488342 0.069193333 2.3509886e-38
0.017367711 -0.13403918 0.072120398 2.3509886e-38
0.018977726 -0.1334431 0.07418707 2.3509886e-38
0.020683764 -0.1334431 0.07418707 2.3509886e-38
0.022389797 -0.1334431 0.07418707 2.3509886e-38
0.02393592 -0.13258059 0.077177495 2.3509886e-38
0.025636712 -0.13258059 0.077177495 2.3509886e-38
0.027337505 -0.13258059 0.077177495 2.3509886e-38
0.029213948 -0.1334431 0.07418707 2.3509886e-38
0.030919986 -0.1334431 0.07418707 2.3509886e-38
0.03275466 -0.13403918 0.072120398 2.3509886e-38
0.034464322 -0.13403918 0.072120398 2.3509886e-38
0.036366433 -0.13488342 0.069193333 2.3509886e-38
0.038081229 -0.13488342 0.069193333 2.3509886e-38
0.040006563 -0.13576023 0.066153318 2.3509886e-38
0.041726686 -0.13576023 0.066153318 2.3509886e-38
0.043662407 -0.13661484 0.063190252 2.3509886e-38
0.045609862 -0.13747464 0.060209241 2.3509886e-38
0.047340408 -0.13747464 0.060209241 2.3509886e-38
0.049229309 -0.13806005 0.058179583 2.3509886e-38
0.050963417 -0.13806005 0.058179583 2.3509886e-38
0.052943051 -0.13892864 0.055168059 2.3509886e-38
0.054682434 -0.13892864 0.055168059 2.3509886e-38
0.056421824 -0.13892864 0.055168059 2.3509886e-38
0.058424167 -0.13980253 0.052138176 2.3509886e-38
0.06016887 -0.13980253 0.052138176 2.3509886e-38
0.061913557 -0.13980253 0.052138176 2.3509886e-38
0.063929789 -0.1406533 0.049188402 2.3325494e-38
0.065967314 -0.14153777 0.046121802 2.2956712e-38
0.067722552 -0.14153777 0.046121802 2.2587927e-38
0.069477804 -0.14153777 0.046121802 2.2403535e-38
0.071528815 -0.14239894 0.043136086 2.2126948e-38
0.073592104 -0.1432652 0.040132608 2.1942557e-38
0.075657405 -0.14410757 0.0372121 2.2035109e-38
0.077745311 -0.14498411 0.034172978 2.0375587e-38
0.079521514 -0.14498411 0.034172978 2.0191196e-38
0.081627391 -0.14586596 0.031115498 1.8808262e-38
0.083734758 -0.14672346 0.028142419 1.8900457e-38
0.085854478 -0.14758603 0.025151815 1.8163252e-38
0.087646492 -0.14758603 0.025151815 1.7426413e-38
0.089783989 -0.14845367 0.022143569 1.7334936e-38
0.091581278 -0.14845367 0.022143569 1.7426413e-38
0.093736671 -0.1493264 0.019117679 1.7242022e-38
0.095539264 -0.1493264 0.019117679 1.7057987e-38
0.097341858 -0.1493264 0.019117679 1.7057984e-38
-0.019874241 -0.14937802 0.025151815 2.3509886e-38
-0.018111069 -0.14851023 0.028142419 2.3509886e-38
-0.0163243 -0.14851023 0.028142419 2.3509886e-38
-0.014576627 -0.14764751 0.031115498 2.3509886e-38
-0.012795071 -0.14764751 0.031115498 2.3509886e-38
-0.011064442 -0.1467603 0.034172978 2.3509886e-38
-0.0093441978 -0.14587842 0.0372121 2.3509886e-38
-0.0075733308 -0.14587842 0.0372121 2.3509886e-38
-0.0059322994 -0.14415942 0.043136086 2.3509886e-38
-0.004242491 -0.14329304 0.046121802 2.3509886e-38
-0.0025652088 -0.14240317 0.049188402 2.3509886e-38
-0.00089550577 -0.14154722 0.052138176 2.3509886e-38
0.0008491911 -0.14154722 0.052138176 2.3509886e-38
0.0025009196 -0.14066802 0.055168059 2.3509886e-38
0.0041426215 -0.13979416 0.058179583 2.3509886e-38
0.0058767218 -0.13979416 0.058179583 2.3509886e-38
0.0075378735 -0.13920517 0.060209241 2.3509886e-38
0.0092684198 -0.13920517 0.060209241 2.3509886e-38
0.010881362 -0.13834016 0.063190252 2.3509886e-38
0.012606682 -0.13834016 0.063190252 2.3509886e-38
0.014074126 -0.13659821 0.069193333 2.3509886e-38
0.015788922 -0.13659821 0.069193333 2.3509886e-38
0.017367711 -0.13574885 0.072120398 2.3509886e-38
0.018977726 -0.13514914 0.07418707 2.3509886e-38
0.020683764 -0.13514914 0.07418707 2.3509886e-38
0.022235123 -0.13428138 0.077177495 2.3509886e-38
0.02393592 -0.13428138 0.077177495 2.3509886e-38
0.025636712 -0.13428138 0.077177495 2.3509886e-38
0.027337505 -0.13428138 0.077177495 2.3509886e-38
0.029213948 -0.13514914 0.07418707 2.3509886e-38
0.030919986 -0.13514914 0.07418707 2.3509886e-38
0.03275466 -0.13574885 0.072120398 2.3509886e-38
0.034464322 -0.13574885 0.072120398 2.3509886e-38
0.036366433 -0.13659821 0.069193333 2.3509886e-38
0.038081229 -0.13659821 0.069193333 2.3509886e-38
0.040006563 -0.13748036 0.066153318 2.3509886e-38
0.041726686 -0.13748036 0.066153318 2.3509886e-38
0.043662407 -0.13834016 0.063190252 2.3509886e-38
0.045609862 -0.13920517 0.060209241 2.3509886e-38
0.047340408 -0.13920517 0.060209241 2.3509886e-38
0.049229309 -0.13979416 0.058179583 2.3509886e-38
0.050963417 -0.13979416 0.058179583 2.3509886e-38
0.052697517 -0.13979416 0.058179583 2.3509886e-38
0.054682434 -0.14066802 0.055168059 2.3509886e-38
0.056421824 -0.14066802 0.055168059 2.3233299e-38
0.058424167 -0.14154722 0.052138176 2.3509886e-38
0.06016887 -0.14154722 0.052138176 2.3509886e-38
0.062179916 -0.14240317 0.049188402 2.3509886e-38
0.063929789 -0.14240317 0.049188402 2.341769e-38
0.065967314 -0.14329304 0.046121802 2.2680125e-38
0.067722552 -0.14329304 0.046121802 2.2034753e-38
0.069477804 -0.14329304 0.046121802 2.1573775e-38
0.071528815 -0.14415942 0.043136086 2.1204992e-38
0.073592104 -0.14503096 0.040132608 2.083621e-38
0.075657405 -0.14587842 0.0372121 2.1113152e-38
0.077745311 -0.1467603 0.034172978 1.9822414e-38
0.079521514 -0.1467603 0.034172978 1.9914609e-38
0.081627391 -0.14764751 0.031115498 1.862387e-38
0.083734758 -0.14851023 0.028142419 1.8716066e-38
0.085854478 -0.14937802 0.025151815 1.8163252e-38
0.087646492 -0.14937802 0.025151815 1.7426413e-38
-0.016358184 -0.14942907 0.031115498 2.3509886e-38
-0.014576627 -0.14942907 0.031115498 2.3509886e-38
-0.012795071 -0.14942907 0.031115498 2.3509886e-38
-0.011064442 -0.14853649 0.034172978 2.3509886e-38
-0.0093441978 -0.14764927 0.0372121 2.3509886e-38
-0.0076322183 -0.14679669 0.040132608 2.3509886e-38
