# .PCD v0.7 - Point Cloud Data file format
VERSION 0.7
FIELDS x y z rgb
SIZE 4 4 4 4
TYPE F F F F
COUNT 1 1 1 1
WIDTH 939
HEIGHT 1
VIEWPOINT 0 0 0 1 0 0 0
POINTS 939
DATA ascii
0.058546454 -0.12431435 -0.042516261 2.3509886e-38
0.060399793 -0.12431435 -0.042516261 2.3509886e-38
0.062253132 -0.12431435 -0.042516261 2.3509886e-38
0.064106472 -0.12431435 -0.042516261 2.3509886e-38
0.065959819 -0.12431435 -0.042516261 2.3509886e-38
0.067813158 -0.12431435 -0.042516261 2.3509886e-38
0.068606392 -0.12097444 -0.029513627 2.3509886e-38
0.07043694 -0.12097444 -0.029513627 2.3509886e-38
0.072267473 -0.12097444 -0.029513627 2.3326213e-38
0.074098021 -0.12097444 -0.029513627 2.341805e-38
0.077079862 -0.12431435 -0.042516261 2.341805e-38
0.078933194 -0.12431435 -0.042516261 2.341805e-38
0.080786541 -0.12431435 -0.042516261 2.341805e-38
0.081980169 -0.12250783 -0.035483271 2.341805e-38
0.083821177 -0.12250783 -0.035483271 2.341805e-38
0.085662186 -0.12250783 -0.035483271 2.3325856e-38
0.087904841 -0.1235493 -0.039537817 2.341805e-38
0.089344203 -0.12250783 -0.035483271 2.3234379e-38
0.090883747 -0.12175287 -0.032544166 2.3234379e-38
0.0927196 -0.12175287 -0.032544166 2.3234379e-38
0.094867229 -0.12250783 -0.035483271 2.3234379e-38
0.096708238 -0.12250783 -0.035483271 2.2958514e-38
0.098549247 -0.12250783 -0.035483271 2.3050708e-38
0.10039026 -0.12250783 -0.035483271 2.3142544e-38
0.10223126 -0.12250783 -0.035483271 2.2867036e-38
0.10407227 -0.12250783 -0.035483271 2.2315298e-38
0.10591328 -0.12250783 -0.035483271 2.1024925e-38
0.10775429 -0.12250783 -0.035483271 2.0472836e-38
0.1095953 -0.12250783 -0.035483271 1.9274298e-38
0.11143631 -0.12250783 -0.035483271 1.9550531e-38
0.11327732 -0.12250783 -0.035483271 1.5861992e-38
-0.096142411 -0.12280498 -0.029513627 2.3509886e-38
-0.094311863 -0.12280498 -0.029513627 2.3509886e-38
-0.092262074 -0.12202574 -0.026500493 2.3509886e-38
-0.090436816 -0.12202574 -0.026500493 2.3509886e-38
-0.088611558 -0.12202574 -0.026500493 2.3509886e-38
-0.086584076 -0.121251 -0.023504764 2.3509886e-38
-0.084764078 -0.121251 -0.023504764 2.3509886e-38
-0.082944065 -0.121251 -0.023504764 2.3509886e-38
-0.080879301 -0.12023406 -0.019572526 2.3509886e-38
-0.07888101 -0.11944233 -0.016511112 2.3509886e-38
-0.077073261 -0.11944233 -0.016511112 2.3509886e-38
-0.074925639 -0.11789979 -0.010546595 2.3509886e-38
-0.072632834 -0.1155795 -0.0015746653 2.3509886e-38
-0.070369072 -0.11324753 0.0074424446 2.3509886e-38
-0.068293542 -0.11169861 0.013431638 2.3509886e-38
-0.066538304 -0.11169861 0.013431638 2.3509886e-38
-0.064635195 -0.11090554 0.016498238 2.3509886e-38
-0.062885329 -0.11090554 0.016498238 2.3509886e-38
-0.061135456 -0.11090554 0.016498238 2.3509886e-38
-0.05938559 -0.11090554 0.016498238 2.3509886e-38
-0.057635725 -0.11090554 0.016498238 2.3509886e-38
-0.055885859 -0.11090554 0.016498238 2.3509886e-38
-0.054135986 -0.11090554 0.016498238 2.3509886e-38
-0.05238612 -0.11090554 0.016498238 2.3509886e-38
-0.050535396 -0.11014269 0.019448012 2.3509886e-38
-0.048790701 -0.11014269 0.019448012 2.3509886e-38
-0.047136515 -0.11090554 0.016498238 2.3509886e-38
-0.04538665 -0.11090554 0.016498238 2.3509886e-38
-0.043636777 -0.11090554 0.016498238 2.3509886e-38
-0.041886911 -0.11090554 0.016498238 2.3509886e-38
-0.040280297 -0.11247079 0.010445923 2.3509886e-38
-0.038585648 -0.11324753 0.0074424446 2.3509886e-38
-0.036819898 -0.11324753 0.0074424446 2.3509886e-38
-0.035054155 -0.11324753 0.0074424446 2.3509886e-38
-0.033337057 -0.11400281 0.0045219362 2.3509886e-38
-0.031566188 -0.11400281 0.0045219362 2.3509886e-38
-0.029875493 -0.1155795 -0.0015746653 2.3509886e-38
-0.028093936 -0.1155795 -0.0015746653 2.3509886e-38
-0.026312379 -0.1155795 -0.0015746653 2.3509886e-38
-0.024530824 -0.1155795 -0.0015746653 2.3509886e-38
-0.022767512 -0.1163484 -0.004547745 2.3509886e-38
-0.020993853 -0.1171218 -0.0075383484 2.3509886e-38
-0.019201841 -0.1171218 -0.0075383484 2.3509886e-38
-0.017409829 -0.1171218 -0.0075383484 2.3509886e-38
-0.015615178 -0.11789979 -0.010546595 2.3509886e-38
-0.013817893 -0.11789979 -0.010546595 2.3509886e-38
-0.012020605 -0.11789979 -0.010546595 2.3509886e-38
-0.010223319 -0.11789979 -0.010546595 2.3509886e-38
-0.008426032 -0.11789979 -0.010546595 2.3509886e-38
-0.0066287452 -0.11789979 -0.010546595 2.3509886e-38
-0.0048314584 -0.11789979 -0.010546595 2.3509886e-38
-0.0030341716 -0.11789979 -0.010546595 2.3509886e-38
-0.0011917893 -0.11868234 -0.013572484 2.3509886e-38
0.00061080232 -0.11868234 -0.013572484 2.3509886e-38
0.0024674945 -0.11944233 -0.016511112 2.3509886e-38
0.00427524 -0.11944233 -0.016511112 2.3509886e-38
0.0060829837 -0.11944233 -0.016511112 2.3509886e-38
0.0080562681 -0.121251 -0.023504764 2.3509886e-38
0.0098762754 -0.121251 -0.023504764 2.3509886e-38
0.011696281 -0.121251 -0.023504764 2.3509886e-38
0.013516288 -0.121251 -0.023504764 2.3509886e-38
0.015336296 -0.121251 -0.023504764 2.3509886e-38
0.017156301 -0.121251 -0.023504764 2.3509886e-38
0.01897631 -0.121251 -0.023504764 2.3509886e-38
0.020903992 -0.12202574 -0.026500493 2.3509886e-38
0.02272925 -0.12202574 -0.026500493 2.3509886e-38
0.024554512 -0.12202574 -0.026500493 2.3509886e-38
0.026256336 -0.121251 -0.023504764 2.3509886e-38
0.028076341 -0.121251 -0.023504764 2.3509886e-38
0.03003029 -0.12202574 -0.026500493 2.3509886e-38
0.03199555 -0.12280498 -0.029513627 2.3509886e-38
0.033680804 -0.12202574 -0.026500493 2.3509886e-38
0.03550607 -0.12202574 -0.026500493 2.3509886e-38
0.037487172 -0.12280498 -0.029513627 2.3509886e-38
0.039853774 -0.1253974 -0.039537817 2.3509886e-38
0.041866392 -0.12616767 -0.042516261 2.3509886e-38
0.043719731 -0.12616767 -0.042516261 2.3509886e-38
0.045573078 -0.12616767 -0.042516261 2.3509886e-38
0.04742641 -0.12616767 -0.042516261 2.3509886e-38
0.049279757 -0.12616767 -0.042516261 2.3509886e-38
0.051133096 -0.12616767 -0.042516261 2.3509886e-38
0.052986436 -0.12616767 -0.042516261 2.3509886e-38
0.055041969 -0.12694232 -0.045511633 2.3509886e-38
0.056693114 -0.12616767 -0.042516261 2.3509886e-38
0.058546454 -0.12616767 -0.042516261 2.3509886e-38
0.060399793 -0.12616767 -0.042516261 2.3509886e-38
0.062253132 -0.12616767 -0.042516261 2.3509886e-38
0.064106472 -0.12616767 -0.042516261 2.3509886e-38
0.064169668 -0.12023406 -0.019572526 2.3509886e-38
0.065982781 -0.12023406 -0.019572526 2.3509886e-38
0.067795902 -0.12023406 -0.019572526 2.3509886e-38
0.069936499 -0.121251 -0.023504764 2.3509886e-38
0.071756512 -0.121251 -0.023504764 2.3326213e-38
0.073836505 -0.12202574 -0.026500493 2.3326213e-38
0.075661778 -0.12202574 -0.026500493 2.341805e-38
0.078933194 -0.12616767 -0.042516261 2.341805e-38
0.079312295 -0.12202574 -0.026500493 2.341805e-38
0.081137553 -0.12202574 -0.026500493 2.3234379e-38
0.082962811 -0.12202574 -0.026500493 2.3234379e-38
0.084788069 -0.12202574 -0.026500493 2.3234379e-38
0.086911812 -0.12280498 -0.029513627 2.3050349e-38
0.08874236 -0.12280498 -0.029513627 2.2774481e-38
0.090572909 -0.12280498 -0.029513627 2.2312787e-38
0.092403442 -0.12280498 -0.029513627 2.1391191e-38
0.094555452 -0.12358873 -0.032544166 2.056143e-38
0.096391305 -0.12358873 -0.032544166 1.9916061e-38
0.097895071 -0.12280498 -0.029513627 1.973167e-38
0.099725619 -0.12280498 -0.029513627 1.9548713e-38
0.10155615 -0.12280498 -0.029513627 1.9087732e-38
0.1033867 -0.12280498 -0.029513627 1.9272843e-38
0.10591328 -0.12434883 -0.035483271 1.8351252e-38
0.10775429 -0.12434883 -0.035483271 1.7891358e-38
0.1095953 -0.12434883 -0.035483271 1.7431106e-38
0.11143631 -0.12434883 -0.035483271 1.8812963e-38
-0.10296415 -0.123071 -0.023504764 2.3509886e-38
-0.10114413 -0.123071 -0.023504764 2.341769e-38
-0.099803492 -0.12463553 -0.029513627 2.3509886e-38
-0.097972959 -0.12463553 -0.029513627 2.3509886e-38
-0.095912606 -0.12385099 -0.026500493 2.3509886e-38
-0.094087332 -0.12385099 -0.026500493 2.3325494e-38
-0.092262074 -0.12385099 -0.026500493 2.3233299e-38
-0.090224087 -0.123071 -0.023504764 2.341769e-38
-0.088404089 -0.123071 -0.023504764 2.3509886e-38
-0.086584076 -0.123071 -0.023504764 2.3509886e-38
-0.084764078 -0.123071 -0.023504764 2.3509886e-38
-0.082692415 -0.12204717 -0.019572526 2.3509886e-38
-0.080879301 -0.12204717 -0.019572526 2.3509886e-38
-0.07888101 -0.12125005 -0.016511112 2.3509886e-38
-0.077073261 -0.12125005 -0.016511112 2.3509886e-38
-0.074414387 -0.11736105 -0.0015746653 2.3509886e-38
-0.072632834 -0.11736105 -0.0015746653 2.3509886e-38
-0.070525251 -0.11577369 0.0045219362 2.3509886e-38
-0.068293542 -0.11345388 0.013431638 2.3509886e-38
-0.066538304 -0.11345388 0.013431638 2.3509886e-38
-0.064635195 -0.11265542 0.016498238 2.3509886e-38
-0.062885329 -0.11265542 0.016498238 2.3509886e-38
-0.061135456 -0.11265542 0.016498238 2.3509886e-38
-0.05938559 -0.11265542 0.016498238 2.3509886e-38
-0.057635725 -0.11265542 0.016498238 2.3509886e-38
-0.055885859 -0.11265542 0.016498238 2.3509886e-38
-0.054135986 -0.11265542 0.016498238 2.3509886e-38
-0.05238612 -0.11265542 0.016498238 2.3509886e-38
-0.050535396 -0.11188738 0.019448012 2.3509886e-38
-0.048790701 -0.11188738 0.019448012 2.3509886e-38
-0.047136515 -0.11265542 0.016498238 2.3509886e-38
-0.04538665 -0.11265542 0.016498238 2.3509886e-38
-0.043720119 -0.11345388 0.013431638 2.3509886e-38
-0.041964874 -0.11345388 0.013431638 2.3509886e-38
-0.040351391 -0.11501329 0.0074424446 2.3509886e-38
-0.038585648 -0.11501329 0.0074424446 2.3509886e-38
-0.036819898 -0.11501329 0.0074424446 2.3509886e-38
-0.035107918 -0.11577369 0.0045219362 2.3509886e-38
-0.033337057 -0.11577369 0.0045219362 2.3509886e-38
-0.03161148 -0.11656497 0.0014828146 2.3509886e-38
-0.029875493 -0.11736105 -0.0015746653 2.3509886e-38
-0.028093936 -0.11736105 -0.0015746653 2.3509886e-38
-0.026312379 -0.11736105 -0.0015746653 2.3509886e-38
-0.024530824 -0.11736105 -0.0015746653 2.3509886e-38
-0.022767512 -0.11813517 -0.004547745 2.3509886e-38
-0.020993853 -0.11891381 -0.0075383484 2.3509886e-38
-0.019201841 -0.11891381 -0.0075383484 2.3509886e-38
-0.017409829 -0.11891381 -0.0075383484 2.3509886e-38
-0.015615178 -0.11969708 -0.010546595 2.3509886e-38
-0.013817893 -0.11969708 -0.010546595 2.3509886e-38
-0.012020605 -0.11969708 -0.010546595 2.3509886e-38
-0.010223319 -0.11969708 -0.010546595 2.3509886e-38
-0.008426032 -0.11969708 -0.010546595 2.3509886e-38
-0.0066287452 -0.11969708 -0.010546595 2.3509886e-38
-0.0048314584 -0.11969708 -0.010546595 2.3509886e-38
-0.0030341716 -0.11969708 -0.010546595 2.3509886e-38
-0.0012368849 -0.11969708 -0.010546595 2.3509886e-38
0.00056040101 -0.11969708 -0.010546595 2.3509886e-38
0.0024133958 -0.12048493 -0.013572484 2.3509886e-38
0.0042159874 -0.12048493 -0.013572484 2.3509886e-38
0.006018579 -0.12048493 -0.013572484 2.3509886e-38
0.0080562681 -0.123071 -0.023504764 2.3509886e-38
0.0098762754 -0.123071 -0.023504764 2.3509886e-38
0.011696281 -0.123071 -0.023504764 2.3509886e-38
0.013516288 -0.123071 -0.023504764 2.3509886e-38
0.015215641 -0.12204717 -0.019572526 2.3509886e-38
0.017028755 -0.12204717 -0.019572526 2.3509886e-38
0.018841865 -0.12204717 -0.019572526 2.3509886e-38
0.020796316 -0.123071 -0.023504764 2.3509886e-38
0.02272925 -0.12385099 -0.026500493 2.3509886e-38
0.02443633 -0.123071 -0.023504764 2.3509886e-38
0.026256336 -0.123071 -0.023504764 2.3509886e-38
0.028076341 -0.123071 -0.023504764 2.3509886e-38
0.03003029 -0.12385099 -0.026500493 2.3509886e-38
0.03199555 -0.12463553 -0.029513627 2.3509886e-38
0.033680804 -0.12385099 -0.026500493 2.3509886e-38
0.03550607 -0.12385099 -0.026500493 2.3509886e-38
0.037487172 -0.12463553 -0.029513627 2.3509886e-38
0.039853774 -0.12724553 -0.039537817 2.3509886e-38
0.041866392 -0.12802102 -0.042516261 2.3509886e-38
0.041386746 -0.11736105 -0.0015746653 2.3509886e-38
0.043168299 -0.11736105 -0.0015746653 2.3509886e-38
0.044949859 -0.11736105 -0.0015746653 2.3509886e-38
0.046731412 -0.11736105 -0.0015746653 2.3509886e-38
0.048512965 -0.11736105 -0.0015746653 2.3509886e-38
0.050294526 -0.11736105 -0.0015746653 2.3509886e-38
0.052478649 -0.11891381 -0.0075383484 2.3509886e-38
0.054479003 -0.11969708 -0.010546595 2.3509886e-38
0.056491159 -0.12048493 -0.013572484 2.3509886e-38
0.058293752 -0.12048493 -0.013572484 2.3509886e-38
0.060096338 -0.12048493 -0.013572484 2.3509886e-38
0.06212306 -0.12125005 -0.016511112 2.3509886e-38
0.063930809 -0.12125005 -0.016511112 2.3509886e-38
0.065738551 -0.12125005 -0.016511112 2.3509886e-38
0.067546293 -0.12125005 -0.016511112 2.3509886e-38
0.069609016 -0.12204717 -0.019572526 2.3509886e-38
0.071422115 -0.12204717 -0.019572526 2.3418047e-38
0.073235229 -0.12204717 -0.019572526 2.3234376e-38
0.075048342 -0.12204717 -0.019572526 2.3234379e-38
0.076861456 -0.12204717 -0.019572526 2.3234379e-38
0.079036534 -0.123071 -0.023504764 2.3142542e-38
0.080856547 -0.123071 -0.023504764 2.3050707e-38
0.082676545 -0.123071 -0.023504764 2.295887e-38
0.084496558 -0.123071 -0.023504764 2.2866674e-38
0.086613327 -0.12385099 -0.026500493 2.3142544e-38
0.088438585 -0.12385099 -0.026500493 2.2498973e-38
0.090263844 -0.12385099 -0.026500493 2.1944721e-38
0.092089102 -0.12385099 -0.026500493 2.0747257e-38
0.09391436 -0.12385099 -0.026500493 1.9732749e-38
0.096064523 -0.12463553 -0.029513627 1.8995184e-38
0.097564876 -0.12385099 -0.026500493 1.8626401e-38
0.099390134 -0.12385099 -0.026500493 1.8534561e-38
0.10155615 -0.12463553 -0.029513627 1.7612602e-38
0.1033867 -0.12463553 -0.029513627 1.8535638e-38
0.10557058 -0.12542458 -0.032544166 1.7706603e-38
0.10775429 -0.12618984 -0.035483271 1.7430736e-38
0.10924231 -0.12542458 -0.032544166 1.6970484e-38
0.11107816 -0.12542458 -0.032544166 1.8167594e-38
0.11291401 -0.12542458 -0.032544166 1.5861266e-38
-0.10296415 -0.124891 -0.023504764 2.3509886e-38
-0.10114413 -0.124891 -0.023504764 2.3509886e-38
-0.099324122 -0.124891 -0.023504764 2.3509886e-38
-0.097504124 -0.124891 -0.023504764 2.3509886e-38
-0.095684111 -0.124891 -0.023504764 2.3325494e-38
-0.093864113 -0.124891 -0.023504764 2.3141103e-38
-0.0920441 -0.124891 -0.023504764 2.341769e-38
-0.090224087 -0.124891 -0.023504764 2.3509886e-38
-0.088131756 -0.12386028 -0.019572526 2.3509886e-38
-0.086318642 -0.12386028 -0.019572526 2.3509886e-38
-0.084505528 -0.12386028 -0.019572526 2.3509886e-38
-0.082496494 -0.1230578 -0.016511112 2.3509886e-38
-0.080688745 -0.1230578 -0.016511112 2.3509886e-38
-0.078703254 -0.12228753 -0.013572484 2.3509886e-38
-0.076900661 -0.12228753 -0.013572484 2.3509886e-38
-0.074414387 -0.11914261 -0.0015746653 2.3509886e-38
-0.072463974 -0.11834116 0.0014828146 2.3509886e-38
-0.070525251 -0.11754455 0.0045219362 2.3509886e-38
-0.068293542 -0.11520912 0.013431638 2.3509886e-38
-0.066538304 -0.11520912 0.013431638 2.3509886e-38
-0.064635195 -0.11440529 0.016498238 2.3509886e-38
-0.062885329 -0.11440529 0.016498238 2.3509886e-38
-0.061135456 -0.11440529 0.016498238 2.3509886e-38
-0.05938559 -0.11440529 0.016498238 2.3509886e-38
-0.057635725 -0.11440529 0.016498238 2.3509886e-38
-0.055885859 -0.11440529 0.016498238 2.3509886e-38
-0.054135986 -0.11440529 0.016498238 2.3509886e-38
-0.05238612 -0.11440529 0.016498238 2.3509886e-38
-0.050636254 -0.11440529 0.016498238 2.3509886e-38
-0.048886381 -0.11440529 0.016498238 2.3509886e-38
-0.047136515 -0.11440529 0.016498238 2.3509886e-38
-0.04538665 -0.11440529 0.016498238 2.3509886e-38
-0.043720119 -0.11520912 0.013431638 2.3509886e-38
-0.041964874 -0.11520912 0.013431638 2.3509886e-38
-0.040280297 -0.11599173 0.010445923 2.3509886e-38
-0.038585648 -0.11677901 0.0074424446 2.3509886e-38
-0.036819898 -0.11677901 0.0074424446 2.3509886e-38
-0.035107918 -0.11754455 0.0045219362 2.3509886e-38
-0.033337057 -0.11754455 0.0045219362 2.3509886e-38
-0.03161148 -0.11834116 0.0014828146 2.3509886e-38
-0.029875493 -0.11914261 -0.0015746653 2.3509886e-38
-0.028093936 -0.11914261 -0.0015746653 2.3509886e-38
-0.026312379 -0.11914261 -0.0015746653 2.3509886e-38
-0.024530824 -0.11914261 -0.0015746653 2.3509886e-38
-0.022767512 -0.11992194 -0.004547745 2.3509886e-38
-0.020993853 -0.12070583 -0.0075383484 2.3509886e-38
-0.019201841 -0.12070583 -0.0075383484 2.3509886e-38
-0.017409829 -0.12070583 -0.0075383484 2.3509886e-38
-0.015615178 -0.12149437 -0.010546595 2.3509886e-38
-0.013817893 -0.12149437 -0.010546595 2.3509886e-38
-0.012020605 -0.12149437 -0.010546595 2.3509886e-38
-0.010223319 -0.12149437 -0.010546595 2.3509886e-38
-0.008426032 -0.12149437 -0.010546595 2.3509886e-38
-0.0066287452 -0.12149437 -0.010546595 2.3509886e-38
-0.0048314584 -0.12149437 -0.010546595 2.3509886e-38
-0.0030341716 -0.12149437 -0.010546595 2.3509886e-38
-0.0012368849 -0.12149437 -0.010546595 2.3509886e-38
0.00056040101 -0.12149437 -0.010546595 2.3509886e-38
0.0024133958 -0.12228753 -0.013572484 2.3509886e-38
0.0042159874 -0.12228753 -0.013572484 2.3509886e-38
0.006018579 -0.12228753 -0.013572484 2.3509886e-38
0.0079631917 -0.12386028 -0.019572526 2.3509886e-38
0.0097763054 -0.12386028 -0.019572526 2.3509886e-38
0.011589417 -0.12386028 -0.019572526 2.3509886e-38
0.013516288 -0.124891 -0.023504764 2.3509886e-38
0.015121708 -0.1230578 -0.016511112 2.3509886e-38
0.01692945 -0.1230578 -0.016511112 2.3509886e-38
0.018737195 -0.1230578 -0.016511112 2.3509886e-38
0.020654978 -0.12386028 -0.019572526 2.3509886e-38
0.02272925 -0.12567626 -0.026500493 2.3509886e-38
0.02443633 -0.124891 -0.023504764 2.3509886e-38
0.026256336 -0.124891 -0.023504764 2.3509886e-38
0.028076341 -0.124891 -0.023504764 2.3509886e-38
0.028915854 -0.11914261 -0.0015746653 2.3509886e-38
0.030697411 -0.11914261 -0.0015746653 2.3509886e-38
0.032331549 -0.11834116 0.0014828146 2.3509886e-38
0.034107737 -0.11834116 0.0014828146 2.3509886e-38
0.035883933 -0.11834116 0.0014828146 2.3509886e-38
0.03749761 -0.11754455 0.0045219362 2.3509886e-38
0.039268479 -0.11754455 0.0045219362 2.3509886e-38
0.041212521 -0.11834116 0.0014828146 2.3509886e-38
0.042988718 -0.11834116 0.0014828146 2.3509886e-38
0.044764914 -0.11834116 0.0014828146 2.3509886e-38
0.046731412 -0.11914261 -0.0015746653 2.3509886e-38
0.048512965 -0.11914261 -0.0015746653 2.3509886e-38
0.050294526 -0.11914261 -0.0015746653 2.3509886e-38
0.052276775 -0.11992194 -0.004547745 2.3509886e-38
0.054270662 -0.12070583 -0.0075383484 2.3509886e-38
0.056276292 -0.12149437 -0.010546595 2.3509886e-38
0.058073573 -0.12149437 -0.010546595 2.3509886e-38
0.059870861 -0.12149437 -0.010546595 2.3509886e-38
0.061898932 -0.12228753 -0.013572484 2.3509886e-38
0.063701525 -0.12228753 -0.013572484 2.3509886e-38
0.065504119 -0.12228753 -0.013572484 2.3509886e-38
0.067306712 -0.12228753 -0.013572484 2.3509886e-38
0.069354042 -0.1230578 -0.016511112 2.341805e-38
0.071161792 -0.1230578 -0.016511112 2.3418047e-38
0.072969541 -0.1230578 -0.016511112 2.3234376e-38
0.074777275 -0.1230578 -0.016511112 2.3142542e-38
0.076585025 -0.1230578 -0.016511112 2.2774479e-38
0.07867457 -0.12386028 -0.019572526 2.2497892e-38
0.080487683 -0.12386028 -0.019572526 2.2037993e-38
0.082300797 -0.12386028 -0.019572526 2.1945797e-38
0.084113911 -0.12386028 -0.019572526 2.1762125e-38
0.086316556 -0.124891 -0.023504764 2.0931648e-38
0.088136569 -0.124891 -0.023504764 2.0286639e-38
0.090263844 -0.12567626 -0.026500493 1.9549073e-38
0.092089102 -0.12567626 -0.026500493 1.8811508e-38
0.09391436 -0.12567626 -0.026500493 1.8258337e-38
0.095739618 -0.12567626 -0.026500493 1.7797359e-38
0.097564876 -0.12567626 -0.026500493 1.7520054e-38
0.099390134 -0.12567626 -0.026500493 1.7244183e-38
0.10121541 -0.12567626 -0.026500493 1.7797712e-38
0.10304067 -0.12567626 -0.026500493 1.8996616e-38
0.10521723 -0.12646608 -0.029513627 1.7983546e-38
0.10740645 -0.12726043 -0.032544166 1.7522932e-38
0.10924231 -0.12726043 -0.032544166 1.6601701e-38
0.11107816 -0.12726043 -0.032544166 1.6785016e-38
0.11291401 -0.12726043 -0.032544166 1.4478329e-38
0.11474986 -0.12726043 -0.032544166 6.2707602e-39
-0.12588237 -0.12486555 -0.016511112 2.3416974e-38
-0.12407462 -0.12486555 -0.016511112 2.2956715e-38
-0.12258089 -0.1256734 -0.019572526 2.3509886e-38
-0.10744974 -0.11854477 0.0074424446 2.3233662e-38
-0.10515369 -0.11696436 0.013431638 2.3325856e-38
-0.10339844 -0.11696436 0.013431638 2.3325856e-38
-0.1016432 -0.11696436 0.013431638 2.2864882e-38
-0.10296415 -0.126711 -0.023504764 2.3233302e-38
-0.10114413 -0.126711 -0.023504764 2.3325494e-38
-0.099324122 -0.126711 -0.023504764 2.3233299e-38
-0.097504124 -0.126711 -0.023504764 2.3048907e-38
-0.095684111 -0.126711 -0.023504764 2.3048907e-38
-0.093864113 -0.126711 -0.023504764 2.3509886e-38
-0.091757983 -0.1256734 -0.019572526 2.3509886e-38
-0.089944869 -0.1256734 -0.019572526 2.3509886e-38
-0.087919727 -0.12486555 -0.016511112 2.3509886e-38
-0.086111993 -0.12486555 -0.016511112 2.3509886e-38
-0.08411102 -0.12409012 -0.013572484 2.3509886e-38
-0.082114786 -0.12329166 -0.010546595 2.3509886e-38
-0.080317497 -0.12329166 -0.010546595 2.3509886e-38
-0.078157343 -0.12170871 -0.004547745 2.3509886e-38
-0.076370575 -0.12170871 -0.004547745 2.3509886e-38
-0.074414387 -0.12092416 -0.0015746653 2.3509886e-38
-0.072463974 -0.12011738 0.0014828146 2.3509886e-38
-0.070525251 -0.11931543 0.0045219362 2.3509886e-38
-0.068293542 -0.11696436 0.013431638 2.3509886e-38
-0.066538304 -0.11696436 0.013431638 2.3509886e-38
-0.064635195 -0.11615516 0.016498238 2.3509886e-38
-0.062885329 -0.11615516 0.016498238 2.3509886e-38
-0.061135456 -0.11615516 0.016498238 2.3509886e-38
-0.05938559 -0.11615516 0.016498238 2.3509886e-38
-0.057635725 -0.11615516 0.016498238 2.3509886e-38
-0.055885859 -0.11615516 0.016498238 2.3509886e-38
-0.054135986 -0.11615516 0.016498238 2.3509886e-38
-0.05238612 -0.11615516 0.016498238 2.3509886e-38
-0.050636254 -0.11615516 0.016498238 2.3509886e-38
-0.048886381 -0.11615516 0.016498238 2.3509886e-38
-0.047136515 -0.11615516 0.016498238 2.3509886e-38
-0.04538665 -0.11615516 0.016498238 2.3509886e-38
-0.043720119 -0.11696436 0.013431638 2.3509886e-38
-0.041964874 -0.11696436 0.013431638 2.3509886e-38
-0.040280297 -0.11775221 0.010445923 2.3509886e-38
-0.038585648 -0.11854477 0.0074424446 2.3509886e-38
-0.036819898 -0.11854477 0.0074424446 2.3509886e-38
-0.035107918 -0.11931543 0.0045219362 2.3509886e-38
-0.033337057 -0.11931543 0.0045219362 2.3509886e-38
-0.03161148 -0.12011738 0.0014828146 2.3509886e-38
-0.029835286 -0.12011738 0.0014828146 2.3509886e-38
-0.028093936 -0.12092416 -0.0015746653 2.3509886e-38
-0.026312379 -0.12092416 -0.0015746653 2.3509886e-38
-0.024530824 -0.12092416 -0.0015746653 2.3509886e-38
-0.022749269 -0.12092416 -0.0015746653 2.3509886e-38
-0.020980744 -0.12170871 -0.004547745 2.3509886e-38
-0.019193975 -0.12170871 -0.004547745 2.3509886e-38
-0.017409829 -0.12249784 -0.0075383484 2.3509886e-38
-0.015617816 -0.12249784 -0.0075383484 2.3509886e-38
-0.013825804 -0.12249784 -0.0075383484 2.3509886e-38
-0.012020605 -0.12329166 -0.010546595 2.3509886e-38
-0.010223319 -0.12329166 -0.010546595 2.3509886e-38
-0.008426032 -0.12329166 -0.010546595 2.3509886e-38
-0.0066287452 -0.12329166 -0.010546595 2.3509886e-38
-0.0048657423 -0.12249784 -0.0075383484 2.3509886e-38
-0.0030737305 -0.12249784 -0.0075383484 2.3509886e-38
-0.0012817178 -0.12249784 -0.0075383484 2.3509886e-38
0.00051029399 -0.12249784 -0.0075383484 2.3509886e-38
0.0024133958 -0.12409012 -0.013572484 2.3509886e-38
0.0042159874 -0.12409012 -0.013572484 2.3509886e-38
0.006018579 -0.12409012 -0.013572484 2.3509886e-38
0.0079631917 -0.1256734 -0.019572526 2.3509886e-38
0.0097763054 -0.1256734 -0.019572526 2.3509886e-38
0.011589417 -0.1256734 -0.019572526 2.3509886e-38
0.013402529 -0.1256734 -0.019572526 2.3509886e-38
0.015031541 -0.12409012 -0.013572484 2.3509886e-38
0.016638404 -0.12249784 -0.0075383484 2.3509886e-38
0.018430417 -0.12249784 -0.0075383484 2.3509886e-38
0.020654978 -0.1256734 -0.019572526 2.3509886e-38
0.022468088 -0.1256734 -0.019572526 2.3509886e-38
0.023215463 -0.11854477 0.0074424446 2.3509886e-38
0.025101541 -0.11931543 0.0045219362 2.3509886e-38
0.02687241 -0.11931543 0.0045219362 2.3509886e-38
0.028915854 -0.12092416 -0.0015746653 2.3509886e-38
0.030697411 -0.12092416 -0.0015746653 2.3509886e-38
0.032478966 -0.12092416 -0.0015746653 2.3509886e-38
0.034107737 -0.12011738 0.0014828146 2.3509886e-38
0.035883933 -0.12011738 0.0014828146 2.3509886e-38
0.03749761 -0.11931543 0.0045219362 2.3509886e-38
0.039268479 -0.11931543 0.0045219362 2.3509886e-38
0.041212521 -0.12011738 0.0014828146 2.3509886e-38
0.042988718 -0.12011738 0.0014828146 2.3509886e-38
0.044764914 -0.12011738 0.0014828146 2.3509886e-38
0.046541102 -0.12011738 0.0014828146 2.3509886e-38
0.048512965 -0.12092416 -0.0015746653 2.3509886e-38
0.050294526 -0.12092416 -0.0015746653 2.3509886e-38
0.052276775 -0.12170871 -0.004547745 2.3509886e-38
0.054270662 -0.12249784 -0.0075383484 2.3509886e-38
0.056276292 -0.12329166 -0.010546595 2.3509886e-38
0.058073573 -0.12329166 -0.010546595 2.3509886e-38
0.059870861 -0.12329166 -0.010546595 2.3509886e-38
0.061898932 -0.12409012 -0.013572484 2.3509886e-38
0.063701525 -0.12409012 -0.013572484 2.3509886e-38
0.065504119 -0.12409012 -0.013572484 2.3509886e-38
0.067306712 -0.12409012 -0.013572484 2.3509886e-38
0.069109306 -0.12409012 -0.013572484 2.341805e-38
0.070911899 -0.12409012 -0.013572484 2.3418047e-38
0.072714493 -0.12409012 -0.013572484 2.3234376e-38
0.074777275 -0.12486555 -0.016511112 2.2774476e-38
0.076585025 -0.12486555 -0.016511112 2.2313498e-38
0.078392774 -0.12486555 -0.016511112 2.2036914e-38
0.080200508 -0.12486555 -0.016511112 2.1761406e-38
0.082008258 -0.12486555 -0.016511112 2.1577733e-38
0.083816007 -0.12486555 -0.016511112 2.1485898e-38
0.085927024 -0.1256734 -0.019572526 2.1116755e-38
0.088136569 -0.126711 -0.023504764 2.037955e-38
0.089956567 -0.126711 -0.023504764 1.9549792e-38
0.09177658 -0.126711 -0.023504764 1.918101e-38
0.09391436 -0.1275015 -0.026500493 1.8996619e-38
0.095739618 -0.1275015 -0.026500493 1.8720032e-38
0.097564876 -0.1275015 -0.026500493 1.835053e-38
0.099390134 -0.1275015 -0.026500493 1.7798075e-38
0.10121541 -0.1275015 -0.026500493 1.6415138e-38
0.10304067 -0.1275015 -0.026500493 1.7613681e-38
0.10521723 -0.1282966 -0.029513627 1.6692807e-38
0.10740645 -0.12909628 -0.032544166 1.6877561e-38
0.10924231 -0.12909628 -0.032544166 1.660062e-38
0.11107816 -0.12909628 -0.032544166 1.6599904e-38
0.11291401 -0.12909628 -0.032544166 1.4570161e-38
0.11474986 -0.12909628 -0.032544166 7.3771063e-39
-0.13164644 -0.12748651 -0.019572526 1.0693248e-38
-0.12983334 -0.12748651 -0.019572526 9.4032354e-39
-0.12802023 -0.12748651 -0.019572526 1.5395951e-38
-0.12588237 -0.1266733 -0.016511112 2.258721e-38
-0.12407462 -0.1266733 -0.016511112 2.3509886e-38
-0.12258089 -0.12748651 -0.019572526 2.3325494e-38
-0.12076777 -0.12748651 -0.019572526 2.3509886e-38
-0.11389272 -0.12349547 -0.004547745 2.3509886e-38
-0.11125518 -0.12108628 0.0045219362 2.341805e-38
-0.10921548 -0.1203105 0.0074424446 2.3233662e-38
-0.10744974 -0.1203105 0.0074424446 2.2864879e-38
-0.10515369 -0.11871959 0.013431638 2.341805e-38
-0.10339844 -0.11871959 0.013431638 2.341805e-38
-0.1016432 -0.11871959 0.013431638 2.2864879e-38
-0.099632561 -0.11790501 0.016498238 2.3509886e-38
-0.097882688 -0.11790501 0.016498238 2.3509886e-38
-0.096132815 -0.11790501 0.016498238 2.3509886e-38
-0.097504124 -0.12853102 -0.023504764 2.341769e-38
-0.095384195 -0.12748651 -0.019572526 2.3509886e-38
-0.093571097 -0.12748651 -0.019572526 2.3509886e-38
-0.091535226 -0.1266733 -0.016511112 2.3509886e-38
-0.089727476 -0.1266733 -0.016511112 2.2956712e-38
-0.087919727 -0.1266733 -0.016511112 2.3509886e-38
-0.085913613 -0.12589271 -0.013572484 2.3509886e-38
-0.083714277 -0.12428986 -0.0075383484 2.3509886e-38
-0.081540614 -0.12270571 -0.0015746653 2.3509886e-38
-0.079759061 -0.12270571 -0.0015746653 2.3509886e-38
-0.078157343 -0.12349547 -0.004547745 2.3509886e-38
-0.076370575 -0.12349547 -0.004547745 2.3509886e-38
-0.074414387 -0.12270571 -0.0015746653 2.3509886e-38
-0.072463974 -0.12189357 0.0014828146 2.3509886e-38
-0.070525251 -0.12108628 0.0045219362 2.3509886e-38
-0.068447977 -0.11951269 0.010445923 2.3509886e-38
-0.066538304 -0.11871959 0.013431638 2.3509886e-38
-0.064635195 -0.11790501 0.016498238 2.3509886e-38
-0.062885329 -0.11790501 0.016498238 2.3509886e-38
-0.061135456 -0.11790501 0.016498238 2.3509886e-38
-0.05938559 -0.11790501 0.016498238 2.3509886e-38
-0.057635725 -0.11790501 0.016498238 2.3509886e-38
-0.055885859 -0.11790501 0.016498238 2.3509886e-38
-0.054135986 -0.11790501 0.016498238 2.3509886e-38
-0.05238612 -0.11790501 0.016498238 2.3509886e-38
-0.050636254 -0.11790501 0.016498238 2.3509886e-38
-0.048886381 -0.11790501 0.016498238 2.3509886e-38
-0.047136515 -0.11790501 0.016498238 2.3509886e-38
-0.04538665 -0.11790501 0.016498238 2.3509886e-38
-0.043720119 -0.11871959 0.013431638 2.3509886e-38
-0.041964874 -0.11871959 0.013431638 2.3509886e-38
-0.040280297 -0.11951269 0.010445923 2.3509886e-38
-0.038585648 -0.1203105 0.0074424446 2.3509886e-38
-0.036819898 -0.1203105 0.0074424446 2.3509886e-38
-0.035107918 -0.12108628 0.0045219362 2.3509886e-38
-0.033337057 -0.12108628 0.0045219362 2.3509886e-38
-0.03161148 -0.12189357 0.0014828146 2.3509886e-38
-0.029835286 -0.12189357 0.0014828146 2.3509886e-38
-0.02805909 -0.12189357 0.0014828146 2.3509886e-38
-0.026282897 -0.12189357 0.0014828146 2.3509886e-38
-0.024506701 -0.12189357 0.0014828146 2.3509886e-38
-0.022749269 -0.12270571 -0.0015746653 2.3509886e-38
-0.020967713 -0.12270571 -0.0015746653 2.3509886e-38
-0.019193975 -0.12349547 -0.004547745 2.3509886e-38
-0.017407207 -0.12349547 -0.004547745 2.3509886e-38
-0.015617816 -0.12428986 -0.0075383484 2.3509886e-38
-0.013825804 -0.12428986 -0.0075383484 2.3509886e-38
-0.012020605 -0.12508895 -0.010546595 2.3509886e-38
-0.010223319 -0.12508895 -0.010546595 2.3509886e-38
-0.0084497677 -0.12428986 -0.0075383484 2.3509886e-38
-0.006657755 -0.12428986 -0.0075383484 2.3509886e-38
-0.0048657423 -0.12428986 -0.0075383484 2.3509886e-38
-0.0030737305 -0.12428986 -0.0075383484 2.3509886e-38
-0.0012817178 -0.12428986 -0.0075383484 2.3509886e-38
0.00051029399 -0.12428986 -0.0075383484 2.3509886e-38
0.0023023058 -0.12428986 -0.0075383484 2.3509886e-38
0.003489092 -0.11631663 0.022477895 2.3509886e-38
0.0061500799 -0.12748651 -0.019572526 2.3509886e-38
0.0079631917 -0.12748651 -0.019572526 2.3509886e-38
0.0097763054 -0.12748651 -0.019572526 2.3509886e-38
0.011589417 -0.12748651 -0.019572526 2.3509886e-38
0.013402529 -0.12748651 -0.019572526 2.3509886e-38
0.014386732 -0.1203105 0.0074424446 2.3509886e-38
0.016055057 -0.11951269 0.010445923 2.3509886e-38
0.017815536 -0.11951269 0.010445923 2.3509886e-38
0.01968397 -0.1203105 0.0074424446 2.3509886e-38
0.021449717 -0.1203105 0.0074424446 2.3509886e-38
0.023215463 -0.1203105 0.0074424446 2.3509886e-38
0.025101541 -0.12108628 0.0045219362 2.3509886e-38
0.02687241 -0.12108628 0.0045219362 2.3509886e-38
0.028643275 -0.12108628 0.0045219362 2.3509886e-38
0.030555351 -0.12189357 0.0014828146 2.3509886e-38
0.032331549 -0.12189357 0.0014828146 2.3509886e-38
0.034107737 -0.12189357 0.0014828146 2.3509886e-38
0.035883933 -0.12189357 0.0014828146 2.3509886e-38
0.03749761 -0.12108628 0.0045219362 2.3509886e-38
0.039268479 -0.12108628 0.0045219362 2.3509886e-38
0.041212521 -0.12189357 0.0014828146 2.3509886e-38
0.042988718 -0.12189357 0.0014828146 2.3509886e-38
0.044764914 -0.12189357 0.0014828146 2.3509886e-38
0.046541102 -0.12189357 0.0014828146 2.3509886e-38
0.048317298 -0.12189357 0.0014828146 2.3509886e-38
0.050294526 -0.12270571 -0.0015746653 2.3509886e-38
0.052076079 -0.12270571 -0.0015746653 2.3509886e-38
0.054063544 -0.12349547 -0.004547745 2.3509886e-38
0.056276292 -0.12508895 -0.010546595 2.3509886e-38
0.058073573 -0.12508895 -0.010546595 2.3509886e-38
0.059870861 -0.12508895 -0.010546595 2.3509886e-38
0.06166815 -0.12508895 -0.010546595 2.3509886e-38
0.063465439 -0.12508895 -0.010546595 2.3509886e-38
0.06526272 -0.12508895 -0.010546595 2.3509886e-38
0.067060009 -0.12508895 -0.010546595 2.3509886e-38
0.068857297 -0.12508895 -0.010546595 2.3509886e-38
0.070911899 -0.12589271 -0.013572484 2.3418047e-38
0.072714493 -0.12589271 -0.013572484 2.2958507e-38
0.074517086 -0.12589271 -0.013572484 2.2589724e-38
0.07631968 -0.12589271 -0.013572484 2.2221302e-38
0.078392774 -0.1266733 -0.016511112 2.1853601e-38
0.080200508 -0.1266733 -0.016511112 2.1762125e-38
0.082008258 -0.1266733 -0.016511112 2.185468e-38
0.083816007 -0.1266733 -0.016511112 2.1946876e-38
0.085927024 -0.12748651 -0.019572526 2.102492e-38
0.088136569 -0.12853102 -0.023504764 2.0011847e-38
0.089956567 -0.12853102 -0.023504764 1.9089893e-38
0.09177658 -0.12853102 -0.023504764 1.8721111e-38
0.09391436 -0.12932678 -0.026500493 1.8812227e-38
0.095739618 -0.12932678 -0.026500493 1.853564e-38
0.097564876 -0.12932678 -0.026500493 1.7890271e-38
0.099390134 -0.12932678 -0.026500493 1.7244902e-38
0.10121541 -0.12932678 -0.026500493 1.7521486e-38
0.10304067 -0.12932678 -0.026500493 1.8075738e-38
0.10521723 -0.13012715 -0.029513627 1.6785363e-38
0.10740645 -0.13093217 -0.032544166 1.6969757e-38
0.10924231 -0.13093217 -0.032544166 1.6785367e-38
0.11070886 -0.13012715 -0.029513627 1.6231474e-38
0.11216696 -0.12932678 -0.026500493 1.410918e-38
0.11399221 -0.12932678 -0.026500493 7.2852638e-39
-0.13097842 -0.12769531 -0.013572484 8.4809077e-39
-0.12949786 -0.12848105 -0.016511112 1.0325543e-38
-0.12769011 -0.12848105 -0.016511112 1.6502652e-38
-0.12588237 -0.12848105 -0.016511112 2.3417324e-38
-0.124394 -0.1292996 -0.019572526 2.3509883e-38
-0.12165509 -0.12688623 -0.010546595 2.3509883e-38
-0.1198578 -0.12688623 -0.010546595 2.3509883e-38
-0.11806053 -0.12688623 -0.010546595 2.3325492e-38
-0.11567949 -0.12528224 -0.004547745 2.3509883e-38
-0.11389272 -0.12528224 -0.004547745 2.3509886e-38
-0.11125518 -0.12285714 0.0045219362 2.3509886e-38
-0.10921548 -0.12207626 0.0074424446 2.3509886e-38
-0.10744974 -0.12207626 0.0074424446 2.341805e-38
-0.10541806 -0.12127317 0.010445923 2.341805e-38
-0.10339844 -0.12047486 0.013431638 2.341805e-38
-0.1016432 -0.12047486 0.013431638 2.341805e-38
-0.099632561 -0.11965488 0.016498238 2.3509886e-38
-0.097882688 -0.11965488 0.016498238 2.3509886e-38
-0.095897496 -0.11886616 0.019448012 2.3509886e-38
-0.094152808 -0.11886616 0.019448012 2.3509886e-38
-0.095384195 -0.1292996 -0.019572526 2.3509886e-38
-0.093571097 -0.1292996 -0.019572526 2.3509886e-38
-0.091535226 -0.12848105 -0.016511112 2.3509886e-38
-0.089727476 -0.12848105 -0.016511112 2.3509886e-38
-0.087919727 -0.12848105 -0.016511112 2.3509886e-38
-0.085709363 -0.12688623 -0.010546595 2.3509886e-38
-0.083322167 -0.1244873 -0.0015746653 2.3509886e-38
-0.081540614 -0.1244873 -0.0015746653 2.3509886e-38
-0.079759061 -0.1244873 -0.0015746653 2.3509886e-38
-0.078157343 -0.12528224 -0.004547745 2.3509886e-38
-0.076370575 -0.12528224 -0.004547745 2.3509886e-38
-0.074414387 -0.1244873 -0.0015746653 2.3509886e-38
-0.072463974 -0.12366976 0.0014828146 2.3509886e-38
-0.070525251 -0.12285714 0.0045219362 2.3509886e-38
-0.068447977 -0.12127317 0.010445923 2.3509886e-38
-0.066538304 -0.12047486 0.013431638 2.3509886e-38
-0.064783052 -0.12047486 0.013431638 2.3509886e-38
-0.062885329 -0.11965488 0.016498238 2.3509886e-38
-0.061135456 -0.11965488 0.016498238 2.3509886e-38
-0.05938559 -0.11965488 0.016498238 2.3509886e-38
-0.057635725 -0.11965488 0.016498238 2.3509886e-38
-0.055885859 -0.11965488 0.016498238 2.3509886e-38
-0.054135986 -0.11965488 0.016498238 2.3509886e-38
-0.05238612 -0.11965488 0.016498238 2.3509886e-38
-0.050636254 -0.11965488 0.016498238 2.3509886e-38
-0.048886381 -0.11965488 0.016498238 2.3509886e-38
-0.047136515 -0.11965488 0.016498238 2.3509886e-38
-0.045475364 -0.12047486 0.013431638 2.3509886e-38
-0.043720119 -0.12047486 0.013431638 2.3509886e-38
-0.041964874 -0.12047486 0.013431638 2.3509886e-38
-0.040351391 -0.12207626 0.0074424446 2.3509886e-38
-0.038585648 -0.12207626 0.0074424446 2.3509886e-38
-0.036819898 -0.12207626 0.0074424446 2.3509886e-38
-0.035054155 -0.12207626 0.0074424446 2.3509886e-38
-0.033337057 -0.12285714 0.0045219362 2.3509886e-38
-0.031566188 -0.12285714 0.0045219362 2.3509886e-38
-0.029795321 -0.12285714 0.0045219362 2.3509886e-38
-0.028024456 -0.12285714 0.0045219362 2.3509886e-38
-0.026253588 -0.12285714 0.0045219362 2.3509886e-38
-0.024482721 -0.12285714 0.0045219362 2.3509886e-38
-0.022711856 -0.12285714 0.0045219362 2.3509886e-38
-0.020940989 -0.12285714 0.0045219362 2.3509886e-38
-0.019193975 -0.12528224 -0.004547745 2.3509886e-38
-0.017407207 -0.12528224 -0.004547745 2.3509886e-38
-0.015617816 -0.12608187 -0.0075383484 2.3509886e-38
-0.013817893 -0.12688623 -0.010546595 2.3509886e-38
-0.012007343 -0.12769531 -0.013572484 2.3509886e-38
-0.010223319 -0.12688623 -0.010546595 2.3509886e-38
-0.0084733628 -0.12528224 -0.004547745 2.3509886e-38
-0.0066865943 -0.12528224 -0.004547745 2.3509886e-38
-0.0048314584 -0.12688623 -0.010546595 2.3509886e-38
-0.0030341716 -0.12688623 -0.010546595 2.3509886e-38
-0.0016839048 -0.11886616 0.019448012 2.3509886e-38
1.0322779e-05 -0.11805601 0.022477895 2.3509886e-38
0.0017497074 -0.11805601 0.022477895 2.3509886e-38
0.003489092 -0.11805601 0.022477895 2.3509886e-38
0.0052948799 -0.11886616 0.019448012 2.3509886e-38
0.0070395768 -0.11886616 0.019448012 2.3509886e-38
0.0087842718 -0.11886616 0.019448012 2.3509886e-38
0.010528969 -0.11886616 0.019448012 2.3509886e-38
0.012359003 -0.11965488 0.016498238 2.3509886e-38
0.014202964 -0.12047486 0.013431638 2.3509886e-38
0.015958207 -0.12047486 0.013431638 2.3509886e-38
0.017713452 -0.12047486 0.013431638 2.3509886e-38
0.019576015 -0.12127317 0.010445923 2.3509886e-38
0.021336494 -0.12127317 0.010445923 2.3509886e-38
0.023096973 -0.12127317 0.010445923 2.3509886e-38
0.024981206 -0.12207626 0.0074424446 2.3509886e-38
0.026746953 -0.12207626 0.0074424446 2.3509886e-38
0.0285127 -0.12207626 0.0074424446 2.3509886e-38
0.030414144 -0.12285714 0.0045219362 2.3509886e-38
0.032185011 -0.12285714 0.0045219362 2.3509886e-38
0.033955872 -0.12285714 0.0045219362 2.3509886e-38
0.035726741 -0.12285714 0.0045219362 2.3509886e-38
0.03749761 -0.12285714 0.0045219362 2.3509886e-38
0.039268479 -0.12285714 0.0045219362 2.3509886e-38
0.041212521 -0.12366976 0.0014828146 2.3509886e-38
0.042988718 -0.12366976 0.0014828146 2.3509886e-38
0.044764914 -0.12366976 0.0014828146 2.3509886e-38
0.046541102 -0.12366976 0.0014828146 2.3509886e-38
0.048317298 -0.12366976 0.0014828146 2.3509886e-38
0.050294526 -0.1244873 -0.0015746653 2.3509886e-38
0.052076079 -0.1244873 -0.0015746653 2.3509886e-38
0.053857639 -0.1244873 -0.0015746653 2.3509886e-38
0.055850312 -0.12528224 -0.004547745 2.3509886e-38
0.057854682 -0.12608187 -0.0075383484 2.3509886e-38
0.059646696 -0.12608187 -0.0075383484 2.3509886e-38
0.06166815 -0.12688623 -0.010546595 2.3509886e-38
0.063465439 -0.12688623 -0.010546595 2.3509886e-38
0.06526272 -0.12688623 -0.010546595 2.3509886e-38
0.067060009 -0.12688623 -0.010546595 2.3509886e-38
0.068857297 -0.12688623 -0.010546595 2.3509886e-38
0.070654586 -0.12688623 -0.010546595 2.3325492e-38
0.072714493 -0.12769531 -0.013572484 2.3234015e-38
0.074517086 -0.12769531 -0.013572484 2.2866311e-38
0.07631968 -0.12769531 -0.013572484 2.2221302e-38
0.078392774 -0.12848105 -0.016511112 2.1577012e-38
0.080200508 -0.12848105 -0.016511112 2.1301144e-38
0.082008258 -0.12848105 -0.016511112 2.1485898e-38
0.083816007 -0.12848105 -0.016511112 2.1671368e-38
0.085927024 -0.1292996 -0.019572526 1.9919651e-38
0.088136569 -0.13035102 -0.023504764 1.9643783e-38
0.089553237 -0.1292996 -0.019572526 1.9182805e-38
0.091366351 -0.1292996 -0.019572526 1.8629631e-38
0.09391436 -0.13115202 -0.026500493 1.8260133e-38
0.095739618 -0.13115202 -0.026500493 1.789135e-38
0.097564876 -0.13115202 -0.026500493 1.7798075e-38
0.099390134 -0.13115202 -0.026500493 1.770588e-38
0.10121541 -0.13115202 -0.026500493 1.761476e-38
0.1033867 -0.13195769 -0.029513627 1.6969391e-38
0.10521723 -0.13195769 -0.029513627 1.6600971e-38
0.10704778 -0.13195769 -0.029513627 1.641658e-38
0.10887831 -0.13195769 -0.029513627 1.6508778e-38
0.11070886 -0.13195769 -0.029513627 1.6139277e-38
0.11216696 -0.13115202 -0.026500493 1.5491751e-38
0.11399221 -0.13115202 -0.026500493 7.5611291e-39
-0.13097842 -0.1294979 -0.013572484 1.0509209e-38
-0.12917583 -0.1294979 -0.013572484 1.1985418e-38
-0.12769011 -0.13028879 -0.016511112 1.7517158e-38
-0.12588237 -0.13028879 -0.016511112 2.3509879e-38
-0.12407462 -0.13028879 -0.016511112 2.3509879e-38
-0.12165509 -0.12868352 -0.010546595 2.350988e-38
-0.1198578 -0.12868352 -0.010546595 2.3325847e-38
-0.11806053 -0.12868352 -0.010546595 2.3141456e-38
-0.11567949 -0.12706901 -0.004547745 2.3509883e-38
-0.11302605 -0.12462802 0.0045219362 2.3509883e-38
-0.11125518 -0.12462802 0.0045219362 2.3509883e-38
-0.10921548 -0.12384202 0.0074424446 2.3509883e-38
-0.10717854 -0.12303366 0.010445923 2.3418047e-38
-0.10541806 -0.12303366 0.010445923 2.3418047e-38
-0.10339844 -0.1222301 0.013431638 2.3418047e-38
-0.1016432 -0.1222301 0.013431638 2.3418047e-38
-0.099632561 -0.12140475 0.016498238 2.3509886e-38
-0.097642198 -0.12061088 0.019448012 2.3509886e-38
-0.095655784 -0.1197954 0.022477895 2.3509886e-38
-0.093916401 -0.1197954 0.022477895 2.3509886e-38
-0.092177019 -0.1197954 0.022477895 2.3509886e-38
-0.090437636 -0.1197954 0.022477895 2.3509886e-38
-0.088918716 -0.12061088 0.019448012 2.3509886e-38
-0.087383479 -0.12140475 0.016498238 2.3509886e-38
-0.087919727 -0.13028879 -0.016511112 2.3509886e-38
-0.08550629 -0.12787388 -0.0075383484 2.3509886e-38
-0.083322167 -0.12626885 -0.0015746653 2.3509886e-38
-0.081540614 -0.12626885 -0.0015746653 2.3509886e-38
-0.079759061 -0.12626885 -0.0015746653 2.3509886e-38
-0.078157343 -0.12706901 -0.004547745 2.3509886e-38
-0.076370575 -0.12706901 -0.004547745 2.3509886e-38
-0.074414387 -0.12626885 -0.0015746653 2.3509886e-38
-0.072463974 -0.12544595 0.0014828146 2.3509886e-38
-0.070687771 -0.12544595 0.0014828146 2.3509886e-38
-0.068603322 -0.12384202 0.0074424446 2.3509886e-38
-0.066538304 -0.1222301 0.013431638 2.3509886e-38
-0.064783052 -0.1222301 0.013431638 2.3509886e-38
-0.062885329 -0.12140475 0.016498238 2.3509886e-38
-0.061135456 -0.12140475 0.016498238 2.3509886e-38
-0.05938559 -0.12140475 0.016498238 2.3509886e-38
-0.057635725 -0.12140475 0.016498238 2.3509886e-38
-0.055885859 -0.12140475 0.016498238 2.3509886e-38
-0.054135986 -0.12140475 0.016498238 2.3509886e-38
-0.05238612 -0.12140475 0.016498238 2.3509886e-38
-0.050636254 -0.12140475 0.016498238 2.3509886e-38
-0.048886381 -0.12140475 0.016498238 2.3509886e-38
-0.047136515 -0.12140475 0.016498238 2.3509886e-38
-0.04538665 -0.12140475 0.016498238 2.3509886e-38
-0.043720119 -0.1222301 0.013431638 2.3509886e-38
-0.041964874 -0.1222301 0.013431638 2.3509886e-38
-0.040280297 -0.12303366 0.010445923 2.3509886e-38
-0.038585648 -0.12384202 0.0074424446 2.3509886e-38
-0.036819898 -0.12384202 0.0074424446 2.3509886e-38
-0.035054155 -0.12384202 0.0074424446 2.3509886e-38
-0.033337057 -0.12462802 0.0045219362 2.3509886e-38
-0.031089561 -0.11602069 0.036503166 2.3509886e-38
-0.029374769 -0.11602069 0.036503166 2.3509886e-38
-0.028024456 -0.12462802 0.0045219362 2.3509886e-38
-0.026196463 -0.12303366 0.010445923 2.3509886e-38
-0.024435982 -0.12303366 0.010445923 2.3509886e-38
-0.022620259 -0.12061088 0.019448012 2.3509886e-38
-0.020875564 -0.12061088 0.019448012 2.3509886e-38
-0.019130867 -0.12061088 0.019448012 2.3509886e-38
-0.017415119 -0.1294979 -0.013572484 2.3509886e-38
-0.015612526 -0.1294979 -0.013572484 2.3509886e-38
-0.013809934 -0.1294979 -0.013572484 2.3509886e-38
-0.012007343 -0.1294979 -0.013572484 2.3509886e-38
-0.01020475 -0.1294979 -0.013572484 2.3509886e-38
-0.0084733628 -0.12706901 -0.004547745 2.3509886e-38
-0.0069762524 -0.11898489 0.02548942 2.3509886e-38
-0.0052421493 -0.11898489 0.02548942 2.3509886e-38
-0.0034684436 -0.1197954 0.022477895 2.3509886e-38
-0.00172906 -0.1197954 0.022477895 2.3509886e-38
1.0322779e-05 -0.1197954 0.022477895 2.3509886e-38
0.0017497074 -0.1197954 0.022477895 2.3509886e-38
0.003489092 -0.1197954 0.022477895 2.3509886e-38
0.0052284747 -0.1197954 0.022477895 2.3509886e-38
0.0069678593 -0.1197954 0.022477895 2.3509886e-38
0.0087072421 -0.1197954 0.022477895 2.3509886e-38
0.010528969 -0.12061088 0.019448012 2.3509886e-38
0.012273666 -0.12061088 0.019448012 2.3509886e-38
0.01410887 -0.12140475 0.016498238 2.3509886e-38
0.015958207 -0.1222301 0.013431638 2.3509886e-38
0.017713452 -0.1222301 0.013431638 2.3509886e-38
0.019468697 -0.1222301 0.013431638 2.3509886e-38
0.021223942 -0.1222301 0.013431638 2.3509886e-38
0.023096973 -0.12303366 0.010445923 2.3509886e-38
0.024857456 -0.12303366 0.010445923 2.3509886e-38
0.026617935 -0.12303366 0.010445923 2.3509886e-38
0.0285127 -0.12384202 0.0074424446 2.3509886e-38
0.030414144 -0.12462802 0.0045219362 2.3509886e-38
0.032185011 -0.12462802 0.0045219362 2.3509886e-38
0.033955872 -0.12462802 0.0045219362 2.3509886e-38
0.035726741 -0.12462802 0.0045219362 2.3509886e-38
0.03749761 -0.12462802 0.0045219362 2.3509886e-38
0.039268479 -0.12462802 0.0045219362 2.3509886e-38
0.04103934 -0.12462802 0.0045219362 2.3509886e-38
0.042988718 -0.12544595 0.0014828146 2.3509886e-38
0.044764914 -0.12544595 0.0014828146 2.3509886e-38
0.046541102 -0.12544595 0.0014828146 2.3509886e-38
0.048317298 -0.12544595 0.0014828146 2.3509886e-38
0.050294526 -0.12626885 -0.0015746653 2.3509886e-38
0.052076079 -0.12626885 -0.0015746653 2.3509886e-38
0.053857639 -0.12626885 -0.0015746653 2.3509886e-38
0.055850312 -0.12706901 -0.004547745 2.3509886e-38
0.057637081 -0.12706901 -0.004547745 2.3509886e-38
0.059646696 -0.12787388 -0.0075383484 2.3509886e-38
0.061438709 -0.12787388 -0.0075383484 2.3509886e-38
0.063465439 -0.12868352 -0.010546595 2.3509886e-38
0.06526272 -0.12868352 -0.010546595 2.3509886e-38
0.067060009 -0.12868352 -0.010546595 2.3509886e-38
0.068857297 -0.12868352 -0.010546595 2.3509886e-38
0.070654586 -0.12868352 -0.010546595 2.3417687e-38
0.072714493 -0.1294979 -0.013572484 2.3509883e-38
0.074517086 -0.1294979 -0.013572484 2.332621e-38
0.07631968 -0.1294979 -0.013572484 2.2497889e-38
0.078392774 -0.13028879 -0.016511112 2.1669207e-38
0.080200508 -0.13028879 -0.016511112 2.1024557e-38
0.082008258 -0.13028879 -0.016511112 2.0748333e-38
0.083816007 -0.13028879 -0.016511112 2.056502e-38
0.085927024 -0.13111271 -0.019572526 2.0012566e-38
0.088136569 -0.13217102 -0.023504764 1.9551587e-38
0.089553237 -0.13111271 -0.019572526 1.8998414e-38
0.091366351 -0.13111271 -0.019572526 1.8353044e-38
0.093596593 -0.13217102 -0.023504764 1.7799154e-38
0.095739618 -0.13297729 -0.026500493 1.7430372e-38
0.097564876 -0.13297729 -0.026500493 1.7244902e-38
0.099390134 -0.13297729 -0.026500493 1.7152706e-38
0.10121541 -0.13297729 -0.026500493 1.6877195e-38
0.10304067 -0.13297729 -0.026500493 1.6509132e-38
0.10521723 -0.13378824 -0.029513627 1.6600971e-38
0.10704778 -0.13378824 -0.029513627 1.6785363e-38
0.10887831 -0.13378824 -0.029513627 1.7061949e-38
0.11107816 -0.13460387 -0.032544166 1.6600611e-38
0.11253941 -0.13378824 -0.029513627 1.5584301e-38
0.11436994 -0.13378824 -0.029513627 7.469288e-39
-0.13097842 -0.13130049 -0.013572484 1.0786152e-38
-0.12917583 -0.13130049 -0.013572484 1.2169086e-38
-0.12769011 -0.13209651 -0.016511112 1.7423881e-38
-0.12588237 -0.13209651 -0.016511112 2.3509873e-38
-0.12407462 -0.13209651 -0.016511112 2.3417679e-38
-0.12165509 -0.13048081 -0.010546595 2.3509879e-38
-0.1198578 -0.13048081 -0.010546595 2.3509879e-38
-0.11746626 -0.12885578 -0.004547745 2.3509518e-38
-0.11539018 -0.1280504 -0.0015746653 2.350988e-38
-0.11302605 -0.12639888 0.0045219362 2.350988e-38
-0.11125518 -0.12639888 0.0045219362 2.350988e-38
-0.10921548 -0.12560774 0.0074424446 2.350988e-38
-0.10717854 -0.12479414 0.010445923 2.350988e-38
-0.10541806 -0.12479414 0.010445923 2.350988e-38
-0.10339844 -0.12398534 0.013431638 2.3418045e-38
-0.10138242 -0.12315463 0.016498238 2.3418045e-38
-0.099632561 -0.12315463 0.016498238 2.3509883e-38
-0.097395167 -0.12153481 0.022477895 2.3509886e-38
-0.095415533 -0.120719 0.02548942 2.3509886e-38
-0.093681425 -0.120719 0.02548942 2.3509886e-38
-0.091947332 -0.120719 0.02548942 2.3509886e-38
-0.090213224 -0.120719 0.02548942 2.3509886e-38
