# .PCD v0.7 - Point Cloud Data file format
VERSION 0.7
FIELDS x y z rgb
SIZE 4 4 4 4
TYPE F F F F
COUNT 1 1 1 1
WIDTH 937
HEIGHT 1
VIEWPOINT 0 0 0 1 0 0 0
POINTS 937
DATA ascii
-0.05499725 -0.12704925 -0.081129916 2.3509524e-38
-0.053086102 -0.12704925 -0.081129916 2.3325131e-38
-0.051707797 -0.12982969 -0.092180856 2.3509524e-38
-0.049777277 -0.12982969 -0.092180856 2.3509883e-38
-0.047846749 -0.12982969 -0.092180856 2.3509883e-38
-0.045916229 -0.12982969 -0.092180856 2.3509523e-38
-0.04398571 -0.12982969 -0.092180856 2.3509883e-38
-0.04205519 -0.12982969 -0.092180856 2.3509883e-38
-0.040274531 -0.13082992 -0.096156247 2.3418047e-38
-0.038194157 -0.12982969 -0.092180856 2.3418047e-38
-0.03626363 -0.12982969 -0.092180856 2.3418047e-38
-0.034104869 -0.12805928 -0.085144289 2.3234376e-38
-0.032186687 -0.12805928 -0.085144289 2.3418047e-38
-0.030268503 -0.12805928 -0.085144289 2.3418047e-38
-0.028434293 -0.12883668 -0.088234074 2.2956709e-38
-0.026510688 -0.12883668 -0.088234074 2.3509883e-38
-0.024587089 -0.12883668 -0.088234074 2.3509883e-38
0.0022915211 -0.11397095 -0.029150136 2.3509886e-38
0.0041115284 -0.11397095 -0.029150136 2.3509886e-38
0.0077699255 -0.11472471 -0.032145865 2.3509886e-38
0.0095163686 -0.11221133 -0.022156484 2.3509886e-38
0.011295775 -0.11147197 -0.019217856 2.3509886e-38
0.013098367 -0.11147197 -0.019217856 2.341805e-38
0.014900959 -0.11147197 -0.019217856 2.341805e-38
0.016703552 -0.11147197 -0.019217856 2.341805e-38
0.018506143 -0.11147197 -0.019217856 2.3234379e-38
0.020308737 -0.11147197 -0.019217856 2.341805e-38
0.022050316 -0.11071064 -0.016191967 2.3234379e-38
0.023847602 -0.11071064 -0.016191967 2.3234379e-38
0.025644889 -0.11071064 -0.016191967 2.3234379e-38
0.027442176 -0.11071064 -0.016191967 2.3234379e-38
0.029239463 -0.11071064 -0.016191967 2.3234379e-38
0.031036749 -0.11071064 -0.016191967 2.3418043e-38
0.032834038 -0.11071064 -0.016191967 2.3509873e-38
0.034631327 -0.11071064 -0.016191967 2.3509879e-38
0.036428608 -0.11071064 -0.016191967 2.3509883e-38
0.038117774 -0.10995375 -0.01318372 2.3509886e-38
0.039797045 -0.10920133 -0.010193117 2.3509527e-38
0.041583814 -0.10920133 -0.010193117 2.3509168e-38
0.043370582 -0.10920133 -0.010193117 2.3508809e-38
0.04502964 -0.10845329 -0.0072200373 2.3047838e-38
0.046811193 -0.10845329 -0.0072200373 2.3509168e-38
0.048592754 -0.10845329 -0.0072200373 2.3508809e-38
0.051094495 -0.11221133 -0.022156484 2.3509527e-38
0.052902237 -0.11221133 -0.022156484 2.350988e-38
0.054709978 -0.11221133 -0.022156484 2.3509876e-38
0.056517728 -0.11221133 -0.022156484 2.350987e-38
0.058325469 -0.11221133 -0.022156484 2.2681196e-38
0.060133219 -0.11221133 -0.022156484 2.2591172e-38
0.06106364 -0.10845329 -0.0072200373 2.240786e-38
-0.060730681 -0.12896039 -0.081129916 2.2498619e-38
-0.058819532 -0.12896039 -0.081129916 2.341805e-38
-0.05658932 -0.12744872 -0.075163372 2.3509527e-38
-0.054688632 -0.12744872 -0.075163372 2.3509527e-38
-0.052441344 -0.12569134 -0.068226941 2.3509886e-38
-0.050552815 -0.12569134 -0.068226941 2.3509527e-38
-0.049777277 -0.13176022 -0.092180856 2.3509886e-38
-0.047846749 -0.13176022 -0.092180856 2.3509886e-38
-0.045916229 -0.13176022 -0.092180856 2.3509886e-38
-0.04398571 -0.13176022 -0.092180856 2.3509886e-38
-0.04205519 -0.13176022 -0.092180856 2.3509886e-38
-0.040124677 -0.13176022 -0.092180856 2.3509886e-38
-0.038052291 -0.13076027 -0.088234074 2.3509886e-38
-0.036023051 -0.12997745 -0.085144289 2.3509886e-38
-0.033974655 -0.12896039 -0.081129916 2.341805e-38
-0.032063514 -0.12896039 -0.081129916 2.3509886e-38
-0.030152367 -0.12896039 -0.081129916 2.3509886e-38
-0.028434293 -0.13076027 -0.088234074 2.3509886e-38
-0.026432136 -0.12997745 -0.085144289 2.3509886e-38
-0.024418933 -0.12896039 -0.081129916 2.3509886e-38
-0.022507789 -0.12896039 -0.081129916 2.3509886e-38
0.00047151558 -0.11579098 -0.029150136 2.3509886e-38
0.0022880752 -0.11479472 -0.025217898 2.3509886e-38
0.0040931348 -0.11401908 -0.022156484 2.3509886e-38
0.0059008803 -0.11401908 -0.022156484 2.3509886e-38
0.0076905908 -0.11327456 -0.019217856 2.3509886e-38
0.0094931833 -0.11327456 -0.019217856 2.3509886e-38
0.011295775 -0.11327456 -0.019217856 2.3509886e-38
0.013098367 -0.11327456 -0.019217856 2.3509886e-38
0.014900959 -0.11327456 -0.019217856 2.3509886e-38
0.016703552 -0.11327456 -0.019217856 2.3509886e-38
0.018506143 -0.11327456 -0.019217856 2.341805e-38
0.020253029 -0.11250792 -0.016191967 2.3509886e-38
0.022050316 -0.11250792 -0.016191967 2.341805e-38
0.023781672 -0.11174576 -0.01318372 2.341805e-38
0.025573684 -0.11174576 -0.01318372 2.341805e-38
0.027442176 -0.11250792 -0.016191967 2.341805e-38
0.029239463 -0.11250792 -0.016191967 2.341805e-38
0.031036749 -0.11250792 -0.016191967 2.3509883e-38
0.032741733 -0.11174576 -0.01318372 2.350988e-38
0.034533747 -0.11174576 -0.01318372 2.3509883e-38
0.03632576 -0.11174576 -0.01318372 2.3509886e-38
0.038010277 -0.1109881 -0.010193117 2.3509886e-38
0.039684974 -0.11023484 -0.0072200373 2.3509886e-38
0.041466527 -0.11023484 -0.0072200373 2.3509527e-38
0.043248087 -0.11023484 -0.0072200373 2.3509527e-38
0.04502964 -0.11023484 -0.0072200373 2.3232585e-38
0.046811193 -0.11023484 -0.0072200373 2.3509527e-38
0.048592754 -0.11023484 -0.0072200373 2.3509527e-38
0.050374307 -0.11023484 -0.0072200373 2.3416971e-38
0.052304432 -0.1109881 -0.010193117 2.3509524e-38
0.0540912 -0.1109881 -0.010193117 2.3509524e-38
0.056198761 -0.11250792 -0.016191967 2.3509161e-38
0.05799605 -0.11250792 -0.016191967 2.3509883e-38
0.059621915 -0.11174576 -0.01318372 2.341805e-38
0.06106364 -0.11023484 -0.0072200373 2.2589017e-38
0.0628452 -0.11023484 -0.0072200373 2.3234379e-38
0.064997956 -0.11174576 -0.01318372 2.3050349e-38
0.066789962 -0.11174576 -0.01318372 2.0376673e-38
-0.059588701 -0.11761098 -0.029150136 1.0144049e-38
-0.060730681 -0.13087155 -0.081129916 2.3142544e-38
-0.058819532 -0.13087155 -0.081129916 2.341805e-38
-0.05658932 -0.12934943 -0.075163372 2.3509886e-38
-0.05448477 -0.1283439 -0.071221836 2.3509886e-38
-0.051087238 -0.12066682 -0.041128643 2.3509886e-38
-0.048958391 -0.11914389 -0.035158999 2.3509886e-38
-0.04712785 -0.11914389 -0.035158999 2.3509886e-38
-0.04529731 -0.11914389 -0.035158999 2.3509886e-38
-0.043466762 -0.11914389 -0.035158999 2.3509886e-38
-0.041761093 -0.11991702 -0.038189538 2.3509886e-38
-0.03992524 -0.11991702 -0.038189538 2.3509886e-38
-0.03808938 -0.11991702 -0.038189538 2.3509886e-38
-0.03794124 -0.13189565 -0.085144289 2.3509886e-38
-0.035885803 -0.13087155 -0.081129916 2.3509886e-38
-0.033781119 -0.12934943 -0.075163372 2.3509886e-38
-0.031880438 -0.12934943 -0.075163372 2.3509886e-38
-0.030152367 -0.13087155 -0.081129916 2.3509886e-38
-0.028161516 -0.13012333 -0.07819701 2.3509886e-38
-0.026255513 -0.13012333 -0.07819701 2.3509886e-38
-0.024349513 -0.13012333 -0.07819701 2.3509886e-38
-0.022507789 -0.13087155 -0.081129916 2.3509886e-38
0.00047496147 -0.11660783 -0.025217898 2.3509886e-38
0.0022853911 -0.11582683 -0.022156484 2.3509886e-38
0.0040931348 -0.11582683 -0.022156484 2.3509886e-38
0.0059008803 -0.11582683 -0.022156484 2.3509886e-38
0.0076905908 -0.11507715 -0.019217856 2.3509886e-38
0.0094931833 -0.11507715 -0.019217856 2.3509886e-38
0.011295775 -0.11507715 -0.019217856 2.3509886e-38
0.013098367 -0.11507715 -0.019217856 2.3509886e-38
0.014900959 -0.11507715 -0.019217856 2.3509886e-38
0.016658455 -0.11430521 -0.016191967 2.3509886e-38
0.018455742 -0.11430521 -0.016191967 2.3509886e-38
0.020253029 -0.11430521 -0.016191967 2.3509886e-38
0.022050316 -0.11430521 -0.016191967 2.3509886e-38
0.023781672 -0.11353777 -0.01318372 2.3509886e-38
0.025573684 -0.11353777 -0.01318372 2.3509886e-38
0.027365696 -0.11353777 -0.01318372 2.3509886e-38
0.029239463 -0.11430521 -0.016191967 2.3509886e-38
0.031036749 -0.11430521 -0.016191967 2.3509886e-38
0.032741733 -0.11353777 -0.01318372 2.3509886e-38
0.034533747 -0.11353777 -0.01318372 2.3509886e-38
0.03632576 -0.11353777 -0.01318372 2.3509886e-38
0.038010277 -0.11277486 -0.010193117 2.3509886e-38
0.039684974 -0.11201639 -0.0072200373 2.3509886e-38
0.041466527 -0.11201639 -0.0072200373 2.3509527e-38
0.043248087 -0.11201639 -0.0072200373 2.3509527e-38
0.04502964 -0.11201639 -0.0072200373 2.3509527e-38
0.046811193 -0.11201639 -0.0072200373 2.3509527e-38
0.048450693 -0.11123641 -0.0041625574 2.323258e-38
0.05022689 -0.11123641 -0.0041625574 2.3509527e-38
0.05215586 -0.11201639 -0.0072200373 2.3509527e-38
0.0540912 -0.11277486 -0.010193117 2.323258e-38
0.056037895 -0.11353777 -0.01318372 2.3139664e-38
0.057829909 -0.11353777 -0.01318372 2.3509527e-38
0.059451506 -0.11277486 -0.010193117 2.3325494e-38
0.06106364 -0.11201639 -0.0072200373 2.3509886e-38
0.0628452 -0.11201639 -0.0072200373 2.3509886e-38
0.064811811 -0.11277486 -0.010193117 2.231134e-38
0.066408306 -0.11201639 -0.0072200373 1.9176688e-38
0.068189867 -0.11201639 -0.0072200373 0
0.06997142 -0.11201639 -0.0072200373 7.3756224e-40
-0.061408713 -0.11943097 -0.029150136 6.7320873e-39
-0.059588701 -0.11943097 -0.029150136 1.2080157e-38
-0.057768703 -0.11943097 -0.029150136 2.2775202e-38
-0.05573152 -0.11842094 -0.025217898 2.341805e-38
-0.053918406 -0.11842094 -0.025217898 2.3509886e-38
-0.052308679 -0.11943097 -0.029150136 2.3509886e-38
-0.050940372 -0.12175287 -0.038189538 2.3509886e-38
-0.048958391 -0.12097444 -0.035158999 2.3509886e-38
-0.046987846 -0.12020047 -0.032145865 2.3509886e-38
-0.045162588 -0.12020047 -0.032145865 2.3509886e-38
-0.04333733 -0.12020047 -0.032145865 2.3509886e-38
-0.041636229 -0.12097444 -0.035158999 2.3509886e-38
-0.03992524 -0.12175287 -0.038189538 2.3509886e-38
-0.03808938 -0.12175287 -0.038189538 2.3509886e-38
-0.036253527 -0.12175287 -0.038189538 2.3509886e-38
-0.03451816 -0.12250783 -0.041128643 2.3509886e-38
-0.032808661 -0.1235493 -0.045183189 2.3509886e-38
-0.030960547 -0.1235493 -0.045183189 2.3509886e-38
-0.029198596 -0.12431435 -0.048161633 2.3509886e-38
-0.027345257 -0.12431435 -0.048161633 2.3509886e-38
-0.025491918 -0.12431435 -0.048161633 2.3509886e-38
-0.024349513 -0.13202934 -0.07819701 2.3509886e-38
-0.0031684991 -0.11943097 -0.029150136 2.3509886e-38
-0.0013381504 -0.11842094 -0.025217898 2.3509886e-38
0.00047764555 -0.11763458 -0.022156484 2.3509886e-38
0.0022853911 -0.11763458 -0.022156484 2.3509886e-38
0.0040854067 -0.11687975 -0.019217856 2.3509886e-38
0.0058879983 -0.11687975 -0.019217856 2.3509886e-38
0.0076905908 -0.11687975 -0.019217856 2.3509886e-38
0.0094931833 -0.11687975 -0.019217856 2.3509886e-38
0.011266596 -0.1161025 -0.016191967 2.3509886e-38
0.013063882 -0.1161025 -0.016191967 2.3509886e-38
0.014861169 -0.1161025 -0.016191967 2.3509886e-38
0.016658455 -0.1161025 -0.016191967 2.3509886e-38
0.018455742 -0.1161025 -0.016191967 2.3509886e-38
0.020253029 -0.1161025 -0.016191967 2.3509886e-38
0.022050316 -0.1161025 -0.016191967 2.3509886e-38
0.023781672 -0.11532979 -0.01318372 2.3509886e-38
0.025573684 -0.11532979 -0.01318372 2.3509886e-38
0.027365696 -0.11532979 -0.01318372 2.3509886e-38
0.029239463 -0.1161025 -0.016191967 2.3509886e-38
0.031036749 -0.1161025 -0.016191967 2.3509886e-38
0.032741733 -0.11532979 -0.01318372 2.3509886e-38
0.034533747 -0.11532979 -0.01318372 2.3509886e-38
0.03632576 -0.11532979 -0.01318372 2.3509886e-38
0.038010277 -0.11456163 -0.010193117 2.3509886e-38
0.039684974 -0.11379795 -0.0072200373 2.3509886e-38
0.041466527 -0.11379795 -0.0072200373 2.3509886e-38
0.043248087 -0.11379795 -0.0072200373 2.3509886e-38
0.04502964 -0.11379795 -0.0072200373 2.2403538e-38
0.046811193 -0.11379795 -0.0072200373 2.3233299e-38
0.048450693 -0.1130126 -0.0041625574 2.3509886e-38
0.05022689 -0.1130126 -0.0041625574 2.3509886e-38
0.05215586 -0.11379795 -0.0072200373 2.3509886e-38
0.0540912 -0.11456163 -0.010193117 2.3509886e-38
0.056037895 -0.11532979 -0.01318372 2.3509527e-38
0.057829909 -0.11532979 -0.01318372 2.3233299e-38
0.059451506 -0.11456163 -0.010193117 2.2956715e-38
0.06106364 -0.11379795 -0.0072200373 2.3509886e-38
0.0628452 -0.11379795 -0.0072200373 2.3509886e-38
0.064811811 -0.11456163 -0.010193117 2.3417691e-38
0.066408306 -0.11379795 -0.0072200373 1.9268889e-38
0.068189867 -0.11379795 -0.0072200373 0
0.06997142 -0.11379795 -0.0072200373 7.3756504e-40
-0.061408713 -0.121251 -0.029150136 9.4068381e-39
-0.059588701 -0.121251 -0.029150136 1.6230035e-38
-0.057768703 -0.121251 -0.029150136 2.2958873e-38
-0.05573152 -0.12023406 -0.025217898 2.341805e-38
-0.053918406 -0.12023406 -0.025217898 2.3509886e-38
-0.052308679 -0.121251 -0.029150136 2.3509886e-38
-0.05063837 -0.12202574 -0.032145865 2.3509886e-38
-0.048813105 -0.12202574 -0.032145865 2.3509886e-38
-0.046987846 -0.12202574 -0.032145865 2.3509886e-38
-0.045162588 -0.12202574 -0.032145865 2.3509886e-38
-0.04333733 -0.12202574 -0.032145865 2.3509886e-38
-0.041636229 -0.12280498 -0.035158999 2.3509886e-38
-0.039805681 -0.12280498 -0.035158999 2.3509886e-38
-0.03797514 -0.12280498 -0.035158999 2.3509886e-38
-0.036253527 -0.12358873 -0.038189538 2.3509886e-38
-0.03451816 -0.12434883 -0.041128643 2.3509886e-38
-0.032677151 -0.12434883 -0.041128643 2.3509886e-38
-0.030836141 -0.12434883 -0.041128643 2.3509886e-38
-0.02911243 -0.1253974 -0.045183189 2.3509886e-38
-0.026991887 -0.12280498 -0.035158999 2.3509886e-38
-0.025084743 -0.12202574 -0.032145865 2.3509886e-38
-0.023259481 -0.12202574 -0.032145865 2.3509886e-38
-0.0049885046 -0.121251 -0.029150136 2.3509886e-38
-0.0031512622 -0.12023406 -0.025217898 2.3509886e-38
-0.0013300981 -0.11944233 -0.022156484 2.3509886e-38
0.00048022158 -0.11868234 -0.019217856 2.3509886e-38
0.0022828151 -0.11868234 -0.019217856 2.3509886e-38
0.0040854067 -0.11868234 -0.019217856 2.3509886e-38
0.0058879983 -0.11868234 -0.019217856 2.3509886e-38
0.0076720221 -0.11789979 -0.016191967 2.3509886e-38
0.0094693089 -0.11789979 -0.016191967 2.3509886e-38
0.011266596 -0.11789979 -0.016191967 2.3509886e-38
0.013063882 -0.11789979 -0.016191967 2.3509886e-38
0.014861169 -0.11789979 -0.016191967 2.3509886e-38
0.016658455 -0.11789979 -0.016191967 2.3509886e-38
0.018455742 -0.11789979 -0.016191967 2.3509886e-38
0.020197647 -0.1171218 -0.01318372 2.3509886e-38
0.02198966 -0.1171218 -0.01318372 2.3509886e-38
0.023781672 -0.1171218 -0.01318372 2.3509886e-38
0.025573684 -0.1171218 -0.01318372 2.3509886e-38
0.027442176 -0.11789979 -0.016191967 2.3509886e-38
0.029157709 -0.1171218 -0.01318372 2.3509886e-38
0.030949721 -0.1171218 -0.01318372 2.3509886e-38
0.032741733 -0.1171218 -0.01318372 2.3509886e-38
0.034533747 -0.1171218 -0.01318372 2.3509886e-38
0.036223508 -0.1163484 -0.010193117 2.3509886e-38
0.038010277 -0.1163484 -0.010193117 2.3509886e-38
0.039684974 -0.1155795 -0.0072200373 2.3509886e-38
0.041466527 -0.1155795 -0.0072200373 2.3509886e-38
0.043248087 -0.1155795 -0.0072200373 2.3509886e-38
0.04502964 -0.1155795 -0.0072200373 2.3509886e-38
0.046811193 -0.1155795 -0.0072200373 2.341805e-38
0.048592754 -0.1155795 -0.0072200373 2.341805e-38
0.050374307 -0.1155795 -0.0072200373 2.3141822e-38
0.05215586 -0.1155795 -0.0072200373 2.2588648e-38
0.05393742 -0.1155795 -0.0072200373 2.3234018e-38
0.055877969 -0.1163484 -0.010193117 2.341805e-38
0.057664737 -0.1163484 -0.010193117 2.341805e-38
0.059451506 -0.1163484 -0.010193117 2.3509527e-38
0.06106364 -0.1155795 -0.0072200373 2.3509527e-38
0.0628452 -0.1155795 -0.0072200373 2.3325138e-38
0.064811811 -0.1163484 -0.010193117 2.3509527e-38
0.066408306 -0.1155795 -0.0072200373 1.9360729e-38
0.068189867 -0.1155795 -0.0072200373 2.8025969e-45
0.06997142 -0.1155795 -0.0072200373 2.8025969e-45
-0.05935774 -0.12204717 -0.025217898 2.0839816e-38
-0.057544626 -0.12204717 -0.025217898 2.2958873e-38
-0.05573152 -0.12204717 -0.025217898 2.341805e-38
-0.053918406 -0.12204717 -0.025217898 2.3509886e-38
-0.052105293 -0.12204717 -0.025217898 2.3509886e-38
-0.05063837 -0.12385099 -0.032145865 2.3509886e-38
-0.048813105 -0.12385099 -0.032145865 2.3509886e-38
-0.046987846 -0.12385099 -0.032145865 2.3509886e-38
-0.045028657 -0.123071 -0.029150136 2.3509886e-38
-0.043208644 -0.123071 -0.029150136 2.3509886e-38
-0.041512072 -0.12385099 -0.032145865 2.3509886e-38
-0.039686814 -0.12385099 -0.032145865 2.3509886e-38
-0.037861556 -0.12385099 -0.032145865 2.3509886e-38
-0.035462864 -0.11969708 -0.016191967 2.3509886e-38
-0.033665575 -0.11969708 -0.016191967 2.3509886e-38
-0.031868286 -0.11969708 -0.016191967 2.3509886e-38
-0.0304686 -0.123071 -0.029150136 2.3509886e-38
-0.028648594 -0.123071 -0.029150136 2.3509886e-38
-0.026638525 -0.12125005 -0.022156484 2.3509886e-38
-0.024830775 -0.12125005 -0.022156484 2.3509886e-38
-0.023023034 -0.12125005 -0.022156484 2.3509886e-38
-0.0049455874 -0.12125005 -0.022156484 2.3509886e-38
-0.0031378437 -0.12125005 -0.022156484 2.3509886e-38
-0.00132237 -0.12048493 -0.019217856 2.3509886e-38
0.00048022158 -0.12048493 -0.019217856 2.3509886e-38
0.0022801626 -0.11969708 -0.016191967 2.3509886e-38
0.0040774476 -0.11969708 -0.016191967 2.3509886e-38
0.0058747362 -0.11969708 -0.016191967 2.3509886e-38
0.0076720221 -0.11969708 -0.016191967 2.3509886e-38
0.0094693089 -0.11969708 -0.016191967 2.3509886e-38
0.011266596 -0.11969708 -0.016191967 2.3509886e-38
0.013029599 -0.11891381 -0.01318372 2.3509886e-38
0.01482161 -0.11891381 -0.01318372 2.3509886e-38
0.016613623 -0.11891381 -0.01318372 2.3509886e-38
0.018405635 -0.11891381 -0.01318372 2.3509886e-38
0.020197647 -0.11891381 -0.01318372 2.3509886e-38
0.02198966 -0.11891381 -0.01318372 2.3509886e-38
0.023716127 -0.11813517 -0.010193117 2.3509886e-38
0.025502896 -0.11813517 -0.010193117 2.3509886e-38
0.027365696 -0.11891381 -0.01318372 2.3509886e-38
0.029157709 -0.11891381 -0.01318372 2.3509886e-38
0.030863203 -0.11813517 -0.010193117 2.3509527e-38
0.032649972 -0.11813517 -0.010193117 2.3509527e-38
0.03443674 -0.11813517 -0.010193117 2.3509886e-38
0.036223508 -0.11813517 -0.010193117 2.3509886e-38
0.037903413 -0.11736105 -0.0072200373 2.3509886e-38
0.039684974 -0.11736105 -0.0072200373 2.3509886e-38
0.041345909 -0.11656497 -0.0041625574 2.341805e-38
0.043122105 -0.11656497 -0.0041625574 2.341805e-38
0.044898301 -0.11656497 -0.0041625574 2.341805e-38
0.046674497 -0.11656497 -0.0041625574 2.212839e-38
0.048450693 -0.11656497 -0.0041625574 2.2589368e-38
0.05022689 -0.11656497 -0.0041625574 2.3234379e-38
0.052003078 -0.11656497 -0.0041625574 2.3234379e-38
0.053779274 -0.11656497 -0.0041625574 2.2865955e-38
0.055718973 -0.11736105 -0.0072200373 2.2866674e-38
0.057500534 -0.11736105 -0.0072200373 2.2589371e-38
0.059282087 -0.11736105 -0.0072200373 2.2957079e-38
0.060884058 -0.11656497 -0.0041625574 2.3048556e-38
0.062660255 -0.11656497 -0.0041625574 2.3232944e-38
0.064626753 -0.11736105 -0.0072200373 2.3509527e-38
0.066408306 -0.11736105 -0.0072200373 1.9268534e-38
0.068189867 -0.11736105 -0.0072200373 2.6736761e-39
0.06997142 -0.11736105 -0.0072200373 1.0141547e-39
-0.061170846 -0.12386028 -0.025217898 1.8073943e-38
-0.05935774 -0.12386028 -0.025217898 2.2407141e-38
-0.057544626 -0.12386028 -0.025217898 2.2958873e-38
-0.055562437 -0.1230578 -0.022156484 2.341805e-38
-0.053754687 -0.1230578 -0.022156484 2.3509886e-38
-0.051946938 -0.1230578 -0.022156484 2.3509886e-38
-0.050292179 -0.12386028 -0.025217898 2.3509886e-38
-0.048668668 -0.124891 -0.029150136 2.3509886e-38
-0.046848655 -0.124891 -0.029150136 2.3509886e-38
-0.045028657 -0.124891 -0.029150136 2.3509886e-38
-0.043208644 -0.124891 -0.029150136 2.3509886e-38
-0.041512072 -0.12567626 -0.032145865 2.3509886e-38
-0.039686814 -0.12567626 -0.032145865 2.3509886e-38
-0.037861556 -0.12567626 -0.032145865 2.3509886e-38
-0.035462864 -0.12149437 -0.016191967 2.3509886e-38
-0.033665575 -0.12149437 -0.016191967 2.3509886e-38
-0.031868286 -0.12149437 -0.016191967 2.3509886e-38
-0.030347945 -0.12386028 -0.025217898 2.3509886e-38
-0.028446266 -0.1230578 -0.022156484 2.3509886e-38
-0.026558662 -0.12228753 -0.019217856 2.3509886e-38
-0.024756068 -0.12228753 -0.019217856 2.3509886e-38
-0.023023034 -0.1230578 -0.022156484 2.3509886e-38
-0.021215288 -0.1230578 -0.022156484 2.3509886e-38
-0.017268533 -0.11834116 -0.0041625574 2.3509886e-38
-0.015492337 -0.11834116 -0.0041625574 2.3509886e-38
-0.013716141 -0.11834116 -0.0041625574 2.3509886e-38
-0.010198595 -0.11914261 -0.0072200373 2.3509886e-38
-0.0084170382 -0.11914261 -0.0072200373 2.3509886e-38
-0.0066589415 -0.11992194 -0.010193117 2.3509886e-38
-0.0048721712 -0.11992194 -0.010193117 2.3509886e-38
-0.0031249616 -0.12228753 -0.019217856 2.3509886e-38
-0.00132237 -0.12228753 -0.019217856 2.3509886e-38
0.00048287399 -0.12149437 -0.016191967 2.3509886e-38
0.0022801626 -0.12149437 -0.016191967 2.3509886e-38
0.0040774476 -0.12149437 -0.016191967 2.3509886e-38
0.0058747362 -0.12149437 -0.016191967 2.3509886e-38
0.0076535614 -0.12070583 -0.01318372 2.3509886e-38
0.0094455732 -0.12070583 -0.01318372 2.3509886e-38
0.011237586 -0.12070583 -0.01318372 2.3509886e-38
0.013029599 -0.12070583 -0.01318372 2.3509886e-38
0.01482161 -0.12070583 -0.01318372 2.3509886e-38
0.016613623 -0.12070583 -0.01318372 2.3509886e-38
0.018355822 -0.11992194 -0.010193117 2.3509886e-38
0.020142591 -0.11992194 -0.010193117 2.3509886e-38
0.021929359 -0.11992194 -0.010193117 2.3509886e-38
0.023716127 -0.11992194 -0.010193117 2.3509886e-38
0.025432523 -0.11914261 -0.0072200373 2.3509886e-38
0.02721408 -0.11914261 -0.0072200373 2.3509886e-38
0.029076435 -0.11992194 -0.010193117 2.3509886e-38
0.030863203 -0.11992194 -0.010193117 2.3509527e-38
0.032649972 -0.11992194 -0.010193117 2.3509527e-38
0.034340307 -0.11914261 -0.0072200373 2.3509886e-38
0.03612186 -0.11914261 -0.0072200373 2.3509886e-38
0.037903413 -0.11914261 -0.0072200373 2.3509886e-38
0.039684974 -0.11914261 -0.0072200373 2.341805e-38
0.041345909 -0.11834116 -0.0041625574 2.341805e-38
0.043122105 -0.11834116 -0.0041625574 2.3234379e-38
0.044767752 -0.11754455 -0.0011234358 2.3234379e-38
0.046538614 -0.11754455 -0.0011234358 2.3142544e-38
0.048450693 -0.11834116 -0.0041625574 2.3142544e-38
0.05022689 -0.11834116 -0.0041625574 2.2866674e-38
0.052003078 -0.11834116 -0.0041625574 2.1207153e-38
0.053779274 -0.11834116 -0.0041625574 2.1392623e-38
0.055718973 -0.11914261 -0.0072200373 2.0378471e-38
0.057500534 -0.11914261 -0.0072200373 1.7427135e-38
0.059282087 -0.11914261 -0.0072200373 1.6134602e-38
0.060884058 -0.11834116 -0.0041625574 1.4750949e-38
0.062660255 -0.11834116 -0.0041625574 1.2261667e-38
0.064626753 -0.11914261 -0.0072200373 9.5879924e-39
0.066408306 -0.11914261 -0.0072200373 6.5455366e-39
0.068189867 -0.11914261 -0.0072200373 9.2198432e-41
0.06997142 -0.11914261 -0.0072200373 1.936111e-39
-0.063228726 -0.126711 -0.029150136 7.1944961e-39
-0.061170846 -0.1256734 -0.025217898 2.1392986e-38
-0.05935774 -0.1256734 -0.025217898 2.2867037e-38
-0.057202727 -0.12409012 -0.019217856 2.2867037e-38
-0.055400133 -0.12409012 -0.019217856 2.341805e-38
-0.05359754 -0.12409012 -0.019217856 2.3509886e-38
-0.051946938 -0.12486555 -0.022156484 2.3509886e-38
-0.050139204 -0.12486555 -0.022156484 2.3509886e-38
-0.048479065 -0.1256734 -0.025217898 2.3509886e-38
-0.046848655 -0.126711 -0.029150136 2.3509886e-38
-0.045028657 -0.126711 -0.029150136 2.3509886e-38
-0.043208644 -0.126711 -0.029150136 2.3509886e-38
-0.041388638 -0.126711 -0.029150136 2.3509886e-38
-0.039568633 -0.126711 -0.029150136 2.3509886e-38
-0.037260145 -0.12329166 -0.016191967 2.3509886e-38
-0.035247244 -0.12170871 -0.010193117 2.3509886e-38
-0.033460476 -0.12170871 -0.010193117 2.3509886e-38
-0.031770706 -0.12249784 -0.01318372 2.3509886e-38
-0.030071 -0.12329166 -0.016191967 2.3509886e-38
-0.028273711 -0.12329166 -0.016191967 2.3509886e-38
-0.026476426 -0.12329166 -0.016191967 2.3509886e-38
-0.024526628 -0.12170871 -0.010193117 2.3509886e-38
-0.022739859 -0.12170871 -0.010193117 2.3509886e-38
-0.020953091 -0.12170871 -0.010193117 2.3509886e-38
-0.019106375 -0.12092416 -0.0072200373 2.3509886e-38
-0.017268533 -0.12011738 -0.0041625574 2.3509886e-38
-0.015492337 -0.12011738 -0.0041625574 2.3509886e-38
-0.013716141 -0.12011738 -0.0041625574 2.3509886e-38
-0.011939945 -0.12011738 -0.0041625574 2.3509886e-38
-0.010163749 -0.12011738 -0.0041625574 2.3509886e-38
-0.0084170382 -0.12092416 -0.0072200373 2.3509886e-38
-0.0066354834 -0.12092416 -0.0072200373 2.3509886e-38
-0.0048721712 -0.12170871 -0.010193117 2.3509886e-38
-0.0031116996 -0.12329166 -0.016191967 2.3509886e-38
-0.0013144109 -0.12329166 -0.016191967 2.3509886e-38
0.00048287399 -0.12329166 -0.016191967 2.3509886e-38
0.0022801626 -0.12329166 -0.016191967 2.3509886e-38
0.0040774476 -0.12329166 -0.016191967 2.3509886e-38
0.0058747362 -0.12329166 -0.016191967 2.3509886e-38
0.0076535614 -0.12249784 -0.01318372 2.3509886e-38
0.0094219781 -0.12170871 -0.010193117 2.3509886e-38
0.011208747 -0.12170871 -0.010193117 2.3509886e-38
0.012995515 -0.12170871 -0.010193117 2.3509886e-38
0.014782284 -0.12170871 -0.010193117 2.3509886e-38
0.016569052 -0.12170871 -0.010193117 2.3509886e-38
0.018355822 -0.12170871 -0.010193117 2.3509886e-38
0.020087857 -0.12092416 -0.0072200373 2.3509886e-38
0.021869412 -0.12092416 -0.0072200373 2.3509886e-38
0.023650968 -0.12092416 -0.0072200373 2.3509886e-38
0.025432523 -0.12092416 -0.0072200373 2.3509886e-38
0.02721408 -0.12092416 -0.0072200373 2.3509886e-38
0.029076435 -0.12170871 -0.010193117 2.3509886e-38
0.030863203 -0.12170871 -0.010193117 2.3509527e-38
0.032558747 -0.12092416 -0.0072200373 2.3509527e-38
0.034340307 -0.12092416 -0.0072200373 2.3509886e-38
0.03612186 -0.12092416 -0.0072200373 2.3509886e-38
0.037903413 -0.12092416 -0.0072200373 2.341805e-38
0.039684974 -0.12092416 -0.0072200373 2.341805e-38
0.041345909 -0.12011738 -0.0041625574 2.341805e-38
0.042996883 -0.11931543 -0.0011234358 2.3234379e-38
0.044767752 -0.11931543 -0.0011234358 2.3234379e-38
0.046538614 -0.11931543 -0.0011234358 2.3142544e-38
0.048450693 -0.12011738 -0.0041625574 2.2405696e-38
0.05022689 -0.12011738 -0.0041625574 1.6506255e-38
0.052003078 -0.12011738 -0.0041625574 9.6837781e-39
0.053779274 -0.12011738 -0.0041625574 7.93278e-39
0.055718973 -0.12092416 -0.0072200373 8.2093669e-39
0.057500534 -0.12092416 -0.0072200373 6.4569339e-39
0.059451506 -0.12170871 -0.010193117 4.2413647e-39
0.06106364 -0.12092416 -0.0072200373 4.0562546e-39
0.0628452 -0.12092416 -0.0072200373 4.701624e-39
0.064811811 -0.12170871 -0.010193117 3.4112411e-39
0.066598579 -0.12170871 -0.010193117 3.3190455e-39
0.068385348 -0.12170871 -0.010193117 2.2126951e-39
-0.063228726 -0.12853102 -0.029150136 7.8398655e-39
-0.060985669 -0.1266733 -0.022156484 2.2867037e-38
-0.05917792 -0.1266733 -0.022156484 2.2775202e-38
-0.056858882 -0.12428986 -0.01318372 2.2958873e-38
-0.054901697 -0.12349547 -0.010193117 2.341805e-38
-0.05279243 -0.12189357 -0.0041625574 2.3509886e-38
-0.050552636 -0.11951269 0.0048005506 2.3509886e-38
-0.048792154 -0.11951269 0.0048005506 2.3509886e-38
-0.046887711 -0.11871959 0.0077862665 2.3509886e-38
-0.045132473 -0.11871959 0.0077862665 2.3509886e-38
-0.043377221 -0.11871959 0.0077862665 2.3509886e-38
-0.043208644 -0.12853102 -0.029150136 2.3509886e-38
-0.041388638 -0.12853102 -0.029150136 2.3509886e-38
-0.039568633 -0.12853102 -0.029150136 2.3509886e-38
-0.037260145 -0.12508895 -0.016191967 2.3509886e-38
-0.035247244 -0.12349547 -0.010193117 2.3509886e-38
-0.033460476 -0.12349547 -0.010193117 2.3509886e-38
-0.031770706 -0.12428986 -0.01318372 2.3509886e-38
-0.030071 -0.12508895 -0.016191967 2.3509886e-38
-0.028273711 -0.12508895 -0.016191967 2.3509886e-38
-0.026476426 -0.12508895 -0.016191967 2.3509886e-38
-0.024451042 -0.12270571 -0.0072200373 2.3509886e-38
-0.022669489 -0.12270571 -0.0072200373 2.3509886e-38
-0.020887932 -0.12270571 -0.0072200373 2.3509886e-38
-0.019044729 -0.12189357 -0.0041625574 2.3509886e-38
-0.017212579 -0.12108628 -0.0011234358 2.3509886e-38
-0.015441714 -0.12108628 -0.0011234358 2.3509886e-38
-0.013670849 -0.12108628 -0.0011234358 2.3509886e-38
-0.01189998 -0.12108628 -0.0011234358 2.3509886e-38
-0.010163749 -0.12189357 -0.0041625574 2.3509886e-38
-0.0084170382 -0.12270571 -0.0072200373 2.3509886e-38
-0.0066354834 -0.12270571 -0.0072200373 2.3509886e-38
-0.0048539285 -0.12270571 -0.0072200373 2.3509886e-38
-0.0031116996 -0.12508895 -0.016191967 2.3509886e-38
-0.0013144109 -0.12508895 -0.016191967 2.3509886e-38
0.0004855115 -0.12428986 -0.01318372 2.3509886e-38
0.0022775251 -0.12428986 -0.01318372 2.3509886e-38
0.0040695369 -0.12428986 -0.01318372 2.3509886e-38
0.0058747362 -0.12508895 -0.016191967 2.3509886e-38
0.0076535614 -0.12428986 -0.01318372 2.3509886e-38
0.0094219781 -0.12349547 -0.010193117 2.3509886e-38
0.011208747 -0.12349547 -0.010193117 2.3509886e-38
0.012995515 -0.12349547 -0.010193117 2.3509886e-38
0.014782284 -0.12349547 -0.010193117 2.3509886e-38
0.016569052 -0.12349547 -0.010193117 2.3509886e-38
0.0183063 -0.12270571 -0.0072200373 2.3509886e-38
0.020031568 -0.12189357 -0.0041625574 2.3509886e-38
0.021807764 -0.12189357 -0.0041625574 2.3509886e-38
0.023650968 -0.12270571 -0.0072200373 2.3509886e-38
0.025360154 -0.12189357 -0.0041625574 2.3509886e-38
0.027136348 -0.12189357 -0.0041625574 2.3509886e-38
0.028912544 -0.12189357 -0.0041625574 2.3509886e-38
0.030777192 -0.12270571 -0.0072200373 2.3509527e-38
0.032558747 -0.12270571 -0.0072200373 2.3509527e-38
0.034340307 -0.12270571 -0.0072200373 2.3509886e-38
0.03612186 -0.12270571 -0.0072200373 2.3509886e-38
0.037903413 -0.12270571 -0.0072200373 2.341805e-38
0.039684974 -0.12270571 -0.0072200373 2.341805e-38
0.041345909 -0.12189357 -0.0041625574 2.3234379e-38
0.042996883 -0.12108628 -0.0011234358 2.3234379e-38
0.044767752 -0.12108628 -0.0011234358 2.3142544e-38
0.046538614 -0.12108628 -0.0011234358 2.2590087e-38
0.048309483 -0.12108628 -0.0011234358 2.2958873e-38
0.050080352 -0.12108628 -0.0011234358 2.0286276e-38
0.052453868 -0.12428986 -0.01318372 9.3157145e-39
0.054245882 -0.12428986 -0.01318372 6.4932527e-40
0.056037895 -0.12428986 -0.01318372 4.6529415e-40
0.057829909 -0.12428986 -0.01318372 3.4151942e-39
0.059621915 -0.12428986 -0.01318372 1.8442755e-39
0.061413929 -0.12428986 -0.01318372 1.8439406e-40
0.063205943 -0.12428986 -0.01318372 1.6595213e-39
0.064997956 -0.12428986 -0.01318372 1.3829344e-39
0.066789962 -0.12428986 -0.01318372 2.8580617e-39
-0.062793404 -0.12848105 -0.022156484 9.4071912e-39
-0.060985669 -0.12848105 -0.022156484 2.27752e-38
-0.05917792 -0.12848105 -0.022156484 2.2867037e-38
-0.056519046 -0.1244873 -0.0072200373 2.2867036e-38
-0.054568633 -0.12366976 -0.0041625574 2.341805e-38
-0.052473731 -0.12207626 0.0017970726 2.3509886e-38
-0.050398201 -0.12047486 0.0077862665 2.3509886e-38
-0.04848972 -0.11965488 0.010852866 2.3509886e-38
-0.04659763 -0.11886616 0.01380264 2.3509886e-38
-0.044852927 -0.11886616 0.01380264 2.3509886e-38
-0.042972766 -0.11805601 0.016832523 2.3509886e-38
-0.041016832 -0.11670811 0.021873705 2.3509886e-38
-0.039286286 -0.11670811 0.021873705 2.3509886e-38
-0.037555739 -0.11670811 0.021873705 2.3509886e-38
-0.0358252 -0.11670811 0.021873705 2.3509886e-38
-0.035354733 -0.12608187 -0.01318372 2.3509886e-38
-0.03356272 -0.12608187 -0.01318372 2.3509886e-38
-0.031770706 -0.12608187 -0.01318372 2.3509886e-38
-0.029978698 -0.12608187 -0.01318372 2.3509886e-38
-0.028186684 -0.12608187 -0.01318372 2.3509886e-38
-0.026394675 -0.12608187 -0.01318372 2.3509886e-38
-0.024451042 -0.1244873 -0.0072200373 2.3509886e-38
-0.022669489 -0.1244873 -0.0072200373 2.3509886e-38
-0.020250292 -0.11670811 0.021873705 2.3509886e-38
-0.018519746 -0.11670811 0.021873705 2.3509886e-38
-0.017158816 -0.12207626 0.0017970726 2.3509886e-38
-0.015343042 -0.12127317 0.0048005506 2.3509886e-38
-0.013492363 -0.11965488 0.010852866 2.3509886e-38
-0.011742493 -0.11965488 0.010852866 2.3509886e-38
-0.010129115 -0.12285714 -0.0011234358 2.3509886e-38
-0.0083875563 -0.12366976 -0.0041625574 2.3509886e-38
-0.0066113602 -0.12366976 -0.0041625574 2.3509886e-38
-0.0048351642 -0.12366976 -0.0041625574 2.3509886e-38
-0.0031116996 -0.12688623 -0.016191967 2.3509886e-38
-0.0013144109 -0.12688623 -0.016191967 2.3509886e-38
0.0004855115 -0.12608187 -0.01318372 2.3509886e-38
0.0022775251 -0.12608187 -0.01318372 2.3509886e-38
0.0040695369 -0.12608187 -0.01318372 2.3509886e-38
0.0058747362 -0.12688623 -0.016191967 2.3509886e-38
0.0076535614 -0.12608187 -0.01318372 2.3509886e-38
0.0093743969 -0.12366976 -0.0041625574 2.3509886e-38
0.011150592 -0.12366976 -0.0041625574 2.3509886e-38
0.012926787 -0.12366976 -0.0041625574 2.3509886e-38
0.014360606 -0.11670811 0.021873705 2.3509886e-38
0.016524743 -0.1244873 -0.0072200373 2.3509886e-38
0.0183063 -0.1244873 -0.0072200373 2.3509886e-38
0.020031568 -0.12366976 -0.0041625574 2.3509886e-38
0.021807764 -0.12366976 -0.0041625574 2.3509886e-38
0.023650968 -0.1244873 -0.0072200373 2.3509886e-38
0.025288217 -0.12285714 -0.0011234358 2.3509886e-38
0.027059084 -0.12285714 -0.0011234358 2.3509886e-38
0.028829951 -0.12285714 -0.0011234358 2.3509886e-38
0.030600818 -0.12285714 -0.0011234358 2.3509527e-38
0.032371685 -0.12285714 -0.0011234358 2.3509527e-38
0.034241132 -0.12366976 -0.0041625574 2.3509886e-38
0.036017321 -0.12366976 -0.0041625574 2.3509886e-38
0.037903413 -0.1244873 -0.0072200373 2.341805e-38
0.039684974 -0.1244873 -0.0072200373 2.341805e-38
0.041466527 -0.1244873 -0.0072200373 2.3234379e-38
0.042257041 -0.11805601 0.016832523 2.3234379e-38
0.043867059 -0.11725079 0.019844048 2.2682283e-38
0.045601159 -0.11725079 0.019844048 2.3142544e-38
0.047335267 -0.11725079 0.019844048 2.2683362e-38
0.049069367 -0.11725079 0.019844048 2.2867036e-38
0.052432597 -0.11670811 0.021873705 1.8478685e-39
-0.062793404 -0.13028879 -0.022156484 1.0512457e-38
-0.060985669 -0.13028879 -0.022156484 2.2867036e-38
-0.05917792 -0.13028879 -0.022156484 2.2867036e-38
-0.056171641 -0.12462802 -0.0011234358 2.3050707e-38
-0.054239482 -0.12384202 0.0017970726 2.341805e-38
-0.052153453 -0.1222301 0.0077862665 2.3509886e-38
-0.050239593 -0.12140475 0.010852866 2.3509886e-38
-0.048342317 -0.12061088 0.01380264 2.3509886e-38
-0.046451539 -0.1197954 0.016832523 2.3509886e-38
-0.044572227 -0.11898489 0.019844048 2.3509886e-38
-0.042747378 -0.11843865 0.021873705 2.3509886e-38
-0.040888771 -0.11763634 0.024854712 2.3509886e-38
-0.039163463 -0.11763634 0.024854712 2.3509886e-38
-0.037321247 -0.11683889 0.027817778 2.3509886e-38
-0.035601124 -0.11683889 0.027817778 2.3509886e-38
-0.033881001 -0.11683889 0.027817778 2.3509886e-38
-0.032433502 -0.11898489 0.019844048 2.3509886e-38
-0.030633563 -0.11843865 0.021873705 2.3509886e-38
-0.028720634 -0.11683889 0.027817778 2.3509886e-38
-0.027000511 -0.11683889 0.027817778 2.3509886e-38
-0.02582478 -0.1222301 0.0077862665 2.3509886e-38
-0.023762984 -0.11898489 0.019844048 2.3509886e-38
-0.02202888 -0.11898489 0.019844048 2.3509886e-38
-0.020250292 -0.11843865 0.021873705 2.3509886e-38
-0.018519746 -0.11843865 0.021873705 2.3509886e-38
-0.016992098 -0.12140475 0.010852866 2.3509886e-38
-0.015242228 -0.12140475 0.010852866 2.3509886e-38
-0.0134484 -0.12061088 0.01380264 2.3509886e-38
-0.011703702 -0.12061088 0.01380264 2.3509886e-38
-0.0099926237 -0.12140475 0.010852866 2.3509886e-38
-0.0083582476 -0.12462802 -0.0011234358 2.3509886e-38
-0.0065873805 -0.12462802 -0.0011234358 2.3509886e-38
-0.0048165154 -0.12462802 -0.0011234358 2.3509886e-38
-0.0030456483 -0.12462802 -0.0011234358 2.3509886e-38
-0.00132237 -0.1294979 -0.019217856 2.3509886e-38
0.00048022158 -0.1294979 -0.019217856 2.3509886e-38
0.0022467915 -0.11843865 0.021873705 2.3509886e-38
0.0039694961 -0.11763634 0.024854712 2.3509886e-38
0.005694814 -0.11763634 0.024854712 2.3509886e-38
0.0074201319 -0.11763634 0.024854712 2.3509886e-38
0.0091454498 -0.11763634 0.024854712 2.3509886e-38
0.010899516 -0.11843865 0.021873705 2.3509886e-38
0.01263006 -0.11843865 0.021873705 2.3509886e-38
0.014360606 -0.11843865 0.021873705 2.3509886e-38
0.016121399 -0.11898489 0.019844048 2.3509886e-38
0.017855503 -0.11898489 0.019844048 2.3509886e-38
0.019645048 -0.1197954 0.016832523 2.3509886e-38
0.021445524 -0.12061088 0.01380264 2.3509886e-38
0.023123816 -0.1197954 0.016832523 2.3509886e-38
0.0248632 -0.1197954 0.016832523 2.3509886e-38
0.026679613 -0.12061088 0.01380264 2.3509886e-38
0.02842431 -0.12061088 0.01380264 2.3509886e-38
0.030516326 -0.12384202 0.0017970726 2.3509527e-38
0.032282073 -0.12384202 0.0017970726 2.3509527e-38
0.034241132 -0.12544595 -0.0041625574 2.3509886e-38
0.036017321 -0.12544595 -0.0041625574 2.3509886e-38
0.037793517 -0.12544595 -0.0041625574 2.341805e-38
0.038588233 -0.11843865 0.021873705 2.341805e-38
0.04031878 -0.11843865 0.021873705 2.341805e-38
0.042257041 -0.1197954 0.016832523 2.3234379e-38
0.043867059 -0.11898489 0.019844048 2.3234379e-38
0.045601159 -0.11898489 0.019844048 2.2405696e-38
0.047335267 -0.11898489 0.019844048 2.3142544e-38
0.049069367 -0.11898489 0.019844048 2.2958873e-38
0.05070205 -0.11843865 0.021873705 2.0009689e-38
0.052432597 -0.11843865 0.021873705 1.5712816e-39
-0.058988929 -0.12315463 0.010852866 2.3050704e-38
-0.057770967 -0.12560774 0.0017970726 2.2958867e-38
-0.056005225 -0.12560774 0.0017970726 2.3142541e-38
-0.053908691 -0.12398534 0.0077862665 2.341805e-38
-0.051989459 -0.12315463 0.010852866 2.3509886e-38
-0.05008702 -0.12235557 0.01380264 2.3509886e-38
-0.048190922 -0.12153481 0.016832523 2.3509886e-38
-0.046306327 -0.120719 0.019844048 2.3509886e-38
-0.044572227 -0.120719 0.019844048 2.3509886e-38
-0.042747378 -0.12016918 0.021873705 2.3509886e-38
-0.040888771 -0.11936165 0.024854712 2.3509886e-38
-0.039163463 -0.11936165 0.024854712 2.3509886e-38
-0.037321247 -0.11855899 0.027817778 2.3509886e-38
-0.035601124 -0.11855899 0.027817778 2.3509886e-38
-0.033881001 -0.11855899 0.027817778 2.3509886e-38
-0.032364108 -0.12016918 0.021873705 2.3509886e-38
-0.030633563 -0.12016918 0.021873705 2.3509886e-38
-0.028720634 -0.11855899 0.027817778 2.3509886e-38
-0.027000511 -0.11855899 0.027817778 2.3509886e-38
-0.025441928 -0.12016918 0.021873705 2.3509886e-38
-0.023711385 -0.12016918 0.021873705 2.3509886e-38
-0.021980839 -0.12016918 0.021873705 2.3509886e-38
-0.020250292 -0.12016918 0.021873705 2.3509886e-38
-0.018519746 -0.12016918 0.021873705 2.3509886e-38
-0.016826572 -0.120719 0.019844048 2.3509886e-38
-0.015142629 -0.12153481 0.016832523 2.3509886e-38
-0.013403246 -0.12153481 0.016832523 2.3509886e-38
-0.01166386 -0.12153481 0.016832523 2.3509886e-38
-0.009924477 -0.12153481 0.016832523 2.3509886e-38
-0.0081560519 -0.120719 0.019844048 2.3509886e-38
-0.0063824132 -0.11936165 0.024854712 2.3509886e-38
-0.0046570953 -0.11936165 0.024854712 2.3509886e-38
-0.0029317774 -0.11936165 0.024854712 2.3509886e-38
-0.0012064595 -0.11936165 0.024854712 2.3509886e-38
0.00051885843 -0.11936165 0.024854712 2.3509886e-38
0.0022441782 -0.11936165 0.024854712 2.3509886e-38
0.0039694961 -0.11936165 0.024854712 2.3509886e-38
0.005694814 -0.11936165 0.024854712 2.3509886e-38
0.0074201319 -0.11936165 0.024854712 2.3509886e-38
0.0091454498 -0.11936165 0.024854712 2.3509886e-38
0.010899516 -0.12016918 0.021873705 2.3509886e-38
0.01263006 -0.12016918 0.021873705 2.3509886e-38
0.014360606 -0.12016918 0.021873705 2.3509886e-38
0.016091149 -0.12016918 0.021873705 2.3509886e-38
0.017855503 -0.120719 0.019844048 2.3509886e-38
0.019589607 -0.120719 0.019844048 2.3509886e-38
0.021323711 -0.120719 0.019844048 2.3509886e-38
0.023057813 -0.120719 0.019844048 2.3509886e-38
0.024791917 -0.120719 0.019844048 2.3509886e-38
0.02647442 -0.12016918 0.021873705 2.3509886e-38
0.028204964 -0.12016918 0.021873705 2.3509886e-38
0.029935509 -0.12016918 0.021873705 2.3509527e-38
0.031728331 -0.120719 0.019844048 2.3509527e-38
0.033462435 -0.120719 0.019844048 2.3509886e-38
0.035127148 -0.12016918 0.021873705 2.3509886e-38
0.036857687 -0.12016918 0.021873705 2.3509886e-38
0.038588233 -0.12016918 0.021873705 2.341805e-38
0.04031878 -0.12016918 0.021873705 2.341805e-38
0.042132951 -0.120719 0.019844048 2.3234379e-38
0.043867059 -0.120719 0.019844048 2.3234379e-38
0.045601159 -0.120719 0.019844048 2.2129109e-38
0.047240958 -0.12016918 0.021873705 2.3142544e-38
0.048971504 -0.12016918 0.021873705 2.295887e-38
0.05070205 -0.12016918 0.021873705 2.3142544e-38
0.052432597 -0.12016918 0.021873705 1.8471496e-39
-0.060738802 -0.1249045 0.010852866 1.0787605e-38
-0.058988929 -0.1249045 0.010852866 2.3234376e-38
-0.057239063 -0.1249045 0.010852866 2.3234376e-38
-0.055489197 -0.1249045 0.010852866 2.3234376e-38
-0.05357641 -0.12410025 0.01380264 2.341805e-38
-0.051831715 -0.12410025 0.01380264 2.3509886e-38
-0.049930304 -0.12327419 0.016832523 2.3509886e-38
-0.048040435 -0.12245311 0.019844048 2.3509886e-38
-0.046208471 -0.12189974 0.021873705 2.3509886e-38
-0.044339418 -0.12108697 0.024854712 2.3509886e-38
-0.042481616 -0.12027912 0.027817778 2.3509886e-38
-0.040761493 -0.12027912 0.027817778 2.3509886e-38
-0.03904137 -0.12027912 0.027817778 2.3509886e-38
-0.037321247 -0.12027912 0.027817778 2.3509886e-38
-0.035601124 -0.12027912 0.027817778 2.3509886e-38
-0.033881001 -0.12027912 0.027817778 2.3509886e-38
-0.032160878 -0.12027912 0.027817778 2.3509886e-38
-0.030440757 -0.12027912 0.027817778 2.3509886e-38
-0.028720634 -0.12027912 0.027817778 2.3509886e-38
-0.02708623 -0.12108697 0.024854712 2.3509886e-38
-0.025360914 -0.12108697 0.024854712 2.3509886e-38
-0.023635598 -0.12108697 0.024854712 2.3509886e-38
-0.021910278 -0.12108697 0.024854712 2.3509886e-38
-0.020184958 -0.12108697 0.024854712 2.3509886e-38
-0.018459642 -0.12108697 0.024854712 2.3509886e-38
-0.016789204 -0.12189974 0.021873705 2.3509886e-38
-0.015058661 -0.12189974 0.021873705 2.3509886e-38
-0.013328115 -0.12189974 0.021873705 2.3509886e-38
-0.011597568 -0.12189974 0.021873705 2.3509886e-38
-0.0098330509 -0.12108697 0.024854712 2.3509886e-38
-0.0080791581 -0.12027912 0.027817778 2.3509886e-38
-0.0063590351 -0.12027912 0.027817778 2.3509886e-38
-0.0046389122 -0.12027912 0.027817778 2.3509886e-38
-0.0029187892 -0.12027912 0.027817778 2.3509886e-38
-0.0012064595 -0.12108697 0.024854712 2.3509886e-38
0.00051885843 -0.12108697 0.024854712 2.3509886e-38
0.0022441782 -0.12108697 0.024854712 2.3509886e-38
0.0039694961 -0.12108697 0.024854712 2.3509886e-38
0.005694814 -0.12108697 0.024854712 2.3509886e-38
0.0074201319 -0.12108697 0.024854712 2.3509886e-38
0.0091454498 -0.12108697 0.024854712 2.3509886e-38
0.010870769 -0.12108697 0.024854712 2.3509886e-38
0.012596087 -0.12108697 0.024854712 2.3509886e-38
0.014321405 -0.12108697 0.024854712 2.3509886e-38
0.016046723 -0.12108697 0.024854712 2.3509886e-38
0.017821696 -0.12189974 0.021873705 2.3509886e-38
0.01955224 -0.12189974 0.021873705 2.3509886e-38
0.021282785 -0.12189974 0.021873705 2.3509886e-38
0.023013329 -0.12189974 0.021873705 2.3509886e-38
0.024743875 -0.12189974 0.021873705 2.3509886e-38
0.026398633 -0.12108697 0.024854712 2.3509886e-38
0.028123951 -0.12108697 0.024854712 2.3509886e-38
0.029849268 -0.12108697 0.024854712 2.3509527e-38
0.031574588 -0.12108697 0.024854712 2.3509527e-38
0.033299908 -0.12108697 0.024854712 2.3509886e-38
0.035025224 -0.12108697 0.024854712 2.3509886e-38
0.03675054 -0.12108697 0.024854712 2.3509886e-38
0.038588233 -0.12189974 0.021873705 2.3509886e-38
0.04031878 -0.12189974 0.021873705 2.341805e-38
0.042049326 -0.12189974 0.021873705 2.341805e-38
0.043779872 -0.12189974 0.021873705 2.341805e-38
0.045510411 -0.12189974 0.021873705 2.3142542e-38
0.047102451 -0.12108697 0.024854712 2.2958151e-38
0.048827767 -0.12108697 0.024854712 2.277376e-38
0.050553091 -0.12108697 0.024854712 2.3234379e-38
0.052278407 -0.12108697 0.024854712 3.1360905e-39
-0.060738802 -0.12665437 0.010852866 9.7730899e-39
-0.058988929 -0.12665437 0.010852866 2.3418045e-38
-0.056887835 -0.12501357 0.016832523 2.3418045e-38
-0.055148453 -0.12501357 0.016832523 2.3234015e-38
-0.05340907 -0.12501357 0.016832523 2.3509886e-38
-0.051508635 -0.12418722 0.019844048 2.3509886e-38
-0.049774535 -0.12418722 0.019844048 2.3509886e-38
-0.04793901 -0.12363027 0.021873705 2.3509886e-38
-0.046208471 -0.12363027 0.021873705 2.3509886e-38
-0.044201739 -0.12199925 0.027817778 2.3509886e-38
-0.042481616 -0.12199925 0.027817778 2.3509886e-38
-0.040761493 -0.12199925 0.027817778 2.3509886e-38
-0.03904137 -0.12199925 0.027817778 2.3509886e-38
-0.037321247 -0.12199925 0.027817778 2.3509886e-38
-0.035601124 -0.12199925 0.027817778 2.3509886e-38
-0.033771738 -0.12116508 0.030857794 2.3509886e-38
-0.032056943 -0.12116508 0.030857794 2.3509886e-38
-0.030440757 -0.12199925 0.027817778 2.3509886e-38
-0.028720634 -0.12199925 0.027817778 2.3509886e-38
-0.027000511 -0.12199925 0.027817778 2.3509886e-38
-0.025280388 -0.12199925 0.027817778 2.3509886e-38
-0.023560265 -0.12199925 0.027817778 2.3509886e-38
-0.021910278 -0.12281232 0.024854712 2.3509886e-38
-0.020184958 -0.12281232 0.024854712 2.3509886e-38
-0.018459642 -0.12281232 0.024854712 2.3509886e-38
-0.016789204 -0.12363027 0.021873705 2.3509886e-38
-0.015058661 -0.12363027 0.021873705 2.3509886e-38
-0.013328115 -0.12363027 0.021873705 2.3509886e-38
-0.011558371 -0.12281232 0.024854712 2.3509886e-38
-0.0098330509 -0.12281232 0.024854712 2.3509886e-38
-0.0080791581 -0.12199925 0.027817778 2.3509886e-38
-0.0063590351 -0.12199925 0.027817778 2.3509886e-38
-0.0046389122 -0.12199925 0.027817778 2.3509886e-38
-0.0029187892 -0.12199925 0.027817778 2.3509886e-38
-0.0012064595 -0.12281232 0.024854712 2.3509886e-38
0.00051885843 -0.12281232 0.024854712 2.3509886e-38
0.0022441782 -0.12281232 0.024854712 2.3509886e-38
0.0039617028 -0.12199925 0.027817778 2.3509886e-38
0.0056818258 -0.12199925 0.027817778 2.3509886e-38
0.0074201319 -0.12281232 0.024854712 2.3509886e-38
0.0091454498 -0.12281232 0.024854712 2.3509886e-38
0.010870769 -0.12281232 0.024854712 2.3509886e-38
0.012596087 -0.12281232 0.024854712 2.3509886e-38
0.014321405 -0.12281232 0.024854712 2.3509886e-38
0.016046723 -0.12281232 0.024854712 2.3509886e-38
0.017821696 -0.12363027 0.021873705 2.3509886e-38
0.01955224 -0.12363027 0.021873705 2.3509886e-38
0.021222679 -0.12281232 0.024854712 2.3509886e-38
0.022947997 -0.12281232 0.024854712 2.3509886e-38
0.024673315 -0.12281232 0.024854712 2.3509886e-38
0.026323302 -0.12199925 0.027817778 2.3509886e-38
0.028043425 -0.12199925 0.027817778 2.3509886e-38
0.029763548 -0.12199925 0.027817778 2.3509886e-38
0.031483673 -0.12199925 0.027817778 2.3509886e-38
0.033203796 -0.12199925 0.027817778 2.3509886e-38
0.034923919 -0.12199925 0.027817778 2.3509886e-38
0.036644042 -0.12199925 0.027817778 2.3509886e-38
0.038475864 -0.12281232 0.024854712 2.3509886e-38
0.04020118 -0.12281232 0.024854712 2.3509886e-38
0.042049326 -0.12363027 0.021873705 2.3509886e-38
0.043651812 -0.12281232 0.024854712 2.3509886e-38
0.045377135 -0.12281232 0.024854712 2.341805e-38
0.047102451 -0.12281232 0.024854712 2.341805e-38
0.048827767 -0.12281232 0.024854712 2.341805e-38
0.050553091 -0.12281232 0.024854712 2.2312061e-38
0.052278407 -0.12281232 0.024854712 3.5041528e-39
-0.060179159 -0.12592132 0.019844048 9.3113929e-39
-0.058445051 -0.12592132 0.019844048 2.350988e-38
-0.056591734 -0.12536083 0.021873705 2.350988e-38
-0.054861188 -0.12536083 0.021873705 2.2865229e-38
-0.052966006 -0.12453763 0.024854712 2.3509886e-38
-0.051240683 -0.12453763 0.024854712 2.3509886e-38
-0.049515367 -0.12453763 0.024854712 2.3509886e-38
-0.047790051 -0.12453763 0.024854712 2.3509886e-38
-0.046064734 -0.12453763 0.024854712 2.3509886e-38
-0.044060491 -0.12287988 0.030857794 2.3509886e-38
-0.042345703 -0.12287988 0.030857794 2.3509886e-38
-0.040630907 -0.12287988 0.030857794 2.3509886e-38
-0.038916111 -0.12287988 0.030857794 2.3509886e-38
-0.037201323 -0.12287988 0.030857794 2.3509886e-38
-0.035486527 -0.12287988 0.030857794 2.3509886e-38
-0.033771738 -0.12287988 0.030857794 2.3509886e-38
-0.032056943 -0.12287988 0.030857794 2.3509886e-38
-0.030342149 -0.12287988 0.030857794 2.3509886e-38
-0.028720634 -0.12371938 0.027817778 2.3509886e-38
-0.027000511 -0.12371938 0.027817778 2.3509886e-38
-0.025280388 -0.12371938 0.027817778 2.3509886e-38
-0.023560265 -0.12371938 0.027817778 2.3509886e-38
-0.021910278 -0.12453763 0.024854712 2.3509886e-38
-0.020184958 -0.12453763 0.024854712 2.3509886e-38
-0.018459642 -0.12453763 0.024854712 2.3509886e-38
-0.016789204 -0.12536083 0.021873705 2.3509886e-38
