# .PCD v0.7 - Point Cloud Data file format
VERSION 0.7
FIELDS x y z rgb
SIZE 4 4 4 4
TYPE F F F F
COUNT 1 1 1 1
WIDTH 942
HEIGHT 1
VIEWPOINT 0 0 0 1 0 0 0
POINTS 942
DATA ascii
-0.018812101 -0.12422292 -0.037351064 2.3509527e-38
-0.016918298 -0.12498946 -0.04044085 2.3509527e-38
-0.014994697 -0.12498946 -0.04044085 2.3509527e-38
-0.013088397 -0.12596865 -0.044387631 2.3509527e-38
-0.011168332 -0.12695493 -0.048363023 2.3509527e-38
-0.009233498 -0.12770687 -0.051393799 2.3509527e-38
-0.0072871624 -0.12870578 -0.055420093 2.3417687e-38
-0.0053372988 -0.12870578 -0.055420093 2.350988e-38
-0.003742733 -0.10859586 0.02563674 2.3509883e-38
-0.0019162027 -0.10935538 0.022575326 2.3325492e-38
-0.00010308996 -0.10935538 0.022575326 2.3325492e-38
0.0017100219 -0.10935538 0.022575326 2.3509883e-38
0.0035679489 -0.11033095 0.018643089 2.3509883e-38
0.0053879553 -0.11033095 0.018643089 2.3509883e-38
0.0072079627 -0.11033095 0.018643089 2.3509886e-38
0.0089114783 -0.10859586 0.02563674 2.3509886e-38
0.010719222 -0.10859586 0.02563674 2.3509886e-38
0.012526968 -0.10859586 0.02563674 2.3509886e-38
0.014334711 -0.10859586 0.02563674 2.3509886e-38
0.016072899 -0.10786678 0.028575368 2.3509886e-38
0.017875493 -0.10786678 0.028575368 2.3509886e-38
0.019678082 -0.10786678 0.028575368 2.3509886e-38
0.021480676 -0.10786678 0.028575368 2.341805e-38
0.023283269 -0.10786678 0.028575368 2.341805e-38
0.025085859 -0.10786678 0.028575368 2.3509886e-38
0.026988924 -0.10859586 0.02563674 2.3509527e-38
0.028796669 -0.10859586 0.02563674 2.3509527e-38
0.030604415 -0.10859586 0.02563674 2.3509527e-38
0.034347787 -0.1207688 -0.023428611 2.3509527e-38
0.036118157 -0.12002577 -0.020433716 2.3509527e-38
0.038006682 -0.12002577 -0.020433716 2.3509527e-38
0.039716125 -0.11903207 -0.016428404 2.3509527e-38
0.041455004 -0.11827053 -0.013358884 2.3509527e-38
0.04333112 -0.11827053 -0.013358884 2.3509886e-38
0.045207236 -0.11827053 -0.013358884 2.341805e-38
0.046931319 -0.1175413 -0.01041954 2.3234379e-38
0.048802283 -0.1175413 -0.01041954 2.3142544e-38
0.050673246 -0.1175413 -0.01041954 2.3142541e-38
0.052711703 -0.11827053 -0.013358884 2.2958503e-38
0.05441517 -0.1175413 -0.01041954 2.2957782e-38
0.056286138 -0.1175413 -0.01041954 2.31411e-38
0.058340054 -0.11827053 -0.013358884 2.2864519e-38
0.060412612 -0.11903207 -0.016428404 2.1572707e-38
0.064393803 -0.12695493 -0.048363023 1.9452207e-38
0.066331297 -0.12695493 -0.048363023 1.7977435e-38
0.068757534 -0.12870578 -0.055420093 1.7608646e-38
0.070707403 -0.12870578 -0.055420093 1.8900456e-38
0.072657265 -0.12870578 -0.055420093 1.9454343e-38
0.074826702 -0.12943684 -0.058366708 2.0192987e-38
0.077092692 -0.13044833 -0.062443785 2.0562135e-38
0.079365581 -0.1314363 -0.066425972 1.9917493e-38
0.081574485 -0.1321819 -0.069431238 1.844273e-38
0.083548918 -0.1321819 -0.069431238 1.6506633e-38
0.085848629 -0.13315089 -0.073336892 1.5124778e-38
0.087829903 -0.13315089 -0.073336892 1.4019498e-38
0.090163574 -0.13415821 -0.07739716 1.3559597e-38
0.092502713 -0.13514097 -0.081358366 1.3466323e-38
0.09477669 -0.13590656 -0.084444217 1.3189736e-38
0.09714663 -0.1369016 -0.088454895 1.3189018e-38
0.099521026 -0.13787122 -0.092363171 1.3004627e-38
0.10192426 -0.13888018 -0.096429877 1.3003548e-38
0.10394603 -0.13888018 -0.096429877 1.2910992e-38
0.1059678 -0.13888018 -0.096429877 1.2449294e-38
0.10798956 -0.13888018 -0.096429877 6.917912e-39
0.11001134 -0.13888018 -0.096429877 2.4914428e-39
0.1120331 -0.13888018 -0.096429877 3.7022165e-40
-0.049962249 -0.11690097 -0.00036840886 2.2681917e-38
-0.048108909 -0.11690097 -0.00036840886 2.2866308e-38
-0.04625557 -0.11690097 -0.00036840886 2.2773391e-38
-0.044402227 -0.11690097 -0.00036840886 2.2588281e-38
-0.042548887 -0.11690097 -0.00036840886 2.12961e-38
-0.040787455 -0.11764936 -0.0033637807 2.2677596e-38
-0.038928866 -0.11764936 -0.0033637807 2.3507716e-38
-0.037070274 -0.11764936 -0.0033637807 2.3509876e-38
-0.035288267 -0.11840202 -0.0063761994 2.3509879e-38
-0.03335309 -0.11764936 -0.0033637807 2.3509879e-38
-0.031363569 -0.1161568 0.0026100352 2.350988e-38
-0.029515453 -0.1161568 0.0026100352 2.3509883e-38
-0.027592689 -0.11514379 0.0066645816 2.3509883e-38
-0.025602058 -0.11289944 0.015647359 2.3509527e-38
-0.023627922 -0.11040358 0.02563674 2.3509527e-38
-0.021781534 -0.10966937 0.028575368 2.3509527e-38
-0.019978944 -0.10966937 0.028575368 2.3509527e-38
-0.018812101 -0.12614109 -0.037351064 2.3508809e-38
-0.01689392 -0.12614109 -0.037351064 2.3509168e-38
-0.014975735 -0.12614109 -0.037351064 2.3509168e-38
-0.012715985 -0.10667174 0.040573187 2.3509168e-38
-0.010934428 -0.10667174 0.040573187 2.3509168e-38
-0.0091528734 -0.10667174 0.040573187 2.3509527e-38
-0.0073713167 -0.10667174 0.040573187 2.3417687e-38
-0.0055504786 -0.11040358 0.02563674 2.350988e-38
-0.003742733 -0.11040358 0.02563674 2.350988e-38
-0.0019162027 -0.11116849 0.022575326 2.3233652e-38
-0.00010308996 -0.11116849 0.022575326 2.3233652e-38
0.0017100219 -0.11116849 0.022575326 2.350988e-38
0.0035679489 -0.11215095 0.018643089 2.3509883e-38
0.0052573457 -0.10966937 0.028575368 2.3233296e-38
0.0070599383 -0.10966937 0.028575368 2.3509883e-38
0.0089114783 -0.11040358 0.02563674 2.3509883e-38
0.010665123 -0.10966937 0.028575368 2.3509886e-38
0.012467715 -0.10966937 0.028575368 2.3509886e-38
0.014270307 -0.10966937 0.028575368 2.3509886e-38
0.016072899 -0.10966937 0.028575368 2.3509886e-38
0.017875493 -0.10966937 0.028575368 2.3509886e-38
0.019678082 -0.10966937 0.028575368 2.3509886e-38
0.021393135 -0.10891335 0.031601258 2.3509886e-38
0.023190424 -0.10891335 0.031601258 2.3509527e-38
0.024987713 -0.10891335 0.031601258 2.3509527e-38
0.026888452 -0.10966937 0.028575368 2.3509527e-38
0.028691046 -0.10966937 0.028575368 2.3509527e-38
0.030493636 -0.10966937 0.028575368 2.3509168e-38
0.034071628 -0.12091358 -0.016428404 2.3509168e-38
0.035953127 -0.12091358 -0.016428404 2.3509168e-38
0.037834626 -0.12091358 -0.016428404 2.3509527e-38
0.039578885 -0.12014665 -0.013358884 2.3509527e-38
0.041455004 -0.12014665 -0.013358884 2.3509527e-38
0.043189395 -0.11941226 -0.01041954 2.3509886e-38
0.045060359 -0.11941226 -0.01041954 2.341805e-38
0.046931319 -0.11941226 -0.01041954 2.3234379e-38
0.048802283 -0.11941226 -0.01041954 2.3142544e-38
0.050673246 -0.11941226 -0.01041954 2.3142538e-38
0.052711703 -0.12014665 -0.013358884 2.3234367e-38
0.05441517 -0.11941226 -0.01041954 2.3234367e-38
0.056286138 -0.11941226 -0.01041954 2.3326206e-38
0.058531109 -0.12091358 -0.016428404 2.2680844e-38
0.060668934 -0.12191428 -0.020433716 2.102025e-38
0.063872926 -0.12691309 -0.04044085 1.8807555e-38
0.065796524 -0.12691309 -0.04044085 1.7608649e-38
0.068478689 -0.12964968 -0.051393799 1.7424608e-38
0.070421495 -0.12964968 -0.051393799 1.90852e-38
0.0723643 -0.12964968 -0.051393799 2.0192264e-38
0.074607126 -0.13065563 -0.055420093 2.1483723e-38
0.076556996 -0.13065563 -0.055420093 2.1761032e-38
0.079054877 -0.13241051 -0.062443785 2.0378468e-38
0.08133474 -0.13340546 -0.066425972 1.7981751e-38
0.083303899 -0.13340546 -0.066425972 1.549248e-38
0.085523352 -0.13415633 -0.069431238 1.3834037e-38
0.087829903 -0.13513215 -0.073336892 1.4296083e-38
0.090163574 -0.13614662 -0.07739716 1.3743986e-38
0.092502713 -0.13713633 -0.081358366 1.3374124e-38
0.09477669 -0.13790731 -0.084444217 1.3097537e-38
0.09714663 -0.13890938 -0.088454895 1.3096821e-38
0.099521026 -0.13988586 -0.092363171 1.291243e-38
0.10153566 -0.13988586 -0.092363171 1.2727319e-38
0.1035503 -0.13988586 -0.092363171 1.2542208e-38
0.10556494 -0.13988586 -0.092363171 1.1988316e-38
0.10757957 -0.13988586 -0.092363171 6.916833e-39
0.10959421 -0.13988586 -0.092363171 2.6751152e-39
0.11160885 -0.13988586 -0.092363171 4.6241728e-40
-0.061731428 -0.12202276 -0.013358884 2.3325127e-38
-0.059713587 -0.12128322 -0.01041954 2.3509521e-38
-0.05784262 -0.12128322 -0.01041954 2.332405e-38
-0.055790879 -0.12026589 -0.0063761994 2.3509521e-38
-0.053927004 -0.12026589 -0.0063761994 2.350952e-38
-0.05206313 -0.12026589 -0.0063761994 2.3233296e-38
-0.049962249 -0.11875431 -0.00036840886 2.1390099e-38
-0.048108909 -0.11875431 -0.00036840886 2.0099361e-38
-0.046363231 -0.11950795 -0.0033637807 2.1021317e-38
-0.044402227 -0.11875431 -0.00036840886 2.1481215e-38
-0.042548887 -0.11875431 -0.00036840886 2.1111712e-38
-0.040787455 -0.11950795 -0.0033637807 2.3415881e-38
-0.038928866 -0.11950795 -0.0033637807 2.350952e-38
-0.037070274 -0.11950795 -0.0033637807 2.3509879e-38
-0.035211682 -0.11950795 -0.0033637807 2.350988e-38
-0.033282187 -0.11875431 -0.00036840886 2.350988e-38
-0.031274706 -0.1169848 0.0066645816 2.3509883e-38
-0.02931333 -0.11548282 0.012634225 2.3509527e-38
-0.027482785 -0.11548282 0.012634225 2.3509527e-38
-0.025602058 -0.11472471 0.015647359 2.3509527e-38
-0.023627922 -0.11221133 0.02563674 2.3509527e-38
-0.021781534 -0.11147197 0.028575368 2.3509527e-38
-0.019978944 -0.11147197 0.028575368 2.3509527e-38
-0.018147171 -0.11071064 0.031601258 2.3509168e-38
-0.016349886 -0.11071064 0.031601258 2.3509168e-38
-0.014552598 -0.11071064 0.031601258 2.3509168e-38
-0.012715985 -0.10845329 0.040573187 2.3509168e-38
-0.010934428 -0.10845329 0.040573187 2.3509168e-38
-0.0091528734 -0.10845329 0.040573187 2.3509527e-38
-0.0073607983 -0.11147197 0.028575368 2.3140384e-38
-0.0055504786 -0.11221133 0.02563674 2.3509883e-38
-0.003742733 -0.11221133 0.02563674 2.3509883e-38
-0.0019162027 -0.1129816 0.022575326 2.3509883e-38
-0.00010308996 -0.1129816 0.022575326 2.350988e-38
0.0017100219 -0.1129816 0.022575326 2.350988e-38
0.0035231346 -0.1129816 0.022575326 2.3509883e-38
0.0052573457 -0.11147197 0.028575368 2.3509883e-38
0.0070599383 -0.11147197 0.028575368 2.3509883e-38
0.0089114783 -0.11221133 0.02563674 2.3509883e-38
0.010665123 -0.11147197 0.028575368 2.3509886e-38
0.012467715 -0.11147197 0.028575368 2.3509886e-38
0.014270307 -0.11147197 0.028575368 2.3509886e-38
0.016072899 -0.11147197 0.028575368 2.3509886e-38
0.017875493 -0.11147197 0.028575368 2.3509886e-38
0.019678082 -0.11147197 0.028575368 2.3509886e-38
0.021393135 -0.11071064 0.031601258 2.3509527e-38
0.023190424 -0.11071064 0.031601258 2.3509527e-38
0.024987713 -0.11071064 0.031601258 2.3509886e-38
0.026682146 -0.10995375 0.034609504 2.3509527e-38
0.02847416 -0.10995375 0.034609504 2.3509168e-38
0.030266169 -0.10995375 0.034609504 2.3509168e-38
0.032058183 -0.10995375 0.034609504 2.3509168e-38
0.035953127 -0.12279506 -0.016428404 2.3509527e-38
0.037834626 -0.12279506 -0.016428404 2.3509527e-38
0.039578885 -0.12202276 -0.013358884 2.3509527e-38
0.041318431 -0.12128322 -0.01041954 2.3509883e-38
0.043189395 -0.12128322 -0.01041954 2.3418047e-38
0.04485831 -0.12026589 -0.0063761994 2.3418045e-38
0.046722185 -0.12026589 -0.0063761994 2.3234374e-38
0.048802283 -0.12128322 -0.01041954 2.3142537e-38
0.050673246 -0.12128322 -0.01041954 2.3142534e-38
0.05254421 -0.12128322 -0.01041954 2.2313841e-38
0.05441517 -0.12128322 -0.01041954 2.0838711e-38
0.056463938 -0.12202276 -0.013358884 1.936215e-38
0.058780413 -0.12380283 -0.020433716 1.8347644e-38
0.0608606 -0.12455635 -0.023428611 1.7793757e-38
0.063212983 -0.12631132 -0.030403785 1.7978148e-38
0.065587953 -0.12805928 -0.037351064 1.9637666e-38
0.068268791 -0.13082992 -0.048363023 2.1481935e-38
0.070206277 -0.13082992 -0.048363023 2.1666322e-38
0.0723643 -0.13159247 -0.051393799 2.2128372e-38
0.074307106 -0.13159247 -0.051393799 2.2313484e-38
0.076556996 -0.13260551 -0.055420093 2.157664e-38
0.079054877 -0.1343727 -0.062443785 1.9641259e-38
0.081017047 -0.1343727 -0.062443785 1.7520407e-38
0.083303899 -0.13537462 -0.066425972 1.5676861e-38
0.085523352 -0.13613077 -0.069431238 1.4663069e-38
0.087829903 -0.13711344 -0.073336892 1.3005342e-38
0.090163574 -0.138135 -0.07739716 1.2361049e-38
0.092502713 -0.13913165 -0.081358366 1.2083741e-38
0.09477669 -0.13990806 -0.084444217 1.1991546e-38
0.096777439 -0.13990806 -0.084444217 1.2267417e-38
0.099154413 -0.14091717 -0.088454895 1.2359612e-38
0.10153566 -0.14190049 -0.092363171 1.2266338e-38
0.1035503 -0.14190049 -0.092363171 1.1989032e-38
0.10556494 -0.14190049 -0.092363171 1.2726237e-38
0.10757957 -0.14190049 -0.092363171 6.917912e-39
0.10959421 -0.14190049 -0.092363171 2.3070487e-39
0.11160885 -0.14190049 -0.092363171 4.6313615e-40
-0.070701867 -0.12212978 -0.0063761994 2.3509527e-38
-0.068838 -0.12212978 -0.0063761994 2.341805e-38
-0.066974118 -0.12212978 -0.0063761994 2.3141822e-38
-0.065110251 -0.12212978 -0.0063761994 2.3418047e-38
-0.063246369 -0.12212978 -0.0063761994 2.3509883e-38
-0.061382502 -0.12212978 -0.0063761994 2.31411e-38
-0.059518628 -0.12212978 -0.0063761994 2.3325131e-38
-0.057654753 -0.12212978 -0.0063761994 2.3509883e-38
-0.055790879 -0.12212978 -0.0063761994 2.3509883e-38
-0.053927004 -0.12212978 -0.0063761994 2.2956709e-38
-0.05206313 -0.12212978 -0.0063761994 2.3509886e-38
-0.050080415 -0.12136655 -0.0033637807 2.0559623e-38
-0.048221823 -0.12136655 -0.0033637807 2.083621e-38
-0.046363231 -0.12136655 -0.0033637807 2.083621e-38
-0.044402227 -0.12060766 -0.00036840886 1.9084493e-38
-0.042548887 -0.12060766 -0.00036840886 2.1112436e-38
-0.040787455 -0.12136655 -0.0033637807 2.3509883e-38
-0.038928866 -0.12136655 -0.0033637807 2.3048545e-38
-0.037070274 -0.12136655 -0.0033637807 2.3509883e-38
-0.03513553 -0.12060766 -0.00036840886 2.3509883e-38
-0.033211686 -0.11985306 0.0026100352 2.3509883e-38
-0.031274706 -0.11882581 0.0066645816 2.3509886e-38
-0.02931333 -0.11731337 0.012634225 2.3509886e-38
-0.027482785 -0.11731337 0.012634225 2.3509886e-38
-0.025602058 -0.11654995 0.015647359 2.3509886e-38
-0.023732152 -0.11579098 0.018643089 2.3509886e-38
-0.02182018 -0.11401908 0.02563674 2.3509886e-38
-0.019978944 -0.11327456 0.028575368 2.3509886e-38
-0.018147171 -0.11250792 0.031601258 2.3509886e-38
-0.016349886 -0.11250792 0.031601258 2.3509886e-38
-0.014552598 -0.11250792 0.031601258 2.3509886e-38
-0.012755313 -0.11250792 0.031601258 2.3509886e-38
-0.010942248 -0.1109881 0.037600107 2.3509886e-38
-0.0091554793 -0.1109881 0.037600107 2.3509527e-38
-0.0073607983 -0.11327456 0.028575368 2.3509527e-38
-0.0055504786 -0.11401908 0.02563674 2.3509527e-38
-0.0037293145 -0.11479472 0.022575326 2.3509527e-38
-0.0019162027 -0.11479472 0.022575326 2.3509527e-38
-0.00010308996 -0.11479472 0.022575326 2.3509524e-38
0.0017100219 -0.11479472 0.022575326 2.3509883e-38
0.0034882445 -0.11401908 0.02563674 2.3509521e-38
0.0052959891 -0.11401908 0.02563674 2.350988e-38
0.0071037337 -0.11401908 0.02563674 2.350988e-38
0.0089114783 -0.11401908 0.02563674 2.3509883e-38
0.010665123 -0.11327456 0.028575368 2.3509527e-38
0.012467715 -0.11327456 0.028575368 2.3509527e-38
0.014270307 -0.11327456 0.028575368 2.3509886e-38
0.016072899 -0.11327456 0.028575368 2.3509527e-38
0.017798562 -0.11250792 0.031601258 2.341805e-38
0.01959585 -0.11250792 0.031601258 2.341805e-38
0.021393135 -0.11250792 0.031601258 2.3325856e-38
0.023190424 -0.11250792 0.031601258 2.3141466e-38
0.024987713 -0.11250792 0.031601258 2.3325856e-38
0.026682146 -0.11174576 0.034609504 2.3509527e-38
0.02847416 -0.11174576 0.034609504 2.3417333e-38
0.030266169 -0.11174576 0.034609504 2.3048554e-38
0.032058183 -0.11174576 0.034609504 2.3232944e-38
0.035953127 -0.12467657 -0.016428404 2.3509886e-38
0.037834626 -0.12467657 -0.016428404 2.3509886e-38
0.039578885 -0.12389888 -0.013358884 2.3417687e-38
0.041318431 -0.12315418 -0.01041954 2.2957425e-38
0.043189395 -0.12315418 -0.01041954 2.295778e-38
0.04485831 -0.12212978 -0.0063761994 2.3326198e-38
0.046722185 -0.12212978 -0.0063761994 2.3418033e-38
0.048802283 -0.12315418 -0.01041954 2.323436e-38
0.050673246 -0.12315418 -0.01041954 2.2958849e-38
0.05254421 -0.12315418 -0.01041954 2.2405311e-38
0.05441517 -0.12315418 -0.01041954 1.9915673e-38
0.056463938 -0.12389888 -0.013358884 1.8809329e-38
0.059212159 -0.12744872 -0.027370147 1.8901169e-38
0.061306987 -0.12821732 -0.030403785 1.8348001e-38
0.063212983 -0.12821732 -0.030403785 1.9730578e-38
0.065587953 -0.12997745 -0.037351064 1.9177404e-38
0.067993462 -0.13176022 -0.044387631 2.1758882e-38
0.070206277 -0.13276742 -0.048363023 2.1851078e-38
0.0723643 -0.13353528 -0.051393799 2.1574848e-38
0.074307106 -0.13353528 -0.051393799 2.2035823e-38
0.076249912 -0.13353528 -0.051393799 2.0930555e-38
0.078736767 -0.1353019 -0.058366708 2.0561772e-38
0.081017047 -0.13633488 -0.062443785 1.7703708e-38
0.083303899 -0.13734378 -0.066425972 1.5582852e-38
0.085523352 -0.1381052 -0.069431238 1.3187564e-38
0.087829903 -0.13909473 -0.073336892 1.3465954e-38
0.090163574 -0.14012341 -0.07739716 1.2636912e-38
0.092502713 -0.14112701 -0.081358366 1.2175934e-38
0.09477669 -0.14190884 -0.084444217 1.226813e-38
0.096777439 -0.14190884 -0.084444217 1.2360325e-38
0.099154413 -0.14292495 -0.088454895 1.2175215e-38
0.10153566 -0.14391513 -0.092363171 1.171424e-38
0.1035503 -0.14391513 -0.092363171 1.1805357e-38
0.10556494 -0.14391513 -0.092363171 1.152877e-38
0.10757957 -0.14391513 -0.092363171 6.9189882e-39
0.10959421 -0.14391513 -0.092363171 1.9404242e-39
0.11160885 -0.14391513 -0.092363171 6.4968541e-40
-0.077299938 -0.12066682 0.0066645816 2.3509883e-38
-0.076100707 -0.12322514 -0.0033637807 2.3509886e-38
-0.072383523 -0.12322514 -0.0033637807 2.3509886e-38
-0.070524931 -0.12322514 -0.0033637807 2.3509527e-38
-0.068666339 -0.12322514 -0.0033637807 2.3141106e-38
-0.066807747 -0.12322514 -0.0033637807 2.3233299e-38
-0.064949155 -0.12322514 -0.0033637807 2.3509886e-38
-0.063246369 -0.12399365 -0.0063761994 2.3509886e-38
-0.061382502 -0.12399365 -0.0063761994 2.3509886e-38
-0.059518628 -0.12399365 -0.0063761994 2.3509886e-38
-0.057654753 -0.12399365 -0.0063761994 2.3509886e-38
-0.055790879 -0.12399365 -0.0063761994 2.2772321e-38
-0.053797603 -0.12322514 -0.0033637807 2.1389386e-38
-0.051939011 -0.12322514 -0.0033637807 1.8162539e-38
-0.050080415 -0.12322514 -0.0033637807 1.6687409e-38
-0.048221823 -0.12322514 -0.0033637807 1.6963996e-38
-0.046363231 -0.12322514 -0.0033637807 1.7056192e-38
-0.044402227 -0.12246101 -0.00036840886 1.68718e-38
-0.042548887 -0.12246101 -0.00036840886 2.046743e-38
-0.040695548 -0.12246101 -0.00036840886 2.3509886e-38
-0.038842209 -0.12246101 -0.00036840886 2.341769e-38
-0.036988869 -0.12246101 -0.00036840886 2.3509886e-38
-0.034956723 -0.12066682 0.0066645816 2.3509886e-38
-0.033115715 -0.12066682 0.0066645816 2.3509886e-38
-0.031274706 -0.12066682 0.0066645816 2.3509886e-38
-0.02931333 -0.11914389 0.012634225 2.3509886e-38
-0.027482785 -0.11914389 0.012634225 2.3509886e-38
-0.025602058 -0.11837523 0.015647359 2.3509886e-38
-0.023732152 -0.11761098 0.018643089 2.3509886e-38
-0.021860436 -0.11660783 0.022575326 2.3509886e-38
-0.020012435 -0.11582683 0.02563674 2.3509886e-38
-0.018176351 -0.11507715 0.028575368 2.3509886e-38
-0.016373761 -0.11507715 0.028575368 2.3509886e-38
-0.014571168 -0.11507715 0.028575368 2.3509886e-38
-0.012768575 -0.11507715 0.028575368 2.3509886e-38
-0.010965983 -0.11507715 0.028575368 2.3509886e-38
-0.0091633918 -0.11507715 0.028575368 2.3509886e-38
-0.0073607983 -0.11507715 0.028575368 2.3509527e-38
-0.0055504786 -0.11582683 0.02563674 2.3509168e-38
-0.0037293145 -0.11660783 0.022575326 2.3509168e-38
-0.0019162027 -0.11660783 0.022575326 2.3509527e-38
-0.00010308996 -0.11660783 0.022575326 2.3509527e-38
0.0017100219 -0.11660783 0.022575326 2.3509524e-38
0.0034882445 -0.11582683 0.02563674 2.3509521e-38
0.0052959891 -0.11582683 0.02563674 2.3509521e-38
0.0071037337 -0.11582683 0.02563674 2.350988e-38
0.0089114783 -0.11582683 0.02563674 2.350988e-38
0.010665123 -0.11507715 0.028575368 2.3509527e-38
0.012467715 -0.11507715 0.028575368 2.3509886e-38
0.014270307 -0.11507715 0.028575368 2.3509886e-38
0.016001277 -0.11430521 0.031601258 2.3509527e-38
0.017722081 -0.11353777 0.034609504 2.341805e-38
0.019514095 -0.11353777 0.034609504 2.341805e-38
0.021306109 -0.11353777 0.034609504 2.341805e-38
0.023098122 -0.11353777 0.034609504 2.341805e-38
0.024890132 -0.11353777 0.034609504 2.341805e-38
0.026682146 -0.11353777 0.034609504 2.3325856e-38
0.028366666 -0.11277486 0.037600107 2.341805e-38
0.030153435 -0.11277486 0.037600107 2.341805e-38
0.032058183 -0.11353777 0.034609504 2.341805e-38
0.033850193 -0.11353777 0.034609504 2.341805e-38
0.038006682 -0.12757985 -0.020433716 2.3049624e-38
0.039578885 -0.12577499 -0.013358884 2.2035469e-38
0.041455004 -0.12577499 -0.013358884 2.0929476e-38
0.043189395 -0.12502514 -0.01041954 2.0284459e-38
0.045060359 -0.12502514 -0.01041954 2.0007868e-38
0.046931319 -0.12502514 -0.01041954 1.9455048e-38
0.048802283 -0.12502514 -0.01041954 1.8440894e-38
0.050673246 -0.12502514 -0.01041954 1.7611134e-38
0.052711703 -0.12577499 -0.013358884 1.8533094e-38
0.054587822 -0.12577499 -0.013358884 1.7426747e-38
0.056891892 -0.12757985 -0.020433716 1.7795176e-38
0.059400987 -0.13012333 -0.030403785 1.9085916e-38
0.061306987 -0.13012333 -0.030403785 1.9362147e-38
0.063212983 -0.13012333 -0.030403785 2.1390454e-38
0.065587953 -0.13189565 -0.037351064 2.1205708e-38
0.067993462 -0.13369073 -0.044387631 2.3418045e-38
0.070206277 -0.1347049 -0.048363023 2.2957428e-38
0.072143771 -0.1347049 -0.048363023 2.2127664e-38
0.074307106 -0.13547809 -0.051393799 2.1759239e-38
0.076249912 -0.13547809 -0.051393799 2.0284106e-38
0.078736767 -0.13725694 -0.058366708 1.9915321e-38
0.081017047 -0.13829704 -0.062443785 1.7426395e-38
0.083303899 -0.13931294 -0.066425972 1.5766872e-38
0.085523352 -0.14007963 -0.069431238 1.3555618e-38
0.087829903 -0.14107598 -0.073336892 1.346523e-38
0.090163574 -0.14211179 -0.07739716 1.2636912e-38
0.092502713 -0.14312236 -0.081358366 1.2268127e-38
0.09477669 -0.14390959 -0.084444217 1.2268127e-38
0.096777439 -0.14390959 -0.084444217 1.2175931e-38
0.099154413 -0.14493273 -0.088454895 1.1807149e-38
0.10153566 -0.14592977 -0.092363171 1.1529846e-38
0.1035503 -0.14592977 -0.092363171 1.143765e-38
0.10556494 -0.14592977 -0.092363171 1.143765e-38
0.10757957 -0.14592977 -0.092363171 7.1044557e-39
0.10959421 -0.14592977 -0.092363171 2.3102857e-39
0.11160885 -0.14592977 -0.092363171 6.5076441e-40
0.11362348 -0.14592977 -0.092363171 7.4296284e-40
-0.081693143 -0.11842094 0.022575326 2.2680477e-38
-0.079880029 -0.11842094 0.022575326 2.3509879e-38
-0.075458929 -0.12250783 0.0066645816 2.3233299e-38
-0.074055672 -0.12431435 -0.00036840886 2.3325497e-38
-0.072202325 -0.12431435 -0.00036840886 2.3509886e-38
-0.070348993 -0.12431435 -0.00036840886 2.3509886e-38
-0.068495646 -0.12431435 -0.00036840886 2.3141106e-38
-0.066642314 -0.12431435 -0.00036840886 2.341769e-38
-0.064788967 -0.12431435 -0.00036840886 2.3509886e-38
-0.063246369 -0.12585752 -0.0063761994 2.3509886e-38
-0.061382502 -0.12585752 -0.0063761994 2.3509886e-38
-0.059373379 -0.12508373 -0.0033637807 2.3509886e-38
-0.057514787 -0.12508373 -0.0033637807 2.3509886e-38
-0.055389106 -0.1235493 0.0026100352 2.2495734e-38
-0.05354099 -0.1235493 0.0026100352 2.0928408e-38
-0.051692873 -0.1235493 0.0026100352 1.7240583e-38
-0.049962249 -0.12431435 -0.00036840886 1.7332778e-38
-0.048108909 -0.12431435 -0.00036840886 1.7332778e-38
-0.046363231 -0.12508373 -0.0033637807 1.68718e-38
-0.044300396 -0.1235493 0.0026100352 1.7609365e-38
-0.042452276 -0.1235493 0.0026100352 2.1020604e-38
-0.040604159 -0.1235493 0.0026100352 2.3509886e-38
-0.038638741 -0.12250783 0.0066645816 2.3233299e-38
-0.036797732 -0.12250783 0.0066645816 2.3509886e-38
-0.034956723 -0.12250783 0.0066645816 2.3509886e-38
-0.033115715 -0.12250783 0.0066645816 2.3509886e-38
-0.031210292 -0.12175287 0.0096036866 2.3509886e-38
-0.029374436 -0.12175287 0.0096036866 2.3509886e-38
-0.027482785 -0.12097444 0.012634225 2.3509886e-38
-0.025652245 -0.12097444 0.012634225 2.3509886e-38
-0.023776799 -0.12020047 0.015647359 2.3509886e-38
-0.021912143 -0.11943097 0.018643089 2.3509886e-38
-0.020047322 -0.11842094 0.022575326 2.3509886e-38
-0.018204689 -0.11763458 0.02563674 2.3509886e-38
-0.016396943 -0.11763458 0.02563674 2.3509886e-38
-0.014589201 -0.11763458 0.02563674 2.3509886e-38
-0.012781457 -0.11763458 0.02563674 2.3509886e-38
-0.010958024 -0.1161025 0.031601258 2.3509886e-38
-0.0091607394 -0.1161025 0.031601258 2.3509886e-38
-0.0073660882 -0.11532979 0.034609504 2.3509527e-38
-0.0055740764 -0.11532979 0.034609504 2.3509527e-38
-0.0037820647 -0.11532979 0.034609504 2.3509527e-38
-0.0019900519 -0.11532979 0.034609504 2.3509527e-38
-0.00015043002 -0.11687975 0.028575368 2.3509527e-38
0.0016804999 -0.11763458 0.02563674 2.3509883e-38
0.0034882445 -0.11763458 0.02563674 2.350988e-38
0.0052959891 -0.11763458 0.02563674 2.350988e-38
0.0071037337 -0.11763458 0.02563674 2.350988e-38
0.0088625299 -0.11687975 0.028575368 2.350988e-38
0.010665123 -0.11687975 0.028575368 2.3509886e-38
0.012406702 -0.1161025 0.031601258 2.3509886e-38
0.014203989 -0.1161025 0.031601258 2.3509886e-38
0.015930071 -0.11532979 0.034609504 2.341805e-38
0.017722081 -0.11532979 0.034609504 2.341805e-38
0.01943282 -0.11456163 0.037600107 2.341805e-38
0.021219589 -0.11456163 0.037600107 2.341805e-38
0.022915136 -0.11379795 0.040573187 2.341805e-38
0.024696693 -0.11379795 0.040573187 2.3326213e-38
0.026478246 -0.11379795 0.040573187 2.341805e-38
0.028366666 -0.11456163 0.037600107 2.341805e-38
0.030153435 -0.11456163 0.037600107 2.332621e-38
0.032058183 -0.11532979 0.034609504 2.2680841e-38
0.033604473 -0.11379795 0.040573187 2.2404251e-38
0.035386026 -0.11379795 0.040573187 2.1113867e-38
0.039578885 -0.12765111 -0.013358884 2.0007517e-38
0.041455004 -0.12765111 -0.013358884 1.8809329e-38
0.043189395 -0.1268961 -0.01041954 1.8163956e-38
0.045060359 -0.1268961 -0.01041954 1.797992e-38
0.046931319 -0.1268961 -0.01041954 1.7334548e-38
0.048802283 -0.1268961 -0.01041954 1.6136004e-38
0.050673246 -0.1268961 -0.01041954 1.5029656e-38
0.052711703 -0.12765111 -0.013358884 1.650479e-38
0.054768112 -0.12843956 -0.016428404 1.7057964e-38
0.056891892 -0.1294684 -0.020433716 1.8532741e-38
0.059212159 -0.1312501 -0.027370147 2.0653242e-38
0.061306987 -0.13202934 -0.030403785 2.1113864e-38
0.063212983 -0.13202934 -0.030403785 2.2865584e-38
0.065587953 -0.13381381 -0.037351064 2.2404251e-38
0.067993462 -0.13562126 -0.044387631 2.3418045e-38
0.070206277 -0.13664238 -0.048363023 2.2957425e-38
0.072143771 -0.13664238 -0.048363023 2.1758882e-38
0.074307106 -0.13742088 -0.051393799 2.111387e-38
0.076249912 -0.13742088 -0.051393799 1.9454346e-38
0.078736767 -0.13921197 -0.058366708 1.9270308e-38
0.081017047 -0.14025922 -0.062443785 1.7057611e-38
0.083548918 -0.14205404 -0.069431238 1.5582478e-38
0.085523352 -0.14205404 -0.069431238 1.3555975e-38
0.087829903 -0.14305727 -0.073336892 1.3004252e-38
0.090163574 -0.1441002 -0.07739716 1.2543998e-38
0.092502713 -0.14511769 -0.081358366 1.2359607e-38
0.094498053 -0.14511769 -0.081358366 1.2359607e-38
0.096493393 -0.14511769 -0.081358366 1.208302e-38
0.098778203 -0.14591034 -0.084444217 1.1529846e-38
0.1011622 -0.14694051 -0.088454895 1.143693e-38
0.1035503 -0.14794444 -0.092363171 1.1529126e-38
0.10556494 -0.14794444 -0.092363171 1.1713517e-38
0.10757957 -0.14794444 -0.092363171 8.8554524e-39
0.10959421 -0.14794444 -0.092363171 4.8910403e-39
0.11160885 -0.14794444 -0.092363171 1.5719976e-39
0.11362348 -0.14794444 -0.092363171 1.3872504e-39
0.11563812 -0.14794444 -0.092363171 2.3092067e-39
-0.10464452 -0.12358873 0.0096036866 1.761043e-38
-0.10280867 -0.12358873 0.0096036866 2.1114943e-38
-0.10097282 -0.12358873 0.0096036866 2.2498599e-38
-0.099136963 -0.12358873 0.0096036866 2.3142537e-38
-0.097301096 -0.12358873 0.0096036866 2.3142535e-38
-0.095465243 -0.12358873 0.0096036866 2.341804e-38
-0.09362939 -0.12358873 0.0096036866 2.3234004e-38
-0.091311395 -0.12202574 0.015647359 2.2773025e-38
-0.089252397 -0.121251 0.018643089 2.2865221e-38
-0.087132469 -0.12023406 0.022575326 2.3233648e-38
-0.08531937 -0.12023406 0.022575326 2.3509876e-38
-0.083506256 -0.12023406 0.022575326 2.3509879e-38
-0.075458929 -0.12434883 0.0066645816 2.3233299e-38
-0.07361792 -0.12434883 0.0066645816 2.3509886e-38
-0.071776912 -0.12434883 0.0066645816 2.3509886e-38
-0.070348993 -0.12616767 -0.00036840886 2.3509886e-38
-0.068495646 -0.12616767 -0.00036840886 2.3233302e-38
-0.066642314 -0.12616767 -0.00036840886 2.3509886e-38
-0.064788967 -0.12616767 -0.00036840886 2.3509886e-38
-0.063246369 -0.12772138 -0.0063761994 2.341769e-38
-0.061382502 -0.12772138 -0.0063761994 2.3233299e-38
-0.059373379 -0.12694232 -0.0033637807 2.3509886e-38
-0.057514787 -0.12694232 -0.0033637807 2.3509886e-38
-0.055389106 -0.1253974 0.0026100352 2.3325494e-38
-0.05354099 -0.1253974 0.0026100352 2.2587929e-38
-0.051692873 -0.1253974 0.0026100352 2.2680125e-38
-0.049962249 -0.12616767 -0.00036840886 2.3325494e-38
-0.048108909 -0.12616767 -0.00036840886 2.2956712e-38
-0.046363231 -0.12694232 -0.0033637807 2.2311342e-38
-0.044300396 -0.1253974 0.0026100352 2.2956712e-38
-0.042452276 -0.1253974 0.0026100352 2.3509886e-38
-0.040479753 -0.12434883 0.0066645816 2.3509886e-38
-0.038638741 -0.12434883 0.0066645816 2.3509886e-38
-0.036797732 -0.12434883 0.0066645816 2.3509886e-38
-0.034882002 -0.12358873 0.0096036866 2.3509886e-38
-0.033046149 -0.12358873 0.0096036866 2.3509886e-38
-0.031210292 -0.12358873 0.0096036866 2.3509886e-38
-0.029374436 -0.12358873 0.0096036866 2.3509886e-38
-0.027538583 -0.12358873 0.0096036866 2.3509886e-38
-0.025652245 -0.12280498 0.012634225 2.3509886e-38
-0.023776799 -0.12202574 0.015647359 2.3509886e-38
-0.021951538 -0.12202574 0.015647359 2.3509886e-38
-0.020092137 -0.121251 0.018643089 2.3509886e-38
-0.018234212 -0.12023406 0.022575326 2.3509886e-38
-0.016421098 -0.12023406 0.022575326 2.3509886e-38
-0.014589201 -0.11944233 0.02563674 2.3509886e-38
-0.012768575 -0.11868234 0.028575368 2.3509886e-38
-0.010950114 -0.1171218 0.034609504 2.3509886e-38
-0.0091554793 -0.1163484 0.037600107 2.3509886e-38
-0.0073713167 -0.1155795 0.040573187 2.3509527e-38
-0.0055897618 -0.1155795 0.040573187 2.3509527e-38
-0.0038216067 -0.11478879 0.043630667 2.3509527e-38
-0.0020454125 -0.11478879 0.043630667 2.3509527e-38
-0.00015043002 -0.11868234 0.028575368 2.3509883e-38
0.0016804999 -0.11944233 0.02563674 2.3509883e-38
0.0034882445 -0.11944233 0.02563674 2.350988e-38
0.0052959891 -0.11944233 0.02563674 2.350988e-38
0.0071037337 -0.11944233 0.02563674 2.350988e-38
0.0088625299 -0.11868234 0.028575368 2.3509883e-38
0.010665123 -0.11868234 0.028575368 2.3509883e-38
0.012346047 -0.1171218 0.034609504 2.3509886e-38
0.014138059 -0.1171218 0.034609504 2.341805e-38
0.015930071 -0.1171218 0.034609504 2.341805e-38
0.017646052 -0.1163484 0.037600107 2.341805e-38
0.019352023 -0.1155795 0.040573187 2.341805e-38
0.021133579 -0.1155795 0.040573187 2.341805e-38
0.022915136 -0.1155795 0.040573187 2.2773039e-38
0.024696693 -0.1155795 0.040573187 2.3049624e-38
0.026478246 -0.1155795 0.040573187 2.3418045e-38
0.028366666 -0.1163484 0.037600107 2.3049978e-38
0.030153435 -0.1163484 0.037600107 2.0560693e-38
0.032058183 -0.1171218 0.034609504 1.9454343e-38
0.033604473 -0.1155795 0.040573187 2.0100068e-38
0.035386026 -0.1155795 0.040573187 1.9178111e-38
0.039447468 -0.12876706 -0.01041954 1.8624934e-38
0.041455004 -0.12952723 -0.013358884 1.797992e-38
0.04333112 -0.12952723 -0.013358884 1.7795526e-38
0.045060359 -0.12876706 -0.01041954 1.7887722e-38
0.046931319 -0.12876706 -0.01041954 1.7703329e-38
0.048802283 -0.12876706 -0.01041954 1.705796e-38
0.050835587 -0.12952723 -0.013358884 1.6412592e-38
0.052886616 -0.13032107 -0.016428404 1.650479e-38
0.055003371 -0.13135691 -0.020433716 1.8256507e-38
0.057073053 -0.13213144 -0.023428611 2.0100064e-38
0.059212159 -0.13315077 -0.027370147 2.2404958e-38
0.061306987 -0.13393532 -0.030403785 2.2496799e-38
0.063212983 -0.13393532 -0.030403785 2.3234367e-38
0.065587953 -0.13573201 -0.037351064 2.2128022e-38
0.067993462 -0.1375518 -0.044387631 2.2127664e-38
0.069923989 -0.1375518 -0.044387631 2.1297904e-38
0.072143771 -0.13857989 -0.048363023 2.0284109e-38
0.074307106 -0.13936369 -0.051393799 2.0099715e-38
0.076249912 -0.13936369 -0.051393799 1.8993365e-38
0.078506857 -0.14040495 -0.055420093 1.9178111e-38
0.081017047 -0.14222141 -0.062443785 1.7057608e-38
0.083303899 -0.14325126 -0.066425972 1.5582834e-38
0.085523352 -0.14402847 -0.069431238 1.346306e-38
0.087497786 -0.14402847 -0.069431238 1.2635109e-38
0.089811176 -0.14503856 -0.073336892 1.2175215e-38
0.09215197 -0.14608859 -0.07739716 1.2175215e-38
0.094498053 -0.14711304 -0.081358366 1.2175215e-38
0.096493393 -0.14711304 -0.081358366 1.1898628e-38
0.098778203 -0.14791109 -0.084444217 1.1529126e-38
0.1011622 -0.14894833 -0.088454895 1.1344734e-38
0.10316998 -0.14894833 -0.088454895 1.1529126e-38
0.10556494 -0.14995907 -0.092363171 1.1805713e-38
0.10757957 -0.14995907 -0.092363171 1.0883756e-38
0.10959421 -0.14995907 -0.092363171 8.1171685e-39
0.11160885 -0.14995907 -0.092363171 2.2166482e-39
0.11362348 -0.14995907 -0.092363171 8.3371373e-40
0.11563812 -0.14995907 -0.092363171 1.4790831e-39
-0.10464452 -0.12542458 0.0096036866 2.1299337e-38
-0.10280867 -0.12542458 0.0096036866 2.3234369e-38
-0.10097282 -0.12542458 0.0096036866 2.3142537e-38
-0.099136963 -0.12542458 0.0096036866 2.3142538e-38
-0.097301096 -0.12542458 0.0096036866 2.3142538e-38
-0.095465243 -0.12542458 0.0096036866 2.3418043e-38
-0.093136653 -0.12385099 0.015647359 2.3509879e-38
-0.091311395 -0.12385099 0.015647359 2.3509879e-38
-0.089252397 -0.123071 0.018643089 2.3509879e-38
-0.087132469 -0.12204717 0.022575326 2.3509879e-38
-0.08531937 -0.12204717 0.022575326 2.2957065e-38
-0.083506256 -0.12204717 0.022575326 2.2864869e-38
-0.081693143 -0.12204717 0.022575326 2.3509883e-38
-0.079880029 -0.12204717 0.022575326 2.3417687e-38
-0.077860266 -0.12125005 0.02563674 2.3509883e-38
-0.075859293 -0.12048493 0.028575368 2.3509886e-38
-0.073863059 -0.11969708 0.031601258 2.3509886e-38
-0.072065771 -0.11969708 0.031601258 2.3509886e-38
-0.070268482 -0.11969708 0.031601258 2.3509886e-38
-0.068471201 -0.11969708 0.031601258 2.3509886e-38
-0.066673912 -0.11969708 0.031601258 2.3233299e-38
-0.064876631 -0.11969708 0.031601258 2.3509886e-38
-0.063241154 -0.12048493 0.028575368 2.3509886e-38
-0.062571861 -0.12618984 0.0066645816 2.3509886e-38
-0.060730852 -0.12618984 0.0066645816 2.3233299e-38
-0.059228949 -0.12802102 -0.00036840886 2.3325494e-38
-0.05737561 -0.12802102 -0.00036840886 2.3509886e-38
-0.055389106 -0.12724553 0.0026100352 2.3509886e-38
-0.05354099 -0.12724553 0.0026100352 2.3509886e-38
-0.051692873 -0.12724553 0.0026100352 2.341769e-38
-0.049962249 -0.12802102 -0.00036840886 2.3509886e-38
-0.048108909 -0.12802102 -0.00036840886 2.3325494e-38
-0.04625557 -0.12802102 -0.00036840886 2.341769e-38
-0.044402227 -0.12802102 -0.00036840886 2.3509886e-38
-0.042548887 -0.12802102 -0.00036840886 2.3325494e-38
-0.040479753 -0.12618984 0.0066645816 2.2587929e-38
-0.038638741 -0.12618984 0.0066645816 2.3048907e-38
-0.036717862 -0.12542458 0.0096036866 2.3509886e-38
-0.034882002 -0.12542458 0.0096036866 2.3509886e-38
-0.033046149 -0.12542458 0.0096036866 2.3509886e-38
-0.031210292 -0.12542458 0.0096036866 2.3509886e-38
-0.029374436 -0.12542458 0.0096036866 2.3509886e-38
-0.027538583 -0.12542458 0.0096036866 2.3509886e-38
-0.025702722 -0.12542458 0.0096036866 2.3509886e-38
-0.023821704 -0.12463553 0.012634225 2.3509886e-38
-0.021951538 -0.12385099 0.015647359 2.3509886e-38
-0.020126279 -0.12385099 0.015647359 2.3509886e-38
-0.018301021 -0.12385099 0.015647359 2.3509886e-38
-0.016421098 -0.12204717 0.022575326 2.3509886e-38
-0.014589201 -0.12125005 0.02563674 2.3509886e-38
-0.012768575 -0.12048493 0.028575368 2.3509886e-38
-0.010942248 -0.11813517 0.037600107 2.3509886e-38
-0.0091528734 -0.11736105 0.040573187 2.3509886e-38
-0.0073713167 -0.11736105 0.040573187 2.3509527e-38
-0.0055978028 -0.11656497 0.043630667 2.3509527e-38
-0.0038477303 -0.11501329 0.049590297 2.3509527e-38
-0.0020819837 -0.11501329 0.049590297 2.3509527e-38
-0.00033993553 -0.11423124 0.052593775 2.3509883e-38
0.0014205445 -0.11423124 0.052593775 2.3509883e-38
0.0031810245 -0.11423124 0.052593775 2.3509883e-38
0.0048231268 -0.11188738 0.061595865 2.3418047e-38
0.0065678228 -0.11188738 0.061595865 2.3509883e-38
0.0083125187 -0.11188738 0.061595865 2.3418047e-38
0.010665123 -0.12048493 0.028575368 2.3418047e-38
0.011983423 -0.11423124 0.052593775 2.3418047e-38
0.013743903 -0.11423124 0.052593775 2.341805e-38
0.015716542 -0.11656497 0.043630667 2.341805e-38
0.017570466 -0.11736105 0.040573187 2.341805e-38
0.01926893 -0.11656497 0.043630667 2.341805e-38
0.020957205 -0.11577369 0.046669789 2.341805e-38
0.022728071 -0.11577369 0.046669789 2.3418047e-38
0.024696693 -0.11736105 0.040573187 2.3418045e-38
0.026478246 -0.11736105 0.040573187 2.2773388e-38
0.028582286 -0.11969708 0.031601258 2.0745438e-38
0.031208806 -0.12542458 0.0096036866 1.8624937e-38
0.033044662 -0.12542458 0.0096036866 1.797992e-38
0.035001617 -0.12618984 0.0066645816 1.8533091e-38
0.037016798 -0.12724553 0.0026100352 1.8440894e-38
0.039132006 -0.12880091 -0.0033637807 1.8256859e-38
0.041130565 -0.12958528 -0.0063761994 1.7888077e-38
0.043189395 -0.13063805 -0.01041954 1.7519294e-38
0.045060359 -0.13063805 -0.01041954 1.7150512e-38
0.047083352 -0.13140334 -0.013358884 1.6965764e-38
0.048959471 -0.13140334 -0.013358884 1.6873569e-38
0.051005118 -0.13220255 -0.016428404 1.687357e-38
0.05311485 -0.13324542 -0.020433716 1.650479e-38
0.055003371 -0.13324542 -0.020433716 1.8717486e-38
0.057073053 -0.1340252 -0.023428611 2.0468847e-38
0.059400987 -0.13584132 -0.030403785 2.323436e-38
0.061306987 -0.13584132 -0.030403785 2.3049972e-38
0.063405827 -0.13660498 -0.033336692 2.3142171e-38
0.065587953 -0.13765021 -0.037351064 2.1851435e-38
0.067720123 -0.13845469 -0.04044085 2.1298261e-38
0.069643728 -0.13845469 -0.04044085 2.0191914e-38
0.072143771 -0.14051737 -0.048363023 1.9454346e-38
0.074307106 -0.1413065 -0.051393799 1.9546539e-38
0.076556996 -0.14235483 -0.055420093 1.8624938e-38
0.078506857 -0.14235483 -0.055420093 1.8993716e-38
0.081017047 -0.14418359 -0.062443785 1.7057964e-38
0.083303899 -0.14522041 -0.066425972 1.5675027e-38
0.085523352 -0.1460029 -0.069431238 1.3739645e-38
0.087497786 -0.1460029 -0.069431238 1.2266326e-38
0.089811176 -0.14701982 -0.073336892 1.2082299e-38
0.09215197 -0.148077 -0.07739716 1.2082299e-38
0.094498053 -0.14910837 -0.081358366 1.2174495e-38
0.096493393 -0.14910837 -0.081358366 1.1897552e-38
0.098488733 -0.14910837 -0.081358366 1.152841e-38
-0.10619611 -0.12646608 0.012634225 9.0369626e-39
-0.10436556 -0.12646608 0.012634225 2.3234369e-38
-0.10280867 -0.12726043 0.0096036866 2.3142537e-38
-0.10097282 -0.12726043 0.0096036866 2.3142538e-38
-0.099136963 -0.12726043 0.0096036866 2.2498968e-38
-0.097043395 -0.12646608 0.012634225 2.3142541e-38
-0.094961911 -0.12567626 0.015647359 2.2404254e-38
-0.093136653 -0.12567626 0.015647359 2.3048905e-38
-0.091311395 -0.12567626 0.015647359 2.3233296e-38
-0.089252397 -0.124891 0.018643089 2.3048905e-38
-0.087132469 -0.12386028 0.022575326 2.2956709e-38
-0.08531937 -0.12386028 0.022575326 2.3417687e-38
-0.083506256 -0.12386028 0.022575326 2.3509883e-38
-0.081693143 -0.12386028 0.022575326 2.3509883e-38
-0.079880029 -0.12386028 0.022575326 2.3509883e-38
-0.077860266 -0.1230578 0.02563674 2.3509883e-38
-0.075859293 -0.12228753 0.028575368 2.3509886e-38
-0.0740567 -0.12228753 0.028575368 2.3509886e-38
-0.072065771 -0.12149437 0.031601258 2.3233299e-38
-0.070268482 -0.12149437 0.031601258 2.3141103e-38
-0.068471201 -0.12149437 0.031601258 2.341769e-38
-0.066673912 -0.12149437 0.031601258 2.3509886e-38
-0.064876631 -0.12149437 0.031601258 2.3141103e-38
-0.063079342 -0.12149437 0.031601258 2.3509886e-38
-0.061282054 -0.12149437 0.031601258 2.3509886e-38
-0.059484765 -0.12149437 0.031601258 2.3509886e-38
-0.057833374 -0.12228753 0.028575368 2.3509886e-38
-0.055331267 -0.11834116 0.043630667 2.341769e-38
-0.053555071 -0.11834116 0.043630667 2.3509886e-38
-0.051778875 -0.11834116 0.043630667 2.3509886e-38
-0.051939011 -0.13065951 -0.0033637807 2.3509886e-38
-0.050080415 -0.13065951 -0.0033637807 2.3509886e-38
-0.048221823 -0.13065951 -0.0033637807 2.3233299e-38
-0.046363231 -0.13065951 -0.0033637807 2.3509886e-38
-0.044504639 -0.13065951 -0.0033637807 2.3509886e-38
-0.040734123 -0.11520912 0.055579491 2.3509886e-38
-0.040389571 -0.12726043 0.0096036866 2.3325494e-38
-0.038553715 -0.12726043 0.0096036866 2.3509886e-38
-0.036717862 -0.12726043 0.0096036866 2.3509886e-38
-0.034882002 -0.12726043 0.0096036866 2.3509886e-38
-0.033046149 -0.12726043 0.0096036866 2.3509886e-38
-0.031143874 -0.12646608 0.012634225 2.3509886e-38
-0.02931333 -0.12646608 0.012634225 2.3509886e-38
-0.027482785 -0.12646608 0.012634225 2.3509886e-38
-0.025652245 -0.12646608 0.012634225 2.3509886e-38
-0.023776799 -0.12567626 0.015647359 2.3509886e-38
-0.021951538 -0.12567626 0.015647359 2.3509886e-38
-0.020126279 -0.12567626 0.015647359 2.3509886e-38
-0.018272132 -0.124891 0.018643089 2.3509886e-38
-0.016421098 -0.12386028 0.022575326 2.3509886e-38
-0.014589201 -0.1230578 0.02563674 2.3509886e-38
-0.012768575 -0.12228753 0.028575368 2.3509886e-38
-0.010942248 -0.11992194 0.037600107 2.3509886e-38
-0.0091528734 -0.11914261 0.040573187 2.3509886e-38
-0.0073713167 -0.11914261 0.040573187 2.3509527e-38
-0.0055978028 -0.11834116 0.043630667 2.3509527e-38
-0.0038477303 -0.11677901 0.049590297 2.3509527e-38
-0.0020819837 -0.11677901 0.049590297 2.3509886e-38
-0.00033993553 -0.11599173 0.052593775 2.3509883e-38
0.0014205445 -0.11599173 0.052593775 2.3418047e-38
0.0031469967 -0.11520912 0.055579491 2.3418047e-38
0.0048231268 -0.11363207 0.061595865 2.3234376e-38
0.0065678228 -0.11363207 0.061595865 2.3418047e-38
0.0083125187 -0.11363207 0.061595865 2.3234376e-38
0.010111521 -0.11440529 0.05864609 2.3418047e-38
0.011923221 -0.11520912 0.055579491 2.3418047e-38
0.013743903 -0.11599173 0.052593775 2.341805e-38
0.015504383 -0.11599173 0.052593775 2.341805e-38
0.017415471 -0.11754455 0.046669789 2.341805e-38
0.019106969 -0.11677901 0.049590297 2.341805e-38
0.020872712 -0.11677901 0.049590297 2.332621e-38
0.022638459 -0.11677901 0.049590297 2.3418043e-38
0.025602937 -0.12646608 0.012634225 2.3234367e-38
0.027433481 -0.12646608 0.012634225 2.0468851e-38
0.029264022 -0.12646608 0.012634225 1.8624934e-38
0.031208806 -0.12726043 0.0096036866 1.8625286e-38
0.033160608 -0.12803085 0.0066645816 1.8717834e-38
0.035001617 -0.12803085 0.0066645816 1.8257212e-38
0.036842629 -0.12803085 0.0066645816 1.7980623e-38
0.038998082 -0.12987436 -0.00036840886 1.7980623e-38
0.040990598 -0.13065951 -0.0033637807 1.761184e-38
0.04299444 -0.13144915 -0.0063761994 1.6874278e-38
0.045060359 -0.13250901 -0.01041954 1.6228552e-38
0.046931319 -0.13250901 -0.01041954 1.6044164e-38
0.048959471 -0.13327946 -0.013358884 1.6412591e-38
0.051005118 -0.13408406 -0.016428404 1.6781374e-38
0.05311485 -0.13513394 -0.020433716 1.7703331e-38
0.055179279 -0.13591899 -0.023428611 1.9547246e-38
0.057311479 -0.13695215 -0.027370147 2.0561398e-38
0.059400987 -0.13774733 -0.030403785 2.3418031e-38
0.061306987 -0.13774733 -0.030403785 2.3326198e-38
0.063405827 -0.13851611 -0.033336692 2.2773386e-38
0.065587953 -0.13956837 -0.037351064 2.1759236e-38
0.067720123 -0.14037828 -0.04044085 2.1021671e-38
0.069643728 -0.14037828 -0.04044085 2.0468498e-38
0.071854509 -0.14141284 -0.044387631 1.9638734e-38
0.074081257 -0.14245488 -0.048363023 1.9454699e-38
0.076249912 -0.14324932 -0.051393799 1.8163959e-38
0.078192711 -0.14324932 -0.051393799 1.8348703e-38
0.0806918 -0.14507706 -0.058366708 1.6596983e-38
0.083303899 -0.1471896 -0.066425972 1.5767221e-38
0.085273057 -0.1471896 -0.066425972 1.4200979e-38
0.087497786 -0.14797734 -0.069431238 1.2358519e-38
0.089811176 -0.14900111 -0.073336892 1.1990104e-38
-0.10985719 -0.1282966 0.012634225 1.0695412e-38
-0.10802665 -0.1282966 0.012634225 9.774529e-39
-0.10619611 -0.1282966 0.012634225 9.8667233e-39
-0.10436556 -0.1282966 0.012634225 2.3234372e-38
-0.10253502 -0.1282966 0.012634225 2.2682636e-38
-0.10070448 -0.1282966 0.012634225 2.3050701e-38
-0.098873943 -0.1282966 0.012634225 2.2683362e-38
-0.097043395 -0.1282966 0.012634225 2.3142544e-38
-0.094961911 -0.1275015 0.015647359 2.341805e-38
-0.092892408 -0.126711 0.018643089 2.3509886e-38
-0.091072395 -0.126711 0.018643089 2.3509886e-38
-0.089252397 -0.126711 0.018643089 2.341769e-38
-0.087132469 -0.1256734 0.022575326 2.3509886e-38
-0.08531937 -0.1256734 0.022575326 2.3509886e-38
-0.083506256 -0.1256734 0.022575326 2.341769e-38
-0.08147575 -0.12486555 0.02563674 2.2126951e-38
-0.079668 -0.12486555 0.02563674 2.3509886e-38
-0.077860266 -0.12486555 0.02563674 2.341769e-38
-0.075859293 -0.12409012 0.028575368 2.3325494e-38
-0.0740567 -0.12409012 0.028575368 2.3233299e-38
-0.072254121 -0.12409012 0.028575368 2.3141103e-38
-0.070268482 -0.12329166 0.031601258 2.3233299e-38
-0.068471201 -0.12329166 0.031601258 2.3509886e-38
-0.066673912 -0.12329166 0.031601258 2.3509886e-38
-0.064710483 -0.12249784 0.034609504 2.341769e-38
-0.062918469 -0.12249784 0.034609504 2.3509886e-38
-0.060817994 -0.12092416 0.040573187 2.3509886e-38
-0.058883652 -0.12011738 0.043630667 2.3509886e-38
-0.057107463 -0.12011738 0.043630667 2.3509886e-38
-0.05491481 -0.11775221 0.052593775 2.3509886e-38
-0.053154334 -0.11775221 0.052593775 2.3325494e-38
-0.051393852 -0.11775221 0.052593775 2.3233299e-38
-0.049633373 -0.11775221 0.052593775 2.341769e-38
-0.04787289 -0.11775221 0.052593775 2.3048907e-38
-0.045999859 -0.11696436 0.055579491 2.2956712e-38
-0.044244613 -0.11696436 0.055579491 2.3141103e-38
-0.042489368 -0.11696436 0.055579491 2.3233299e-38
-0.040734123 -0.11696436 0.055579491 2.3233299e-38
-0.038553715 -0.12909628 0.0096036866 2.3509886e-38
-0.036717862 -0.12909628 0.0096036866 2.3509886e-38
-0.034882002 -0.12909628 0.0096036866 2.3509886e-38
-0.033046149 -0.12909628 0.0096036866 2.3509886e-38
-0.031143874 -0.1282966 0.012634225 2.3509886e-38
-0.02931333 -0.1282966 0.012634225 2.3509886e-38
-0.027482785 -0.1282966 0.012634225 2.3509886e-38
-0.025652245 -0.1282966 0.012634225 2.3509886e-38
-0.023776799 -0.1275015 0.015647359 2.3509886e-38
-0.021951538 -0.1275015 0.015647359 2.3509886e-38
-0.020126279 -0.1275015 0.015647359 2.3509886e-38
-0.018272132 -0.126711 0.018643089 2.3509886e-38
-0.016421098 -0.1256734 0.022575326 2.3509886e-38
-0.014607987 -0.1256734 0.022575326 2.3509886e-38
-0.012768575 -0.12409012 0.028575368 2.3509886e-38
-0.010926387 -0.12011738 0.043630667 2.3509886e-38
-0.0091501931 -0.12011738 0.043630667 2.3509886e-38
-0.0073766625 -0.11931543 0.046669789 2.3509886e-38
-0.0056057954 -0.11931543 0.046669789 2.3509886e-38
-0.0038477303 -0.11854477 0.049590297 2.3509886e-38
-0.0021004155 -0.11775221 0.052593775 2.3509886e-38
-0.00033993553 -0.11775221 0.052593775 2.341805e-38
0.0013917517 -0.11696436 0.055579491 2.3234379e-38
0.0031469967 -0.11696436 0.055579491 2.3234376e-38
0.0048231268 -0.11537679 0.061595865 2.3142541e-38
0.0065678228 -0.11537679 0.061595865 2.3234376e-38
0.0083616516 -0.11615516 0.05864609 2.3142541e-38
0.010111521 -0.11615516 0.05864609 2.3234376e-38
0.011923221 -0.11696436 0.055579491 2.3234376e-38
0.013743903 -0.11775221 0.052593775 2.3234376e-38
0.015504383 -0.11775221 0.052593775 2.3234376e-38
0.017415471 -0.11931543 0.046669789 2.3234376e-38
0.019106969 -0.11854477 0.049590297 2.3234376e-38
0.020872712 -0.11854477 0.049590297 2.3418043e-38
0.022638459 -0.11854477 0.049590297 2.2681193e-38
0.025505204 -0.1275015 0.015647359 2.1022025e-38
0.027433481 -0.1282966 0.012634225 1.9085912e-38
0.029264022 -0.1282966 0.012634225 1.8348699e-38
0.031208806 -0.12909628 0.0096036866 1.8625995e-38
0.033044662 -0.12909628 0.0096036866 1.8625991e-38
0.035001617 -0.12987186 0.0066645816 1.807317e-38
0.036842629 -0.12987186 0.0066645816 1.7704387e-38
0.038864914 -0.13094176 0.0026100352 1.74278e-38
0.040990598 -0.1325181 -0.0033637807 1.7059021e-38
0.04299444 -0.13331302 -0.0063761994 1.6597687e-38
0.045060359 -0.13437997 -0.01041954 1.6505495e-38
0.046931319 -0.13437997 -0.01041954 1.6873922e-38
0.048959471 -0.13515557 -0.013358884 1.7703329e-38
0.051005118 -0.13596557 -0.016428404 1.83487e-38
0.05311485 -0.13702248 -0.020433716 1.9639439e-38
0.055179279 -0.13781275 -0.023428611 2.0745787e-38
