# .PCD v0.7 - Point Cloud Data file format
VERSION 0.7
FIELDS x y z rgb
SIZE 4 4 4 4
TYPE F F F F
COUNT 1 1 1 1
WIDTH 953
HEIGHT 1
VIEWPOINT 0 0 0 1 0 0 0
POINTS 953
DATA ascii
-0.0035665259 -0.12748651 0.010125358 2.3509886e-38
-0.0017534122 -0.12748651 0.010125358 2.3509886e-38
5.969964e-05 -0.12748651 0.010125358 2.3509886e-38
0.0018728115 -0.12748651 0.010125358 2.3509886e-38
0.0036491035 -0.12589271 0.0161254 2.3509886e-38
0.0054278215 -0.12508895 0.019151289 2.3509886e-38
0.0072251083 -0.12508895 0.019151289 2.3509886e-38
0.0090223951 -0.12508895 0.019151289 2.3509886e-38
0.010819682 -0.12508895 0.019151289 2.3509886e-38
0.012616969 -0.12508895 0.019151289 2.3509886e-38
0.021177601 -0.1203105 0.037140328 2.3509886e-38
0.022943348 -0.1203105 0.037140328 2.3509886e-38
0.024709094 -0.1203105 0.037140328 2.3509886e-38
0.026559331 -0.12108628 0.03421982 2.3509886e-38
0.028240586 -0.1203105 0.037140328 2.3509886e-38
0.02990891 -0.11951269 0.040143806 2.3509886e-38
0.031669389 -0.11951269 0.040143806 2.3509886e-38
0.033537824 -0.1203105 0.037140328 2.3509886e-38
0.03530357 -0.1203105 0.037140328 2.3509886e-38
0.037778981 -0.12508895 0.019151289 2.3509886e-38
0.03957627 -0.12508895 0.019151289 2.3509886e-38
0.041373555 -0.12508895 0.019151289 2.3509886e-38
0.042769708 -0.12270571 0.028123219 2.3509886e-38
0.044551264 -0.12270571 0.028123219 2.3509886e-38
0.046332821 -0.12270571 0.028123219 2.3509886e-38
0.047809727 -0.12108628 0.03421982 2.3509886e-38
0.049580596 -0.12108628 0.03421982 2.3509886e-38
0.051351462 -0.12108628 0.03421982 2.3509886e-38
0.05312233 -0.12108628 0.03421982 2.3509886e-38
0.055066373 -0.12189357 0.031180698 2.3509886e-38
0.056842569 -0.12189357 0.031180698 2.3509886e-38
0.058618765 -0.12189357 0.031180698 2.3325131e-38
0.060394958 -0.12189357 0.031180698 2.3508801e-38
0.062171154 -0.12189357 0.031180698 2.3509521e-38
0.06394735 -0.12189357 0.031180698 2.3509521e-38
0.065723546 -0.12189357 0.031180698 2.3509886e-38
0.067499742 -0.12189357 0.031180698 2.3050349e-38
0.069060124 -0.12108628 0.03421982 2.2867037e-38
0.070830993 -0.12108628 0.03421982 2.2775202e-38
0.072601862 -0.12108628 0.03421982 2.1947247e-38
0.074372731 -0.12108628 0.03421982 2.2591531e-38
0.075915724 -0.1203105 0.037140328 2.2498978e-38
0.077681474 -0.1203105 0.037140328 2.2865961e-38
0.079447217 -0.1203105 0.037140328 2.3325494e-38
0.081212968 -0.1203105 0.037140328 9.2230943e-40
-0.073378384 -0.14826734 -0.060812991 2.259004e-38
-0.071193457 -0.14720438 -0.0568376 2.31425e-38
-0.068837285 -0.14532293 -0.049801033 2.3326177e-38
-0.066332862 -0.1426542 -0.039820116 2.3049597e-38
-0.064036921 -0.14079951 -0.032883685 2.323399e-38
-0.061927181 -0.13972856 -0.028878372 2.3418026e-38
-0.059881534 -0.13890781 -0.025808852 2.3418029e-38
-0.057644244 -0.13704078 -0.018826168 2.3509869e-38
-0.055629846 -0.13623528 -0.015813749 2.350987e-38
-0.053483214 -0.134638 -0.0098399334 2.3509876e-38
-0.051310148 -0.13276802 -0.002846282 2.3509879e-38
-0.049204078 -0.13115202 0.0031973906 2.3418043e-38
-0.047250133 -0.13035102 0.00619312 2.3417687e-38
-0.045268107 -0.1292996 0.010125358 2.3509886e-38
-0.04333422 -0.12848105 0.013186771 2.3509886e-38
-0.041415699 -0.12769531 0.0161254 2.3509886e-38
-0.039504349 -0.12688623 0.019151289 2.3509886e-38
-0.037604209 -0.12608187 0.022159535 2.3509886e-38
-0.035618756 -0.1244873 0.028123219 2.3509886e-38
-0.033743385 -0.12366976 0.031180698 2.3509886e-38
-0.031967189 -0.12366976 0.031180698 2.3509886e-38
-0.030108403 -0.12285714 0.03421982 2.3509886e-38
-0.028111022 -0.12047486 0.043129522 2.3509886e-38
-0.026213367 -0.11886616 0.049145896 2.3509886e-38
-0.024468672 -0.11886616 0.049145896 2.3509886e-38
-0.022783455 -0.11965488 0.046196122 2.3509886e-38
-0.021033585 -0.11965488 0.046196122 2.3509886e-38
-0.019234583 -0.11886616 0.049145896 2.3509886e-38
-0.017489888 -0.11886616 0.049145896 2.3509886e-38
-0.015705347 -0.11805601 0.052175779 2.3509886e-38
-0.013965964 -0.11805601 0.052175779 2.3509886e-38
-0.01222658 -0.11805601 0.052175779 2.3509886e-38
-0.010487195 -0.11805601 0.052175779 2.3509886e-38
-0.0086985826 -0.11591102 0.060197968 2.3509886e-38
-0.0069732647 -0.11591102 0.060197968 2.3509886e-38
-0.0052401535 -0.11511876 0.06316103 2.3509886e-38
-0.0035200305 -0.11511876 0.06316103 2.3509886e-38
-0.0017534122 -0.1292996 0.010125358 2.3509886e-38
5.969964e-05 -0.1292996 0.010125358 2.3509886e-38
0.0018728115 -0.1292996 0.010125358 2.3509886e-38
0.0036491035 -0.12769531 0.0161254 2.3509886e-38
0.005451696 -0.12769531 0.0161254 2.3509886e-38
0.0072542876 -0.12769531 0.0161254 2.3509886e-38
0.0086117042 -0.11725079 0.055187304 2.3509886e-38
0.010345808 -0.11725079 0.055187304 2.3509886e-38
0.012079911 -0.11725079 0.055187304 2.3509886e-38
0.015548119 -0.11725079 0.055187304 2.3509886e-38
0.017342946 -0.11805601 0.052175779 2.3509886e-38
0.019148733 -0.11886616 0.049145896 2.3509886e-38
0.021035837 -0.12047486 0.043129522 2.3509886e-38
0.022791082 -0.12047486 0.043129522 2.3509886e-38
0.024546327 -0.12047486 0.043129522 2.3509886e-38
0.026387949 -0.12127317 0.040143806 2.3509886e-38
0.028148429 -0.12127317 0.040143806 2.3509886e-38
0.02981206 -0.12047486 0.043129522 2.3509886e-38
0.031567305 -0.12047486 0.043129522 2.3509886e-38
0.033429869 -0.12127317 0.040143806 2.3509886e-38
0.035190348 -0.12127317 0.040143806 2.3509886e-38
0.036950827 -0.12127317 0.040143806 2.3509886e-38
0.038588285 -0.12047486 0.043129522 2.3509886e-38
0.04034353 -0.12047486 0.043129522 2.3509886e-38
0.042098776 -0.12047486 0.043129522 2.3509886e-38
0.043854021 -0.12047486 0.043129522 2.3509886e-38
0.045898046 -0.12207626 0.037140328 2.3509886e-38
0.047663789 -0.12207626 0.037140328 2.3509886e-38
0.049429536 -0.12207626 0.037140328 2.3509886e-38
0.051195282 -0.12207626 0.037140328 2.3509886e-38
0.052961029 -0.12207626 0.037140328 2.3509886e-38
0.054726776 -0.12207626 0.037140328 2.3509886e-38
0.056664061 -0.12285714 0.03421982 2.3509527e-38
0.05843493 -0.12285714 0.03421982 2.3509524e-38
0.060205795 -0.12285714 0.03421982 2.3509521e-38
0.062171154 -0.12366976 0.031180698 2.3509521e-38
0.06394735 -0.12366976 0.031180698 2.3509521e-38
0.065723546 -0.12366976 0.031180698 2.3509886e-38
0.067499742 -0.12366976 0.031180698 2.341805e-38
0.069060124 -0.12285714 0.03421982 2.3142544e-38
0.070830993 -0.12285714 0.03421982 2.249826e-38
0.072601862 -0.12285714 0.03421982 2.2867037e-38
0.074372731 -0.12285714 0.03421982 2.2867037e-38
0.076143593 -0.12285714 0.03421982 2.2958514e-38
0.077914461 -0.12285714 0.03421982 2.3142542e-38
0.07968533 -0.12285714 0.03421982 2.3325847e-38
0.081456184 -0.12285714 0.03421982 7.3791676e-40
0.083227053 -0.12285714 0.03421982 7.1746481e-43
-0.070947796 -0.14807267 -0.052890819 2.2774434e-38
-0.068837285 -0.1472411 -0.049801033 2.3142503e-38
-0.066332862 -0.14455487 -0.039820116 2.314179e-38
-0.064207569 -0.14349405 -0.03587858 2.3326184e-38
-0.062148388 -0.14268802 -0.032883685 2.323435e-38
-0.059881534 -0.14078392 -0.025808852 2.3234353e-38
-0.057644244 -0.13890465 -0.018826168 2.3418029e-38
-0.055629846 -0.13809387 -0.015813749 2.3509869e-38
-0.053483214 -0.13648613 -0.0098399334 2.3509873e-38
-0.05116934 -0.13378824 0.00018425658 2.3509879e-38
-0.049204078 -0.13297729 0.0031973906 2.350988e-38
-0.047250133 -0.13217102 0.00619312 2.3417687e-38
-0.045268107 -0.13111271 0.010125358 2.3509886e-38
-0.04333422 -0.13028879 0.013186771 2.3509886e-38
-0.041301634 -0.12868352 0.019151289 2.3509886e-38
-0.039396223 -0.12787388 0.022159535 2.3509886e-38
-0.037400309 -0.12626885 0.028123219 2.3509886e-38
-0.035421003 -0.12462802 0.03421982 2.3509886e-38
-0.033650134 -0.12462802 0.03421982 2.3509886e-38
-0.031879269 -0.12462802 0.03421982 2.3509886e-38
-0.030029032 -0.12384202 0.037140328 2.3509886e-38
-0.028033059 -0.12140475 0.046196122 2.3509886e-38
-0.026213367 -0.12061088 0.049145896 2.3509886e-38
-0.024468672 -0.12061088 0.049145896 2.3509886e-38
-0.022662882 -0.1197954 0.052175779 2.3509886e-38
-0.020923499 -0.1197954 0.052175779 2.3509886e-38
-0.019184116 -0.1197954 0.052175779 2.3509886e-38
-0.017444734 -0.1197954 0.052175779 2.3509886e-38
-0.015665747 -0.11898489 0.055187304 2.3509886e-38
-0.013931643 -0.11898489 0.055187304 2.3509886e-38
-0.012177967 -0.11843865 0.057216961 2.3509886e-38
-0.01044742 -0.11843865 0.057216961 2.3509886e-38
-0.0086985826 -0.11763634 0.060197968 2.3509886e-38
-0.0069732647 -0.11763634 0.060197968 2.3509886e-38
-0.0052401535 -0.11683889 0.06316103 2.3509886e-38
-0.0035200305 -0.11683889 0.06316103 2.3509886e-38
-0.0017973091 -0.11763634 0.060197968 2.3509886e-38
-7.1991235e-05 -0.11763634 0.060197968 2.3509886e-38
0.0016533267 -0.11763634 0.060197968 2.3509886e-38
0.0033786446 -0.11763634 0.060197968 2.3509886e-38
0.0051039625 -0.11763634 0.060197968 2.3509886e-38
0.0068580285 -0.11843865 0.057216961 2.3509886e-38
0.0086117042 -0.11898489 0.055187304 2.3509886e-38
0.010345808 -0.11898489 0.055187304 2.3509886e-38
0.012079911 -0.11898489 0.055187304 2.3509886e-38
0.013814015 -0.11898489 0.055187304 2.3509886e-38
0.015548119 -0.11898489 0.055187304 2.3509886e-38
0.017342946 -0.1197954 0.052175779 2.3509886e-38
0.019148733 -0.12061088 0.049145896 2.3509886e-38
0.02089343 -0.12061088 0.049145896 2.3509886e-38
0.022638125 -0.12061088 0.049145896 2.3509886e-38
0.024462987 -0.12140475 0.046196122 2.3509886e-38
0.026301572 -0.1222301 0.043129522 2.3509886e-38
0.027962724 -0.12140475 0.046196122 2.3509886e-38
0.029712591 -0.12140475 0.046196122 2.3509886e-38
0.031462461 -0.12140475 0.046196122 2.3509886e-38
0.03332255 -0.1222301 0.043129522 2.3509886e-38
0.035077795 -0.1222301 0.043129522 2.3509886e-38
0.03683304 -0.1222301 0.043129522 2.3509886e-38
0.038588285 -0.1222301 0.043129522 2.3509886e-38
0.04034353 -0.1222301 0.043129522 2.3509886e-38
0.042098776 -0.1222301 0.043129522 2.3509886e-38
0.043854021 -0.1222301 0.043129522 2.3509886e-38
0.045609266 -0.1222301 0.043129522 2.3509886e-38
0.047513708 -0.12303366 0.040143806 2.3509886e-38
0.049274188 -0.12303366 0.040143806 2.3509886e-38
0.051034667 -0.12303366 0.040143806 2.3509886e-38
0.052795146 -0.12303366 0.040143806 2.3509886e-38
0.054555628 -0.12303366 0.040143806 2.3509527e-38
0.056492522 -0.12384202 0.037140328 2.3509527e-38
0.058258265 -0.12384202 0.037140328 2.3509524e-38
0.060205795 -0.12462802 0.03421982 2.3509524e-38
0.061976664 -0.12462802 0.03421982 2.3509524e-38
0.06394735 -0.12544595 0.031180698 2.3509883e-38
0.065723546 -0.12544595 0.031180698 2.3509886e-38
0.067499742 -0.12544595 0.031180698 2.341805e-38
0.069060124 -0.12462802 0.03421982 2.3234379e-38
0.070830993 -0.12462802 0.03421982 2.2774481e-38
0.072828323 -0.12544595 0.031180698 2.3142544e-38
0.074604519 -0.12544595 0.031180698 2.3050708e-38
0.076143593 -0.12462802 0.03421982 2.3050347e-38
0.077914461 -0.12462802 0.03421982 2.3418047e-38
0.07968533 -0.12462802 0.03421982 2.3325847e-38
0.081456184 -0.12462802 0.03421982 5.5352551e-40
0.083227053 -0.12462802 0.03421982 7.1746481e-43
0.085527048 -0.12626885 0.028123219 2.8591351e-39
-0.070947796 -0.1499963 -0.052890819 2.2774431e-38
-0.068837285 -0.1491593 -0.049801033 2.2958468e-38
-0.066683322 -0.14807184 -0.04578666 2.2681528e-38
-0.064207569 -0.14538784 -0.03587858 2.2773726e-38
-0.062148388 -0.14457656 -0.032883685 2.295812e-38
-0.059881534 -0.14266007 -0.025808852 2.3050316e-38
-0.057644244 -0.14076851 -0.018826168 2.3234353e-38
-0.055629846 -0.13995247 -0.015813749 2.3418029e-38
-0.053483214 -0.13833423 -0.0098399334 2.350987e-38
-0.05116934 -0.13561879 0.00018425658 2.3509876e-38
-0.049204078 -0.13480256 0.0031973906 2.350988e-38
-0.047250133 -0.13399105 0.00619312 2.3509883e-38
-0.045268107 -0.13292582 0.010125358 2.3509886e-38
-0.04333422 -0.13209651 0.013186771 2.3509886e-38
-0.041301634 -0.13048081 0.019151289 2.3509886e-38
-0.039396223 -0.1296659 0.022159535 2.3509886e-38
-0.037400309 -0.1280504 0.028123219 2.3509886e-38
-0.035421003 -0.12639888 0.03421982 2.3509886e-38
-0.033650134 -0.12639888 0.03421982 2.3509886e-38
-0.031879269 -0.12639888 0.03421982 2.3509886e-38
-0.029947408 -0.12479414 0.040143806 2.3509886e-38
-0.028033059 -0.12315463 0.046196122 2.3509886e-38
-0.026213367 -0.12235557 0.049145896 2.3509886e-38
-0.024402265 -0.12153481 0.052175779 2.3509886e-38
-0.022662882 -0.12153481 0.052175779 2.3509886e-38
-0.020868059 -0.120719 0.055187304 2.3509886e-38
-0.019133952 -0.120719 0.055187304 2.3509886e-38
-0.017399851 -0.120719 0.055187304 2.3509886e-38
-0.015639056 -0.12016918 0.057216961 2.3509886e-38
-0.013908509 -0.12016918 0.057216961 2.3509886e-38
-0.012177967 -0.12016918 0.057216961 2.3509886e-38
-0.01044742 -0.12016918 0.057216961 2.3509886e-38
-0.0086985826 -0.11936165 0.060197968 2.3509886e-38
-0.0069732647 -0.11936165 0.060197968 2.3509886e-38
-0.0052401535 -0.11855899 0.06316103 2.3509886e-38
-0.0035200305 -0.11855899 0.06316103 2.3509886e-38
-0.0017973091 -0.11936165 0.060197968 2.3509886e-38
-7.1991235e-05 -0.11936165 0.060197968 2.3509886e-38
0.0016533267 -0.11936165 0.060197968 2.3509886e-38
0.0033786446 -0.11936165 0.060197968 2.3509886e-38
0.0051039625 -0.11936165 0.060197968 2.3509886e-38
0.0068580285 -0.12016918 0.057216961 2.3509886e-38
0.0086117042 -0.120719 0.055187304 2.3509886e-38
0.010345808 -0.120719 0.055187304 2.3509886e-38
0.012079911 -0.120719 0.055187304 2.3509886e-38
0.013814015 -0.120719 0.055187304 2.3509886e-38
0.015548119 -0.120719 0.055187304 2.3509886e-38
0.017342946 -0.12153481 0.052175779 2.3509886e-38
0.019148733 -0.12235557 0.049145896 2.3509886e-38
0.02089343 -0.12235557 0.049145896 2.3509886e-38
0.022638125 -0.12235557 0.049145896 2.3509886e-38
0.024382822 -0.12235557 0.049145896 2.3509886e-38
0.026127519 -0.12235557 0.049145896 2.3509886e-38
0.027962724 -0.12315463 0.046196122 2.3509886e-38
0.029712591 -0.12315463 0.046196122 2.3509886e-38
0.031462461 -0.12315463 0.046196122 2.3509886e-38
0.033212326 -0.12315463 0.046196122 2.3509886e-38
0.034962196 -0.12315463 0.046196122 2.3509886e-38
0.036712065 -0.12315463 0.046196122 2.3509886e-38
0.038461931 -0.12315463 0.046196122 2.3509886e-38
0.0402118 -0.12315463 0.046196122 2.3509886e-38
0.042098776 -0.12398534 0.043129522 2.3509886e-38
0.043854021 -0.12398534 0.043129522 2.3509886e-38
0.045609266 -0.12398534 0.043129522 2.3509886e-38
0.047364511 -0.12398534 0.043129522 2.3509886e-38
0.049119756 -0.12398534 0.043129522 2.3509886e-38
0.050875001 -0.12398534 0.043129522 2.3509886e-38
0.052630246 -0.12398534 0.043129522 2.3509886e-38
0.054555628 -0.12479414 0.040143806 2.3509883e-38
0.056316108 -0.12479414 0.040143806 2.3509524e-38
0.058258265 -0.12560774 0.037140328 2.3509527e-38
0.060024016 -0.12560774 0.037140328 2.3509527e-38
0.061976664 -0.12639888 0.03421982 2.3509527e-38
0.063747525 -0.12639888 0.03421982 2.3509886e-38
0.065723546 -0.12722217 0.031180698 2.3509886e-38
0.067499742 -0.12722217 0.031180698 2.3509886e-38
0.069060124 -0.12639888 0.03421982 2.341805e-38
0.070830993 -0.12639888 0.03421982 2.3326213e-38
0.072828323 -0.12722217 0.031180698 2.341805e-38
0.074604519 -0.12722217 0.031180698 2.2958151e-38
0.076380715 -0.12722217 0.031180698 2.332621e-38
0.077914461 -0.12639888 0.03421982 2.3418047e-38
0.07968533 -0.12639888 0.03421982 2.3234012e-38
0.081456184 -0.12639888 0.03421982 4.6169141e-40
0.083745494 -0.1280504 0.028123219 1.793662e-42
0.085527048 -0.1280504 0.028123219 4.2420696e-39
0.088103011 -0.13048081 0.019151289 4.9781983e-39
-0.066332862 -0.14835624 -0.039820116 2.212871e-38
-0.064207569 -0.1472816 -0.03587858 2.2220549e-38
-0.062148388 -0.14646508 -0.032883685 2.2589335e-38
-0.059881534 -0.14453618 -0.025808852 2.2773726e-38
-0.057644244 -0.14263238 -0.018826168 2.3049958e-38
-0.055629846 -0.14181106 -0.015813749 2.3326192e-38
-0.053483214 -0.14018236 -0.0098399334 2.350987e-38
-0.051310148 -0.13827558 -0.002846282 2.3509876e-38
-0.049204078 -0.13662781 0.0031973906 2.350988e-38
-0.047250133 -0.13581105 0.00619312 2.3509883e-38
-0.045268107 -0.13473894 0.010125358 2.3509886e-38
-0.043218292 -0.13310309 0.0161254 2.3509886e-38
-0.041301634 -0.1322781 0.019151289 2.3509886e-38
-0.039396223 -0.13145791 0.022159535 2.3509886e-38
-0.037400309 -0.12983195 0.028123219 2.3509886e-38
-0.035421003 -0.12816976 0.03421982 2.3509886e-38
-0.033650134 -0.12816976 0.03421982 2.3509886e-38
-0.031707887 -0.12655462 0.040143806 2.3509886e-38
-0.029866267 -0.12574057 0.043129522 2.3509886e-38
-0.027958062 -0.12410025 0.049145896 2.3509886e-38
-0.026141651 -0.12327419 0.052175779 2.3509886e-38
-0.024402265 -0.12327419 0.052175779 2.3509886e-38
-0.02260216 -0.12245311 0.055187304 2.3509886e-38
-0.020868059 -0.12245311 0.055187304 2.3509886e-38
-0.019100148 -0.12189974 0.057216961 2.3509886e-38
-0.017369602 -0.12189974 0.057216961 2.3509886e-38
-0.015599858 -0.12108697 0.060197968 2.3509886e-38
-0.013874538 -0.12108697 0.060197968 2.3509886e-38
-0.012149218 -0.12108697 0.060197968 2.3509886e-38
-0.010423901 -0.12108697 0.060197968 2.3509886e-38
-0.0086985826 -0.12108697 0.060197968 2.3509886e-38
-0.0069732647 -0.12108697 0.060197968 2.3509886e-38
-0.0052479468 -0.12108697 0.060197968 2.3509886e-38
-0.0035226289 -0.12108697 0.060197968 2.3509886e-38
-0.0017973091 -0.12108697 0.060197968 2.3509886e-38
-7.1991235e-05 -0.12108697 0.060197968 2.3509886e-38
0.0016533267 -0.12108697 0.060197968 2.3509886e-38
0.0033969376 -0.12189974 0.057216961 2.3509886e-38
0.005127483 -0.12189974 0.057216961 2.3509886e-38
0.0068776011 -0.12245311 0.055187304 2.3509886e-38
0.0086117042 -0.12245311 0.055187304 2.3509886e-38
0.010345808 -0.12245311 0.055187304 2.3509886e-38
0.012079911 -0.12245311 0.055187304 2.3509886e-38
0.013814015 -0.12245311 0.055187304 2.3509886e-38
0.015548119 -0.12245311 0.055187304 2.3509886e-38
0.017342946 -0.12327419 0.052175779 2.3509886e-38
0.019082328 -0.12327419 0.052175779 2.3509886e-38
0.020821713 -0.12327419 0.052175779 2.3509886e-38
0.022561096 -0.12327419 0.052175779 2.3509886e-38
0.02430048 -0.12327419 0.052175779 2.3509886e-38
0.026127519 -0.12410025 0.049145896 2.3509886e-38
0.027872214 -0.12410025 0.049145896 2.3509886e-38
0.029616911 -0.12410025 0.049145896 2.3509886e-38
0.031361606 -0.12410025 0.049145896 2.3509886e-38
0.033106305 -0.12410025 0.049145896 2.3509886e-38
0.034851 -0.12410025 0.049145896 2.3509886e-38
0.036595695 -0.12410025 0.049145896 2.3509886e-38
0.038461931 -0.1249045 0.046196122 2.3509886e-38
0.0402118 -0.1249045 0.046196122 2.3509886e-38
0.04196167 -0.1249045 0.046196122 2.3509886e-38
0.043711536 -0.1249045 0.046196122 2.3509886e-38
0.045609266 -0.12574057 0.043129522 2.3509886e-38
0.047364511 -0.12574057 0.043129522 2.3509886e-38
0.049119756 -0.12574057 0.043129522 2.3509886e-38
0.050875001 -0.12574057 0.043129522 2.3509886e-38
0.052630246 -0.12574057 0.043129522 2.3509886e-38
0.054555628 -0.12655462 0.040143806 2.3509524e-38
0.056316108 -0.12655462 0.040143806 2.3509524e-38
0.058076587 -0.12655462 0.040143806 2.3509527e-38
0.060024016 -0.1273735 0.037140328 2.3509886e-38
0.061789759 -0.1273735 0.037140328 2.3509886e-38
0.063747525 -0.12816976 0.03421982 2.3509886e-38
0.065518394 -0.12816976 0.03421982 2.3509886e-38
0.067289263 -0.12816976 0.03421982 2.3509886e-38
0.069060124 -0.12816976 0.03421982 2.3417687e-38
0.070830993 -0.12816976 0.03421982 2.3509883e-38
0.072828323 -0.12899835 0.031180698 2.3509883e-38
0.074604519 -0.12899835 0.031180698 2.3049624e-38
0.076380715 -0.12899835 0.031180698 2.3418047e-38
0.078156911 -0.12899835 0.031180698 2.3418047e-38
0.079933107 -0.12899835 0.031180698 2.3234015e-38
0.081709296 -0.12899835 0.031180698 6.4716167e-40
0.083745494 -0.12983195 0.028123219 9.2374856e-40
0.086305723 -0.1322781 0.019151289 4.8870816e-39
0.088103011 -0.1322781 0.019151289 5.0703939e-39
-0.064036921 -0.14835359 -0.032883685 2.1668451e-38
-0.061927181 -0.14725454 -0.028878372 2.2312745e-38
-0.059881534 -0.1464123 -0.025808852 2.2589332e-38
-0.057644244 -0.14449625 -0.018826168 2.2865925e-38
-0.055629846 -0.14366965 -0.015813749 2.3234353e-38
-0.053483214 -0.14203046 -0.0098399334 2.3509869e-38
-0.051310148 -0.14011143 -0.002846282 2.3509873e-38
-0.049338799 -0.13927986 0.00018425658 2.3509879e-38
-0.047250133 -0.13763104 0.00619312 2.3509883e-38
-0.045268107 -0.13655205 0.010125358 2.3509886e-38
-0.043218292 -0.13490568 0.0161254 2.3509886e-38
-0.041301634 -0.13407536 0.019151289 2.3509527e-38
-0.039396223 -0.13324992 0.022159535 2.3509527e-38
-0.037191868 -0.12994061 0.03421982 2.3509886e-38
-0.035326269 -0.12913923 0.037140328 2.3509886e-38
-0.033468369 -0.12831511 0.040143806 2.3509886e-38
-0.031621512 -0.12749584 0.043129522 2.3509886e-38
-0.029782925 -0.12665437 0.046196122 2.3509886e-38
-0.027958062 -0.12584494 0.049145896 2.3509886e-38
-0.026141651 -0.12501357 0.052175779 2.3509886e-38
-0.024336264 -0.12418722 0.055187304 2.3509886e-38
-0.022561233 -0.12363027 0.057216961 2.3509886e-38
-0.020830691 -0.12363027 0.057216961 2.3509886e-38
-0.01905049 -0.12281232 0.060197968 2.3509886e-38
-0.017325174 -0.12281232 0.060197968 2.3509886e-38
-0.015560891 -0.12199925 0.06316103 2.3509886e-38
-0.013840768 -0.12199925 0.06316103 2.3509886e-38
-0.012120645 -0.12199925 0.06316103 2.3509886e-38
-0.010400523 -0.12199925 0.06316103 2.3509886e-38
-0.0086803995 -0.12199925 0.06316103 2.3509886e-38
-0.0069602765 -0.12199925 0.06316103 2.3509886e-38
-0.0052401535 -0.12199925 0.06316103 2.3509886e-38
-0.0035200305 -0.12199925 0.06316103 2.3509886e-38
-0.0017973091 -0.12281232 0.060197968 2.3509886e-38
-7.9784542e-05 -0.12199925 0.06316103 2.3509886e-38
0.0016403385 -0.12199925 0.06316103 2.3509886e-38
0.0033786446 -0.12281232 0.060197968 2.3509886e-38
0.005127483 -0.12363027 0.057216961 2.3509886e-38
0.0068580285 -0.12363027 0.057216961 2.3509886e-38
0.0086117042 -0.12418722 0.055187304 2.3509886e-38
0.010345808 -0.12418722 0.055187304 2.3509886e-38
0.012079911 -0.12418722 0.055187304 2.3509886e-38
0.013814015 -0.12418722 0.055187304 2.3509886e-38
0.015548119 -0.12418722 0.055187304 2.3509886e-38
0.017342946 -0.12501357 0.052175779 2.3509886e-38
0.019082328 -0.12501357 0.052175779 2.3509886e-38
0.020821713 -0.12501357 0.052175779 2.3509886e-38
0.022561096 -0.12501357 0.052175779 2.3509886e-38
0.02430048 -0.12501357 0.052175779 2.3509886e-38
0.026039863 -0.12501357 0.052175779 2.3509886e-38
0.027779248 -0.12501357 0.052175779 2.3509886e-38
0.02951863 -0.12501357 0.052175779 2.3509886e-38
0.031258017 -0.12501357 0.052175779 2.3509886e-38
0.033106305 -0.12584494 0.049145896 2.3509886e-38
0.034851 -0.12584494 0.049145896 2.3509886e-38
0.036595695 -0.12584494 0.049145896 2.3509886e-38
0.038340393 -0.12584494 0.049145896 2.3509886e-38
0.0402118 -0.12665437 0.046196122 2.3509886e-38
0.04196167 -0.12665437 0.046196122 2.3509886e-38
0.043711536 -0.12665437 0.046196122 2.3509886e-38
0.045461405 -0.12665437 0.046196122 2.3509886e-38
0.047211275 -0.12665437 0.046196122 2.3509886e-38
0.04896114 -0.12665437 0.046196122 2.3509886e-38
0.050875001 -0.12749584 0.043129522 2.3509886e-38
0.052630246 -0.12749584 0.043129522 2.3509886e-38
0.054385491 -0.12749584 0.043129522 2.3509524e-38
0.056316108 -0.12831511 0.040143806 2.3509524e-38
0.058076587 -0.12831511 0.040143806 2.3509527e-38
0.060024016 -0.12913923 0.037140328 2.3509886e-38
0.061789759 -0.12913923 0.037140328 2.341805e-38
0.063555501 -0.12913923 0.037140328 2.341805e-38
0.065518394 -0.12994061 0.03421982 2.341805e-38
0.067289263 -0.12994061 0.03421982 2.3509886e-38
0.069060124 -0.12994061 0.03421982 2.3325492e-38
0.070830993 -0.12994061 0.03421982 2.350988e-38
0.072828323 -0.13077454 0.031180698 2.350988e-38
0.074604519 -0.13077454 0.031180698 2.3049261e-38
0.076619275 -0.13161351 0.028123219 2.3418047e-38
0.078156911 -0.13077454 0.031180698 2.3418047e-38
0.079933107 -0.13077454 0.031180698 2.3142542e-38
0.081709296 -0.13077454 0.031180698 1.6609605e-39
0.083745494 -0.13161351 0.028123219 1.0159442e-39
0.085527048 -0.13161351 0.028123219 4.4261035e-39
0.087308601 -0.13161351 0.028123219 4.4250273e-39
-0.061927181 -0.14913605 -0.028878372 2.212871e-38
-0.059724342 -0.14747669 -0.022869509 2.2405297e-38
-0.057488438 -0.14552824 -0.015813749 2.2773726e-38
-0.055480164 -0.14470108 -0.012818377 2.323435e-38
-0.053483214 -0.14387859 -0.0098399334 2.3418032e-38
-0.051310148 -0.14194728 -0.002846282 2.3509873e-38
-0.049338799 -0.14111041 0.00018425658 2.3509879e-38
-0.047250133 -0.13945107 0.00619312 2.3509883e-38
-0.045141961 -0.13751976 0.013186771 2.3509886e-38
-0.043218292 -0.13670824 0.0161254 2.3509886e-38
-0.041301634 -0.13587265 0.019151289 2.3509527e-38
-0.039396223 -0.13504194 0.022159535 2.3509527e-38
-0.037191868 -0.1317115 0.03421982 2.3509886e-38
-0.035228848 -0.13007559 0.040143806 2.3509886e-38
-0.033468369 -0.13007559 0.040143806 2.3509886e-38
-0.031621512 -0.12925108 0.043129522 2.3509886e-38
-0.029782925 -0.12840421 0.046196122 2.3509886e-38
-0.027958062 -0.12758966 0.049145896 2.3509886e-38
-0.026141651 -0.12675296 0.052175779 2.3509886e-38
-0.024336264 -0.12592132 0.055187304 2.3509886e-38
-0.022561233 -0.12536083 0.057216961 2.3509886e-38
-0.02077581 -0.12453763 0.060197968 2.3509886e-38
-0.019001137 -0.12371938 0.06316103 2.3509886e-38
-0.017235707 -0.12287988 0.066201046 2.3509886e-38
-0.015520915 -0.12287988 0.066201046 2.3509886e-38
-0.013806123 -0.12287988 0.066201046 2.3509886e-38
-0.012091329 -0.12287988 0.066201046 2.3509886e-38
-0.010376537 -0.12287988 0.066201046 2.3509886e-38
-0.0086803995 -0.12371938 0.06316103 2.3509886e-38
-0.0069602765 -0.12371938 0.06316103 2.3509886e-38
-0.0052401535 -0.12371938 0.06316103 2.3509886e-38
-0.0035200305 -0.12371938 0.06316103 2.3509886e-38
-0.0017999075 -0.12371938 0.06316103 2.3509886e-38
-7.9784542e-05 -0.12371938 0.06316103 2.3509886e-38
0.0016403385 -0.12371938 0.06316103 2.3509886e-38
0.0033786446 -0.12453763 0.060197968 2.3509886e-38
0.005127483 -0.12536083 0.057216961 2.3509886e-38
0.0068580285 -0.12536083 0.057216961 2.3509886e-38
0.008588573 -0.12536083 0.057216961 2.3509886e-38
0.010319118 -0.12536083 0.057216961 2.3509886e-38
0.012049663 -0.12536083 0.057216961 2.3509886e-38
0.013814015 -0.12592132 0.055187304 2.3509886e-38
0.015548119 -0.12592132 0.055187304 2.3509886e-38
0.017282223 -0.12592132 0.055187304 2.3509886e-38
0.019016325 -0.12592132 0.055187304 2.3509886e-38
0.020750429 -0.12592132 0.055187304 2.3509886e-38
0.022561096 -0.12675296 0.052175779 2.3509886e-38
0.02430048 -0.12675296 0.052175779 2.3509886e-38
0.026039863 -0.12675296 0.052175779 2.3509886e-38
0.027779248 -0.12675296 0.052175779 2.3509886e-38
0.02951863 -0.12675296 0.052175779 2.3509886e-38
0.031258017 -0.12675296 0.052175779 2.3509886e-38
0.033106305 -0.12758966 0.049145896 2.3509886e-38
0.034851 -0.12758966 0.049145896 2.3509886e-38
0.036595695 -0.12758966 0.049145896 2.3509886e-38
0.038340393 -0.12758966 0.049145896 2.3509886e-38
0.0402118 -0.12840421 0.046196122 2.3509886e-38
0.04196167 -0.12840421 0.046196122 2.3509886e-38
0.043711536 -0.12840421 0.046196122 2.3509886e-38
0.045461405 -0.12840421 0.046196122 2.3509886e-38
0.047211275 -0.12840421 0.046196122 2.3509886e-38
0.04896114 -0.12840421 0.046196122 2.3509886e-38
0.05071101 -0.12840421 0.046196122 2.3509886e-38
0.052460879 -0.12840421 0.046196122 2.3509883e-38
0.054385491 -0.12925108 0.043129522 2.3509521e-38
0.056316108 -0.13007559 0.040143806 2.350988e-38
0.058076587 -0.13007559 0.040143806 2.3509883e-38
0.059837066 -0.13007559 0.040143806 2.341805e-38
0.061789759 -0.13090499 0.037140328 2.3234379e-38
0.063555501 -0.13090499 0.037140328 2.3234379e-38
0.065518394 -0.1317115 0.03421982 2.341805e-38
0.067289263 -0.1317115 0.03421982 2.3418047e-38
0.069060124 -0.1317115 0.03421982 2.3417324e-38
0.070830993 -0.1317115 0.03421982 2.3509879e-38
0.072828323 -0.13255073 0.031180698 2.3509879e-38
0.074604519 -0.13255073 0.031180698 2.3232932e-38
0.076619275 -0.13339506 0.028123219 2.350988e-38
0.078156911 -0.13255073 0.031180698 2.3142542e-38
0.079933107 -0.13255073 0.031180698 2.3142544e-38
0.081709296 -0.13255073 0.031180698 3.0446166e-39
0.083745494 -0.13339506 0.028123219 1.2003383e-39
0.085261688 -0.13255073 0.031180698 4.1495194e-39
0.087037891 -0.13255073 0.031180698 4.2402801e-39
0.08881408 -0.13255073 0.031180698 4.2395598e-39
-0.059724342 -0.14934768 -0.022869509 2.2313098e-38
-0.057488438 -0.14738683 -0.015813749 2.2773723e-38
-0.055480164 -0.14655443 -0.012818377 2.3142511e-38
-0.053483214 -0.1457267 -0.0098399334 2.3418029e-38
-0.051310148 -0.14378314 -0.002846282 2.350987e-38
-0.049338799 -0.14294095 0.00018425658 2.3509879e-38
-0.047250133 -0.14127107 0.00619312 2.3417687e-38
-0.045141961 -0.13932751 0.013186771 2.3509886e-38
-0.043218292 -0.13851084 0.0161254 2.3509886e-38
-0.041188233 -0.13683395 0.022159535 2.3509527e-38
-0.039288729 -0.13600285 0.025150139 2.3509527e-38
-0.037191868 -0.13348235 0.03421982 2.3509886e-38
-0.035228848 -0.13183604 0.040143806 2.3509886e-38
-0.033468369 -0.13183604 0.040143806 2.3509886e-38
-0.031621512 -0.13100632 0.043129522 2.3509883e-38
-0.029782925 -0.13015409 0.046196122 2.3509886e-38
-0.027958062 -0.12933435 0.049145896 2.3509886e-38
-0.026141651 -0.12849234 0.052175779 2.3509886e-38
-0.024336264 -0.12765543 0.055187304 2.3509886e-38
-0.02250113 -0.12626295 0.060197968 2.3509886e-38
-0.02072126 -0.12543948 0.06316103 2.3509886e-38
-0.019001137 -0.12543948 0.06316103 2.3509886e-38
-0.017235707 -0.12459467 0.066201046 2.3509886e-38
-0.015520915 -0.12459467 0.066201046 2.3509886e-38
-0.013806123 -0.12459467 0.066201046 2.3509886e-38
-0.012091329 -0.12459467 0.066201046 2.3509886e-38
-0.010376537 -0.12459467 0.066201046 2.3509886e-38
-0.0086617433 -0.12459467 0.066201046 2.3509886e-38
-0.0069602765 -0.12543948 0.06316103 2.3509886e-38
-0.0052401535 -0.12543948 0.06316103 2.3509886e-38
-0.0035200305 -0.12543948 0.06316103 2.3509886e-38
-0.0017999075 -0.12543948 0.06316103 2.3509886e-38
-7.9784542e-05 -0.12543948 0.06316103 2.3509886e-38
0.0016403385 -0.12543948 0.06316103 2.3509886e-38
0.0033786446 -0.12626295 0.060197968 2.3509886e-38
0.005127483 -0.12709136 0.057216961 2.3509886e-38
0.0068580285 -0.12709136 0.057216961 2.3509886e-38
0.008588573 -0.12709136 0.057216961 2.3509886e-38
0.010319118 -0.12709136 0.057216961 2.3509886e-38
0.012049663 -0.12709136 0.057216961 2.3509886e-38
0.013814015 -0.12765543 0.055187304 2.3509886e-38
0.015548119 -0.12765543 0.055187304 2.3509886e-38
0.017282223 -0.12765543 0.055187304 2.3509886e-38
0.019016325 -0.12765543 0.055187304 2.3509886e-38
0.020750429 -0.12765543 0.055187304 2.3509886e-38
0.022561096 -0.12849234 0.052175779 2.3509886e-38
0.02430048 -0.12849234 0.052175779 2.3509886e-38
0.026039863 -0.12849234 0.052175779 2.3509886e-38
0.027779248 -0.12849234 0.052175779 2.3509886e-38
0.02951863 -0.12849234 0.052175779 2.3509886e-38
0.031258017 -0.12849234 0.052175779 2.3509886e-38
0.033106305 -0.12933435 0.049145896 2.3509886e-38
0.034851 -0.12933435 0.049145896 2.3509886e-38
0.036595695 -0.12933435 0.049145896 2.3509886e-38
0.038461931 -0.13015409 0.046196122 2.3509886e-38
0.0402118 -0.13015409 0.046196122 2.3509886e-38
0.04196167 -0.13015409 0.046196122 2.3509886e-38
0.043711536 -0.13015409 0.046196122 2.3509886e-38
0.045461405 -0.13015409 0.046196122 2.3509886e-38
0.047211275 -0.13015409 0.046196122 2.3509886e-38
0.04896114 -0.13015409 0.046196122 2.3509886e-38
0.05071101 -0.13015409 0.046196122 2.3509886e-38
0.052460879 -0.13015409 0.046196122 2.3509883e-38
0.054385491 -0.13100632 0.043129522 2.3509521e-38
0.056316108 -0.13183604 0.040143806 2.350988e-38
0.058076587 -0.13183604 0.040143806 2.3509883e-38
0.059837066 -0.13183604 0.040143806 2.341805e-38
0.061789759 -0.13267075 0.037140328 2.3234379e-38
0.063555501 -0.13267075 0.037140328 2.3142544e-38
0.065518394 -0.13348235 0.03421982 2.3234379e-38
0.067289263 -0.13348235 0.03421982 2.3418047e-38
0.069060124 -0.13348235 0.03421982 2.350952e-38
0.070830993 -0.13348235 0.03421982 2.3509879e-38
0.072828323 -0.13432692 0.031180698 2.3509879e-38
0.074604519 -0.13432692 0.031180698 2.3325127e-38
0.076619275 -0.13517661 0.028123219 2.350988e-38
0.078156911 -0.13432692 0.031180698 2.277376e-38
0.07968533 -0.13348235 0.03421982 2.3142544e-38
0.081456184 -0.13348235 0.03421982 4.5193907e-39
0.083745494 -0.13517661 0.028123219 2.029743e-39
0.085261688 -0.13432692 0.031180698 4.5183019e-39
0.087037891 -0.13432692 0.031180698 4.4246714e-39
0.08881408 -0.13432692 0.031180698 4.4235952e-39
-0.055480164 -0.14840777 -0.012818377 2.3142511e-38
-0.053483214 -0.14757483 -0.0098399334 2.3418029e-38
-0.051310148 -0.14561899 -0.002846282 2.350987e-38
-0.049338799 -0.1447715 0.00018425658 2.3418042e-38
-0.047250133 -0.14309107 0.00619312 2.3325492e-38
-0.045141961 -0.14113526 0.013186771 2.3509527e-38
-0.043218292 -0.14031343 0.0161254 2.3509886e-38
-0.041188233 -0.13862596 0.022159535 2.3509527e-38
-0.039288729 -0.13778962 0.025150139 2.3509886e-38
-0.037191868 -0.13525321 0.03421982 2.3509886e-38
-0.035228848 -0.13359652 0.040143806 2.3509886e-38
-0.033468369 -0.13359652 0.040143806 2.3509883e-38
-0.031621512 -0.13276155 0.043129522 2.3509883e-38
-0.029782925 -0.13190396 0.046196122 2.3509886e-38
-0.027958062 -0.13107903 0.049145896 2.3509886e-38
-0.026141651 -0.13023172 0.052175779 2.3509886e-38
-0.024336264 -0.12938951 0.055187304 2.3509886e-38
-0.02250113 -0.12798826 0.060197968 2.3509886e-38
-0.02072126 -0.12715961 0.06316103 2.3509886e-38
-0.019001137 -0.12715961 0.06316103 2.3509886e-38
-0.017235707 -0.12630944 0.066201046 2.3509886e-38
-0.015520915 -0.12630944 0.066201046 2.3509886e-38
-0.013806123 -0.12630944 0.066201046 2.3509886e-38
-0.012091329 -0.12630944 0.066201046 2.3509886e-38
-0.010376537 -0.12630944 0.066201046 2.3509886e-38
-0.0086617433 -0.12630944 0.066201046 2.3509886e-38
-0.0069469512 -0.12630944 0.066201046 2.3509886e-38
-0.0052401535 -0.12715961 0.06316103 2.3509886e-38
-0.0035200305 -0.12715961 0.06316103 2.3509886e-38
-0.0017999075 -0.12715961 0.06316103 2.3509886e-38
-7.9784542e-05 -0.12715961 0.06316103 2.3509886e-38
0.0016403385 -0.12715961 0.06316103 2.3509886e-38
0.0033786446 -0.12798826 0.060197968 2.3509886e-38
0.0051039625 -0.12798826 0.060197968 2.3509886e-38
0.0068580285 -0.12882192 0.057216961 2.3509886e-38
0.008588573 -0.12882192 0.057216961 2.3509886e-38
0.010319118 -0.12882192 0.057216961 2.3509886e-38
0.012049663 -0.12882192 0.057216961 2.3509886e-38
0.013814015 -0.12938951 0.055187304 2.3509886e-38
0.015548119 -0.12938951 0.055187304 2.3509886e-38
0.017282223 -0.12938951 0.055187304 2.3509886e-38
0.019016325 -0.12938951 0.055187304 2.3509886e-38
0.020750429 -0.12938951 0.055187304 2.3509886e-38
0.022484533 -0.12938951 0.055187304 2.3509886e-38
0.02430048 -0.13023172 0.052175779 2.3509886e-38
0.026039863 -0.13023172 0.052175779 2.3509886e-38
0.027779248 -0.13023172 0.052175779 2.3509886e-38
0.02951863 -0.13023172 0.052175779 2.3509886e-38
0.031258017 -0.13023172 0.052175779 2.3509886e-38
0.033106305 -0.13107903 0.049145896 2.3509886e-38
0.034851 -0.13107903 0.049145896 2.3509886e-38
0.036595695 -0.13107903 0.049145896 2.3509886e-38
0.038461931 -0.13190396 0.046196122 2.3509886e-38
0.0402118 -0.13190396 0.046196122 2.3509886e-38
0.04196167 -0.13190396 0.046196122 2.3509886e-38
0.043711536 -0.13190396 0.046196122 2.3509886e-38
0.045461405 -0.13190396 0.046196122 2.3509886e-38
0.047211275 -0.13190396 0.046196122 2.3509886e-38
0.04896114 -0.13190396 0.046196122 2.3509886e-38
0.05071101 -0.13190396 0.046196122 2.3509886e-38
0.052460879 -0.13190396 0.046196122 2.3509883e-38
0.054385491 -0.13276155 0.043129522 2.350988e-38
0.056140736 -0.13276155 0.043129522 2.350988e-38
0.058076587 -0.13359652 0.040143806 2.3509883e-38
0.059837066 -0.13359652 0.040143806 2.341805e-38
0.061789759 -0.13443647 0.037140328 2.3234379e-38
0.063555501 -0.13443647 0.037140328 2.3234379e-38
0.065518394 -0.13525321 0.03421982 2.3234379e-38
0.067289263 -0.13525321 0.03421982 2.3418047e-38
0.069060124 -0.13525321 0.03421982 2.350952e-38
0.070830993 -0.13525321 0.03421982 2.350988e-38
0.072828323 -0.13610314 0.031180698 2.3509518e-38
0.074604519 -0.13610314 0.031180698 2.3417324e-38
0.076380715 -0.13610314 0.031180698 2.3509883e-38
0.078156911 -0.13610314 0.031180698 2.2773039e-38
0.07968533 -0.13525321 0.03421982 2.3234379e-38
0.081456184 -0.13525321 0.03421982 5.441347e-39
0.083485499 -0.13610314 0.031180698 2.492519e-39
0.085261688 -0.13610314 0.031180698 4.7041351e-39
0.087037891 -0.13610314 0.031180698 4.4257532e-39
-0.053483214 -0.14942293 -0.0098399334 2.3509866e-38
-0.051310148 -0.14745484 -0.002846282 2.350987e-38
-0.049338799 -0.14660202 0.00018425658 2.3325127e-38
-0.047250133 -0.14491107 0.00619312 2.3509883e-38
-0.045141961 -0.14294298 0.013186771 2.3509527e-38
-0.043218292 -0.14211603 0.0161254 2.3509527e-38
-0.041188233 -0.14041798 0.022159535 2.3509527e-38
-0.039288729 -0.13957639 0.025150139 2.3509886e-38
-0.037191868 -0.13702409 0.03421982 2.3509886e-38
-0.035228848 -0.13535701 0.040143806 2.3418047e-38
-0.033468369 -0.13535701 0.040143806 2.3418045e-38
-0.031621512 -0.13451682 0.043129522 2.3418045e-38
-0.029782925 -0.13365383 0.046196122 2.3509883e-38
-0.027958062 -0.13282375 0.049145896 2.3509886e-38
-0.026141651 -0.13197111 0.052175779 2.3509886e-38
-0.024336264 -0.13112362 0.055187304 2.3509886e-38
-0.022561233 -0.13055246 0.057216961 2.3509886e-38
-0.020665292 -0.12802424 0.066201046 2.3509886e-38
-0.018950503 -0.12802424 0.066201046 2.3509886e-38
-0.017235707 -0.12802424 0.066201046 2.3509886e-38
-0.015482426 -0.12720053 0.069128111 2.3509886e-38
-0.013772763 -0.12720053 0.069128111 2.3509886e-38
-0.012091329 -0.12802424 0.066201046 2.3509886e-38
-0.010376537 -0.12802424 0.066201046 2.3509886e-38
-0.0086617433 -0.12802424 0.066201046 2.3509886e-38
-0.0069469512 -0.12802424 0.066201046 2.3509886e-38
-0.0052401535 -0.12887974 0.06316103 2.3509886e-38
-0.0035200305 -0.12887974 0.06316103 2.3509886e-38
-0.0017999075 -0.12887974 0.06316103 2.3509886e-38
-7.9784542e-05 -0.12887974 0.06316103 2.3509886e-38
0.0016403385 -0.12887974 0.06316103 2.3509886e-38
0.0033604614 -0.12887974 0.06316103 2.3509886e-38
0.0051039625 -0.12971358 0.060197968 2.3509886e-38
0.0068580285 -0.13055246 0.057216961 2.3509886e-38
0.008588573 -0.13055246 0.057216961 2.3509886e-38
0.010319118 -0.13055246 0.057216961 2.3509886e-38
0.012049663 -0.13055246 0.057216961 2.3509886e-38
0.013814015 -0.13112362 0.055187304 2.3509886e-38
0.015548119 -0.13112362 0.055187304 2.3509886e-38
0.017282223 -0.13112362 0.055187304 2.3509886e-38
0.019016325 -0.13112362 0.055187304 2.3509886e-38
0.020750429 -0.13112362 0.055187304 2.3509886e-38
0.022484533 -0.13112362 0.055187304 2.3509886e-38
0.02430048 -0.13197111 0.052175779 2.3509886e-38
0.026039863 -0.13197111 0.052175779 2.3509886e-38
0.027779248 -0.13197111 0.052175779 2.3509886e-38
0.02951863 -0.13197111 0.052175779 2.3509886e-38
0.031258017 -0.13197111 0.052175779 2.3509886e-38
0.033106305 -0.13282375 0.049145896 2.3509886e-38
0.034851 -0.13282375 0.049145896 2.3509886e-38
0.036595695 -0.13282375 0.049145896 2.3509886e-38
0.038461931 -0.13365383 0.046196122 2.3509886e-38
0.0402118 -0.13365383 0.046196122 2.3509886e-38
0.04196167 -0.13365383 0.046196122 2.3509886e-38
0.043854021 -0.13451682 0.043129522 2.3509886e-38
0.045461405 -0.13365383 0.046196122 2.3509886e-38
0.047211275 -0.13365383 0.046196122 2.3509886e-38
0.04896114 -0.13365383 0.046196122 2.3509886e-38
0.050875001 -0.13451682 0.043129522 2.3509886e-38
0.052630246 -0.13451682 0.043129522 2.3509886e-38
0.054385491 -0.13451682 0.043129522 2.3509883e-38
0.056140736 -0.13451682 0.043129522 2.3509883e-38
0.058076587 -0.13535701 0.040143806 2.3509886e-38
0.059837066 -0.13535701 0.040143806 2.3509886e-38
0.061789759 -0.13620223 0.037140328 2.341805e-38
0.063555501 -0.13620223 0.037140328 2.341805e-38
0.065321252 -0.13620223 0.037140328 2.341805e-38
0.067289263 -0.13702409 0.03421982 2.3509886e-38
0.069060124 -0.13702409 0.03421982 2.3509883e-38
0.070830993 -0.13702409 0.03421982 2.3509883e-38
0.072828323 -0.13787933 0.031180698 2.2771958e-38
0.074604519 -0.13787933 0.031180698 2.3233296e-38
0.076380715 -0.13787933 0.031180698 2.3509886e-38
0.078156911 -0.13787933 0.031180698 2.3325494e-38
0.07968533 -0.13702409 0.03421982 2.2772684e-38
0.081456184 -0.13702409 0.03421982 6.3636593e-39
0.083485499 -0.13787933 0.031180698 2.8623833e-39
0.085261688 -0.13787933 0.031180698 3.3244405e-39
-0.051310148 -0.14929073 -0.002846282 2.350987e-38
-0.049338799 -0.14843257 0.00018425658 2.3417323e-38
-0.047081213 -0.14561762 0.010125358 2.3509524e-38
-0.045020889 -0.14391862 0.0161254 2.3509168e-38
-0.043218292 -0.14391862 0.0161254 2.3509168e-38
-0.041188233 -0.14220999 0.022159535 2.3509527e-38
-0.039288729 -0.14136316 0.025150139 2.3509527e-38
-0.037191868 -0.13879494 0.03421982 2.3509886e-38
-0.035228848 -0.13711749 0.040143806 2.3418047e-38
-0.033468369 -0.13711749 0.040143806 2.3418045e-38
-0.031621512 -0.13627206 0.043129522 2.3418045e-38
-0.029782925 -0.13540371 0.046196122 2.3509883e-38
-0.027958062 -0.13456844 0.049145896 2.3509886e-38
-0.026141651 -0.13371049 0.052175779 2.3509886e-38
-0.024336264 -0.13285773 0.055187304 2.3509886e-38
-0.022561233 -0.13228302 0.057216961 2.3509886e-38
-0.020665292 -0.12973903 0.066201046 2.3509886e-38
-0.018950503 -0.12973903 0.066201046 2.3509886e-38
-0.017192084 -0.1289102 0.069128111 2.3509886e-38
-0.015482426 -0.1289102 0.069128111 2.3509886e-38
-0.013772763 -0.1289102 0.069128111 2.3509886e-38
-0.012091329 -0.12973903 0.066201046 2.3509886e-38
-0.010376537 -0.12973903 0.066201046 2.3509886e-38
-0.0086617433 -0.12973903 0.066201046 2.3509886e-38
-0.0069469512 -0.12973903 0.066201046 2.3509886e-38
-0.005232159 -0.12973903 0.066201046 2.3509886e-38
-0.0035200305 -0.13059987 0.06316103 2.3509886e-38
-0.0017999075 -0.13059987 0.06316103 2.3509886e-38
-7.9784542e-05 -0.13059987 0.06316103 2.3509886e-38
0.0016403385 -0.13059987 0.06316103 2.3509886e-38
0.0033604614 -0.13059987 0.06316103 2.3509886e-38
0.0051039625 -0.1314389 0.060197968 2.3509886e-38
0.0068292813 -0.1314389 0.060197968 2.3509886e-38
0.008588573 -0.13228302 0.057216961 2.3509886e-38
0.010319118 -0.13228302 0.057216961 2.3509886e-38
0.012049663 -0.13228302 0.057216961 2.3509886e-38
0.013814015 -0.13285773 0.055187304 2.3509886e-38
0.015548119 -0.13285773 0.055187304 2.3509886e-38
0.017282223 -0.13285773 0.055187304 2.3509886e-38
0.019016325 -0.13285773 0.055187304 2.3509886e-38
0.020750429 -0.13285773 0.055187304 2.3509886e-38
0.022561096 -0.13371049 0.052175779 2.3509886e-38
0.02430048 -0.13371049 0.052175779 2.3509886e-38
0.026039863 -0.13371049 0.052175779 2.3509886e-38
0.027779248 -0.13371049 0.052175779 2.3509886e-38
0.02951863 -0.13371049 0.052175779 2.3509886e-38
0.031258017 -0.13371049 0.052175779 2.3509886e-38
0.033106305 -0.13456844 0.049145896 2.3509886e-38
0.034851 -0.13456844 0.049145896 2.3509886e-38
0.036595695 -0.13456844 0.049145896 2.3509886e-38
0.038461931 -0.13540371 0.046196122 2.3509886e-38
0.0402118 -0.13540371 0.046196122 2.3509886e-38
0.04196167 -0.13540371 0.046196122 2.3509886e-38
0.043711536 -0.13540371 0.046196122 2.3509886e-38
0.045461405 -0.13540371 0.046196122 2.3509886e-38
0.047211275 -0.13540371 0.046196122 2.3509886e-38
0.04896114 -0.13540371 0.046196122 2.3509886e-38
0.05071101 -0.13540371 0.046196122 2.3509886e-38
0.052630246 -0.13627206 0.043129522 2.3509886e-38
0.054385491 -0.13627206 0.043129522 2.3509886e-38
0.056316108 -0.13711749 0.040143806 2.3509886e-38
0.058076587 -0.13711749 0.040143806 2.3509886e-38
0.059837066 -0.13711749 0.040143806 2.3509886e-38
0.061789759 -0.13796796 0.037140328 2.3509886e-38
0.063555501 -0.13796796 0.037140328 2.3509886e-38
0.065321252 -0.13796796 0.037140328 2.3509886e-38
0.067289263 -0.13879494 0.03421982 2.3509886e-38
0.069060124 -0.13879494 0.03421982 2.3141103e-38
0.070830993 -0.13879494 0.03421982 2.3509886e-38
0.072828323 -0.13965552 0.031180698 2.3509886e-38
0.074604519 -0.13965552 0.031180698 2.3509886e-38
0.076380715 -0.13965552 0.031180698 2.3509886e-38
0.078156911 -0.13965552 0.031180698 2.3141103e-38
0.07968533 -0.13879494 0.03421982 2.3325494e-38
0.081456184 -0.13879494 0.03421982 6.8239157e-39
0.083227053 -0.13879494 0.03421982 1.6649191e-39
0.084997922 -0.13879494 0.03421982 2.4961189e-39
-0.047081213 -0.14743073 0.010125358 2.3509883e-38
-0.045020889 -0.14572121 0.0161254 2.3509527e-38
-0.043218292 -0.14572121 0.0161254 2.3509527e-38
-0.041188233 -0.14400201 0.022159535 2.3509527e-38
-0.039288729 -0.14314993 0.025150139 2.3509527e-38
-0.037191868 -0.14056583 0.03421982 2.3509886e-38
-0.035228848 -0.13887797 0.040143806 2.3418047e-38
-0.033468369 -0.13887797 0.040143806 2.3418045e-38
-0.031621512 -0.1380273 0.043129522 2.3418045e-38
-0.029782925 -0.13715358 0.046196122 2.3509883e-38
-0.027958062 -0.13631313 0.049145896 2.3509886e-38
-0.026070368 -0.13459183 0.055187304 2.3509886e-38
-0.02429178 -0.13401355 0.057216961 2.3509886e-38
-0.022561233 -0.13401355 0.057216961 2.3509886e-38
-0.02072126 -0.13231997 0.06316103 2.3509886e-38
-0.018950503 -0.13145383 0.066201046 2.3509886e-38
-0.017192084 -0.13061987 0.069128111 2.3509886e-38
-0.015482426 -0.13061987 0.069128111 2.3509886e-38
-0.013772763 -0.13061987 0.069128111 2.3509886e-38
-0.012091329 -0.13145383 0.066201046 2.3509886e-38
-0.010376537 -0.13145383 0.066201046 2.3509886e-38
-0.0086617433 -0.13145383 0.066201046 2.3509886e-38
-0.0069469512 -0.13145383 0.066201046 2.3509886e-38
-0.005232159 -0.13145383 0.066201046 2.3509886e-38
-0.0035200305 -0.13231997 0.06316103 2.3509886e-38
-0.0017999075 -0.13231997 0.06316103 2.3509886e-38
-8.7779015e-05 -0.13145383 0.066201046 2.3509886e-38
0.0016270131 -0.13145383 0.066201046 2.3509886e-38
0.0033604614 -0.13231997 0.06316103 2.3509886e-38
0.0051039625 -0.13316421 0.060197968 2.3509886e-38
0.0068292813 -0.13316421 0.060197968 2.3509886e-38
0.008588573 -0.13401355 0.057216961 2.3509886e-38
0.010319118 -0.13401355 0.057216961 2.3509886e-38
0.012049663 -0.13401355 0.057216961 2.3509886e-38
0.013814015 -0.13459183 0.055187304 2.3509886e-38
0.015548119 -0.13459183 0.055187304 2.3509886e-38
0.017282223 -0.13459183 0.055187304 2.3509886e-38
0.019016325 -0.13459183 0.055187304 2.3509886e-38
0.020750429 -0.13459183 0.055187304 2.3509886e-38
0.022484533 -0.13459183 0.055187304 2.3509886e-38
0.024218637 -0.13459183 0.055187304 2.3509886e-38
0.026039863 -0.13544987 0.052175779 2.3509886e-38
0.027779248 -0.13544987 0.052175779 2.3509886e-38
0.02951863 -0.13544987 0.052175779 2.3509886e-38
0.031258017 -0.13544987 0.052175779 2.3509886e-38
0.033106305 -0.13631313 0.049145896 2.3509886e-38
0.034851 -0.13631313 0.049145896 2.3509886e-38
0.036595695 -0.13631313 0.049145896 2.3509886e-38
0.038461931 -0.13715358 0.046196122 2.3509886e-38
0.0402118 -0.13715358 0.046196122 2.3509886e-38
0.04196167 -0.13715358 0.046196122 2.3509886e-38
0.043711536 -0.13715358 0.046196122 2.3509886e-38
0.045461405 -0.13715358 0.046196122 2.3509886e-38
0.047211275 -0.13715358 0.046196122 2.3509886e-38
0.04896114 -0.13715358 0.046196122 2.3509886e-38
0.05071101 -0.13715358 0.046196122 2.3509886e-38
0.052630246 -0.1380273 0.043129522 2.3509886e-38
0.054385491 -0.1380273 0.043129522 2.3509886e-38
0.056316108 -0.13887797 0.040143806 2.3509886e-38
0.058076587 -0.13887797 0.040143806 2.3509886e-38
0.059837066 -0.13887797 0.040143806 2.3509886e-38
0.061789759 -0.13973372 0.037140328 2.3509886e-38
0.063555501 -0.13973372 0.037140328 2.3509886e-38
0.065321252 -0.13973372 0.037140328 2.3509886e-38
0.067289263 -0.14056583 0.03421982 2.3509886e-38
0.069060124 -0.14056583 0.03421982 2.3048907e-38
0.070830993 -0.14056583 0.03421982 2.3509886e-38
0.072828323 -0.1414317 0.031180698 2.3509886e-38
0.074604519 -0.1414317 0.031180698 2.3509886e-38
0.076380715 -0.1414317 0.031180698 2.3325494e-38
0.078156911 -0.1414317 0.031180698 2.3325494e-38
0.07968533 -0.14056583 0.03421982 2.2864516e-38
0.081456184 -0.14056583 0.03421982 5.1643944e-39
0.083227053 -0.14056583 0.03421982 1.1106664e-39
0.084997922 -0.14056583 0.03421982 3.2326078e-39
-0.047081213 -0.14924385 0.010125358 2.3325494e-38
-0.045020889 -0.14752381 0.0161254 2.3509886e-38
-0.043218292 -0.14752381 0.0161254 2.3509527e-38
-0.041188233 -0.14579402 0.022159535 2.3509527e-38
