# .PCD v0.7 - Point Cloud Data file format
VERSION 0.7
FIELDS x y z rgb
SIZE 4 4 4 4
TYPE F F F F
COUNT 1 1 1 1
WIDTH 940
HEIGHT 1
VIEWPOINT 0 0 0 1 0 0 0
POINTS 940
DATA ascii
0.068422109 -0.12020047 -9.8850578e-05 2.3509886e-38
0.070247367 -0.12020047 -9.8850578e-05 2.3509886e-38
0.072072618 -0.12020047 -9.8850578e-05 2.3509886e-38
0.073897876 -0.12020047 -9.8850578e-05 2.3509886e-38
0.075723134 -0.12020047 -9.8850578e-05 2.3509886e-38
0.077548392 -0.12020047 -9.8850578e-05 2.3509886e-38
0.07937365 -0.12020047 -9.8850578e-05 2.341805e-38
0.081198923 -0.12020047 -9.8850578e-05 2.2774116e-38
0.083024181 -0.12020047 -9.8850578e-05 2.0285194e-38
0.08484944 -0.12020047 -9.8850578e-05 1.8996253e-38
0.086393692 -0.11943097 0.0028968789 1.6692081e-38
0.08821369 -0.11943097 0.0028968789 1.6324019e-38
0.090033703 -0.11943097 0.0028968789 1.3190086e-38
0.091853701 -0.11943097 0.0028968789 1.3097174e-38
0.093673714 -0.11943097 0.0028968789 1.023911e-38
-0.12201848 -0.14791109 -0.10019043 9.2195518e-39
-0.11972285 -0.14711304 -0.097104579 1.2632222e-38
-0.11772751 -0.14711304 -0.097104579 1.4845638e-38
-0.11536754 -0.14608859 -0.093143374 2.0010391e-38
-0.11301252 -0.14503856 -0.089083105 2.1024908e-38
-0.11068542 -0.14402847 -0.085177451 2.0933076e-38
-0.10810453 -0.14222141 -0.078189999 2.1394778e-38
-0.10614236 -0.14222141 -0.078189999 2.1118191e-38
-0.10384063 -0.141167 -0.074112922 2.1486249e-38
-0.10188559 -0.141167 -0.074112922 2.1578801e-38
-0.099695496 -0.14040495 -0.071166307 2.1670997e-38
-0.097431488 -0.13936369 -0.067140013 2.1578801e-38
-0.095257528 -0.13857989 -0.064109236 2.1578082e-38
-0.093320034 -0.13857989 -0.064109236 2.1670278e-38
-0.091093279 -0.1375518 -0.060133841 2.185395e-38
-0.088882498 -0.13653107 -0.05618706 2.2129817e-38
-0.086744912 -0.13573201 -0.053097274 2.2958859e-38
-0.08482673 -0.13573201 -0.053097274 2.3050693e-38
-0.082644604 -0.13469382 -0.049082901 2.341804e-38
-0.080545761 -0.13393532 -0.046149995 2.3418038e-38
-0.078450926 -0.13315077 -0.043116357 2.3325843e-38
-0.076311819 -0.13213144 -0.039174821 2.3234004e-38
-0.074418046 -0.13213144 -0.039174821 2.3417676e-38
-0.072353624 -0.13135691 -0.036179926 2.3417679e-38
-0.070243888 -0.13032107 -0.032174613 2.350988e-38
-0.068198241 -0.12952723 -0.029105093 2.3509883e-38
-0.066170089 -0.12876706 -0.02616575 2.3509886e-38
-0.064299129 -0.12876706 -0.02616575 2.3509883e-38
-0.062233206 -0.12772138 -0.022122409 2.3509886e-38
-0.060229365 -0.12694232 -0.01910999 2.3509883e-38
-0.058370773 -0.12694232 -0.01910999 2.3509886e-38
-0.056512181 -0.12694232 -0.01910999 2.3509883e-38
-0.054530162 -0.12616767 -0.016114619 2.3509886e-38
-0.052283429 -0.12358873 -0.0061425231 2.3509883e-38
-0.050333332 -0.12280498 -0.0031119846 2.3509886e-38
-0.048502788 -0.12280498 -0.0031119846 2.3509883e-38
-0.046672247 -0.12280498 -0.0031119846 2.3509886e-38
-0.044841703 -0.12280498 -0.0031119846 2.3509883e-38
-0.043011162 -0.12280498 -0.0031119846 2.3509886e-38
-0.041180622 -0.12280498 -0.0031119846 2.3509886e-38
-0.039350078 -0.12280498 -0.0031119846 2.3509886e-38
-0.037671302 -0.12434883 -0.0090816282 2.3509886e-38
-0.035830293 -0.12434883 -0.0090816282 2.3509886e-38
-0.033726756 -0.121251 0.0028968789 2.3509886e-38
-0.03190675 -0.121251 0.0028968789 2.3509886e-38
-0.029848184 -0.11789979 0.015855048 2.3509886e-38
-0.024955727 -0.12772138 -0.022122409 2.3509886e-38
-0.023091853 -0.12772138 -0.022122409 2.3509886e-38
-0.021227978 -0.12772138 -0.022122409 2.3509886e-38
-0.019364104 -0.12772138 -0.022122409 2.3509886e-38
-0.017500233 -0.12772138 -0.022122409 2.3509886e-38
-0.015623153 -0.12694232 -0.01910999 2.3509886e-38
-0.013756684 -0.12616767 -0.016114619 2.3509886e-38
-0.011900731 -0.1253974 -0.013136175 2.3509886e-38
-0.010052615 -0.1253974 -0.013136175 2.3509886e-38
-0.0082151601 -0.12434883 -0.0090816282 2.3509886e-38
-0.0063741514 -0.12434883 -0.0090816282 2.3509886e-38
-0.0045331409 -0.12434883 -0.0090816282 2.3509886e-38
-0.0027153222 -0.12358873 -0.0061425231 2.3509886e-38
-0.0009086905 -0.12280498 -0.0031119846 2.3509886e-38
0.00088751223 -0.12202574 -9.8850578e-05 2.3509886e-38
0.0026733773 -0.121251 0.0028968789 2.3509886e-38
0.0044933846 -0.121251 0.0028968789 2.3509886e-38
0.0063133901 -0.121251 0.0028968789 2.3509886e-38
0.0080610057 -0.12023406 0.0068291165 2.3509886e-38
0.0098123895 -0.11944233 0.0098905303 2.3509886e-38
0.011555729 -0.11868234 0.012829158 2.3509886e-38
0.013286698 -0.11789979 0.015855048 2.3509886e-38
0.015083984 -0.11789979 0.015855048 2.3509886e-38
0.016799517 -0.1171218 0.018863294 2.3509886e-38
0.018505011 -0.1163484 0.021853898 2.3509886e-38
0.020200558 -0.1155795 0.024826977 2.3509886e-38
0.021982115 -0.1155795 0.024826977 2.3509886e-38
0.023763668 -0.1155795 0.024826977 2.3509886e-38
0.025545225 -0.1155795 0.024826977 2.3509886e-38
0.027889837 -0.11944233 0.0098905303 2.3509886e-38
0.029697578 -0.11944233 0.0098905303 2.3509886e-38
0.031631466 -0.12023406 0.0068291165 2.3509886e-38
0.033444576 -0.12023406 0.0068291165 2.3509886e-38
0.03525769 -0.12023406 0.0068291165 2.341769e-38
0.037070803 -0.12023406 0.0068291165 2.3233299e-38
0.038883913 -0.12023406 0.0068291165 2.3141103e-38
0.040893521 -0.121251 0.0028968789 2.3048907e-38
0.042713527 -0.121251 0.0028968789 2.3048907e-38
0.044533532 -0.121251 0.0028968789 2.3141103e-38
0.046353541 -0.121251 0.0028968789 2.3233299e-38
0.047949474 -0.12023406 0.0068291165 2.3509886e-38
0.049762588 -0.12023406 0.0068291165 2.3509886e-38
0.051390514 -0.11944233 0.0098905303 2.3509886e-38
0.053198256 -0.11944233 0.0098905303 2.3509886e-38
0.055201925 -0.12023406 0.0068291165 2.3509886e-38
0.057273582 -0.121251 0.0028968789 2.3509886e-38
0.059093587 -0.121251 0.0028968789 2.3509886e-38
0.061121069 -0.12202574 -9.8850578e-05 2.3509886e-38
0.062946327 -0.12202574 -9.8850578e-05 2.3509886e-38
0.064771585 -0.12202574 -9.8850578e-05 2.3509886e-38
0.066596843 -0.12202574 -9.8850578e-05 2.3509886e-38
0.068422109 -0.12202574 -9.8850578e-05 2.3509886e-38
0.070247367 -0.12202574 -9.8850578e-05 2.3509886e-38
0.072072618 -0.12202574 -9.8850578e-05 2.3509886e-38
0.073897876 -0.12202574 -9.8850578e-05 2.3509886e-38
0.075723134 -0.12202574 -9.8850578e-05 2.3509886e-38
0.077548392 -0.12202574 -9.8850578e-05 2.3325494e-38
0.079113655 -0.121251 0.0028968789 2.3325494e-38
0.080933668 -0.121251 0.0028968789 2.3418047e-38
0.082753666 -0.121251 0.0028968789 2.3234376e-38
0.084573679 -0.121251 0.0028968789 2.2867033e-38
0.086024828 -0.12023406 0.0068291165 2.2867034e-38
0.087837942 -0.12023406 0.0068291165 2.2775199e-38
0.088188984 -0.1163484 0.021853898 2.2683362e-38
0.089975752 -0.1163484 0.021853898 2.2775202e-38
0.091762535 -0.1163484 0.021853898 2.185468e-38
0.096277557 -0.11868234 0.012829158 1.9363966e-38
0.098080151 -0.11868234 0.012829158 1.8993387e-38
-0.12201848 -0.14991184 -0.10019043 9.0351577e-39
-0.11972285 -0.14910837 -0.097104579 1.226344e-38
-0.11735594 -0.148077 -0.093143374 1.4569408e-38
-0.11536754 -0.148077 -0.093143374 2.0010389e-38
-0.11301252 -0.14701982 -0.089083105 2.1209297e-38
-0.11068542 -0.1460029 -0.085177451 2.0933432e-38
-0.10810453 -0.14418359 -0.078189999 2.1210743e-38
-0.10614236 -0.14418359 -0.078189999 2.0934156e-38
-0.10384063 -0.14312203 -0.074112922 2.1301858e-38
-0.10188559 -0.14312203 -0.074112922 2.1394054e-38
-0.099695496 -0.14235483 -0.071166307 2.1578801e-38
-0.097431488 -0.1413065 -0.067140013 2.1670997e-38
-0.095257528 -0.14051737 -0.064109236 2.1670278e-38
-0.093320034 -0.14051737 -0.064109236 2.1578082e-38
-0.091093279 -0.1394823 -0.060133841 2.1762111e-38
-0.088882498 -0.13845469 -0.05618706 2.2129814e-38
-0.086744912 -0.13765021 -0.053097274 2.2958856e-38
-0.08482673 -0.13765021 -0.053097274 2.3142527e-38
-0.082644604 -0.13660498 -0.049082901 2.3418038e-38
-0.080545761 -0.13584132 -0.046149995 2.350987e-38
-0.078450926 -0.13505147 -0.043116357 2.3417676e-38
-0.076311819 -0.1340252 -0.039174821 2.3325478e-38
-0.074242137 -0.13324542 -0.036179926 2.3325478e-38
-0.072125383 -0.13220255 -0.032174613 2.3417679e-38
-0.070074357 -0.13140334 -0.029105093 2.3509883e-38
-0.068041049 -0.13063805 -0.02616575 2.3509886e-38
-0.066170089 -0.13063805 -0.02616575 2.3509886e-38
-0.064299129 -0.13063805 -0.02616575 2.3509886e-38
-0.062233206 -0.12958528 -0.022122409 2.3509886e-38
-0.060229365 -0.12880091 -0.01910999 2.3509886e-38
-0.058370773 -0.12880091 -0.01910999 2.3509886e-38
-0.056512181 -0.12880091 -0.01910999 2.3509886e-38
-0.054240379 -0.12618984 -0.0090816282 2.3509886e-38
-0.052283429 -0.12542458 -0.0061425231 2.3509886e-38
-0.050333332 -0.12463553 -0.0031119846 2.3509886e-38
-0.048394486 -0.12385099 -9.8850578e-05 2.3509886e-38
-0.046569228 -0.12385099 -9.8850578e-05 2.3509886e-38
-0.044646796 -0.123071 0.0028968789 2.3509886e-38
-0.04282679 -0.123071 0.0028968789 2.3509886e-38
-0.04109345 -0.12385099 -9.8850578e-05 2.3509886e-38
-0.039268192 -0.12385099 -9.8850578e-05 2.3509886e-38
-0.03736677 -0.123071 0.0028968789 2.3509886e-38
-0.035546761 -0.123071 0.0028968789 2.3509886e-38
-0.033726756 -0.123071 0.0028968789 2.3509886e-38
-0.03190675 -0.123071 0.0028968789 2.3509886e-38
-0.029848184 -0.11969708 0.015855048 2.3509886e-38
-0.027901452 -0.11736105 0.024826977 2.3509886e-38
-0.026119899 -0.11736105 0.024826977 2.3509886e-38
-0.024298135 -0.11656497 0.027884457 2.3509886e-38
-0.023091853 -0.12958528 -0.022122409 2.3509886e-38
-0.021227978 -0.12958528 -0.022122409 2.3509886e-38
-0.019364104 -0.12958528 -0.022122409 2.3509886e-38
-0.017500233 -0.12958528 -0.022122409 2.3509886e-38
-0.015623153 -0.12880091 -0.01910999 2.3509886e-38
-0.01374885 -0.12724553 -0.013136175 2.3509886e-38
-0.011897177 -0.12618984 -0.0090816282 2.3509886e-38
-0.010056169 -0.12618984 -0.0090816282 2.3509886e-38
-0.0082228901 -0.12542458 -0.0061425231 2.3509886e-38
-0.0063870335 -0.12542458 -0.0061425231 2.3509886e-38
-0.0045511778 -0.12542458 -0.0061425231 2.3509886e-38
-0.002739233 -0.12463553 -0.0031119846 2.3509886e-38
-0.00093774684 -0.12385099 -9.8850578e-05 2.3509886e-38
0.00088751223 -0.12385099 -9.8850578e-05 2.3509886e-38
0.0026733773 -0.123071 0.0028968789 2.3509886e-38
0.0044933846 -0.123071 0.0028968789 2.3509886e-38
0.006247892 -0.12204717 0.0068291165 2.3509886e-38
0.0080610057 -0.12204717 0.0068291165 2.3509886e-38
0.0098123895 -0.12125005 0.0098905303 2.3509886e-38
0.011555729 -0.12048493 0.012829158 2.3509886e-38
0.013286698 -0.11969708 0.015855048 2.3509886e-38
0.015083984 -0.11969708 0.015855048 2.3509886e-38
0.016799517 -0.11891381 0.018863294 2.3509886e-38
0.018505011 -0.11813517 0.021853898 2.3509886e-38
0.020200558 -0.11736105 0.024826977 2.3509886e-38
0.021982115 -0.11736105 0.024826977 2.3509886e-38
0.02386532 -0.11813517 0.021853898 2.3509886e-38
0.025652088 -0.11813517 0.021853898 2.3509886e-38
0.027889837 -0.12125005 0.0098905303 2.3509886e-38
0.029697578 -0.12125005 0.0098905303 2.3509886e-38
0.031505324 -0.12125005 0.0098905303 2.3509886e-38
0.033313069 -0.12125005 0.0098905303 2.3509886e-38
0.035120815 -0.12125005 0.0098905303 2.341769e-38
0.036928557 -0.12125005 0.0098905303 2.3233299e-38
0.038736302 -0.12125005 0.0098905303 2.3141103e-38
0.040893521 -0.123071 0.0028968789 2.3048907e-38
0.042713527 -0.123071 0.0028968789 2.3048907e-38
0.044533532 -0.123071 0.0028968789 2.3141103e-38
0.046136364 -0.12204717 0.0068291165 2.3233299e-38
0.047775026 -0.12125005 0.0098905303 2.3509886e-38
0.049232434 -0.11969708 0.015855048 2.3509886e-38
0.051029719 -0.11969708 0.015855048 2.3509886e-38
0.052827008 -0.11969708 0.015855048 2.3509886e-38
0.054431774 -0.11891381 0.018863294 2.3509886e-38
0.055831678 -0.11736105 0.024826977 2.3509886e-38
0.057613231 -0.11736105 0.024826977 2.3509886e-38
0.060429238 -0.12125005 0.0098905303 2.3509886e-38
0.062946327 -0.12385099 -9.8850578e-05 2.3509886e-38
0.064771585 -0.12385099 -9.8850578e-05 2.3509886e-38
0.066821374 -0.12463553 -0.0031119846 2.3509886e-38
0.068422109 -0.12385099 -9.8850578e-05 2.3509886e-38
0.070247367 -0.12385099 -9.8850578e-05 2.3509886e-38
0.072072618 -0.12385099 -9.8850578e-05 2.3509886e-38
0.073897876 -0.12385099 -9.8850578e-05 2.3509886e-38
0.075473644 -0.123071 0.0028968789 2.3509886e-38
0.077293657 -0.123071 0.0028968789 2.3509167e-38
0.079113655 -0.123071 0.0028968789 2.2956712e-38
0.080585487 -0.12204717 0.0068291165 2.3417687e-38
0.082398601 -0.12204717 0.0068291165 2.3418047e-38
0.084211715 -0.12204717 0.0068291165 2.268228e-38
0.085461996 -0.12048493 0.012829158 2.2867033e-38
0.08726459 -0.12048493 0.012829158 2.2867033e-38
0.087899677 -0.11736105 0.024826977 2.2867034e-38
0.08968123 -0.11736105 0.024826977 2.2867037e-38
0.09267237 -0.12048493 0.012829158 2.2958873e-38
0.094474964 -0.12048493 0.012829158 2.2958873e-38
0.096277557 -0.12048493 0.012829158 2.2774125e-38
0.098080151 -0.12048493 0.012829158 2.2957079e-38
-0.11301252 -0.14900111 -0.089083105 2.1117457e-38
-0.11068542 -0.14797734 -0.085177451 2.0749038e-38
-0.10810453 -0.14614578 -0.078189999 2.0934155e-38
-0.10614236 -0.14614578 -0.078189999 2.0657569e-38
-0.10384063 -0.14507706 -0.074112922 2.1117467e-38
-0.10188559 -0.14507706 -0.074112922 2.1209663e-38
-0.099695496 -0.14430468 -0.071166307 2.1486249e-38
-0.097431488 -0.14324932 -0.067140013 2.1763192e-38
-0.095257528 -0.14245488 -0.064109236 2.1670278e-38
-0.093320034 -0.14245488 -0.064109236 2.1577719e-38
-0.091093279 -0.14141284 -0.060133841 2.1853227e-38
-0.089162759 -0.14141284 -0.060133841 2.2222007e-38
-0.086744912 -0.13956837 -0.053097274 2.2958853e-38
-0.08482673 -0.13956837 -0.053097274 2.3326196e-38
-0.082644604 -0.13851611 -0.049082901 2.350987e-38
-0.080545761 -0.13774733 -0.046149995 2.3509869e-38
-0.078450926 -0.13695215 -0.043116357 2.3417673e-38
-0.076311819 -0.13591899 -0.039174821 2.3325835e-38
-0.074242137 -0.13513394 -0.036179926 2.3325478e-38
-0.072125383 -0.13408406 -0.032174613 2.3417676e-38
-0.070074357 -0.13327946 -0.029105093 2.3509883e-38
-0.068041049 -0.13250901 -0.02616575 2.3509886e-38
-0.066170089 -0.13250901 -0.02616575 2.3509886e-38
-0.064097084 -0.13144915 -0.022122409 2.3509886e-38
-0.062233206 -0.13144915 -0.022122409 2.3509886e-38
-0.060229365 -0.13065951 -0.01910999 2.3509886e-38
-0.058236849 -0.12987436 -0.016114619 2.3509886e-38
-0.056383509 -0.12987436 -0.016114619 2.3509886e-38
-0.054240379 -0.12803085 -0.0090816282 2.3509886e-38
-0.052283429 -0.12726043 -0.0061425231 2.3509886e-38
-0.050333332 -0.12646608 -0.0031119846 2.3509886e-38
-0.048394486 -0.12567626 -9.8850578e-05 2.3509886e-38
-0.046569228 -0.12567626 -9.8850578e-05 2.3509886e-38
-0.044646796 -0.124891 0.0028968789 2.3509886e-38
-0.04282679 -0.124891 0.0028968789 2.3509886e-38
-0.04109345 -0.12567626 -9.8850578e-05 2.3509886e-38
-0.039268192 -0.12567626 -9.8850578e-05 2.3509886e-38
-0.03736677 -0.124891 0.0028968789 2.3509886e-38
-0.035546761 -0.124891 0.0028968789 2.3509886e-38
-0.033509072 -0.12228753 0.012829158 2.3509886e-38
-0.031645469 -0.12149437 0.015855048 2.3509886e-38
-0.029848184 -0.12149437 0.015855048 2.3509886e-38
-0.027901452 -0.11914261 0.024826977 2.3509886e-38
-0.026119899 -0.11914261 0.024826977 2.3509886e-38
-0.024298135 -0.11834116 0.027884457 2.3509886e-38
-0.022521939 -0.11834116 0.027884457 2.3509886e-38
-0.021227978 -0.13144915 -0.022122409 2.3509886e-38
-0.018993676 -0.11914261 0.024826977 2.3509886e-38
-0.017212119 -0.11914261 0.024826977 2.3509886e-38
-0.015623153 -0.13065951 -0.01910999 2.3509886e-38
-0.01374885 -0.12909363 -0.013136175 2.3509886e-38
-0.011897177 -0.12803085 -0.0090816282 2.3509886e-38
-0.010058745 -0.12726043 -0.0061425231 2.3509886e-38
-0.0082308603 -0.12646608 -0.0031119846 2.3509886e-38
-0.0064003179 -0.12646608 -0.0031119846 2.3509886e-38
-0.0045697754 -0.12646608 -0.0031119846 2.3509886e-38
-0.002739233 -0.12646608 -0.0031119846 2.3509886e-38
-0.00093774684 -0.12567626 -9.8850578e-05 2.3509886e-38
0.00088751223 -0.12567626 -9.8850578e-05 2.3509886e-38
0.0026733773 -0.124891 0.0028968789 2.3509886e-38
0.0044347811 -0.12386028 0.0068291165 2.3509886e-38
0.006247892 -0.12386028 0.0068291165 2.3509886e-38
0.0080610057 -0.12386028 0.0068291165 2.3509886e-38
0.0098123895 -0.1230578 0.0098905303 2.3509886e-38
0.011555729 -0.12228753 0.012829158 2.3509886e-38
0.01335832 -0.12228753 0.012829158 2.3509886e-38
0.015083984 -0.12149437 0.015855048 2.3509886e-38
0.016799517 -0.12070583 0.018863294 2.3509886e-38
0.018505011 -0.11992194 0.021853898 2.3509886e-38
0.020291783 -0.11992194 0.021853898 2.3509886e-38
0.022078551 -0.11992194 0.021853898 2.3509886e-38
0.02386532 -0.11992194 0.021853898 2.3509886e-38
0.025652088 -0.11992194 0.021853898 2.3509886e-38
0.027889837 -0.1230578 0.0098905303 2.3509886e-38
0.029697578 -0.1230578 0.0098905303 2.3509886e-38
0.031505324 -0.1230578 0.0098905303 2.3509886e-38
0.033313069 -0.1230578 0.0098905303 2.3509886e-38
0.035120815 -0.1230578 0.0098905303 2.3509886e-38
0.036792021 -0.12228753 0.012829158 2.3509886e-38
0.038594611 -0.12228753 0.012829158 2.341769e-38
0.039047807 -0.11520912 0.039833281 2.3325494e-38
0.040803052 -0.11520912 0.039833281 2.3325494e-38
0.044533532 -0.124891 0.0028968789 2.341769e-38
0.045967281 -0.1230578 0.0098905303 2.341769e-38
0.047607571 -0.12228753 0.012829158 2.3509886e-38
0.049232434 -0.12149437 0.015855048 2.3509886e-38
0.05084775 -0.12070583 0.018863294 2.3509886e-38
0.052639768 -0.12070583 0.018863294 2.3509886e-38
0.054240391 -0.11992194 0.021853898 2.3509886e-38
0.055630647 -0.11834116 0.027884457 2.3509886e-38
0.057406843 -0.11834116 0.027884457 2.3509886e-38
0.060429238 -0.1230578 0.0098905303 2.3509886e-38
0.062946327 -0.12567626 -9.8850578e-05 2.3509886e-38
0.064771585 -0.12567626 -9.8850578e-05 2.3509886e-38
0.066821374 -0.12646608 -0.0031119846 2.3509886e-38
0.068422109 -0.12567626 -9.8850578e-05 2.3509886e-38
0.070247367 -0.12567626 -9.8850578e-05 2.3509886e-38
0.071833633 -0.124891 0.0028968789 2.3509886e-38
0.073653631 -0.124891 0.0028968789 2.3509886e-38
0.075146161 -0.12386028 0.0068291165 2.3509886e-38
0.07695926 -0.12386028 0.0068291165 2.3509527e-38
0.078772373 -0.12386028 0.0068291165 2.323258e-38
0.08031442 -0.1230578 0.0098905303 2.3509883e-38
0.081856824 -0.12228753 0.012829158 2.3509883e-38
0.083380885 -0.12149437 0.015855048 2.2866311e-38
0.084895976 -0.12070583 0.018863294 2.2958867e-38
0.08668799 -0.12070583 0.018863294 2.2590085e-38
0.087899677 -0.11914261 0.024826977 2.2775196e-38
0.08968123 -0.11914261 0.024826977 2.2405696e-38
0.09267237 -0.12228753 0.012829158 2.2590087e-38
0.094474964 -0.12228753 0.012829158 2.2682286e-38
0.096277557 -0.12228753 0.012829158 2.3142544e-38
0.098080151 -0.12228753 0.012829158 2.2034402e-38
-0.11068542 -0.14995177 -0.085177451 2.0288059e-38
-0.10810453 -0.14810793 -0.078189999 2.0657568e-38
-0.10614236 -0.14810793 -0.078189999 2.0565372e-38
-0.10384063 -0.1470321 -0.074112922 2.0933077e-38
-0.10188559 -0.1470321 -0.074112922 2.1025271e-38
-0.099695496 -0.14625455 -0.071166307 2.1485889e-38
-0.097195022 -0.14439236 -0.064109236 2.1854669e-38
-0.095257528 -0.14439236 -0.064109236 2.1761755e-38
-0.093320034 -0.14439236 -0.064109236 2.1485524e-38
-0.091093279 -0.14334334 -0.060133841 2.1853224e-38
-0.089162759 -0.14334334 -0.060133841 2.2406755e-38
-0.086958893 -0.14230187 -0.05618706 2.2958852e-38
-0.08482673 -0.14148657 -0.053097274 2.3234357e-38
-0.082644604 -0.14042725 -0.049082901 2.3418032e-38
-0.080545761 -0.13965334 -0.046149995 2.3418029e-38
-0.078450926 -0.13885282 -0.043116357 2.3418031e-38
-0.076311819 -0.13781275 -0.039174821 2.3418028e-38
-0.074242137 -0.13702248 -0.036179926 2.3509507e-38
-0.072125383 -0.13596557 -0.032174613 2.3509872e-38
-0.070074357 -0.13515557 -0.029105093 2.3509883e-38
-0.068041049 -0.13437997 -0.02616575 2.3509886e-38
-0.065960951 -0.13331302 -0.022122409 2.3509886e-38
-0.064097084 -0.13331302 -0.022122409 2.3509886e-38
-0.062087957 -0.1325181 -0.01910999 2.3509886e-38
-0.060229365 -0.1325181 -0.01910999 2.3509886e-38
-0.058236849 -0.13172771 -0.016114619 2.3509886e-38
-0.056383509 -0.13172771 -0.016114619 2.3509886e-38
-0.054240379 -0.12987186 -0.0090816282 2.3509886e-38
-0.052283429 -0.12909628 -0.0061425231 2.3509886e-38
-0.050333332 -0.1282966 -0.0031119846 2.3509886e-38
-0.048394486 -0.1275015 -9.8850578e-05 2.3509886e-38
-0.046569228 -0.1275015 -9.8850578e-05 2.3509886e-38
-0.044646796 -0.126711 0.0028968789 2.3509886e-38
-0.04282679 -0.126711 0.0028968789 2.3509886e-38
-0.04109345 -0.1275015 -9.8850578e-05 2.3509886e-38
-0.039186776 -0.126711 0.0028968789 2.3509886e-38
-0.03736677 -0.126711 0.0028968789 2.3509886e-38
-0.035453688 -0.1256734 0.0068291165 2.3509886e-38
-0.033509072 -0.12409012 0.012829158 2.3509886e-38
-0.031645469 -0.12329166 0.015855048 2.3509886e-38
-0.029792801 -0.12249784 0.018863294 2.3509886e-38
-0.027901452 -0.12092416 0.024826977 2.3509886e-38
-0.026119899 -0.12092416 0.024826977 2.3509886e-38
-0.024298135 -0.12011738 0.027884457 2.3509886e-38
-0.022521939 -0.12011738 0.027884457 2.3509886e-38
-0.020775229 -0.12092416 0.024826977 2.3509886e-38
-0.018993676 -0.12092416 0.024826977 2.3509886e-38
-0.017212119 -0.12092416 0.024826977 2.3509886e-38
-0.015636358 -0.13331302 -0.022122409 2.3509886e-38
-0.01374885 -0.13094176 -0.013136175 2.3509886e-38
-0.011889302 -0.1275015 -9.8850578e-05 2.3509886e-38
-0.010064044 -0.1275015 -9.8850578e-05 2.3509886e-38
-0.0082308603 -0.1282966 -0.0031119846 2.3509886e-38
-0.0064003179 -0.1282966 -0.0031119846 2.3509886e-38
-0.0045697754 -0.1282966 -0.0031119846 2.3509886e-38
-0.002739233 -0.1282966 -0.0031119846 2.3509886e-38
-0.00093774684 -0.1275015 -9.8850578e-05 2.3509886e-38
0.00085337088 -0.126711 0.0028968789 2.3509886e-38
0.0026733773 -0.126711 0.0028968789 2.3509886e-38
0.0044347811 -0.1256734 0.0068291165 2.3509886e-38
0.006247892 -0.1256734 0.0068291165 2.3509886e-38
0.0080610057 -0.1256734 0.0068291165 2.3509886e-38
0.0098123895 -0.12486555 0.0098905303 2.3509886e-38
0.011555729 -0.12409012 0.012829158 2.3509886e-38
0.01335832 -0.12409012 0.012829158 2.3509886e-38
0.015083984 -0.12329166 0.015855048 2.3509886e-38
0.016881272 -0.12329166 0.015855048 2.3509886e-38
0.018591531 -0.12249784 0.018863294 2.3509886e-38
0.020291783 -0.12170871 0.021853898 2.3509886e-38
0.022078551 -0.12170871 0.021853898 2.3509886e-38
0.02386532 -0.12170871 0.021853898 2.3509886e-38
0.025652088 -0.12170871 0.021853898 2.3509886e-38
0.027438857 -0.12170871 0.021853898 2.3509886e-38
0.028040659 -0.1137826 0.051891062 2.3509886e-38
0.029774763 -0.1137826 0.051891062 2.3509886e-38
0.031638231 -0.11457725 0.048879538 2.3509886e-38
0.033915564 -0.11775221 0.036847565 2.3509886e-38
0.035676043 -0.11775221 0.036847565 2.3509886e-38
0.037292562 -0.11696436 0.039833281 2.3509886e-38
0.039047807 -0.11696436 0.039833281 2.3509886e-38
0.040803052 -0.11696436 0.039833281 2.3509886e-38
0.042558298 -0.11696436 0.039833281 2.3509886e-38
0.045804981 -0.12409012 0.012829158 2.3509886e-38
0.047263727 -0.12249784 0.018863294 2.3509886e-38
0.04905574 -0.12249784 0.018863294 2.3509886e-38
0.05084775 -0.12249784 0.018863294 2.3509886e-38
0.052268565 -0.12092416 0.024826977 2.3509886e-38
0.054050118 -0.12092416 0.024826977 2.3509886e-38
0.055630647 -0.12011738 0.027884457 2.3509886e-38
0.057004549 -0.11854477 0.033844087 2.3509886e-38
0.058355503 -0.11696436 0.039833281 2.3509886e-38
0.060110748 -0.11696436 0.039833281 2.3509886e-38
0.062301785 -0.11854477 0.033844087 2.3509886e-38
0.06384372 -0.11775221 0.036847565 2.3509886e-38
0.065604202 -0.11775221 0.036847565 2.3509886e-38
0.070247367 -0.1275015 -9.8850578e-05 2.3509886e-38
0.071833633 -0.126711 0.0028968789 2.3509886e-38
0.073653631 -0.126711 0.0028968789 2.3509886e-38
0.074143909 -0.12249784 0.018863294 2.3509886e-38
0.075935923 -0.12249784 0.018863294 2.3509527e-38
0.077727936 -0.12249784 0.018863294 2.2495015e-38
0.07951995 -0.12249784 0.018863294 2.3509527e-38
0.08104191 -0.12170871 0.021853898 2.341769e-38
0.082828678 -0.12170871 0.021853898 2.3418047e-38
0.084615447 -0.12170871 0.021853898 2.3234376e-38
0.086402215 -0.12170871 0.021853898 2.3234374e-38
0.087899677 -0.12092416 0.024826977 2.3142538e-38
0.08968123 -0.12092416 0.024826977 2.3234376e-38
0.092367314 -0.12329166 0.015855048 2.3234376e-38
0.094164602 -0.12329166 0.015855048 2.3050347e-38
0.095961891 -0.12329166 0.015855048 2.1850727e-38
0.09775918 -0.12329166 0.015855048 2.0467077e-38
0.099556454 -0.12329166 0.015855048 1.4012665e-38
0.10135374 -0.12329166 0.015855048 7.9270333e-39
0.10315103 -0.12329166 0.015855048 4.6087109e-39
-0.10384063 -0.14898713 -0.074112922 2.0840881e-38
-0.10188559 -0.14898713 -0.074112922 2.0933077e-38
-0.099695496 -0.14820443 -0.071166307 2.1485889e-38
-0.097195022 -0.14632986 -0.064109236 2.1854669e-38
-0.095257528 -0.14632986 -0.064109236 2.1854306e-38
-0.093320034 -0.14632986 -0.064109236 2.1485521e-38
-0.091093279 -0.14527388 -0.060133841 2.1853582e-38
-0.089162759 -0.14527388 -0.060133841 2.2590425e-38
-0.086958893 -0.14422549 -0.05618706 2.3050324e-38
-0.08482673 -0.14340474 -0.053097274 2.3234354e-38
-0.082644604 -0.14233841 -0.049082901 2.3418026e-38
-0.080545761 -0.14155935 -0.046149995 2.3418026e-38
-0.078450926 -0.14075352 -0.043116357 2.3418025e-38
-0.076130666 -0.13891099 -0.036179926 2.3418025e-38
-0.074006878 -0.13784705 -0.032174613 2.350986e-38
-0.071950473 -0.13703169 -0.029105093 2.3509869e-38
-0.069912016 -0.13625093 -0.02616575 2.350988e-38
-0.068041049 -0.13625093 -0.02616575 2.3509886e-38
-0.065960951 -0.13517688 -0.022122409 2.3509886e-38
-0.064097084 -0.13517688 -0.022122409 2.3509886e-38
-0.062087957 -0.13437669 -0.01910999 2.3509886e-38
-0.060090188 -0.13358103 -0.016114619 2.3509886e-38
-0.058236849 -0.13358103 -0.016114619 2.3509886e-38
-0.056255568 -0.13278987 -0.013136175 2.3509886e-38
-0.054119285 -0.13093217 -0.0061425231 2.3509886e-38
-0.052283429 -0.13093217 -0.0061425231 2.3509886e-38
-0.050333332 -0.13012715 -0.0031119846 2.3509886e-38
-0.048502788 -0.13012715 -0.0031119846 2.3509886e-38
-0.046569228 -0.12932678 -9.8850578e-05 2.3509886e-38
-0.044646796 -0.12853102 0.0028968789 2.3509886e-38
-0.04282679 -0.12853102 0.0028968789 2.3509886e-38
-0.041006785 -0.12853102 0.0028968789 2.3509886e-38
-0.039186776 -0.12853102 0.0028968789 2.3509886e-38
-0.037266802 -0.12748651 0.0068291165 2.3509886e-38
-0.035453688 -0.12748651 0.0068291165 2.3509886e-38
-0.033509072 -0.12589271 0.012829158 2.3509886e-38
-0.031645469 -0.12508895 0.015855048 2.3509886e-38
-0.029792801 -0.12428986 0.018863294 2.3509886e-38
-0.027901452 -0.12270571 0.024826977 2.3509886e-38
-0.026119899 -0.12270571 0.024826977 2.3509886e-38
-0.024338342 -0.12270571 0.024826977 2.3509886e-38
-0.022521939 -0.12189357 0.027884457 2.3509886e-38
-0.020745747 -0.12189357 0.027884457 2.3509886e-38
-0.018993676 -0.12270571 0.024826977 2.3509886e-38
-0.017212119 -0.12270571 0.024826977 2.3509886e-38
-0.015430563 -0.12270571 0.024826977 2.3509886e-38
-0.013649006 -0.12270571 0.024826977 2.3509886e-38
-0.011889302 -0.12932678 -9.8850578e-05 2.3509886e-38
-0.010064044 -0.12932678 -9.8850578e-05 2.3509886e-38
-0.0082308603 -0.13012715 -0.0031119846 2.3509886e-38
-0.006413524 -0.12932678 -9.8850578e-05 2.3509886e-38
-0.0045882659 -0.12932678 -9.8850578e-05 2.3509886e-38
-0.0027630068 -0.12932678 -9.8850578e-05 2.3509886e-38
-0.00093774684 -0.12932678 -9.8850578e-05 2.3509886e-38
0.00085337088 -0.12853102 0.0028968789 2.3509886e-38
0.0026733773 -0.12853102 0.0028968789 2.3509886e-38
0.0044347811 -0.12748651 0.0068291165 2.3509886e-38
0.006247892 -0.12748651 0.0068291165 2.3509886e-38
0.0080610057 -0.12748651 0.0068291165 2.3509886e-38
0.0098123895 -0.1266733 0.0098905303 2.3509886e-38
0.011620133 -0.1266733 0.0098905303 2.3509886e-38
0.01335832 -0.12589271 0.012829158 2.3509886e-38
0.015083984 -0.12508895 0.015855048 2.3509886e-38
0.016881272 -0.12508895 0.015855048 2.3509886e-38
0.018591531 -0.12428986 0.018863294 2.3509886e-38
0.020291783 -0.12349547 0.021853898 2.3509886e-38
0.022078551 -0.12349547 0.021853898 2.3509886e-38
0.02386532 -0.12349547 0.021853898 2.3509886e-38
0.025652088 -0.12349547 0.021853898 2.3509886e-38
0.026306555 -0.11551671 0.051891062 2.3509886e-38
0.028040659 -0.11551671 0.051891062 2.3509886e-38
0.029774763 -0.11551671 0.051891062 2.3509886e-38
0.031638231 -0.11631663 0.048879538 2.3325494e-38
0.033377614 -0.11631663 0.048879538 2.3325494e-38
0.035117 -0.11631663 0.048879538 2.341769e-38
0.037292562 -0.11871959 0.039833281 2.3509886e-38
0.039047807 -0.11871959 0.039833281 2.3509886e-38
0.040803052 -0.11871959 0.039833281 2.3509886e-38
0.042558298 -0.11871959 0.039833281 2.341769e-38
0.044313543 -0.11871959 0.039833281 2.341769e-38
0.046238925 -0.11951269 0.036847565 2.3509886e-38
0.048175819 -0.1203105 0.033844087 2.3509886e-38
0.049941562 -0.1203105 0.033844087 2.3509886e-38
0.051707312 -0.1203105 0.033844087 2.3509886e-38
0.053473055 -0.1203105 0.033844087 2.3509886e-38
0.055238798 -0.1203105 0.033844087 2.3509886e-38
0.056801803 -0.11951269 0.036847565 2.3509886e-38
0.058355503 -0.11871959 0.039833281 2.3509886e-38
0.060110748 -0.11871959 0.039833281 2.3509886e-38
0.061865993 -0.11871959 0.039833281 2.3509886e-38
0.063621238 -0.11871959 0.039833281 2.3509886e-38
0.065376483 -0.11871959 0.039833281 2.3509886e-38
0.067364685 -0.11951269 0.036847565 2.3509886e-38
0.069125161 -0.11951269 0.036847565 2.3509886e-38
0.071368627 -0.12108628 0.030923579 2.3509886e-38
0.073392592 -0.12189357 0.027884457 2.3509886e-38
0.075681604 -0.12349547 0.021853898 2.3509527e-38
0.077468373 -0.12349547 0.021853898 2.2863077e-38
0.079255141 -0.12349547 0.021853898 2.3509527e-38
0.08104191 -0.12349547 0.021853898 2.3048189e-38
0.082555018 -0.12270571 0.024826977 2.3325492e-38
0.084336571 -0.12270571 0.024826977 2.3418047e-38
0.086402215 -0.12349547 0.021853898 2.3326208e-38
0.088188984 -0.12349547 0.021853898 2.3142537e-38
0.089975752 -0.12349547 0.021853898 2.2865232e-38
0.092367314 -0.12508895 0.015855048 2.2865232e-38
0.094164602 -0.12508895 0.015855048 2.341805e-38
0.095961891 -0.12508895 0.015855048 2.1112799e-38
0.09775918 -0.12508895 0.015855048 2.1941844e-38
0.099556454 -0.12508895 0.015855048 1.4474001e-38
0.10135374 -0.12508895 0.015855048 9.7709459e-39
0.10315103 -0.12508895 0.015855048 3.9636988e-39
0.10494832 -0.12508895 0.015855048 5.254788e-39
-0.097195022 -0.14826734 -0.064109236 2.1393691e-38
-0.095257528 -0.14826734 -0.064109236 2.1301132e-38
-0.093320034 -0.14826734 -0.064109236 2.1116738e-38
-0.091093279 -0.14720438 -0.060133841 2.1761383e-38
-0.089162759 -0.14720438 -0.060133841 2.2590781e-38
-0.086958893 -0.14614908 -0.05618706 2.2958482e-38
-0.08482673 -0.14532293 -0.053097274 2.3050677e-38
-0.082644604 -0.14424954 -0.049082901 2.323435e-38
-0.080733456 -0.14424954 -0.049082901 2.3418022e-38
-0.078450926 -0.1426542 -0.043116357 2.3509859e-38
-0.076130666 -0.14079951 -0.036179926 2.3509859e-38
-0.074006878 -0.13972856 -0.032174613 2.3509859e-38
-0.071950473 -0.13890781 -0.029105093 2.3509867e-38
-0.069912016 -0.13812189 -0.02616575 2.3509879e-38
-0.067824833 -0.13704078 -0.022122409 2.3509883e-38
-0.065960951 -0.13704078 -0.022122409 2.3509886e-38
-0.063946553 -0.13623528 -0.01910999 2.3509883e-38
-0.061943527 -0.13543437 -0.016114619 2.3509886e-38
-0.060090188 -0.13543437 -0.016114619 2.3509883e-38
-0.058103684 -0.134638 -0.013136175 2.3509886e-38
-0.056255568 -0.134638 -0.013136175 2.3509883e-38
-0.054119285 -0.13276802 -0.0061425231 2.3509886e-38
-0.052283429 -0.13276802 -0.0061425231 2.3509883e-38
-0.050333332 -0.13195769 -0.0031119846 2.3509886e-38
-0.048502788 -0.13195769 -0.0031119846 2.3509883e-38
-0.046569228 -0.13115202 -9.8850578e-05 2.3325494e-38
-0.044646796 -0.13035102 0.0028968789 2.3325492e-38
-0.04282679 -0.13035102 0.0028968789 2.341769e-38
-0.041006785 -0.13035102 0.0028968789 2.3509886e-38
-0.039186776 -0.13035102 0.0028968789 2.3509886e-38
-0.037266802 -0.1292996 0.0068291165 2.3509886e-38
-0.035453688 -0.1292996 0.0068291165 2.3509886e-38
-0.033509072 -0.12769531 0.012829158 2.3509886e-38
-0.031645469 -0.12688623 0.015855048 2.3509886e-38
-0.029792801 -0.12608187 0.018863294 2.3509886e-38
-0.027950976 -0.12528224 0.021853898 2.3509886e-38
-0.026119899 -0.1244873 0.024826977 2.3509886e-38
-0.024338342 -0.1244873 0.024826977 2.3509886e-38
-0.022521939 -0.12366976 0.027884457 2.3509886e-38
-0.020745747 -0.12366976 0.027884457 2.3509886e-38
-0.018969551 -0.12366976 0.027884457 2.3509886e-38
-0.017193355 -0.12366976 0.027884457 2.3509886e-38
-0.015377873 -0.12127317 0.036847565 2.3509886e-38
-0.013617394 -0.12127317 0.036847565 2.3509886e-38
-0.011854296 -0.12047486 0.039833281 2.3509886e-38
-0.010099051 -0.12047486 0.039833281 2.3509886e-38
-0.0082308603 -0.13195769 -0.0031119846 2.3509886e-38
-0.006413524 -0.13115202 -9.8850578e-05 2.3509886e-38
-0.0045882659 -0.13115202 -9.8850578e-05 2.3509886e-38
-0.0027630068 -0.13115202 -9.8850578e-05 2.3509886e-38
-0.00093774684 -0.13115202 -9.8850578e-05 2.3509886e-38
0.00085337088 -0.13035102 0.0028968789 2.3509886e-38
0.0026733773 -0.13035102 0.0028968789 2.3509886e-38
0.0044933846 -0.13035102 0.0028968789 2.3509886e-38
0.006247892 -0.1292996 0.0068291165 2.3509886e-38
0.0080610057 -0.1292996 0.0068291165 2.3509886e-38
0.0098123895 -0.12848105 0.0098905303 2.3509886e-38
0.011620133 -0.12848105 0.0098905303 2.3509886e-38
0.01335832 -0.12769531 0.012829158 2.3509886e-38
0.015160914 -0.12769531 0.012829158 2.3509886e-38
0.016881272 -0.12688623 0.015855048 2.3509886e-38
0.018678557 -0.12688623 0.015855048 2.3509886e-38
0.020106744 -0.12366976 0.027884457 2.3509886e-38
0.02188294 -0.12366976 0.027884457 2.3509886e-38
0.02386532 -0.12528224 0.021853898 2.3509886e-38
0.025652088 -0.12528224 0.021853898 2.3509886e-38
0.026306555 -0.11725079 0.051891062 2.3509886e-38
0.028040659 -0.11725079 0.051891062 2.3509886e-38
0.029774763 -0.11725079 0.051891062 2.3509886e-38
0.031508867 -0.11725079 0.051891062 2.3509886e-38
0.033242971 -0.11725079 0.051891062 2.3509886e-38
0.035117 -0.11805601 0.048879538 2.3509886e-38
0.036856383 -0.11805601 0.048879538 2.3509886e-38
0.038894571 -0.11965488 0.042899881 2.3509886e-38
0.040644437 -0.11965488 0.042899881 2.3509886e-38
0.042236563 -0.11886616 0.045849655 2.3509886e-38
0.043981258 -0.11886616 0.045849655 2.3509886e-38
0.045725953 -0.11886616 0.045849655 2.3509886e-38
0.047470652 -0.11886616 0.045849655 2.3509886e-38
0.049215347 -0.11886616 0.045849655 2.3509886e-38
0.051334523 -0.12047486 0.039833281 2.3509886e-38
0.053089768 -0.12047486 0.039833281 2.3509886e-38
0.054845013 -0.12047486 0.039833281 2.3509886e-38
0.056600258 -0.12047486 0.039833281 2.3509886e-38
0.058355503 -0.12047486 0.039833281 2.3509886e-38
0.060110748 -0.12047486 0.039833281 2.3509886e-38
0.061865993 -0.12047486 0.039833281 2.3509886e-38
0.063621238 -0.12047486 0.039833281 2.3509886e-38
0.065376483 -0.12047486 0.039833281 2.3509886e-38
0.067131728 -0.12047486 0.039833281 2.3509886e-38
0.069125161 -0.12127317 0.036847565 2.3509886e-38
0.070885643 -0.12127317 0.036847565 2.3509886e-38
0.072646119 -0.12127317 0.036847565 2.3509886e-38
0.075168796 -0.12366976 0.027884457 2.3509168e-38
0.077210344 -0.1244873 0.024826977 2.3509168e-38
0.078991897 -0.1244873 0.024826977 2.3509527e-38
0.08104191 -0.12528224 0.021853898 2.3509527e-38
0.082555018 -0.1244873 0.024826977 2.3509883e-38
0.084336571 -0.1244873 0.024826977 2.3417687e-38
0.086402215 -0.12528224 0.021853898 2.3325847e-38
0.088188984 -0.12528224 0.021853898 2.3141816e-38
0.090272017 -0.12608187 0.018863294 2.3233652e-38
0.092367314 -0.12688623 0.015855048 2.3048905e-38
0.094164602 -0.12688623 0.015855048 2.2956712e-38
0.095961891 -0.12688623 0.015855048 2.1480863e-38
0.09775918 -0.12688623 0.015855048 2.1480866e-38
0.099556454 -0.12688623 0.015855048 1.5026093e-38
0.10069638 -0.12528224 0.021853898 1.050851e-38
0.10248315 -0.12528224 0.021853898 5.4388261e-39
0.10426991 -0.12528224 0.021853898 7.0065021e-39
-0.091093279 -0.14913492 -0.060133841 2.1668825e-38
-0.089162759 -0.14913492 -0.060133841 2.2590778e-38
-0.086958893 -0.14807267 -0.05618706 2.3050676e-38
-0.08482673 -0.1472411 -0.053097274 2.3234345e-38
-0.082644604 -0.14616071 -0.049082901 2.3326181e-38
-0.080351613 -0.14455487 -0.043116357 2.3418018e-38
-0.078205593 -0.14349405 -0.039174821 2.3509855e-38
-0.076130666 -0.14268802 -0.036179926 2.3509858e-38
-0.074006878 -0.14161004 -0.032174613 2.3509858e-38
-0.071950473 -0.14078392 -0.029105093 2.3509504e-38
-0.069912016 -0.13999285 -0.02616575 2.3509876e-38
-0.067824833 -0.13890465 -0.022122409 2.350988e-38
-0.065960951 -0.13890465 -0.022122409 2.350988e-38
-0.063946553 -0.13809387 -0.01910999 2.350988e-38
-0.061943527 -0.13728772 -0.016114619 2.350988e-38
-0.060090188 -0.13728772 -0.016114619 2.350988e-38
-0.058103684 -0.13648613 -0.013136175 2.350988e-38
-0.056081396 -0.13539489 -0.0090816282 2.350988e-38
-0.054119285 -0.13460387 -0.0061425231 2.350988e-38
-0.052283429 -0.13460387 -0.0061425231 2.350988e-38
-0.050333332 -0.13378824 -0.0031119846 2.350988e-38
-0.048394486 -0.13297729 -9.8850578e-05 2.350988e-38
-0.046466805 -0.13217102 0.0028968789 2.3418043e-38
-0.044646796 -0.13217102 0.0028968789 2.3325847e-38
-0.04282679 -0.13217102 0.0028968789 2.3418043e-38
-0.041006785 -0.13217102 0.0028968789 2.350988e-38
-0.039186776 -0.13217102 0.0028968789 2.3509886e-38
-0.037266802 -0.13111271 0.0068291165 2.3509886e-38
-0.035311665 -0.1294979 0.012829158 2.3509886e-38
-0.033509072 -0.1294979 0.012829158 2.3509886e-38
-0.031645469 -0.12868352 0.015855048 2.3509886e-38
-0.029792801 -0.12787388 0.018863294 2.3509886e-38
-0.027950976 -0.12706901 0.021853898 2.3509886e-38
-0.026119899 -0.12626885 0.024826977 2.3509886e-38
-0.024338342 -0.12626885 0.024826977 2.3509886e-38
-0.022521939 -0.12544595 0.027884457 2.3509886e-38
-0.02071644 -0.12462802 0.030923579 2.3509886e-38
-0.018945571 -0.12462802 0.030923579 2.3509886e-38
-0.017156783 -0.12384202 0.033844087 2.3509886e-38
-0.015377873 -0.12303366 0.036847565 2.3509886e-38
-0.013617394 -0.12303366 0.036847565 2.3509886e-38
-0.011854296 -0.1222301 0.039833281 2.3509886e-38
-0.010099051 -0.1222301 0.039833281 2.3509886e-38
-0.0083438056 -0.1222301 0.039833281 2.3509886e-38
-0.0063870335 -0.13460387 -0.0061425231 2.3509886e-38
-0.0045511778 -0.13460387 -0.0061425231 2.3509886e-38
-0.0031732069 -0.11898489 0.051891062 2.3509886e-38
-0.0014874227 -0.11763634 0.056901727 2.3509886e-38
0.00023789518 -0.11763634 0.056901727 2.3509886e-38
0.001963214 -0.11763634 0.056901727 2.3509886e-38
0.0036885319 -0.11763634 0.056901727 2.3509886e-38
0.0053138593 -0.11602069 0.062904805 2.3509886e-38
0.0070286514 -0.11602069 0.062904805 2.3509886e-38
0.0087434454 -0.11602069 0.062904805 2.3509886e-38
0.011555729 -0.1294979 0.012829158 2.3509886e-38
0.01335832 -0.1294979 0.012829158 2.3509886e-38
0.015160914 -0.1294979 0.012829158 2.3509886e-38
0.016881272 -0.12868352 0.015855048 2.3509886e-38
0.018678557 -0.12868352 0.015855048 2.3509886e-38
0.020106744 -0.12544595 0.027884457 2.3509886e-38
0.02188294 -0.12544595 0.027884457 2.3509886e-38
0.023659132 -0.12544595 0.027884457 2.3509886e-38
0.024176583 -0.11602069 0.062904805 2.3509886e-38
0.026306555 -0.11898489 0.051891062 2.3509886e-38
0.028040659 -0.11898489 0.051891062 2.3509886e-38
0.029774763 -0.11898489 0.051891062 2.3509886e-38
0.031508867 -0.11898489 0.051891062 2.3509886e-38
0.033242971 -0.11898489 0.051891062 2.3509886e-38
0.034977075 -0.11898489 0.051891062 2.3509886e-38
0.036711179 -0.11898489 0.051891062 2.3509886e-38
0.038595766 -0.1197954 0.048879538 2.3509886e-38
0.040335149 -0.1197954 0.048879538 2.3509886e-38
0.042074535 -0.1197954 0.048879538 2.3509886e-38
0.043981258 -0.12061088 0.045849655 2.3509886e-38
0.045725953 -0.12061088 0.045849655 2.3509886e-38
0.047470652 -0.12061088 0.045849655 2.3509886e-38
0.049215347 -0.12061088 0.045849655 2.3509886e-38
0.050960042 -0.12061088 0.045849655 2.3509886e-38
0.052704737 -0.12061088 0.045849655 2.3509886e-38
0.054845013 -0.1222301 0.039833281 2.3509886e-38
0.056600258 -0.1222301 0.039833281 2.3509886e-38
0.058143117 -0.12140475 0.042899881 2.3509886e-38
0.05989299 -0.12140475 0.042899881 2.3509886e-38
0.061865993 -0.1222301 0.039833281 2.3509886e-38
0.063621238 -0.1222301 0.039833281 2.3509886e-38
0.065376483 -0.1222301 0.039833281 2.3509886e-38
0.067131728 -0.1222301 0.039833281 2.3509886e-38
0.069125161 -0.12303366 0.036847565 2.3509886e-38
0.070885643 -0.12303366 0.036847565 2.3509886e-38
0.072646119 -0.12303366 0.036847565 2.3509886e-38
0.07491035 -0.12462802 0.030923579 2.3508809e-38
0.076681219 -0.12462802 0.030923579 2.3508809e-38
0.078991897 -0.12626885 0.024826977 2.3509527e-38
0.08077345 -0.12626885 0.024826977 2.3509527e-38
0.082555018 -0.12626885 0.024826977 2.3509883e-38
0.084336571 -0.12626885 0.024826977 2.3509883e-38
0.086118124 -0.12626885 0.024826977 2.3418043e-38
0.088188984 -0.12706901 0.021853898 2.3418043e-38
0.090272017 -0.12787388 0.018863294 2.3049261e-38
0.092367314 -0.12868352 0.015855048 2.2680478e-38
0.094164602 -0.12868352 0.015855048 2.2587566e-38
0.095961891 -0.12868352 0.015855048 2.1019885e-38
0.09775918 -0.12868352 0.015855048 2.1295395e-38
0.099556454 -0.12868352 0.015855048 1.5118288e-38
0.10069638 -0.12706901 0.021853898 1.0877292e-38
0.10248315 -0.12706901 0.021853898 5.8998014e-39
0.10494832 -0.12868352 0.015855048 6.3611313e-39
0.10674561 -0.12868352 0.015855048 6.6384343e-39
-0.086958893 -0.1499963 -0.05618706 2.314251e-38
-0.08482673 -0.1491593 -0.053097274 2.332618e-38
-0.082644604 -0.14807184 -0.049082901 2.3418015e-38
-0.080351613 -0.14645557 -0.043116357 2.3509852e-38
-0.078205593 -0.14538784 -0.039174821 2.3509852e-38
-0.076130666 -0.14457656 -0.036179926 2.3509855e-38
-0.074006878 -0.14349155 -0.032174613 2.3509853e-38
-0.071950473 -0.14266007 -0.029105093 2.3509858e-38
-0.069912016 -0.14186381 -0.02616575 2.350987e-38
-0.067824833 -0.14076851 -0.022122409 2.3509876e-38
-0.065960951 -0.14076851 -0.022122409 2.3509876e-38
-0.063946553 -0.13995247 -0.01910999 2.3509876e-38
-0.061943527 -0.13914107 -0.016114619 2.3509876e-38
-0.059951801 -0.13833423 -0.013136175 2.3509876e-38
-0.058103684 -0.13833423 -0.013136175 2.3509876e-38
-0.056081396 -0.13723589 -0.0090816282 2.3509876e-38
-0.054119285 -0.13643973 -0.0061425231 2.3509876e-38
-0.052283429 -0.13643973 -0.0061425231 2.3509876e-38
-0.050333332 -0.13561879 -0.0031119846 2.3509876e-38
-0.048394486 -0.13480256 -9.8850578e-05 2.3509876e-38
-0.046466805 -0.13399105 0.0028968789 2.3418039e-38
-0.044646796 -0.13399105 0.0028968789 2.3325843e-38
-0.04282679 -0.13399105 0.0028968789 2.3509876e-38
-0.041006785 -0.13399105 0.0028968789 2.3509879e-38
-0.039186776 -0.13399105 0.0028968789 2.3509883e-38
-0.037266802 -0.13292582 0.0068291165 2.3509886e-38
-0.035311665 -0.13130049 0.012829158 2.3509886e-38
-0.033509072 -0.13130049 0.012829158 2.3509886e-38
-0.031584814 -0.1296659 0.018863294 2.3509886e-38
-0.029792801 -0.1296659 0.018863294 2.3509886e-38
-0.027950976 -0.12885578 0.021853898 2.3509886e-38
-0.026119899 -0.1280504 0.024826977 2.3509886e-38
-0.024338342 -0.1280504 0.024826977 2.3509886e-38
-0.022521939 -0.12722217 0.027884457 2.3509886e-38
-0.02071644 -0.12639888 0.030923579 2.3509886e-38
-0.01892253 -0.12560774 0.033844087 2.3509886e-38
-0.017138351 -0.12479414 0.036847565 2.3509886e-38
-0.015377873 -0.12479414 0.036847565 2.3509886e-38
-0.013617394 -0.12479414 0.036847565 2.3509886e-38
-0.011854296 -0.12398534 0.039833281 2.3509886e-38
-0.010101738 -0.12315463 0.042899881 2.3509886e-38
-0.0083518708 -0.12315463 0.042899881 2.3509886e-38
-0.0066020032 -0.12315463 0.042899881 2.3509886e-38
-0.0048888298 -0.12153481 0.048879538 2.3509886e-38
-0.0031732069 -0.120719 0.051891062 2.3509886e-38
-0.0014586756 -0.12016918 0.05392072 2.3509886e-38
0.00023789518 -0.11936165 0.056901727 2.3509886e-38
0.0018842733 -0.11773549 0.062904805 2.3509886e-38
0.0035990663 -0.11773549 0.062904805 2.3509886e-38
0.0053138593 -0.11773549 0.062904805 2.3509886e-38
0.0069747651 -0.11694257 0.06583187 2.3509886e-38
0.0086844256 -0.11694257 0.06583187 2.3509886e-38
0.010394086 -0.11694257 0.06583187 2.3509886e-38
0.012054828 -0.11638273 0.067898542 2.3509886e-38
0.01368484 -0.11557265 0.070888966 2.3509886e-38
0.015385632 -0.11557265 0.070888966 2.3509886e-38
0.01717294 -0.11638273 0.067898542 2.3509886e-38
0.01894239 -0.11694257 0.06583187 2.3509886e-38
0.020746995 -0.11773549 0.062904805 2.3509886e-38
0.022461787 -0.11773549 0.062904805 2.3509886e-38
0.024176583 -0.11773549 0.062904805 2.3509886e-38
0.026005972 -0.11855899 0.059864793 2.3509886e-38
0.027842987 -0.11936165 0.056901727 2.3509886e-38
0.029691134 -0.12016918 0.05392072 2.3509886e-38
0.03142168 -0.12016918 0.05392072 2.3509886e-38
0.033152223 -0.12016918 0.05392072 2.3509886e-38
0.034882769 -0.12016918 0.05392072 2.3509886e-38
0.036711179 -0.120719 0.051891062 2.3509886e-38
0.038445279 -0.120719 0.051891062 2.3509886e-38
0.040179383 -0.120719 0.051891062 2.3509886e-38
0.041913487 -0.120719 0.051891062 2.3509886e-38
0.043813918 -0.12153481 0.048879538 2.3509886e-38
0.045553301 -0.12153481 0.048879538 2.3509886e-38
0.047292687 -0.12153481 0.048879538 2.3509886e-38
0.04903207 -0.12153481 0.048879538 2.3509886e-38
0.050771452 -0.12153481 0.048879538 2.3509886e-38
0.052510835 -0.12153481 0.048879538 2.3509886e-38
0.054449439 -0.12235557 0.045849655 2.3509886e-38
0.056194134 -0.12235557 0.045849655 2.3509886e-38
0.057938829 -0.12235557 0.045849655 2.3509886e-38
0.05989299 -0.12315463 0.042899881 2.3509886e-38
0.061865993 -0.12398534 0.039833281 2.3509886e-38
0.063621238 -0.12398534 0.039833281 2.3509886e-38
0.065376483 -0.12398534 0.039833281 2.3509886e-38
0.067131728 -0.12398534 0.039833281 2.3509886e-38
0.069125161 -0.12479414 0.036847565 2.3509886e-38
0.070885643 -0.12479414 0.036847565 2.3509886e-38
0.072646119 -0.12479414 0.036847565 2.3509886e-38
0.074662007 -0.12560774 0.033844087 2.3508809e-38
0.07642775 -0.12560774 0.033844087 2.3508809e-38
0.078721188 -0.12722217 0.027884457 2.3509527e-38
0.08077345 -0.1280504 0.024826977 2.3509527e-38
0.082273565 -0.12722217 0.027884457 2.3509883e-38
0.084049769 -0.12722217 0.027884457 2.3509883e-38
0.086118124 -0.1280504 0.024826977 2.350952e-38
0.087899677 -0.1280504 0.024826977 2.350952e-38
0.090272017 -0.1296659 0.018863294 2.3140737e-38
0.09206403 -0.1296659 0.018863294 2.2495368e-38
0.094164602 -0.13048081 0.015855048 2.2310979e-38
0.095961891 -0.13048081 0.015855048 2.0743654e-38
0.098080151 -0.13130049 0.012829158 2.0743298e-38
0.099882744 -0.13130049 0.012829158 1.5119364e-38
0.10135374 -0.13048081 0.015855048 1.1614854e-38
0.10315103 -0.13048081 0.015855048 6.3611355e-39
0.10494832 -0.13048081 0.015855048 6.177096e-39
0.10674561 -0.13048081 0.015855048 6.4543989e-39
-0.082644604 -0.14998297 -0.049082901 2.3509849e-38
-0.080351613 -0.14835624 -0.043116357 2.3509849e-38
-0.078205593 -0.1472816 -0.039174821 2.3509852e-38
-0.076130666 -0.14646508 -0.036179926 2.3509851e-38
-0.074006878 -0.14537306 -0.032174613 2.3509493e-38
-0.071950473 -0.14453618 -0.029105093 2.3509496e-38
-0.069912016 -0.14373477 -0.02616575 2.3509865e-38
-0.067824833 -0.14263238 -0.022122409 2.3418033e-38
-0.065960951 -0.14263238 -0.022122409 2.3418033e-38
-0.063946553 -0.14181106 -0.01910999 2.3418033e-38
-0.061943527 -0.14099441 -0.016114619 2.3418033e-38
-0.059951801 -0.14018236 -0.013136175 2.3418033e-38
-0.058103684 -0.14018236 -0.013136175 2.3418033e-38
-0.056081396 -0.1390769 -0.0090816282 2.3418033e-38
-0.054119285 -0.13827558 -0.0061425231 2.350987e-38
-0.052283429 -0.13827558 -0.0061425231 2.350987e-38
-0.050333332 -0.13744931 -0.0031119846 2.350987e-38
-0.048394486 -0.13662781 -9.8850578e-05 2.350987e-38
-0.046466805 -0.13581105 0.0028968789 2.3326196e-38
-0.044646796 -0.13581105 0.0028968789 2.3326196e-38
-0.04282679 -0.13581105 0.0028968789 2.350987e-38
-0.041006785 -0.13581105 0.0028968789 2.3509873e-38
-0.039186776 -0.13581105 0.0028968789 2.3509883e-38
-0.037114259 -0.13310309 0.012829158 2.3509886e-38
-0.035311665 -0.13310309 0.012829158 2.3509886e-38
-0.033442754 -0.1322781 0.015855048 2.3509886e-38
-0.031584814 -0.13145791 0.018863294 2.3509886e-38
-0.029792801 -0.13145791 0.018863294 2.3509886e-38
-0.027950976 -0.13064255 0.021853898 2.3509886e-38
