# .PCD v0.7 - Point Cloud Data file format
VERSION 0.7
FIELDS x y z rgb
SIZE 4 4 4 4
TYPE F F F F
COUNT 1 1 1 1
WIDTH 955
HEIGHT 1
VIEWPOINT 0 0 0 1 0 0 0
POINTS 955
DATA ascii
-0.058902532 -0.11073773 0.035748385 2.3509886e-38
-0.057066664 -0.11073773 0.035748385 2.3509886e-38
-0.055230811 -0.11073773 0.035748385 2.3509886e-38
-0.053583056 -0.11146177 0.03280928 2.3509886e-38
-0.051742047 -0.11146177 0.03280928 2.3509886e-38
-0.049901038 -0.11146177 0.03280928 2.3509886e-38
-0.048060022 -0.11146177 0.03280928 2.3509886e-38
-0.046450056 -0.11246057 0.028754732 2.3509886e-38
-0.04460194 -0.11246057 0.028754732 2.3509886e-38
-0.042753816 -0.11246057 0.028754732 2.3509886e-38
-0.040905699 -0.11246057 0.028754732 2.3509886e-38
-0.039057583 -0.11246057 0.028754732 2.3509886e-38
-0.037209466 -0.11246057 0.028754732 2.3509886e-38
-0.03536135 -0.11246057 0.028754732 2.3509886e-38
-0.033646397 -0.1131943 0.025776288 2.3509886e-38
-0.031793058 -0.1131943 0.025776288 2.3509886e-38
-0.030063137 -0.11393218 0.022780916 2.3509886e-38
-0.028323382 -0.11467429 0.019768497 2.3509886e-38
-0.026611932 -0.11567034 0.015725156 2.3509886e-38
-0.024740968 -0.11567034 0.015725156 2.3509886e-38
-0.022870004 -0.11567034 0.015725156 2.3509886e-38
-0.02099904 -0.11567034 0.015725156 2.3509886e-38
-0.019004013 -0.11467429 0.019768497 2.3509886e-38
-0.017140143 -0.11467429 0.019768497 2.3509886e-38
-0.015386149 -0.11567034 0.015725156 2.3509886e-38
-0.013412394 -0.11467429 0.019768497 2.3509886e-38
-0.011477217 -0.11393218 0.022780916 2.3509886e-38
-0.009618625 -0.11393218 0.022780916 2.3509886e-38
-0.0076996312 -0.1131943 0.025776288 2.3509886e-38
-0.0058462918 -0.1131943 0.025776288 2.3509886e-38
-0.0039929524 -0.1131943 0.025776288 2.3509886e-38
-0.002139613 -0.1131943 0.025776288 2.3509886e-38
-0.00024710596 -0.11246057 0.028754732 2.3509886e-38
0.0016010106 -0.11246057 0.028754732 2.3509886e-38
0.0034491308 -0.11246057 0.028754732 2.3509886e-38
0.0052972473 -0.11246057 0.028754732 2.3509886e-38
0.0071702469 -0.11146177 0.03280928 2.3509886e-38
0.0090112574 -0.11146177 0.03280928 2.3509886e-38
0.010641862 -0.1311696 -0.047192194 2.3509886e-38
0.012623141 -0.1311696 -0.047192194 2.3509886e-38
0.014604418 -0.1311696 -0.047192194 2.3509886e-38
0.016585696 -0.1311696 -0.047192194 2.3509886e-38
0.018566975 -0.1311696 -0.047192194 2.3509886e-38
0.020548254 -0.1311696 -0.047192194 2.3509886e-38
0.022529531 -0.1311696 -0.047192194 2.3509886e-38
0.02451081 -0.1311696 -0.047192194 2.3509886e-38
0.025626548 -0.11246057 0.028754732 2.3509886e-38
0.027421348 -0.11146177 0.03280928 2.3509886e-38
0.029262356 -0.11146177 0.03280928 2.3509886e-38
0.031103365 -0.11146177 0.03280928 2.3509886e-38
0.032944374 -0.11146177 0.03280928 2.3509886e-38
0.034785382 -0.11146177 0.03280928 2.3509886e-38
0.036626391 -0.11146177 0.03280928 2.3509886e-38
0.0384674 -0.11146177 0.03280928 2.3509886e-38
0.040233687 -0.11073773 0.035748385 2.3509886e-38
0.042069547 -0.11073773 0.035748385 2.3509886e-38
0.043990426 -0.11146177 0.03280928 2.3509527e-38
0.045831438 -0.11146177 0.03280928 2.3509527e-38
0.047803961 -0.11246057 0.028754732 2.3509527e-38
0.049652081 -0.11246057 0.028754732 2.3509527e-38
0.051500197 -0.11246057 0.028754732 2.3509527e-38
0.053348318 -0.11246057 0.028754732 2.3509527e-38
0.055196434 -0.11246057 0.028754732 2.3509886e-38
0.057044555 -0.11246057 0.028754732 2.3509886e-38
0.058892671 -0.11246057 0.028754732 2.3048907e-38
0.060740788 -0.11246057 0.028754732 2.341769e-38
0.06240052 -0.11146177 0.03280928 2.341805e-38
0.064241529 -0.11146177 0.03280928 2.341805e-38
0.066082537 -0.11146177 0.03280928 2.3326213e-38
0.067923546 -0.11146177 0.03280928 2.3326213e-38
0.069764555 -0.11146177 0.03280928 2.341805e-38
0.07442008 -0.11567034 0.015725156 2.3509883e-38
0.07629104 -0.11567034 0.015725156 2.3509883e-38
0.078162014 -0.11567034 0.015725156 2.3418047e-38
0.080032974 -0.11567034 0.015725156 2.3418047e-38
0.081903934 -0.11567034 0.015725156 2.3234376e-38
0.083509043 -0.11467429 0.019768497 2.3050703e-38
0.085372925 -0.11467429 0.019768497 2.295887e-38
0.092429817 -0.13314565 -0.055213667 2.3050707e-38
0.094143867 -0.13216983 -0.051252462 2.2314579e-38
0.096132264 -0.13216983 -0.051252462 2.2222384e-38
0.097818106 -0.1311696 -0.047192194 2.1762125e-38
0.099272296 -0.12946714 -0.040281273 2.2591526e-38
0.10061264 -0.1274818 -0.03222201 2.1393702e-38
0.10256767 -0.1274818 -0.03222201 2.2591531e-38
0.10452271 -0.1274818 -0.03222201 2.2407857e-38
0.1056446 -0.12501745 -0.022218326 5.8115729e-39
0.10758208 -0.12501745 -0.022218326 2.5223372e-44
-0.10068963 -0.11579077 0.022780916 2.3326213e-38
-0.098831043 -0.11579077 0.022780916 2.304927e-38
-0.097286716 -0.11653815 0.019768497 2.3325856e-38
-0.095422849 -0.11653815 0.019768497 2.341805e-38
-0.093966603 -0.1175413 0.015725156 2.3233302e-38
-0.0926909 -0.11903207 0.0097162928 2.3509886e-38
-0.090809405 -0.11903207 0.0097162928 2.350988e-38
-0.08892791 -0.11903207 0.0097162928 2.3509876e-38
-0.087422118 -0.12002577 0.0057109804 2.3509876e-38
-0.085533589 -0.12002577 0.0057109804 2.3509876e-38
-0.083915502 -0.1207688 0.0027160854 2.350988e-38
-0.082021728 -0.1207688 0.0027160854 2.3509883e-38
-0.08047004 -0.12174667 -0.0012254505 2.3509527e-38
-0.078569353 -0.12174667 -0.0012254505 2.3509527e-38
-0.07666868 -0.12174667 -0.0012254505 2.3509886e-38
-0.074767992 -0.12174667 -0.0012254505 2.3509886e-38
-0.072867304 -0.12174667 -0.0012254505 2.3509886e-38
-0.068081811 -0.11257361 0.035748385 2.3509886e-38
-0.066245943 -0.11257361 0.035748385 2.3509886e-38
-0.06441009 -0.11257361 0.035748385 2.3509886e-38
-0.062574238 -0.11257361 0.035748385 2.3509886e-38
-0.060738385 -0.11257361 0.035748385 2.3509886e-38
-0.058902532 -0.11257361 0.035748385 2.3509886e-38
-0.057066664 -0.11257361 0.035748385 2.3509886e-38
-0.055230811 -0.11257361 0.035748385 2.3509886e-38
-0.053394958 -0.11257361 0.035748385 2.3509886e-38
-0.051742047 -0.11330278 0.03280928 2.3509886e-38
-0.049723253 -0.11257361 0.035748385 2.3509886e-38
-0.047887392 -0.11257361 0.035748385 2.3509886e-38
-0.046219014 -0.11330278 0.03280928 2.3509886e-38
-0.044378005 -0.11330278 0.03280928 2.3509886e-38
-0.042536996 -0.11330278 0.03280928 2.3509886e-38
-0.040695988 -0.11330278 0.03280928 2.3509886e-38
-0.039057583 -0.1143087 0.028754732 2.3509886e-38
-0.037209466 -0.1143087 0.028754732 2.3509886e-38
-0.03536135 -0.1143087 0.028754732 2.3509886e-38
-0.033646397 -0.11504765 0.025776288 2.3509886e-38
-0.031921729 -0.11579077 0.022780916 2.3509886e-38
-0.030063137 -0.11579077 0.022780916 2.3509886e-38
-0.028204542 -0.11579077 0.022780916 2.3509886e-38
-0.02634595 -0.11579077 0.022780916 2.3509886e-38
-0.024487358 -0.11579077 0.022780916 2.3509886e-38
-0.022628766 -0.11579077 0.022780916 2.3509886e-38
-0.020770174 -0.11579077 0.022780916 2.3509886e-38
-0.018911581 -0.11579077 0.022780916 2.3509886e-38
-0.017052993 -0.11579077 0.022780916 2.3509886e-38
-0.015194401 -0.11579077 0.022780916 2.3509886e-38
-0.013335809 -0.11579077 0.022780916 2.3509886e-38
-0.011477217 -0.11579077 0.022780916 2.3509886e-38
-0.009618625 -0.11579077 0.022780916 2.3509886e-38
-0.0076395795 -0.1143087 0.028754732 2.3509886e-38
-0.0057914592 -0.1143087 0.028754732 2.3509886e-38
-0.0039433427 -0.1143087 0.028754732 2.3509886e-38
-0.0020952225 -0.1143087 0.028754732 2.3509886e-38
-0.00024710596 -0.1143087 0.028754732 2.3509886e-38
0.0016010106 -0.1143087 0.028754732 2.3509886e-38
0.0034882296 -0.11330278 0.03280928 2.3509886e-38
0.0053292383 -0.11330278 0.03280928 2.3509886e-38
0.0071882829 -0.11257361 0.035748385 2.3509886e-38
0.0090374239 -0.11182173 0.038778923 2.3509886e-38
0.010867966 -0.11182173 0.038778923 2.3509886e-38
0.012698509 -0.11182173 0.038778923 2.3509886e-38
0.014526408 -0.11107419 0.041792057 2.3509886e-38
0.016585696 -0.13315089 -0.047192194 2.3509886e-38
0.018566975 -0.13315089 -0.047192194 2.3509886e-38
0.020548254 -0.13315089 -0.047192194 2.3509886e-38
0.02189832 -0.11330278 0.03280928 2.3509886e-38
0.023739329 -0.11330278 0.03280928 2.3509886e-38
0.025580339 -0.11330278 0.03280928 2.3509886e-38
0.027421348 -0.11330278 0.03280928 2.3509886e-38
0.029262356 -0.11330278 0.03280928 2.3509886e-38
0.031103365 -0.11330278 0.03280928 2.3509886e-38
0.032890268 -0.11257361 0.035748385 2.3509886e-38
0.034726121 -0.11257361 0.035748385 2.3509886e-38
0.036561977 -0.11257361 0.035748385 2.3509886e-38
0.038397834 -0.11257361 0.035748385 2.3509886e-38
0.040233687 -0.11257361 0.035748385 2.3509886e-38
0.042069547 -0.11257361 0.035748385 2.3509886e-38
0.043990426 -0.11330278 0.03280928 2.3509527e-38
0.045831438 -0.11330278 0.03280928 2.3509527e-38
0.047803961 -0.1143087 0.028754732 2.3509527e-38
0.049652081 -0.1143087 0.028754732 2.3509527e-38
0.051500197 -0.1143087 0.028754732 2.3509527e-38
0.053348318 -0.1143087 0.028754732 2.3509527e-38
0.055196434 -0.1143087 0.028754732 2.3509886e-38
0.057044555 -0.1143087 0.028754732 2.3509886e-38
0.058892671 -0.1143087 0.028754732 2.341769e-38
0.060559511 -0.11330278 0.03280928 2.3509886e-38
0.06240052 -0.11330278 0.03280928 2.341805e-38
0.064241529 -0.11330278 0.03280928 2.341805e-38
0.065935671 -0.11257361 0.035748385 2.3326213e-38
0.067771524 -0.11257361 0.035748385 2.3326213e-38
0.069607377 -0.11257361 0.035748385 2.341805e-38
0.071109444 -0.11107419 0.041792057 2.3509886e-38
0.074189678 -0.11653815 0.019768497 2.3325131e-38
0.07605356 -0.11653815 0.019768497 2.3509523e-38
0.077917427 -0.11653815 0.019768497 2.3509883e-38
0.080406979 -0.11903207 0.0097162928 2.3509883e-38
0.081903934 -0.1175413 0.015725156 2.3417687e-38
0.083509043 -0.11653815 0.019768497 2.3234015e-38
0.085372925 -0.11653815 0.019768497 2.3326213e-38
0.087236792 -0.11653815 0.019768497 2.3142542e-38
0.089100674 -0.11653815 0.019768497 2.2681564e-38
0.096132264 -0.13415821 -0.051252462 2.2405696e-38
0.094099104 -0.1207688 0.0027160854 2.23135e-38
0.095992878 -0.1207688 0.0027160854 2.2867036e-38
0.09952195 -0.12596865 -0.018242935 2.2130188e-38
0.10145247 -0.12596865 -0.018242935 2.2958873e-38
0.10338299 -0.12596865 -0.018242935 2.2958873e-38
0.1056446 -0.12695493 -0.022218326 1.1342592e-38
0.10951957 -0.12695493 -0.022218326 2.9427268e-44
-0.10254823 -0.11764936 0.022780916 2.3234379e-38
-0.10068963 -0.11764936 0.022780916 2.268157e-38
-0.098831043 -0.11764936 0.022780916 2.3234379e-38
-0.097286716 -0.11840202 0.019768497 2.3234379e-38
-0.095422849 -0.11840202 0.019768497 2.3049991e-38
-0.093966603 -0.11941226 0.015725156 2.3233662e-38
-0.092386827 -0.12014665 0.012785813 2.341805e-38
-0.090510711 -0.12014665 0.012785813 2.3418047e-38
-0.088634595 -0.12014665 0.012785813 2.3418043e-38
-0.0870464 -0.12091358 0.0097162928 2.3418043e-38
-0.085164905 -0.12091358 0.0097162928 2.3418043e-38
-0.083645076 -0.12191428 0.0057109804 2.3418045e-38
-0.081756547 -0.12191428 0.0057109804 2.341805e-38
-0.080127954 -0.12266256 0.0027160854 2.3509527e-38
-0.078234181 -0.12266256 0.0027160854 2.3509527e-38
-0.076340407 -0.12266256 0.0027160854 2.3509886e-38
-0.071753517 -0.11440946 0.035748385 2.3509886e-38
-0.069675893 -0.11365227 0.038778923 2.3509886e-38
-0.067845359 -0.11365227 0.038778923 2.3509886e-38
-0.066014811 -0.11365227 0.038778923 2.3509886e-38
-0.064184263 -0.11365227 0.038778923 2.3509886e-38
-0.06235373 -0.11365227 0.038778923 2.3509886e-38
-0.060309216 -0.11289944 0.041792057 2.3509886e-38
-0.058483958 -0.11289944 0.041792057 2.3509886e-38
-0.056862101 -0.11365227 0.038778923 2.3509886e-38
-0.055031553 -0.11365227 0.038778923 2.3509886e-38
-0.05320102 -0.11365227 0.038778923 2.3509886e-38
-0.051370472 -0.11365227 0.038778923 2.3509886e-38
-0.049539924 -0.11365227 0.038778923 2.3509886e-38
-0.047709391 -0.11365227 0.038778923 2.3509886e-38
-0.046051532 -0.11440946 0.035748385 2.3509886e-38
-0.044215679 -0.11440946 0.035748385 2.3509886e-38
-0.042379826 -0.11440946 0.035748385 2.3509886e-38
-0.040543966 -0.11440946 0.035748385 2.3509886e-38
-0.038854979 -0.11514379 0.03280928 2.3509886e-38
-0.037209466 -0.1161568 0.028754732 2.3509886e-38
-0.03536135 -0.1161568 0.028754732 2.3509886e-38
-0.033646397 -0.11690097 0.025776288 2.3509886e-38
-0.031793058 -0.11690097 0.025776288 2.3509886e-38
-0.029939711 -0.11690097 0.025776288 2.3509886e-38
-0.028086375 -0.11690097 0.025776288 2.3509886e-38
-0.02634595 -0.11764936 0.022780916 2.3509886e-38
-0.024487358 -0.11764936 0.022780916 2.3509886e-38
-0.022628766 -0.11764936 0.022780916 2.3509886e-38
-0.020770174 -0.11764936 0.022780916 2.3509886e-38
-0.018819675 -0.11690097 0.025776288 2.3509886e-38
-0.016966335 -0.11690097 0.025776288 2.3509886e-38
-0.015194401 -0.11764936 0.022780916 2.3509886e-38
-0.013259657 -0.11690097 0.025776288 2.3509886e-38
-0.011335813 -0.1161568 0.028754732 2.3509886e-38
-0.009487696 -0.1161568 0.028754732 2.3509886e-38
-0.0075578243 -0.11514379 0.03280928 2.3509886e-38
-0.0057168156 -0.11514379 0.03280928 2.3509886e-38
-0.0038758069 -0.11514379 0.03280928 2.3509886e-38
-0.0020952225 -0.1161568 0.028754732 2.3509886e-38
-0.0001937896 -0.11514379 0.03280928 2.3509886e-38
0.0016472191 -0.11514379 0.03280928 2.3509886e-38
0.0034882296 -0.11514379 0.03280928 2.3509886e-38
0.0053292383 -0.11514379 0.03280928 2.3509886e-38
0.0072068814 -0.11365227 0.038778923 2.3509886e-38
0.00905063 -0.11289944 0.041792057 2.3509886e-38
0.01087589 -0.11289944 0.041792057 2.3509886e-38
0.01270115 -0.11289944 0.041792057 2.3509886e-38
0.014526408 -0.11289944 0.041792057 2.3509886e-38
0.016343789 -0.11215095 0.044787787 2.3509886e-38
0.018163797 -0.11215095 0.044787787 2.3509886e-38
0.019983802 -0.11215095 0.044787787 2.3509886e-38
0.021827444 -0.11289944 0.041792057 2.3509886e-38
0.023681762 -0.11365227 0.038778923 2.3509886e-38
0.025546841 -0.11440946 0.035748385 2.3509886e-38
0.027421348 -0.11514379 0.03280928 2.3509886e-38
0.029262356 -0.11514379 0.03280928 2.3509886e-38
0.031103365 -0.11514379 0.03280928 2.3509886e-38
0.032890268 -0.11440946 0.035748385 2.3509886e-38
0.034726121 -0.11440946 0.035748385 2.3509886e-38
0.036561977 -0.11440946 0.035748385 2.3509886e-38
0.0383261 -0.11365227 0.038778923 2.3509886e-38
0.04015664 -0.11365227 0.038778923 2.3509886e-38
0.042069547 -0.11440946 0.035748385 2.3509886e-38
0.0439054 -0.11440946 0.035748385 2.3509527e-38
0.045741256 -0.11440946 0.035748385 2.3509527e-38
0.047672447 -0.11514379 0.03280928 2.3509527e-38
0.049652081 -0.1161568 0.028754732 2.3509527e-38
0.051500197 -0.1161568 0.028754732 2.3509527e-38
0.053348318 -0.1161568 0.028754732 2.3509527e-38
0.055196434 -0.1161568 0.028754732 2.3509886e-38
0.057044555 -0.1161568 0.028754732 2.3509886e-38
0.058892671 -0.1161568 0.028754732 2.341769e-38
0.060559511 -0.11514379 0.03280928 2.3325494e-38
0.06240052 -0.11514379 0.03280928 2.3234018e-38
0.064099818 -0.11440946 0.035748385 2.3234018e-38
0.065784231 -0.11365227 0.038778923 2.3326213e-38
0.067458928 -0.11289944 0.041792057 2.341805e-38
0.069284186 -0.11289944 0.041792057 2.341805e-38
0.071109444 -0.11289944 0.041792057 2.3509886e-38
0.074189678 -0.11840202 0.019768497 2.3509167e-38
0.07605356 -0.11840202 0.019768497 2.3509168e-38
0.077917427 -0.11840202 0.019768497 2.3509168e-38
0.080215931 -0.12014665 0.012785813 2.3509527e-38
0.081645176 -0.11840202 0.019768497 2.3509527e-38
0.083509043 -0.11840202 0.019768497 2.3509527e-38
0.085169569 -0.11764936 0.022780916 2.3509527e-38
0.087028161 -0.11764936 0.022780916 2.3509886e-38
0.088886753 -0.11764936 0.022780916 2.3325494e-38
0.090745345 -0.11764936 0.022780916 2.2865235e-38
0.094099104 -0.12266256 0.0027160854 2.3141819e-38
0.095992878 -0.12266256 0.0027160854 2.3234376e-38
0.09952195 -0.12789918 -0.018242935 2.3050703e-38
0.10089111 -0.12614109 -0.011206368 2.2958867e-38
0.1028093 -0.12614109 -0.011206368 2.3142541e-38
0.1056446 -0.12889244 -0.022218326 1.6413707e-38
-0.10440682 -0.11950795 0.022780916 2.3142544e-38
-0.10254823 -0.11950795 0.022780916 2.2497178e-38
-0.10068963 -0.11950795 0.022780916 2.341805e-38
-0.098831043 -0.11950795 0.022780916 2.341805e-38
-0.096972451 -0.11950795 0.022780916 2.2680136e-38
-0.095113859 -0.11950795 0.022780916 2.3233662e-38
-0.093558967 -0.12026589 0.019768497 2.341805e-38
-0.0916951 -0.12026589 0.019768497 2.3325856e-38
-0.089831218 -0.12026589 0.019768497 2.3418047e-38
-0.088353723 -0.12128322 0.015725156 2.3418045e-38
-0.086482748 -0.12128322 0.015725156 2.3418045e-38
-0.084611788 -0.12128322 0.015725156 2.3418045e-38
-0.083283409 -0.12279506 0.0097162928 2.350988e-38
-0.081130117 -0.12202276 0.012785813 2.3509883e-38
-0.079254001 -0.12202276 0.012785813 2.3509886e-38
-0.078234181 -0.12455635 0.0027160854 2.3509886e-38
-0.073834151 -0.1169848 0.03280928 2.3509886e-38
-0.071753517 -0.11624531 0.035748385 2.3509883e-38
-0.069675893 -0.11548282 0.038778923 2.3509886e-38
-0.067845359 -0.11548282 0.038778923 2.3509886e-38
-0.066014811 -0.11548282 0.038778923 2.3509886e-38
-0.064184263 -0.11548282 0.038778923 2.3509886e-38
-0.06235373 -0.11548282 0.038778923 2.3509527e-38
-0.060309216 -0.11472471 0.041792057 2.3509886e-38
-0.058483958 -0.11472471 0.041792057 2.3509886e-38
-0.0566587 -0.11472471 0.041792057 2.3509886e-38
-0.054833442 -0.11472471 0.041792057 2.3509886e-38
-0.053008184 -0.11472471 0.041792057 2.3509886e-38
-0.051182926 -0.11472471 0.041792057 2.3509886e-38
-0.049357668 -0.11472471 0.041792057 2.3509886e-38
-0.047532409 -0.11472471 0.041792057 2.3509886e-38
-0.045707151 -0.11472471 0.041792057 2.3509886e-38
-0.043881886 -0.11472471 0.041792057 2.3509886e-38
-0.042217761 -0.11548282 0.038778923 2.3509886e-38
-0.040543966 -0.11624531 0.035748385 2.3509886e-38
-0.038708113 -0.11624531 0.035748385 2.3509886e-38
-0.03701397 -0.1169848 0.03280928 2.3509886e-38
-0.035172962 -0.1169848 0.03280928 2.3509886e-38
-0.033331953 -0.1169848 0.03280928 2.3509886e-38
-0.031665117 -0.11800493 0.028754732 2.3509886e-38
-0.029817 -0.11800493 0.028754732 2.3509886e-38
-0.027968876 -0.11800493 0.028754732 2.3509886e-38
-0.026233036 -0.11875431 0.025776288 2.3509886e-38
-0.024379697 -0.11875431 0.025776288 2.3509886e-38
-0.022526354 -0.11875431 0.025776288 2.3509886e-38
-0.020673014 -0.11875431 0.025776288 2.3509886e-38
-0.018728286 -0.11800493 0.028754732 2.3509886e-38
-0.01688017 -0.11800493 0.028754732 2.3509886e-38
-0.015032053 -0.11800493 0.028754732 2.3509886e-38
-0.013183933 -0.11800493 0.028754732 2.3418047e-38
-0.011335813 -0.11800493 0.028754732 2.3509886e-38
-0.0093988329 -0.1169848 0.03280928 2.341805e-38
-0.0075578243 -0.1169848 0.03280928 2.3509886e-38
-0.0057168156 -0.1169848 0.03280928 2.3509886e-38
-0.0038758069 -0.1169848 0.03280928 2.3509886e-38
-0.0020347983 -0.1169848 0.03280928 2.3509886e-38
-0.0001937896 -0.1169848 0.03280928 2.3509886e-38
0.0016472191 -0.1169848 0.03280928 2.3509883e-38
0.0034882296 -0.1169848 0.03280928 2.3509883e-38
0.0053524282 -0.11624531 0.035748385 2.3509883e-38
0.0072068814 -0.11548282 0.038778923 2.3509886e-38
0.00905063 -0.11472471 0.041792057 2.3509886e-38
0.01087589 -0.11472471 0.041792057 2.3509886e-38
0.01270115 -0.11472471 0.041792057 2.3509886e-38
0.014526408 -0.11472471 0.041792057 2.3509886e-38
0.016343789 -0.11397095 0.044787787 2.3509886e-38
0.018163797 -0.11397095 0.044787787 2.3509886e-38
0.019983802 -0.11397095 0.044787787 2.3509886e-38
0.021827444 -0.11472471 0.041792057 2.3509886e-38
0.023652706 -0.11472471 0.041792057 2.3509886e-38
0.025512304 -0.11548282 0.038778923 2.3509886e-38
0.027382698 -0.11624531 0.035748385 2.3509886e-38
0.029218554 -0.11624531 0.035748385 2.3509886e-38
0.031054409 -0.11624531 0.035748385 2.3509886e-38
0.032890268 -0.11624531 0.035748385 2.3509886e-38
0.034726121 -0.11624531 0.035748385 2.3509886e-38
0.036561977 -0.11624531 0.035748385 2.3509886e-38
0.0383261 -0.11548282 0.038778923 2.3509886e-38
0.04015664 -0.11548282 0.038778923 2.3509886e-38
0.042069547 -0.11624531 0.035748385 2.3509886e-38
0.0439054 -0.11624531 0.035748385 2.3509883e-38
0.045741256 -0.11624531 0.035748385 2.3509883e-38
0.047672447 -0.1169848 0.03280928 2.3509883e-38
0.049652081 -0.11800493 0.028754732 2.3509527e-38
0.051500197 -0.11800493 0.028754732 2.3509527e-38
0.053348318 -0.11800493 0.028754732 2.3509886e-38
0.055196434 -0.11800493 0.028754732 2.3509886e-38
0.057044555 -0.11800493 0.028754732 2.341805e-38
0.058892671 -0.11800493 0.028754732 2.3509886e-38
0.060428102 -0.11624531 0.035748385 2.341805e-38
0.062263958 -0.11624531 0.035748385 2.341805e-38
0.064099818 -0.11624531 0.035748385 2.341805e-38
0.065784231 -0.11548282 0.038778923 2.341805e-38
0.067458928 -0.11472471 0.041792057 2.3418047e-38
0.069284186 -0.11472471 0.041792057 2.332621e-38
0.071109444 -0.11472471 0.041792057 2.3233296e-38
0.072934702 -0.11472471 0.041792057 2.3509167e-38
0.07605356 -0.12026589 0.019768497 2.3509527e-38
0.077917427 -0.12026589 0.019768497 2.3509527e-38
0.079781309 -0.12026589 0.019768497 2.3509527e-38
0.081645176 -0.12026589 0.019768497 2.3509527e-38
0.083509043 -0.12026589 0.019768497 2.3509167e-38
0.085169569 -0.11950795 0.022780916 2.3509167e-38
0.087028161 -0.11950795 0.022780916 2.3509886e-38
0.088886753 -0.11950795 0.022780916 2.3509886e-38
0.090745345 -0.11950795 0.022780916 2.341769e-38
0.092828423 -0.12026589 0.019768497 2.341805e-38
0.095224857 -0.12202276 0.012785813 2.3418047e-38
0.097100973 -0.12202276 0.012785813 2.341805e-38
0.10089111 -0.12805928 -0.011206368 2.268192e-38
0.1028093 -0.12805928 -0.011206368 2.3234379e-38
-0.10998259 -0.12136655 0.022780916 2.2130188e-38
-0.10626541 -0.12136655 0.022780916 2.3142544e-38
-0.10440682 -0.12136655 0.022780916 2.3325497e-38
-0.10254823 -0.12136655 0.022780916 2.3509527e-38
-0.10068963 -0.12136655 0.022780916 2.3509168e-38
-0.098831043 -0.12136655 0.022780916 2.3508451e-38
-0.096972451 -0.12136655 0.022780916 2.3415895e-38
-0.095113859 -0.12136655 0.022780916 2.3509168e-38
-0.093255267 -0.12136655 0.022780916 2.3509168e-38
-0.091396675 -0.12136655 0.022780916 2.3509527e-38
-0.089538082 -0.12136655 0.022780916 2.3509524e-38
-0.087967351 -0.12212978 0.019768497 2.3509161e-38
-0.086103469 -0.12212978 0.019768497 2.3509521e-38
-0.084239602 -0.12212978 0.019768497 2.3509521e-38
-0.08237572 -0.12212978 0.019768497 2.3509521e-38
-0.080511853 -0.12212978 0.019768497 2.3416245e-38
-0.07726109 -0.11808117 0.035748385 2.3508441e-38
-0.075425223 -0.11808117 0.035748385 2.350988e-38
-0.073834151 -0.11882581 0.03280928 2.323365e-38
-0.071753517 -0.11808117 0.035748385 2.3234012e-38
-0.069917664 -0.11808117 0.035748385 2.3326213e-38
-0.067845359 -0.11731337 0.038778923 2.341805e-38
-0.066014811 -0.11731337 0.038778923 2.3417691e-38
-0.064184263 -0.11731337 0.038778923 2.3325497e-38
-0.06235373 -0.11731337 0.038778923 2.332478e-38
-0.060309216 -0.11654995 0.041792057 2.3325138e-38
-0.058483958 -0.11654995 0.041792057 2.3232944e-38
-0.0566587 -0.11654995 0.041792057 2.3233302e-38
-0.054833442 -0.11654995 0.041792057 2.341769e-38
-0.053008184 -0.11654995 0.041792057 2.3509886e-38
-0.051182926 -0.11654995 0.041792057 2.3417691e-38
-0.049357668 -0.11654995 0.041792057 2.3141106e-38
-0.047532409 -0.11654995 0.041792057 2.3325138e-38
-0.045707151 -0.11654995 0.041792057 2.3509527e-38
-0.043881886 -0.11654995 0.041792057 2.3509527e-38
-0.042056628 -0.11654995 0.041792057 2.3509527e-38
-0.040543966 -0.11808117 0.035748385 2.3509527e-38
-0.038708113 -0.11808117 0.035748385 2.3509527e-38
-0.03701397 -0.11882581 0.03280928 2.3509527e-38
-0.035172962 -0.11882581 0.03280928 2.3417333e-38
-0.033331953 -0.11882581 0.03280928 2.3509527e-38
-0.031665117 -0.11985306 0.028754732 2.3509527e-38
-0.029817 -0.11985306 0.028754732 2.3417333e-38
-0.027968876 -0.11985306 0.028754732 2.3417333e-38
-0.025967915 -0.11882581 0.03280928 2.3417333e-38
-0.024126906 -0.11882581 0.03280928 2.3417333e-38
-0.022285897 -0.11882581 0.03280928 2.3417333e-38
-0.020444889 -0.11882581 0.03280928 2.3417333e-38
-0.018513698 -0.11808117 0.035748385 2.3417333e-38
-0.016677842 -0.11808117 0.035748385 2.3417333e-38
-0.014921859 -0.11882581 0.03280928 2.3418047e-38
-0.013183933 -0.11985306 0.028754732 2.3234374e-38
-0.011335813 -0.11985306 0.028754732 2.3418047e-38
-0.0093988329 -0.11882581 0.03280928 2.3142544e-38
-0.0075578243 -0.11882581 0.03280928 2.3141467e-38
-0.0057168156 -0.11882581 0.03280928 2.3141467e-38
-0.0038758069 -0.11882581 0.03280928 2.3325856e-38
-0.0020347983 -0.11882581 0.03280928 2.341805e-38
-0.0001937896 -0.11882581 0.03280928 2.3418047e-38
0.0016472191 -0.11882581 0.03280928 2.3418045e-38
0.0035165735 -0.11808117 0.035748385 2.350988e-38
0.0053524282 -0.11808117 0.035748385 2.350988e-38
0.0072068814 -0.11731337 0.038778923 2.3509886e-38
0.00905063 -0.11654995 0.041792057 2.3509886e-38
0.01087589 -0.11654995 0.041792057 2.3417333e-38
0.01270115 -0.11654995 0.041792057 2.3232944e-38
0.014526408 -0.11654995 0.041792057 2.3509886e-38
0.016343789 -0.11579098 0.044787787 2.3509883e-38
0.018163797 -0.11579098 0.044787787 2.3509883e-38
0.020002186 -0.11654995 0.041792057 2.3509883e-38
0.021827444 -0.11654995 0.041792057 2.3509883e-38
0.023652706 -0.11654995 0.041792057 2.3509883e-38
0.025477964 -0.11654995 0.041792057 2.3417687e-38
0.027342847 -0.11731337 0.038778923 2.3325492e-38
0.029218554 -0.11808117 0.035748385 2.3509886e-38
0.031054409 -0.11808117 0.035748385 2.3509886e-38
0.032890268 -0.11808117 0.035748385 2.341769e-38
0.034726121 -0.11808117 0.035748385 2.3509886e-38
0.036561977 -0.11808117 0.035748385 2.3509886e-38
0.0383261 -0.11731337 0.038778923 2.3509886e-38
0.04015664 -0.11731337 0.038778923 2.3509886e-38
0.042069547 -0.11808117 0.035748385 2.3417687e-38
0.0439054 -0.11808117 0.035748385 2.350952e-38
0.045741256 -0.11808117 0.035748385 2.3509161e-38
0.047672447 -0.11882581 0.03280928 2.350952e-38
0.049513455 -0.11882581 0.03280928 2.3417327e-38
0.051354464 -0.11882581 0.03280928 2.3325492e-38
0.053348318 -0.11985306 0.028754732 2.3234015e-38
0.055196434 -0.11985306 0.028754732 2.3326213e-38
0.05687749 -0.11882581 0.03280928 2.3234379e-38
0.058718503 -0.11882581 0.03280928 2.341805e-38
0.060428102 -0.11808117 0.035748385 2.341805e-38
0.062263958 -0.11808117 0.035748385 2.3418047e-38
0.06395369 -0.11731337 0.038778923 2.332621e-38
0.065784231 -0.11731337 0.038778923 2.3417687e-38
0.067458928 -0.11654995 0.041792057 2.3418043e-38
0.069284186 -0.11654995 0.041792057 2.3418043e-38
0.071109444 -0.11654995 0.041792057 2.3418043e-38
0.073446572 -0.11882581 0.03280928 2.3509886e-38
0.075876616 -0.12136655 0.022780916 2.341805e-38
0.077735201 -0.12136655 0.022780916 2.341805e-38
0.079781309 -0.12212978 0.019768497 2.341805e-38
0.081645176 -0.12212978 0.019768497 2.341805e-38
0.083509043 -0.12212978 0.019768497 2.341805e-38
0.085169569 -0.12136655 0.022780916 2.3233662e-38
0.087028161 -0.12136655 0.022780916 2.2957075e-38
0.088886753 -0.12136655 0.022780916 2.341805e-38
0.090745345 -0.12136655 0.022780916 2.3141466e-38
0.092828423 -0.12212978 0.019768497 2.3417691e-38
0.09469229 -0.12212978 0.019768497 2.341769e-38
0.096556172 -0.12212978 0.019768497 2.3325497e-38
0.098742604 -0.12315418 0.015725156 2.341805e-38
0.099794105 -0.12060766 0.025776288 2.341805e-38
0.10164744 -0.12060766 0.025776288 2.2864879e-38
-0.11454721 -0.12502514 0.015725156 1.8624959e-38
-0.11267625 -0.12502514 0.015725156 2.3142544e-38
-0.108124 -0.12322514 0.022780916 2.2958507e-38
-0.10626541 -0.12322514 0.022780916 2.2865232e-38
-0.10440682 -0.12322514 0.022780916 2.2955993e-38
-0.10254823 -0.12322514 0.022780916 2.3232583e-38
-0.10068963 -0.12322514 0.022780916 2.3508091e-38
-0.098831043 -0.12322514 0.022780916 2.3509168e-38
-0.096972451 -0.12322514 0.022780916 2.3509527e-38
-0.095113859 -0.12322514 0.022780916 2.3509527e-38
-0.093255267 -0.12322514 0.022780916 2.3509527e-38
-0.091396675 -0.12322514 0.022780916 2.323258e-38
-0.089538082 -0.12322514 0.022780916 2.3509164e-38
-0.08767949 -0.12322514 0.022780916 2.3325131e-38
-0.085820898 -0.12322514 0.022780916 2.3231854e-38
-0.083962306 -0.12322514 0.022780916 2.3140737e-38
-0.082103714 -0.12322514 0.022780916 2.3509161e-38
-0.079979897 -0.12246101 0.025776288 2.3509879e-38
-0.07726109 -0.11991702 0.035748385 2.3509518e-38
-0.075425223 -0.11991702 0.035748385 2.3232932e-38
-0.07358937 -0.11991702 0.035748385 2.341804e-38
-0.071753517 -0.11991702 0.035748385 2.3418043e-38
-0.069917664 -0.11991702 0.035748385 2.3418047e-38
-0.068081811 -0.11991702 0.035748385 2.341805e-38
-0.066245943 -0.11991702 0.035748385 2.3417691e-38
-0.06441009 -0.11991702 0.035748385 2.3417691e-38
-0.06235373 -0.11914389 0.038778923 2.3417691e-38
-0.060523182 -0.11914389 0.038778923 2.3417691e-38
-0.058483958 -0.11837523 0.041792057 2.3509527e-38
-0.0566587 -0.11837523 0.041792057 2.3509886e-38
-0.054833442 -0.11837523 0.041792057 2.3509883e-38
-0.053008184 -0.11837523 0.041792057 2.3509883e-38
-0.051182926 -0.11837523 0.041792057 2.3509883e-38
-0.049357668 -0.11837523 0.041792057 2.341769e-38
-0.047532409 -0.11837523 0.041792057 2.3325497e-38
-0.045707151 -0.11837523 0.041792057 2.3509886e-38
-0.043881886 -0.11837523 0.041792057 2.3232944e-38
-0.042056628 -0.11837523 0.041792057 2.3509527e-38
-0.040543966 -0.11991702 0.035748385 2.3509527e-38
-0.038708113 -0.11991702 0.035748385 2.3509527e-38
-0.036872253 -0.11991702 0.035748385 2.3417333e-38
-0.035172962 -0.12066682 0.03280928 2.3417333e-38
-0.033331953 -0.12066682 0.03280928 2.3509527e-38
-0.031490944 -0.12066682 0.03280928 2.3509527e-38
-0.029649928 -0.12066682 0.03280928 2.3417333e-38
-0.027808923 -0.12066682 0.03280928 2.3417333e-38
-0.025967915 -0.12066682 0.03280928 2.3509527e-38
-0.024126906 -0.12066682 0.03280928 2.3509527e-38
-0.022285897 -0.12066682 0.03280928 2.3509527e-38
-0.020349555 -0.11991702 0.035748385 2.3417333e-38
-0.018420711 -0.11914389 0.038778923 2.3417333e-38
-0.016590171 -0.11914389 0.038778923 2.3326213e-38
-0.014841989 -0.11991702 0.035748385 2.2957782e-38
-0.01308085 -0.12066682 0.03280928 2.2958859e-38
-0.011335813 -0.12170117 0.028754732 2.3234374e-38
-0.0093988329 -0.12066682 0.03280928 2.3234376e-38
-0.0075578243 -0.12066682 0.03280928 2.3234379e-38
-0.0057168156 -0.12066682 0.03280928 2.3234379e-38
-0.0038758069 -0.12066682 0.03280928 2.332621e-38
-0.0020347983 -0.12066682 0.03280928 2.3418045e-38
-0.0001937896 -0.12066682 0.03280928 2.3142174e-38
0.0016472191 -0.12066682 0.03280928 2.3142171e-38
0.0035165735 -0.11991702 0.035748385 2.3326199e-38
0.0053524282 -0.11991702 0.035748385 2.3325843e-38
0.0072068814 -0.11914389 0.038778923 2.3417687e-38
0.00905063 -0.11837523 0.041792057 2.3509886e-38
0.01087589 -0.11837523 0.041792057 2.3509527e-38
0.01270115 -0.11837523 0.041792057 2.3509527e-38
0.014526408 -0.11837523 0.041792057 2.3325494e-38
0.016351668 -0.11837523 0.041792057 2.3325492e-38
0.018176928 -0.11837523 0.041792057 2.3417687e-38
0.020002186 -0.11837523 0.041792057 2.3509883e-38
0.021827444 -0.11837523 0.041792057 2.3509883e-38
0.023652706 -0.11837523 0.041792057 2.3509883e-38
0.025477964 -0.11837523 0.041792057 2.3417687e-38
0.027342847 -0.11914389 0.038778923 2.3417687e-38
0.029218554 -0.11991702 0.035748385 2.3509886e-38
0.031054409 -0.11991702 0.035748385 2.3509886e-38
0.032890268 -0.11991702 0.035748385 2.341769e-38
0.034726121 -0.11991702 0.035748385 2.3509886e-38
0.036561977 -0.11991702 0.035748385 2.3509886e-38
0.0383261 -0.11914389 0.038778923 2.3509886e-38
0.04015664 -0.11914389 0.038778923 2.3509886e-38
0.042069547 -0.11991702 0.035748385 2.3509883e-38
0.0439054 -0.11991702 0.035748385 2.3509883e-38
0.045741256 -0.11991702 0.035748385 2.350988e-38
0.047672447 -0.12066682 0.03280928 2.3509883e-38
0.049513455 -0.12066682 0.03280928 2.3417687e-38
0.051354464 -0.12066682 0.03280928 2.341805e-38
0.053195473 -0.12066682 0.03280928 2.3234379e-38
0.055036481 -0.12066682 0.03280928 2.3234379e-38
0.05687749 -0.12066682 0.03280928 2.3234379e-38
0.058718503 -0.12066682 0.03280928 2.3142544e-38
0.060428102 -0.11991702 0.035748385 2.3142544e-38
0.062263958 -0.11991702 0.035748385 2.3142544e-38
0.06395369 -0.11914389 0.038778923 2.3326213e-38
0.065784231 -0.11914389 0.038778923 2.3326213e-38
0.067614779 -0.11914389 0.038778923 2.3417687e-38
0.069445319 -0.11914389 0.038778923 2.3417687e-38
0.07127586 -0.11914389 0.038778923 2.3417687e-38
0.073446572 -0.12066682 0.03280928 2.3234379e-38
0.075700678 -0.12246101 0.025776288 2.3234379e-38
0.077735201 -0.12322514 0.022780916 2.3050349e-38
0.079781309 -0.12399365 0.019768497 2.3050349e-38
0.081645176 -0.12399365 0.019768497 2.3142544e-38
0.083509043 -0.12399365 0.019768497 2.3234379e-38
0.085372925 -0.12399365 0.019768497 2.3234379e-38
0.087236792 -0.12399365 0.019768497 2.341805e-38
0.088886753 -0.12322514 0.022780916 2.341805e-38
0.090745345 -0.12322514 0.022780916 2.304927e-38
0.092828423 -0.12399365 0.019768497 2.3325856e-38
0.09469229 -0.12399365 0.019768497 2.3509886e-38
0.096321121 -0.12322514 0.022780916 2.3233302e-38
0.097940758 -0.12246101 0.025776288 2.3509886e-38
0.099794105 -0.12246101 0.025776288 2.3509886e-38
0.10139939 -0.12170117 0.028754732 2.341805e-38
0.10324751 -0.12170117 0.028754732 2.1667412e-38
-0.11454721 -0.1268961 0.015725156 2.2681567e-38
-0.11267625 -0.1268961 0.015725156 2.3234379e-38
-0.11033383 -0.12585752 0.019768497 2.2312782e-38
-0.108124 -0.12508373 0.022780916 2.3142541e-38
-0.10626541 -0.12508373 0.022780916 2.3142539e-38
-0.10440682 -0.12508373 0.022780916 2.3234379e-38
-0.10254823 -0.12508373 0.022780916 2.3234379e-38
-0.10068963 -0.12508373 0.022780916 2.341805e-38
-0.098831043 -0.12508373 0.022780916 2.3234379e-38
-0.096972451 -0.12508373 0.022780916 2.3234018e-38
-0.095113859 -0.12508373 0.022780916 2.277376e-38
-0.093255267 -0.12508373 0.022780916 2.332621e-38
-0.091396675 -0.12508373 0.022780916 2.3234376e-38
-0.089538082 -0.12508373 0.022780916 2.3418047e-38
-0.08767949 -0.12508373 0.022780916 2.3234376e-38
-0.085820898 -0.12508373 0.022780916 2.3418047e-38
-0.083962306 -0.12508373 0.022780916 2.2958504e-38
-0.082103714 -0.12508373 0.022780916 2.3141816e-38
-0.079979897 -0.12431435 0.025776288 2.3234374e-38
-0.07726109 -0.12175287 0.035748385 2.3418045e-38
-0.075425223 -0.12175287 0.035748385 2.3234372e-38
-0.07358937 -0.12175287 0.035748385 2.3050693e-38
-0.071753517 -0.12175287 0.035748385 2.3050696e-38
-0.069917664 -0.12175287 0.035748385 2.2958504e-38
-0.068081811 -0.12175287 0.035748385 2.2958151e-38
-0.066245943 -0.12175287 0.035748385 2.3050349e-38
-0.06441009 -0.12175287 0.035748385 2.3142185e-38
-0.06235373 -0.12097444 0.038778923 2.3234379e-38
-0.060523182 -0.12097444 0.038778923 2.3234379e-38
-0.058483958 -0.12020047 0.041792057 2.2957428e-38
-0.0566587 -0.12020047 0.041792057 2.2773034e-38
-0.054833442 -0.12020047 0.041792057 2.295778e-38
-0.053008184 -0.12020047 0.041792057 2.341804e-38
-0.051182926 -0.12020047 0.041792057 2.341804e-38
-0.049357668 -0.12020047 0.041792057 2.341804e-38
-0.047532409 -0.12020047 0.041792057 2.3234369e-38
-0.045707151 -0.12020047 0.041792057 2.3234012e-38
-0.043881886 -0.12020047 0.041792057 2.350988e-38
-0.042217761 -0.12097444 0.038778923 2.350988e-38
-0.040543966 -0.12175287 0.035748385 2.350988e-38
-0.038708113 -0.12175287 0.035748385 2.350988e-38
-0.036872253 -0.12175287 0.035748385 2.3418043e-38
-0.035172962 -0.12250783 0.03280928 2.3233652e-38
-0.033331953 -0.12250783 0.03280928 2.3325847e-38
-0.031490944 -0.12250783 0.03280928 2.350988e-38
-0.029649928 -0.12250783 0.03280928 2.350988e-38
-0.027808923 -0.12250783 0.03280928 2.350988e-38
-0.025857121 -0.12175287 0.035748385 2.350988e-38
-0.024021264 -0.12175287 0.035748385 2.350988e-38
-0.022185408 -0.12175287 0.035748385 2.350988e-38
-0.020349555 -0.12175287 0.035748385 2.350988e-38
-0.018420711 -0.12097444 0.038778923 2.350988e-38
-0.016590171 -0.12097444 0.038778923 2.3326206e-38
-0.014841989 -0.12175287 0.035748385 2.3418035e-38
-0.013006128 -0.12175287 0.035748385 2.3234364e-38
-0.011335813 -0.1235493 0.028754732 2.3234367e-38
-0.0093988329 -0.12250783 0.03280928 2.3234369e-38
-0.0075578243 -0.12250783 0.03280928 2.3234372e-38
-0.0057168156 -0.12250783 0.03280928 2.3234369e-38
-0.0038758069 -0.12250783 0.03280928 2.3418038e-38
-0.0020347983 -0.12250783 0.03280928 2.3418033e-38
-0.00015513971 -0.12175287 0.035748385 2.3418031e-38
0.0016807169 -0.12175287 0.035748385 2.3418028e-38
0.0035165735 -0.12175287 0.035748385 2.3418029e-38
0.0053292383 -0.12250783 0.03280928 2.3509869e-38
0.0071882829 -0.12175287 0.035748385 2.3509876e-38
0.0090374239 -0.12097444 0.038778923 2.3509883e-38
0.010867966 -0.12097444 0.038778923 2.3509886e-38
0.012698509 -0.12097444 0.038778923 2.3417333e-38
0.014529049 -0.12097444 0.038778923 2.3233299e-38
0.016359592 -0.12097444 0.038778923 2.3325492e-38
0.018190134 -0.12097444 0.038778923 2.3417687e-38
0.020020677 -0.12097444 0.038778923 2.3509883e-38
0.02187513 -0.12175287 0.035748385 2.3509886e-38
0.023681762 -0.12097444 0.038778923 2.3509886e-38
0.025512304 -0.12097444 0.038778923 2.3509886e-38
0.027342847 -0.12097444 0.038778923 2.3509886e-38
0.029218554 -0.12175287 0.035748385 2.3509886e-38
0.031054409 -0.12175287 0.035748385 2.341769e-38
0.032890268 -0.12175287 0.035748385 2.341769e-38
0.034726121 -0.12175287 0.035748385 2.341769e-38
0.036561977 -0.12175287 0.035748385 2.3509886e-38
0.038397834 -0.12175287 0.035748385 2.3509886e-38
0.040233687 -0.12175287 0.035748385 2.3509886e-38
0.042069547 -0.12175287 0.035748385 2.3509886e-38
0.0439054 -0.12175287 0.035748385 2.3509527e-38
0.045741256 -0.12175287 0.035748385 2.3509527e-38
0.047672447 -0.12250783 0.03280928 2.3324778e-38
0.049513455 -0.12250783 0.03280928 2.3233302e-38
0.051354464 -0.12250783 0.03280928 2.3325856e-38
0.053195473 -0.12250783 0.03280928 2.3234379e-38
0.055036481 -0.12250783 0.03280928 2.3234379e-38
0.056756392 -0.12175287 0.035748385 2.3142544e-38
0.058592245 -0.12175287 0.035748385 2.286632e-38
0.060292609 -0.12097444 0.038778923 2.2958514e-38
0.06212315 -0.12097444 0.038778923 2.3142544e-38
0.064099818 -0.12175287 0.035748385 2.3234379e-38
0.065935671 -0.12175287 0.035748385 2.3234379e-38
0.067771524 -0.12175287 0.035748385 2.341805e-38
0.069607377 -0.12175287 0.035748385 2.341805e-38
0.071605563 -0.12250783 0.03280928 2.3325856e-38
0.073677614 -0.1235493 0.028754732 2.3142544e-38
0.075525731 -0.1235493 0.028754732 2.3142544e-38
0.077554017 -0.12431435 0.025776288 2.3142544e-38
0.079593793 -0.12508373 0.022780916 2.3142544e-38
0.081452385 -0.12508373 0.022780916 2.3050708e-38
0.083310977 -0.12508373 0.022780916 2.286632e-38
0.085372925 -0.12585752 0.019768497 2.286632e-38
0.087236792 -0.12585752 0.019768497 2.2958155e-38
0.088886753 -0.12508373 0.022780916 2.3234379e-38
0.090745345 -0.12508373 0.022780916 2.268157e-38
0.092158794 -0.1235493 0.028754732 2.3234379e-38
0.094006911 -0.1235493 0.028754732 2.341805e-38
0.095855027 -0.1235493 0.028754732 2.341805e-38
0.097703144 -0.1235493 0.028754732 2.3233662e-38
0.09955126 -0.1235493 0.028754732 2.341805e-38
0.10139939 -0.1235493 0.028754732 2.341805e-38
0.10324751 -0.1235493 0.028754732 2.3234379e-38
0.10509562 -0.1235493 0.028754732 2.2148531e-39
-0.11219771 -0.12772138 0.019768497 2.277376e-38
-0.11033383 -0.12772138 0.019768497 2.2129106e-38
-0.10846996 -0.12772138 0.019768497 2.3142538e-38
-0.10626541 -0.12694232 0.022780916 2.1300781e-38
-0.10440682 -0.12694232 0.022780916 2.203799e-38
-0.10254823 -0.12694232 0.022780916 2.2038709e-38
-0.10068963 -0.12694232 0.022780916 2.185432e-38
-0.098831043 -0.12694232 0.022780916 2.0655777e-38
-0.096972451 -0.12694232 0.022780916 1.8627473e-38
-0.095113859 -0.12694232 0.022780916 1.7613321e-38
-0.093255267 -0.12694232 0.022780916 1.9088448e-38
-0.091396675 -0.12694232 0.022780916 2.1393339e-38
-0.089538082 -0.12694232 0.022780916 2.2315295e-38
-0.087393269 -0.12616767 0.025776288 2.2867034e-38
-0.085539922 -0.12616767 0.025776288 2.22231e-38
-0.08368659 -0.12616767 0.025776288 1.9918209e-38
-0.081833243 -0.12616767 0.025776288 1.8166492e-38
-0.079716176 -0.1253974 0.028754732 1.8166489e-38
-0.07726109 -0.12358873 0.035748385 1.8535275e-38
-0.075425223 -0.12358873 0.035748385 1.8719302e-38
-0.07358937 -0.12358873 0.035748385 1.9271749e-38
-0.071753517 -0.12358873 0.035748385 1.9363945e-38
-0.069917664 -0.12358873 0.035748385 1.9640179e-38
-0.068081811 -0.12358873 0.035748385 1.9916767e-38
-0.066245943 -0.12358873 0.035748385 2.0100805e-38
-0.06441009 -0.12358873 0.035748385 2.0285199e-38
-0.062574238 -0.12358873 0.035748385 2.0561065e-38
-0.060523182 -0.12280498 0.038778923 2.0561421e-38
-0.058692634 -0.12280498 0.038778923 2.0653968e-38
-0.056862101 -0.12280498 0.038778923 2.0653962e-38
-0.054833442 -0.12202574 0.041792057 2.1115298e-38
-0.053008184 -0.12202574 0.041792057 2.2129447e-38
-0.051182926 -0.12202574 0.041792057 2.3050324e-38
-0.049357668 -0.12202574 0.041792057 2.3142523e-38
-0.047532409 -0.12202574 0.041792057 2.3050328e-38
-0.045707151 -0.12202574 0.041792057 2.3050328e-38
-0.043881886 -0.12202574 0.041792057 2.350987e-38
-0.042217761 -0.12280498 0.038778923 2.3418033e-38
-0.040543966 -0.12358873 0.035748385 2.3326196e-38
-0.038708113 -0.12358873 0.035748385 2.350987e-38
-0.036872253 -0.12358873 0.035748385 2.350987e-38
-0.0350364 -0.12358873 0.035748385 2.350987e-38
-0.033331953 -0.12434883 0.03280928 2.350987e-38
-0.031490944 -0.12434883 0.03280928 2.350987e-38
-0.029649928 -0.12434883 0.03280928 2.3418033e-38
-0.027692977 -0.12358873 0.035748385 2.350987e-38
-0.025857121 -0.12358873 0.035748385 2.350987e-38
-0.024021264 -0.12358873 0.035748385 2.350987e-38
-0.022185408 -0.12358873 0.035748385 2.350987e-38
-0.020349555 -0.12358873 0.035748385 2.350987e-38
-0.018420711 -0.12280498 0.038778923 2.350987e-38
-0.016590171 -0.12280498 0.038778923 2.3326196e-38
-0.014841989 -0.12358873 0.035748385 2.3418031e-38
-0.013006128 -0.12358873 0.035748385 2.314252e-38
-0.011170276 -0.12358873 0.035748385 2.2682621e-38
-0.0093344189 -0.12358873 0.035748385 2.2221643e-38
-0.0074985623 -0.12358873 0.035748385 2.185286e-38
-0.0056627095 -0.12358873 0.035748385 2.185286e-38
-0.0038758069 -0.12434883 0.03280928 2.2220917e-38
-0.0020347983 -0.12434883 0.03280928 2.2497502e-38
-0.00015513971 -0.12358873 0.035748385 2.2958833e-38
0.0016807169 -0.12358873 0.035748385 2.2774442e-38
0.0035165735 -0.12358873 0.035748385 2.2958117e-38
0.0053292383 -0.12434883 0.03280928 2.3326187e-38
0.0071882829 -0.12358873 0.035748385 2.3509869e-38
0.0090241395 -0.12358873 0.035748385 2.3509876e-38
0.010859996 -0.12358873 0.035748385 2.341769e-38
0.012698509 -0.12280498 0.038778923 2.3325497e-38
0.014529049 -0.12280498 0.038778923 2.341769e-38
0.016359592 -0.12280498 0.038778923 2.3509883e-38
0.018203419 -0.12358873 0.035748385 2.3509883e-38
0.020039275 -0.12358873 0.035748385 2.3509883e-38
0.02187513 -0.12358873 0.035748385 2.3509886e-38
0.023710985 -0.12358873 0.035748385 2.3509886e-38
0.025546841 -0.12358873 0.035748385 2.3509886e-38
0.027382698 -0.12358873 0.035748385 2.3509886e-38
0.029262356 -0.12434883 0.03280928 2.3509886e-38
0.031054409 -0.12358873 0.035748385 2.3509886e-38
0.032890268 -0.12358873 0.035748385 2.3509886e-38
0.034726121 -0.12358873 0.035748385 2.3509886e-38
0.036561977 -0.12358873 0.035748385 2.3509886e-38
0.038397834 -0.12358873 0.035748385 2.3509886e-38
0.040233687 -0.12358873 0.035748385 2.341769e-38
0.042069547 -0.12358873 0.035748385 2.3325494e-38
0.0439054 -0.12358873 0.035748385 2.3509886e-38
0.045741256 -0.12358873 0.035748385 2.2956359e-38
0.047672447 -0.12434883 0.03280928 2.2218795e-38
0.049513455 -0.12434883 0.03280928 2.1850731e-38
0.051354464 -0.12434883 0.03280928 2.1851454e-38
0.053195473 -0.12434883 0.03280928 2.2036209e-38
0.055036481 -0.12434883 0.03280928 2.2128407e-38
0.056756392 -0.12358873 0.035748385 2.1945095e-38
0.058592245 -0.12358873 0.035748385 2.2958873e-38
0.060292609 -0.12280498 0.038778923 2.2958873e-38
0.06212315 -0.12280498 0.038778923 2.2958873e-38
0.064099818 -0.12358873 0.035748385 2.3142544e-38
0.065935671 -0.12358873 0.035748385 2.3142544e-38
0.067923546 -0.12434883 0.03280928 2.3234379e-38
0.069764555 -0.12434883 0.03280928 2.3234379e-38
0.071605563 -0.12434883 0.03280928 2.3234379e-38
0.073446572 -0.12434883 0.03280928 2.1945445e-38
0.075525731 -0.1253974 0.028754732 2.2222032e-38
0.077373847 -0.1253974 0.028754732 2.2683007e-38
0.079221964 -0.1253974 0.028754732 2.2958873e-38
0.081260696 -0.12616767 0.025776288 2.2958873e-38
0.083114043 -0.12616767 0.025776288 2.2958873e-38
0.084967375 -0.12616767 0.025776288 2.3050708e-38
0.087028161 -0.12694232 0.022780916 2.3050708e-38
0.088674054 -0.12616767 0.025776288 2.3142544e-38
0.090310678 -0.1253974 0.028754732 2.249754e-38
0.092158794 -0.1253974 0.028754732 2.249754e-38
0.094006911 -0.1253974 0.028754732 2.3234379e-38
0.095855027 -0.1253974 0.028754732 2.2865602e-38
0.097703144 -0.1253974 0.028754732 2.1943647e-38
0.09955126 -0.1253974 0.028754732 2.2035843e-38
0.10139939 -0.1253974 0.028754732 2.2220592e-38
0.10324751 -0.1253974 0.028754732 2.0561786e-38
0.10509562 -0.1253974 0.028754732 1.9382662e-39
0.10694374 -0.1253974 0.028754732 3.61535e-43
0.11026676 -0.12434883 0.03280928 3.5034367e-39
-0.11219771 -0.12958528 0.019768497 2.1760324e-38
-0.11033383 -0.12958528 0.019768497 2.1299702e-38
-0.108124 -0.12880091 0.022780916 1.9916766e-38
-0.10626541 -0.12880091 0.022780916 1.9734172e-38
-0.10440682 -0.12880091 0.022780916 1.9920004e-38
-0.10254823 -0.12880091 0.022780916 2.001256e-38
-0.10068963 -0.12880091 0.022780916 2.0012563e-38
-0.098513305 -0.12802102 0.025776288 1.881402e-38
-0.096659958 -0.12802102 0.025776288 1.6509129e-38
-0.094806626 -0.12802102 0.025776288 1.4941803e-38
-0.09295328 -0.12802102 0.025776288 1.5679368e-38
-0.091099948 -0.12802102 0.025776288 1.7338889e-38
-0.089246601 -0.12802102 0.025776288 1.7615476e-38
-0.087393269 -0.12802102 0.025776288 1.7984259e-38
-0.08526054 -0.12724553 0.028754732 1.7062305e-38
-0.083412424 -0.12724553 0.028754732 1.5034002e-38
-0.081564292 -0.12724553 0.028754732 1.3835458e-38
-0.079357177 -0.12618984 0.03280928 1.4388629e-38
-0.07726109 -0.12542458 0.035748385 1.5126197e-38
-0.075425223 -0.12542458 0.035748385 1.5218027e-38
-0.07358937 -0.12542458 0.035748385 1.6230733e-38
-0.071753517 -0.12542458 0.035748385 1.6599152e-38
-0.069675893 -0.12463553 0.038778923 1.7059777e-38
-0.067845359 -0.12463553 0.038778923 1.7520758e-38
-0.066245943 -0.12542458 0.035748385 1.7796991e-38
-0.06441009 -0.12542458 0.035748385 1.7889186e-38
-0.062574238 -0.12542458 0.035748385 1.7980659e-38
-0.060738385 -0.12542458 0.035748385 1.7981013e-38
-0.058692634 -0.12463553 0.038778923 1.72438e-38
-0.056862101 -0.12463553 0.038778923 1.7243795e-38
-0.055031553 -0.12463553 0.038778923 1.7889518e-38
-0.05320102 -0.12463553 0.038778923 1.8995863e-38
-0.051370472 -0.12463553 0.038778923 1.9917103e-38
-0.049539924 -0.12463553 0.038778923 2.0101495e-38
-0.047709391 -0.12463553 0.038778923 2.0101496e-38
-0.045878842 -0.12463553 0.038778923 2.0284808e-38
-0.044048302 -0.12463553 0.038778923 2.1667024e-38
-0.042379826 -0.12542458 0.035748385 2.1298599e-38
-0.040543966 -0.12542458 0.035748385 2.1206403e-38
-0.038854979 -0.12618984 0.03280928 2.1759577e-38
-0.036872253 -0.12542458 0.035748385 2.2681533e-38
-0.0350364 -0.12542458 0.035748385 2.3234348e-38
-0.033331953 -0.12618984 0.03280928 2.3142511e-38
-0.031490944 -0.12618984 0.03280928 2.2773729e-38
-0.029649928 -0.12618984 0.03280928 2.3142511e-38
-0.027692977 -0.12542458 0.035748385 2.3234348e-38
-0.025857121 -0.12542458 0.035748385 2.3326185e-38
-0.024021264 -0.12542458 0.035748385 2.3418022e-38
-0.022185408 -0.12542458 0.035748385 2.3418022e-38
-0.020251252 -0.12463553 0.038778923 2.3418022e-38
-0.018420711 -0.12463553 0.038778923 2.3326185e-38
-0.016590171 -0.12463553 0.038778923 2.323435e-38
-0.014841989 -0.12542458 0.035748385 2.1206763e-38
-0.013006128 -0.12542458 0.035748385 2.0839416e-38
-0.011170276 -0.12542458 0.035748385 2.0562473e-38
-0.0093344189 -0.12542458 0.035748385 2.0286242e-38
-0.0074985623 -0.12542458 0.035748385 2.0009655e-38
-0.0056627095 -0.12542458 0.035748385 2.0101848e-38
-0.0038758069 -0.12618984 0.03280928 2.05621e-38
-0.0020347983 -0.12618984 0.03280928 2.0746846e-38
-0.0001937896 -0.12618984 0.03280928 2.0746843e-38
0.0016472191 -0.12618984 0.03280928 2.0654648e-38
0.0034882296 -0.12618984 0.03280928 2.1391496e-38
0.0053292383 -0.12618984 0.03280928 2.2589688e-38
