# .PCD v0.7 - Point Cloud Data file format
VERSION 0.7
FIELDS x y z rgb
SIZE 4 4 4 4
TYPE F F F F
COUNT 1 1 1 1
WIDTH 945
HEIGHT 1
VIEWPOINT 0 0 0 1 0 0 0
POINTS 945
DATA ascii
0.10142243 -0.11914389 -0.0026107915 2.3509886e-38
0.10294391 -0.11837523 0.00040234253 2.2864519e-38
0.10476917 -0.11837523 0.00040234253 2.3234379e-38
-0.10785076 -0.12250783 -0.0085804351 2.2681564e-38
-0.10600975 -0.12250783 -0.0085804351 2.3509886e-38
-0.10416874 -0.12250783 -0.0085804351 2.3509527e-38
-0.10232773 -0.12250783 -0.0085804351 2.3323339e-38
-0.10048673 -0.12250783 -0.0085804351 2.3509168e-38
-0.098645717 -0.12250783 -0.0085804351 2.3509168e-38
-0.096804708 -0.12250783 -0.0085804351 2.3509886e-38
-0.0949637 -0.12250783 -0.0085804351 2.2680844e-38
-0.096274868 -0.13202934 -0.045648802 2.3234379e-38
-0.094116211 -0.1312501 -0.042615164 2.3509886e-38
-0.091894165 -0.13023765 -0.038673628 2.3509886e-38
-0.090000406 -0.13023765 -0.038673628 2.3509886e-38
-0.088106632 -0.13023765 -0.038673628 2.3509886e-38
-0.086212859 -0.13023765 -0.038673628 2.3509886e-38
-0.084319085 -0.13023765 -0.038673628 2.3509886e-38
-0.082207397 -0.1294684 -0.035678733 2.3509886e-38
-0.08003445 -0.12843956 -0.03167342 2.3509886e-38
-0.078152955 -0.12843956 -0.03167342 2.3509886e-38
-0.076271459 -0.12843956 -0.03167342 2.3509886e-38
-0.073729023 -0.12585752 -0.021621216 2.3509886e-38
-0.071865156 -0.12585752 -0.021621216 2.3509886e-38
-0.069813773 -0.12508373 -0.018608797 2.3509886e-38
-0.067955181 -0.12508373 -0.018608797 2.3509886e-38
-0.066096589 -0.12508373 -0.018608797 2.3509886e-38
-0.064237997 -0.12508373 -0.018608797 2.3509886e-38
-0.062213972 -0.12431435 -0.015613426 2.3509886e-38
-0.060360625 -0.12431435 -0.015613426 2.3509886e-38
-0.058507293 -0.12431435 -0.015613426 2.3509886e-38
-0.056803629 -0.12508373 -0.018608797 2.3509886e-38
-0.055090286 -0.12585752 -0.021621216 2.3509886e-38
-0.053226411 -0.12585752 -0.021621216 2.3509886e-38
-0.051362537 -0.12585752 -0.021621216 2.3509886e-38
-0.049498662 -0.12585752 -0.021621216 2.3509886e-38
-0.047634788 -0.12585752 -0.021621216 2.3509886e-38
-0.045652073 -0.12508373 -0.018608797 2.3509886e-38
-0.043793481 -0.12508373 -0.018608797 2.3509886e-38
-0.041934889 -0.12508373 -0.018608797 2.3509886e-38
-0.040076297 -0.12508373 -0.018608797 2.3509886e-38
-0.038217705 -0.12508373 -0.018608797 2.3509886e-38
-0.036359113 -0.12508373 -0.018608797 2.3509886e-38
-0.034500524 -0.12508373 -0.018608797 2.3509886e-38
-0.032641932 -0.12508373 -0.018608797 2.3509886e-38
-0.03078334 -0.12508373 -0.018608797 2.3509886e-38
-0.02899605 -0.12585752 -0.021621216 2.3509886e-38
-0.027132176 -0.12585752 -0.021621216 2.3509886e-38
-0.025268301 -0.12585752 -0.021621216 2.3509886e-38
-0.023404427 -0.12585752 -0.021621216 2.3509886e-38
-0.021540552 -0.12585752 -0.021621216 2.3509886e-38
-0.019676678 -0.12585752 -0.021621216 2.3509886e-38
-0.017812807 -0.12585752 -0.021621216 2.3509886e-38
-0.015948933 -0.12585752 -0.021621216 2.3509886e-38
-0.014085058 -0.12585752 -0.021621216 2.3509886e-38
-0.012221184 -0.12585752 -0.021621216 2.3509886e-38
-0.010357311 -0.12585752 -0.021621216 2.3509886e-38
-0.0084934365 -0.12585752 -0.021621216 2.3509886e-38
-0.0066295639 -0.12585752 -0.021621216 2.3509886e-38
-0.0047656894 -0.12585752 -0.021621216 2.3509886e-38
-0.0029018149 -0.12585752 -0.021621216 2.3509886e-38
-0.0010458641 -0.12508373 -0.018608797 2.3509886e-38
0.00081272796 -0.12508373 -0.018608797 2.3509886e-38
0.00267132 -0.12508373 -0.018608797 2.3509886e-38
0.004529912 -0.12508373 -0.018608797 2.3509886e-38
0.0063885041 -0.12508373 -0.018608797 2.3509886e-38
0.008247097 -0.12508373 -0.018608797 2.3509886e-38
0.010105689 -0.12508373 -0.018608797 2.3509886e-38
0.01196428 -0.12508373 -0.018608797 2.3509886e-38
0.013822872 -0.12508373 -0.018608797 2.3509886e-38
0.015681464 -0.12508373 -0.018608797 2.3509886e-38
0.01747966 -0.12431435 -0.015613426 2.3509886e-38
0.019333001 -0.12431435 -0.015613426 2.3509886e-38
0.021115841 -0.1235493 -0.012634981 2.3509886e-38
0.02296396 -0.1235493 -0.012634981 2.3509886e-38
0.024893021 -0.12431435 -0.015613426 2.3509886e-38
0.026660195 -0.1235493 -0.012634981 2.3509886e-38
0.028508313 -0.1235493 -0.012634981 2.3509886e-38
0.03035643 -0.1235493 -0.012634981 2.3509886e-38
0.032306381 -0.12431435 -0.015613426 2.3509886e-38
0.034159724 -0.12431435 -0.015613426 2.3509886e-38
0.036013063 -0.12431435 -0.015613426 2.3509886e-38
0.037748903 -0.1235493 -0.012634981 2.3509886e-38
0.039597023 -0.1235493 -0.012634981 2.3509886e-38
0.04144514 -0.1235493 -0.012634981 2.3509886e-38
0.043293256 -0.1235493 -0.012634981 2.3509886e-38
0.045141377 -0.1235493 -0.012634981 2.3509886e-38
0.046989493 -0.1235493 -0.012634981 2.3509886e-38
0.048837613 -0.1235493 -0.012634981 2.3509886e-38
0.05068573 -0.1235493 -0.012634981 2.3509886e-38
0.052533846 -0.1235493 -0.012634981 2.3509886e-38
0.054381967 -0.1235493 -0.012634981 2.3509886e-38
0.056230083 -0.1235493 -0.012634981 2.3509886e-38
0.058078203 -0.1235493 -0.012634981 2.3509886e-38
0.05992632 -0.1235493 -0.012634981 2.3509886e-38
0.061774436 -0.1235493 -0.012634981 2.3509886e-38
0.063622549 -0.1235493 -0.012634981 2.3509886e-38
0.065470681 -0.1235493 -0.012634981 2.3509886e-38
0.067318797 -0.1235493 -0.012634981 2.3509886e-38
0.069166914 -0.1235493 -0.012634981 2.3509886e-38
0.07101503 -0.1235493 -0.012634981 2.3509886e-38
0.072863147 -0.1235493 -0.012634981 2.3509886e-38
0.074711263 -0.1235493 -0.012634981 2.3509886e-38
0.07655938 -0.1235493 -0.012634981 2.3509886e-38
0.078091145 -0.12250783 -0.0085804351 2.3509886e-38
0.079932153 -0.12250783 -0.0085804351 2.3509886e-38
0.081773162 -0.12250783 -0.0085804351 2.3509886e-38
0.083614171 -0.12250783 -0.0085804351 2.3509886e-38
0.085455194 -0.12250783 -0.0085804351 2.341805e-38
0.087296203 -0.12250783 -0.0085804351 2.341805e-38
0.089137211 -0.12250783 -0.0085804351 2.3509527e-38
0.09097822 -0.12250783 -0.0085804351 2.3509886e-38
0.091992363 -0.12020047 0.00040234253 2.3509527e-38
0.093167752 -0.11842094 0.0073303096 2.3509883e-38
0.094980866 -0.11842094 0.0073303096 2.3509521e-38
0.096793979 -0.11842094 0.0073303096 2.3509521e-38
0.098996624 -0.11943097 0.003398072 2.3509883e-38
0.10081664 -0.11943097 0.003398072 2.3509886e-38
0.10263664 -0.11943097 0.003398072 2.3141106e-38
0.10445665 -0.11943097 0.003398072 2.3234379e-38
0.10627666 -0.11943097 0.003398072 2.3142544e-38
-0.10939546 -0.12358873 -0.00564133 2.3142544e-38
-0.10755961 -0.12358873 -0.00564133 2.3234379e-38
-0.10572375 -0.12358873 -0.00564133 2.2495736e-38
-0.1038879 -0.12358873 -0.00564133 2.3232583e-38
-0.10205203 -0.12358873 -0.00564133 2.3509168e-38
-0.10021618 -0.12358873 -0.00564133 2.3509168e-38
-0.098380327 -0.12358873 -0.00564133 2.3508451e-38
-0.096544474 -0.12358873 -0.00564133 2.3233302e-38
-0.094184086 -0.12202574 0.00040234253 2.341805e-38
-0.092104077 -0.121251 0.003398072 2.3234379e-38
-0.090284079 -0.121251 0.003398072 2.3509886e-38
-0.091649994 -0.13135691 -0.035678733 2.3509886e-38
-0.089761481 -0.13135691 -0.035678733 2.3509886e-38
-0.088106632 -0.13213144 -0.038673628 2.3509886e-38
-0.086212859 -0.13213144 -0.038673628 2.3509886e-38
-0.084319085 -0.13213144 -0.038673628 2.3509886e-38
-0.082425311 -0.13213144 -0.038673628 2.3509886e-38
-0.080531538 -0.13213144 -0.038673628 2.3509886e-38
-0.075036138 -0.11868234 0.013330352 2.3509886e-38
-0.07559289 -0.12772138 -0.021621216 2.3509886e-38
-0.073729023 -0.12772138 -0.021621216 2.3509886e-38
-0.071672365 -0.12694232 -0.018608797 2.3509886e-38
-0.06962733 -0.12616767 -0.015613426 2.3509886e-38
-0.067773983 -0.12616767 -0.015613426 2.3509886e-38
-0.065745711 -0.1253974 -0.012634981 2.3509886e-38
-0.063897587 -0.1253974 -0.012634981 2.3509886e-38
-0.061825536 -0.12434883 -0.0085804351 2.3509886e-38
-0.059984528 -0.12434883 -0.0085804351 2.3509886e-38
-0.058143519 -0.12434883 -0.0085804351 2.3509886e-38
-0.056505114 -0.1253974 -0.012634981 2.3509886e-38
-0.054945037 -0.12694232 -0.018608797 2.3509886e-38
-0.053086445 -0.12694232 -0.018608797 2.3509886e-38
-0.051227853 -0.12694232 -0.018608797 2.3509886e-38
-0.049498662 -0.12772138 -0.021621216 2.3509886e-38
-0.047634788 -0.12772138 -0.021621216 2.3509886e-38
-0.045533907 -0.12616767 -0.015613426 2.3509886e-38
-0.043568291 -0.1253974 -0.012634981 2.3509886e-38
-0.041574437 -0.12434883 -0.0085804351 2.3509886e-38
-0.039733429 -0.12434883 -0.0085804351 2.3509886e-38
-0.038023934 -0.1253974 -0.012634981 2.3509886e-38
-0.036175817 -0.1253974 -0.012634981 2.3509886e-38
-0.034413867 -0.12616767 -0.015613426 2.3509886e-38
-0.032560527 -0.12616767 -0.015613426 2.3509886e-38
-0.03078334 -0.12694232 -0.018608797 2.3509886e-38
-0.02899605 -0.12772138 -0.021621216 2.3509886e-38
-0.027132176 -0.12772138 -0.021621216 2.3509886e-38
-0.025268301 -0.12772138 -0.021621216 2.3509886e-38
-0.023404427 -0.12772138 -0.021621216 2.3509886e-38
-0.021540552 -0.12772138 -0.021621216 2.3509886e-38
-0.019676678 -0.12772138 -0.021621216 2.3509886e-38
-0.017812807 -0.12772138 -0.021621216 2.3509886e-38
-0.015948933 -0.12772138 -0.021621216 2.3509886e-38
-0.014085058 -0.12772138 -0.021621216 2.3509886e-38
-0.012221184 -0.12772138 -0.021621216 2.3509886e-38
-0.010357311 -0.12772138 -0.021621216 2.3509886e-38
-0.0084934365 -0.12772138 -0.021621216 2.3509886e-38
-0.0066295639 -0.12772138 -0.021621216 2.3509886e-38
-0.0047656894 -0.12772138 -0.021621216 2.3509886e-38
-0.0029044561 -0.12694232 -0.018608797 2.3509886e-38
-0.0010458641 -0.12694232 -0.018608797 2.3509886e-38
0.00081272796 -0.12694232 -0.018608797 2.3509886e-38
0.0026898067 -0.12772138 -0.021621216 2.3509886e-38
0.004529912 -0.12694232 -0.018608797 2.3509886e-38
0.0063885041 -0.12694232 -0.018608797 2.3509886e-38
0.008247097 -0.12694232 -0.018608797 2.3509886e-38
0.010145302 -0.12772138 -0.021621216 2.3509886e-38
0.012069436 -0.12876706 -0.025664557 2.3509886e-38
0.01387305 -0.12772138 -0.021621216 2.3509886e-38
0.015681464 -0.12694232 -0.018608797 2.3509886e-38
0.01747966 -0.12616767 -0.015613426 2.3509886e-38
0.019333001 -0.12616767 -0.015613426 2.3509886e-38
0.021115841 -0.1253974 -0.012634981 2.3509886e-38
0.02296396 -0.1253974 -0.012634981 2.3509886e-38
0.024812078 -0.1253974 -0.012634981 2.3509886e-38
0.026542896 -0.12434883 -0.0085804351 2.3509886e-38
0.028383907 -0.12434883 -0.0085804351 2.3509886e-38
0.030224916 -0.12434883 -0.0085804351 2.3509886e-38
0.032065924 -0.12434883 -0.0085804351 2.3509886e-38
0.034052666 -0.1253974 -0.012634981 2.3509886e-38
0.036013063 -0.12616767 -0.015613426 2.3509886e-38
0.037748903 -0.1253974 -0.012634981 2.3509886e-38
0.039597023 -0.1253974 -0.012634981 2.3509886e-38
0.04144514 -0.1253974 -0.012634981 2.3509886e-38
0.043426424 -0.12616767 -0.015613426 2.3509886e-38
0.045141377 -0.1253974 -0.012634981 2.3509886e-38
0.046989493 -0.1253974 -0.012634981 2.3509886e-38
0.048635006 -0.12434883 -0.0085804351 2.3509886e-38
0.050476015 -0.12434883 -0.0085804351 2.3509886e-38
0.052317023 -0.12434883 -0.0085804351 2.3509886e-38
0.053995706 -0.12358873 -0.00564133 2.3509886e-38
0.055831563 -0.12358873 -0.00564133 2.3509886e-38
0.057840049 -0.12434883 -0.0085804351 2.3509886e-38
0.05992632 -0.1253974 -0.012634981 2.3509886e-38
0.061774436 -0.1253974 -0.012634981 2.3509886e-38
0.063622549 -0.1253974 -0.012634981 2.3509886e-38
0.065470681 -0.1253974 -0.012634981 2.3509886e-38
0.067318797 -0.1253974 -0.012634981 2.3509886e-38
0.068886101 -0.12434883 -0.0085804351 2.3509886e-38
0.07072711 -0.12434883 -0.0085804351 2.3509886e-38
0.072863147 -0.1253974 -0.012634981 2.3509886e-38
0.074711263 -0.1253974 -0.012634981 2.3509886e-38
0.07655938 -0.1253974 -0.012634981 2.3509886e-38
0.078091145 -0.12434883 -0.0085804351 2.3509886e-38
0.079455927 -0.12280498 -0.0026107915 2.3509886e-38
0.08128646 -0.12280498 -0.0026107915 2.3509886e-38
0.083117008 -0.12280498 -0.0026107915 2.3509886e-38
0.084691316 -0.12202574 0.00040234253 2.341805e-38
0.086256579 -0.121251 0.003398072 2.341805e-38
0.087728411 -0.12023406 0.0073303096 2.3509886e-38
0.089541525 -0.12023406 0.0073303096 2.3509886e-38
0.091354638 -0.12023406 0.0073303096 2.3509527e-38
0.092880577 -0.11944233 0.010391723 2.3509883e-38
0.094688326 -0.11944233 0.010391723 2.3509521e-38
0.096496075 -0.11944233 0.010391723 2.3509521e-38
0.09830381 -0.11944233 0.010391723 2.3509883e-38
0.10011156 -0.11944233 0.010391723 2.3509167e-38
0.10191931 -0.11944233 0.010391723 2.3509886e-38
0.10372704 -0.11944233 0.010391723 2.2957079e-38
0.10553479 -0.11944233 0.010391723 2.3234379e-38
-0.10878617 -0.12385099 0.00040234253 2.2866674e-38
-0.10696089 -0.12385099 0.00040234253 2.2589368e-38
-0.10513563 -0.12385099 0.00040234253 2.3509886e-38
-0.10331038 -0.12385099 0.00040234253 2.3509527e-38
-0.10148512 -0.12385099 0.00040234253 2.3509168e-38
-0.099937215 -0.12463553 -0.0026107915 2.3508091e-38
-0.098106682 -0.12463553 -0.0026107915 2.3047112e-38
-0.096276134 -0.12463553 -0.0026107915 2.3509886e-38
-0.094184086 -0.12385099 0.00040234253 2.341805e-38
-0.092104077 -0.123071 0.003398072 2.2865955e-38
-0.090284079 -0.123071 0.003398072 2.3509886e-38
-0.088464066 -0.123071 0.003398072 2.3509886e-38
-0.086644053 -0.123071 0.003398072 2.3509886e-38
-0.084824055 -0.123071 0.003398072 2.3509886e-38
-0.082704127 -0.12204717 0.0073303096 2.3509886e-38
-0.080662891 -0.12125005 0.010391723 2.3509886e-38
-0.078641325 -0.12048493 0.013330352 2.3509886e-38
-0.076838732 -0.12048493 0.013330352 2.3509886e-38
-0.075036138 -0.12048493 0.013330352 2.3509886e-38
-0.073233545 -0.12048493 0.013330352 2.3509886e-38
-0.071430951 -0.12048493 0.013330352 2.3509886e-38
-0.069628358 -0.12048493 0.013330352 2.3509886e-38
-0.068199232 -0.12204717 0.0073303096 2.3509886e-38
-0.066623986 -0.123071 0.003398072 2.3509886e-38
-0.064573012 -0.12204717 0.0073303096 2.3509886e-38
-0.062759899 -0.12204717 0.0073303096 2.3509886e-38
-0.061495833 -0.12463553 -0.0026107915 2.3509886e-38
-0.059665293 -0.12463553 -0.0026107915 2.3509886e-38
-0.057834744 -0.12463553 -0.0026107915 2.3509886e-38
-0.056004211 -0.12463553 -0.0026107915 2.3509886e-38
-0.054173663 -0.12463553 -0.0026107915 2.3509886e-38
-0.052620493 -0.12618984 -0.0085804351 2.3509886e-38
-0.051227853 -0.12880091 -0.018608797 2.3509886e-38
-0.049369261 -0.12880091 -0.018608797 2.3509886e-38
-0.047387242 -0.12802102 -0.015613426 2.3509886e-38
-0.045533907 -0.12802102 -0.015613426 2.3509886e-38
-0.043568291 -0.12724553 -0.012634981 2.3509886e-38
-0.041574437 -0.12618984 -0.0085804351 2.3509886e-38
-0.039733429 -0.12618984 -0.0085804351 2.3509886e-38
-0.037797086 -0.12542458 -0.00564133 2.3509886e-38
-0.035961229 -0.12542458 -0.00564133 2.3509886e-38
-0.034125373 -0.12542458 -0.00564133 2.3509886e-38
-0.03228952 -0.12542458 -0.00564133 2.3509886e-38
-0.03078334 -0.12880091 -0.018608797 2.3509886e-38
-0.02899605 -0.12958528 -0.021621216 2.3509886e-38
-0.027132176 -0.12958528 -0.021621216 2.3509886e-38
-0.025268301 -0.12958528 -0.021621216 2.3509886e-38
-0.023404427 -0.12958528 -0.021621216 2.3509886e-38
-0.021540552 -0.12958528 -0.021621216 2.3509886e-38
-0.019676678 -0.12958528 -0.021621216 2.3509886e-38
-0.017812807 -0.12958528 -0.021621216 2.3509886e-38
-0.015948933 -0.12958528 -0.021621216 2.3509886e-38
-0.014085058 -0.12958528 -0.021621216 2.3509886e-38
-0.012197416 -0.12880091 -0.018608797 2.3509886e-38
-0.010338824 -0.12880091 -0.018608797 2.3509886e-38
-0.0084802322 -0.12880091 -0.018608797 2.3509886e-38
-0.0066295639 -0.12958528 -0.021621216 2.3509886e-38
-0.0047630481 -0.12880091 -0.018608797 2.3509886e-38
-0.0029044561 -0.12880091 -0.018608797 2.3509886e-38
-0.0010458641 -0.12880091 -0.018608797 2.3509886e-38
0.00081272796 -0.12880091 -0.018608797 2.3509886e-38
0.0024567517 -0.11969708 0.016356241 2.3509886e-38
0.0042779129 -0.12048493 0.013330352 2.3509886e-38
0.0060805045 -0.12048493 0.013330352 2.3509886e-38
0.007848612 -0.11969708 0.016356241 2.3509886e-38
0.0096458988 -0.11969708 0.016356241 2.3509886e-38
0.011443186 -0.11969708 0.016356241 2.3509886e-38
0.013940398 -0.13063805 -0.025664557 2.3509886e-38
0.015736924 -0.12958528 -0.021621216 2.3509886e-38
0.017540056 -0.12880091 -0.018608797 2.3509886e-38
0.019333001 -0.12802102 -0.015613426 2.3509886e-38
0.021115841 -0.12724553 -0.012634981 2.3509886e-38
0.02296396 -0.12724553 -0.012634981 2.3509886e-38
0.024701888 -0.12618984 -0.0085804351 2.3509886e-38
0.026457869 -0.12542458 -0.00564133 2.3509886e-38
0.027895711 -0.12204717 0.0073303096 2.3509886e-38
0.029514201 -0.12048493 0.013330352 2.3509886e-38
0.031316794 -0.12048493 0.013330352 2.3509886e-38
0.034052666 -0.12724553 -0.012634981 2.3509886e-38
0.036013063 -0.12802102 -0.015613426 2.3509886e-38
0.037748903 -0.12724553 -0.012634981 2.3509886e-38
0.039597023 -0.12724553 -0.012634981 2.3509886e-38
0.04144514 -0.12724553 -0.012634981 2.3509886e-38
0.043426424 -0.12802102 -0.015613426 2.3509886e-38
0.045141377 -0.12724553 -0.012634981 2.3509886e-38
0.046989493 -0.12724553 -0.012634981 2.3509886e-38
0.04678781 -0.11656497 0.02838565 2.3509886e-38
0.048564006 -0.11656497 0.02838565 2.3509886e-38
0.052317023 -0.12618984 -0.0085804351 2.3509886e-38
0.053995706 -0.12542458 -0.00564133 2.3509886e-38
0.055831563 -0.12542458 -0.00564133 2.3509886e-38
0.057667419 -0.12542458 -0.00564133 2.3509886e-38
0.059503276 -0.12542458 -0.00564133 2.3509886e-38
0.06152207 -0.12618984 -0.0085804351 2.3509886e-38
0.063622549 -0.12724553 -0.012634981 2.3509886e-38
0.065470681 -0.12724553 -0.012634981 2.3509886e-38
0.067318797 -0.12724553 -0.012634981 2.3509886e-38
0.068886101 -0.12618984 -0.0085804351 2.3509886e-38
0.07072711 -0.12618984 -0.0085804351 2.3509886e-38
0.072863147 -0.12724553 -0.012634981 2.3509886e-38
0.073516533 -0.123071 0.003398072 2.3509886e-38
0.075336546 -0.123071 0.003398072 2.3509886e-38
0.076610878 -0.12125005 0.010391723 2.3509886e-38
0.078418627 -0.12125005 0.010391723 2.3509886e-38
0.080475971 -0.12204717 0.0073303096 2.3509886e-38
0.082616568 -0.123071 0.003398072 2.3509886e-38
0.084436581 -0.123071 0.003398072 2.3509527e-38
0.085915297 -0.12204717 0.0073303096 2.3509527e-38
0.087457344 -0.12125005 0.010391723 2.3509527e-38
0.089265093 -0.12125005 0.010391723 2.3509527e-38
0.090802342 -0.12048493 0.013330352 2.3509527e-38
0.09260492 -0.12048493 0.013330352 2.3509883e-38
0.094118372 -0.11969708 0.016356241 2.3509521e-38
0.09591566 -0.11969708 0.016356241 2.3509521e-38
0.097712949 -0.11969708 0.016356241 2.3509883e-38
0.099815294 -0.12048493 0.013330352 2.323258e-38
0.10161789 -0.12048493 0.013330352 2.3509886e-38
0.10342048 -0.12048493 0.013330352 2.2864883e-38
0.10522307 -0.12048493 0.013330352 2.3233303e-38
0.10507454 -0.11577369 0.031424772 1.0879821e-38
0.10619624 -0.11423124 0.037348758 1.3836729e-39
0.10795672 -0.11423124 0.037348758 1.2914773e-39
0.10971721 -0.11423124 0.037348758 2.2119931e-39
-0.11212416 -0.124891 0.003398072 1.3371956e-38
-0.11030415 -0.124891 0.003398072 2.2867032e-38
-0.10848413 -0.124891 0.003398072 2.2405696e-38
-0.10666414 -0.124891 0.003398072 2.3234379e-38
-0.10484412 -0.124891 0.003398072 2.3509886e-38
-0.10302413 -0.124891 0.003398072 2.3324778e-38
-0.10120411 -0.124891 0.003398072 2.3508451e-38
-0.099384099 -0.124891 0.003398072 2.3509168e-38
-0.097564101 -0.124891 0.003398072 2.3508809e-38
-0.095744088 -0.124891 0.003398072 2.3325497e-38
-0.09392409 -0.124891 0.003398072 2.341805e-38
-0.091769695 -0.12386028 0.0073303096 2.3234379e-38
-0.089956582 -0.12386028 0.0073303096 2.3509886e-38
-0.088143468 -0.12386028 0.0073303096 2.3509886e-38
-0.086330354 -0.12386028 0.0073303096 2.3509886e-38
-0.084517241 -0.12386028 0.0073303096 2.3509886e-38
-0.082704127 -0.12386028 0.0073303096 2.3509886e-38
-0.080662891 -0.1230578 0.010391723 2.3509886e-38
-0.078641325 -0.12228753 0.013330352 2.3509886e-38
-0.076838732 -0.12228753 0.013330352 2.3509886e-38
-0.075036138 -0.12228753 0.013330352 2.3509886e-38
-0.073233545 -0.12228753 0.013330352 2.3509886e-38
-0.071430951 -0.12228753 0.013330352 2.3509886e-38
-0.069628358 -0.12228753 0.013330352 2.3509886e-38
-0.068008676 -0.1230578 0.010391723 2.3509886e-38
-0.066386119 -0.12386028 0.0073303096 2.3509886e-38
-0.064573012 -0.12386028 0.0073303096 2.3509886e-38
-0.062585451 -0.1230578 0.010391723 2.3509886e-38
-0.060777709 -0.1230578 0.010391723 2.3509886e-38
-0.059133679 -0.12386028 0.0073303096 2.3509886e-38
-0.057523951 -0.124891 0.003398072 2.3509886e-38
-0.055507451 -0.12386028 0.0073303096 2.3509886e-38
-0.053694338 -0.12386028 0.0073303096 2.3509886e-38
-0.051602446 -0.12228753 0.013330352 2.3509886e-38
-0.049664564 -0.12149437 0.016356241 2.3509886e-38
-0.047867276 -0.12149437 0.016356241 2.3509886e-38
-0.046069995 -0.12149437 0.016356241 2.3509886e-38
-0.044392075 -0.12228753 0.013330352 2.3509886e-38
-0.042589482 -0.12228753 0.013330352 2.3509886e-38
-0.040786892 -0.12228753 0.013330352 2.3509886e-38
-0.038984299 -0.12228753 0.013330352 2.3509886e-38
-0.037181705 -0.12228753 0.013330352 2.3509886e-38
-0.035868242 -0.12646608 -0.0026107915 2.3509886e-38
-0.033488981 -0.12149437 0.016356241 2.3509886e-38
-0.031691696 -0.12149437 0.016356241 2.3509886e-38
-0.029971339 -0.12228753 0.013330352 2.3509886e-38
-0.028238304 -0.1230578 0.010391723 2.3509886e-38
-0.026366152 -0.12228753 0.013330352 2.3509886e-38
-0.024563562 -0.12228753 0.013330352 2.3509886e-38
-0.022760972 -0.12228753 0.013330352 2.3509886e-38
-0.021540552 -0.13144915 -0.021621216 2.3509886e-38
-0.019676678 -0.13144915 -0.021621216 2.3509886e-38
-0.017812807 -0.13144915 -0.021621216 2.3509886e-38
-0.015948933 -0.13144915 -0.021621216 2.3509886e-38
-0.01380587 -0.12386028 0.0073303096 2.3509886e-38
-0.011968601 -0.1230578 0.010391723 2.3509886e-38
-0.010160858 -0.1230578 0.010391723 2.3509886e-38
-0.0083531141 -0.1230578 0.010391723 2.3509886e-38
-0.0065453686 -0.1230578 0.010391723 2.3509886e-38
-0.004740309 -0.12386028 0.0073303096 2.3509886e-38
-0.0029324554 -0.12228753 0.013330352 2.3509886e-38
-0.0011378229 -0.12149437 0.016356241 2.3509886e-38
0.00065946579 -0.12149437 0.016356241 2.3509886e-38
0.0024567517 -0.12149437 0.016356241 2.3509886e-38
0.0042540384 -0.12149437 0.016356241 2.3509886e-38
0.0060513252 -0.12149437 0.016356241 2.3509886e-38
0.0078143282 -0.12070583 0.019364487 2.3509886e-38
0.00960634 -0.12070583 0.019364487 2.3509886e-38
0.011398353 -0.12070583 0.019364487 2.3509886e-38
0.013140552 -0.11992194 0.022355091 2.3509886e-38
0.01492732 -0.11992194 0.022355091 2.3509886e-38
0.016714089 -0.11992194 0.022355091 2.3509886e-38
0.018500857 -0.11992194 0.022355091 2.3509886e-38
0.020501241 -0.12228753 0.013330352 2.3509886e-38
0.022303835 -0.12228753 0.013330352 2.3509886e-38
0.024106426 -0.12228753 0.013330352 2.3509886e-38
0.025909018 -0.12228753 0.013330352 2.3509886e-38
0.027711611 -0.12228753 0.013330352 2.3509886e-38
0.029514201 -0.12228753 0.013330352 2.3509886e-38
0.031110488 -0.12070583 0.019364487 2.3509886e-38
0.032902502 -0.12070583 0.019364487 2.3509886e-38
0.036239535 -0.13144915 -0.021621216 2.3509886e-38
0.036251258 -0.11914261 0.025328171 2.3509886e-38
0.038032815 -0.11914261 0.025328171 2.3509886e-38
0.039683029 -0.11834116 0.02838565 2.3509886e-38
0.041323345 -0.11754455 0.031424772 2.3509886e-38
0.043094214 -0.11754455 0.031424772 2.3509886e-38
0.044865079 -0.11754455 0.031424772 2.3509886e-38
0.046635944 -0.11754455 0.031424772 2.3509886e-38
0.048564006 -0.11834116 0.02838565 2.3509886e-38
0.050340202 -0.11834116 0.02838565 2.3509886e-38
0.052947901 -0.12228753 0.013330352 2.3509886e-38
0.054750491 -0.12228753 0.013330352 2.3509886e-38
0.056553084 -0.12228753 0.013330352 2.3509886e-38
0.058355678 -0.12228753 0.013330352 2.3509886e-38
0.06152207 -0.12803085 -0.0085804351 2.3509886e-38
0.063622549 -0.12909363 -0.012634981 2.3509886e-38
0.065470681 -0.12909363 -0.012634981 2.3509886e-38
0.064756155 -0.11914261 0.025328171 2.3509886e-38
0.066537708 -0.11914261 0.025328171 2.3509886e-38
0.068319261 -0.11914261 0.025328171 2.3509886e-38
0.070100814 -0.11914261 0.025328171 2.3509886e-38
0.071882382 -0.11914261 0.025328171 2.3509886e-38
0.073663935 -0.11914261 0.025328171 2.3509886e-38
0.075445488 -0.11914261 0.025328171 2.3509886e-38
0.077702805 -0.12070583 0.019364487 2.3509886e-38
0.079740077 -0.12149437 0.016356241 2.3509886e-38
0.081537366 -0.12149437 0.016356241 2.3509886e-38
0.084102184 -0.12386028 0.0073303096 2.3509527e-38
0.085915297 -0.12386028 0.0073303096 2.3509527e-38
0.087457344 -0.1230578 0.010391723 2.3509527e-38
0.088999748 -0.12228753 0.013330352 2.3509527e-38
0.090802342 -0.12228753 0.013330352 2.3509527e-38
0.092321083 -0.12149437 0.016356241 2.3509883e-38
0.093830913 -0.12070583 0.019364487 2.3509521e-38
0.095622927 -0.12070583 0.019364487 2.3509521e-38
0.097414941 -0.12070583 0.019364487 2.3509883e-38
0.098905459 -0.11992194 0.022355091 2.3140384e-38
0.10069223 -0.11992194 0.022355091 2.3509886e-38
0.10216883 -0.11914261 0.025328171 2.3417333e-38
0.10395038 -0.11914261 0.025328171 2.3417691e-38
0.10507454 -0.11754455 0.031424772 1.3460576e-38
0.10619624 -0.11599173 0.037348758 3.7800376e-39
0.10795672 -0.11599173 0.037348758 1.5673425e-39
0.10971721 -0.11599173 0.037348758 2.3049048e-39
-0.11758417 -0.126711 0.003398072 1.0695398e-38
-0.11576417 -0.126711 0.003398072 8.668536e-39
-0.11394416 -0.126711 0.003398072 1.0145105e-38
-0.11212416 -0.126711 0.003398072 1.392513e-38
-0.11030415 -0.126711 0.003398072 2.2867032e-38
-0.10848413 -0.126711 0.003398072 2.2866674e-38
-0.10666414 -0.126711 0.003398072 2.2865955e-38
-0.10484412 -0.126711 0.003398072 2.2864519e-38
-0.10264836 -0.1256734 0.0073303096 2.3048191e-38
-0.10083525 -0.1256734 0.0073303096 2.3509168e-38
-0.09902215 -0.1256734 0.0073303096 2.3509168e-38
-0.097209036 -0.1256734 0.0073303096 2.3509168e-38
-0.095395923 -0.1256734 0.0073303096 2.304891e-38
-0.093582809 -0.1256734 0.0073303096 2.2957431e-38
-0.091769695 -0.1256734 0.0073303096 2.3234379e-38
-0.089956582 -0.1256734 0.0073303096 2.3509886e-38
-0.088143468 -0.1256734 0.0073303096 2.3509886e-38
-0.086330354 -0.1256734 0.0073303096 2.3509886e-38
-0.084517241 -0.1256734 0.0073303096 2.3509886e-38
-0.082704127 -0.1256734 0.0073303096 2.3509886e-38
-0.080891028 -0.1256734 0.0073303096 2.3509886e-38
-0.078855157 -0.12486555 0.010391723 2.3509886e-38
-0.076838732 -0.12409012 0.013330352 2.3509886e-38
-0.075036138 -0.12409012 0.013330352 2.3509886e-38
-0.073431924 -0.12486555 0.010391723 2.3509886e-38
-0.071430951 -0.12409012 0.013330352 2.3509886e-38
-0.069628358 -0.12409012 0.013330352 2.3509886e-38
-0.068008676 -0.12486555 0.010391723 2.3509886e-38
-0.066200942 -0.12486555 0.010391723 2.3509886e-38
-0.064573012 -0.1256734 0.0073303096 2.3509886e-38
-0.062585451 -0.12486555 0.010391723 2.3509886e-38
-0.060777709 -0.12486555 0.010391723 2.3509886e-38
-0.059133679 -0.1256734 0.0073303096 2.3509886e-38
-0.057320565 -0.1256734 0.0073303096 2.3509886e-38
-0.055354476 -0.12486555 0.010391723 2.3509886e-38
-0.053405032 -0.12409012 0.013330352 2.3509886e-38
-0.051602446 -0.12409012 0.013330352 2.3509886e-38
-0.049664564 -0.12329166 0.016356241 2.3509886e-38
-0.047738053 -0.12249784 0.019364487 2.3509886e-38
-0.045946039 -0.12249784 0.019364487 2.3509886e-38
-0.044154029 -0.12249784 0.019364487 2.3509886e-38
-0.042475417 -0.12329166 0.016356241 2.3509886e-38
-0.040678132 -0.12329166 0.016356241 2.3509886e-38
-0.038880844 -0.12329166 0.016356241 2.3509886e-38
-0.037083559 -0.12329166 0.016356241 2.3509886e-38
-0.03528627 -0.12329166 0.016356241 2.3509886e-38
-0.033488981 -0.12329166 0.016356241 2.3509886e-38
-0.031691696 -0.12329166 0.016356241 2.3509886e-38
-0.029894412 -0.12329166 0.016356241 2.3509886e-38
-0.028168745 -0.12409012 0.013330352 2.3509886e-38
-0.026299834 -0.12329166 0.016356241 2.3509886e-38
-0.024381593 -0.12170871 0.022355091 2.3509886e-38
-0.022594824 -0.12170871 0.022355091 2.3509886e-38
-0.020808056 -0.12170871 0.022355091 2.3509886e-38
-0.019021288 -0.12170871 0.022355091 2.3509886e-38
-0.017353192 -0.12409012 0.013330352 2.3509886e-38
-0.015516117 -0.12329166 0.016356241 2.3509886e-38
-0.013718829 -0.12329166 0.016356241 2.3509886e-38
-0.011968601 -0.12486555 0.010391723 2.3509886e-38
-0.010160858 -0.12486555 0.010391723 2.3509886e-38
-0.0083531141 -0.12486555 0.010391723 2.3509886e-38
-0.0065453686 -0.12486555 0.010391723 2.3509886e-38
-0.0047376249 -0.12486555 0.010391723 2.3509886e-38
-0.0029324554 -0.12409012 0.013330352 2.3509886e-38
-0.0011378229 -0.12329166 0.016356241 2.3509886e-38
0.00065946579 -0.12329166 0.016356241 2.3509886e-38
0.0024567517 -0.12329166 0.016356241 2.3509886e-38
0.0042540384 -0.12329166 0.016356241 2.3509886e-38
0.0060513252 -0.12329166 0.016356241 2.3509886e-38
0.0078143282 -0.12249784 0.019364487 2.3509886e-38
0.00960634 -0.12249784 0.019364487 2.3509886e-38
0.011398353 -0.12249784 0.019364487 2.3509886e-38
0.013140552 -0.12170871 0.022355091 2.3509886e-38
0.01492732 -0.12170871 0.022355091 2.3509886e-38
0.016714089 -0.12170871 0.022355091 2.3509886e-38
0.018566402 -0.12249784 0.019364487 2.3509886e-38
0.020358413 -0.12249784 0.019364487 2.3509886e-38
0.022303835 -0.12409012 0.013330352 2.3509886e-38
0.024106426 -0.12409012 0.013330352 2.3509886e-38
0.025909018 -0.12409012 0.013330352 2.3509886e-38
0.027711611 -0.12409012 0.013330352 2.3509886e-38
0.029416054 -0.12329166 0.016356241 2.3509886e-38
0.031110488 -0.12249784 0.019364487 2.3509886e-38
0.032902502 -0.12249784 0.019364487 2.3509886e-38
0.034694511 -0.12249784 0.019364487 2.3509886e-38
0.036251258 -0.12092416 0.025328171 2.3509886e-38
0.038032815 -0.12092416 0.025328171 2.3509886e-38
0.039683029 -0.12011738 0.02838565 2.3509886e-38
0.041323345 -0.11931543 0.031424772 2.3509886e-38
0.043094214 -0.11931543 0.031424772 2.3509886e-38
0.044865079 -0.11931543 0.031424772 2.3509886e-38
0.046635944 -0.11931543 0.031424772 2.3509886e-38
0.048564006 -0.12011738 0.02838565 2.3509886e-38
0.050340202 -0.12011738 0.02838565 2.3509886e-38
0.052614637 -0.12249784 0.019364487 2.3509886e-38
0.054406647 -0.12249784 0.019364487 2.3509886e-38
0.055848371 -0.12092416 0.025328171 2.3509886e-38
0.057629928 -0.12092416 0.025328171 2.3509886e-38
0.059411485 -0.12092416 0.025328171 2.3509886e-38
0.061193038 -0.12092416 0.025328171 2.3509886e-38
0.062974602 -0.12092416 0.025328171 2.3509886e-38
0.064756155 -0.12092416 0.025328171 2.3509886e-38
0.066537708 -0.12092416 0.025328171 2.3509886e-38
0.068319261 -0.12092416 0.025328171 2.3509886e-38
0.070100814 -0.12092416 0.025328171 2.3509886e-38
0.071882382 -0.12092416 0.025328171 2.3509886e-38
0.073663935 -0.12092416 0.025328171 2.3509886e-38
0.075445488 -0.12092416 0.025328171 2.3509886e-38
0.077464223 -0.12170871 0.022355091 2.3509886e-38
0.079250991 -0.12170871 0.022355091 2.3509886e-38
0.081286833 -0.12249784 0.019364487 2.3509886e-38
0.083334655 -0.12329166 0.016356241 2.3509527e-38
0.085394561 -0.12409012 0.013330352 2.3509527e-38
0.086929232 -0.12329166 0.016356241 2.3509527e-38
0.088726521 -0.12329166 0.016356241 2.3509527e-38
0.090246886 -0.12249784 0.019364487 2.3509527e-38
0.09175837 -0.12170871 0.022355091 2.3509883e-38
0.093545139 -0.12170871 0.022355091 2.3509883e-38
0.095331907 -0.12170871 0.022355091 2.3509883e-38
0.096824154 -0.12092416 0.025328171 2.3509883e-38
0.098605722 -0.12092416 0.025328171 2.3416971e-38
0.10038728 -0.12092416 0.025328171 2.3417691e-38
0.10184985 -0.12011738 0.02838565 2.3509527e-38
0.10267527 -0.11775221 0.037348758 2.3509527e-38
0.10443576 -0.11775221 0.037348758 1.1524105e-38
0.10619624 -0.11775221 0.037348758 5.8998155e-39
0.10795672 -0.11775221 0.037348758 1.9361222e-39
0.10971721 -0.11775221 0.037348758 2.0293941e-39
-0.11758417 -0.12853102 0.003398072 9.5890504e-39
-0.11576417 -0.12853102 0.003398072 8.9451229e-39
-0.11352704 -0.12748651 0.0073303096 1.0790475e-38
-0.11171393 -0.12748651 0.0073303096 1.1528044e-38
-0.11030415 -0.12853102 0.003398072 2.0655771e-38
-0.10848413 -0.12853102 0.003398072 2.3142544e-38
-0.10627459 -0.12748651 0.0073303096 2.2589368e-38
-0.10446148 -0.12748651 0.0073303096 2.3509886e-38
-0.10264836 -0.12748651 0.0073303096 2.3509527e-38
-0.10083525 -0.12748651 0.0073303096 2.3508451e-38
-0.09902215 -0.12748651 0.0073303096 2.3323699e-38
-0.097209036 -0.12748651 0.0073303096 2.3509168e-38
-0.095124856 -0.1266733 0.010391723 2.3509886e-38
-0.093317106 -0.1266733 0.010391723 2.341805e-38
-0.091769695 -0.12748651 0.0073303096 2.3234379e-38
-0.089956582 -0.12748651 0.0073303096 2.3509886e-38
-0.087893873 -0.1266733 0.010391723 2.3509886e-38
-0.086086124 -0.1266733 0.010391723 2.3509886e-38
-0.08427839 -0.1266733 0.010391723 2.3509886e-38
-0.082470641 -0.1266733 0.010391723 2.3509886e-38
-0.080662891 -0.1266733 0.010391723 2.3509886e-38
-0.078855157 -0.1266733 0.010391723 2.3509886e-38
-0.077047408 -0.1266733 0.010391723 2.3509886e-38
-0.075239658 -0.1266733 0.010391723 2.3509886e-38
-0.073431924 -0.1266733 0.010391723 2.3509886e-38
-0.071430951 -0.12589271 0.013330352 2.3509886e-38
-0.069628358 -0.12589271 0.013330352 2.3509886e-38
-0.068008676 -0.1266733 0.010391723 2.3509886e-38
-0.066200942 -0.1266733 0.010391723 2.3509886e-38
-0.064393193 -0.1266733 0.010391723 2.3509886e-38
-0.062585451 -0.1266733 0.010391723 2.3509886e-38
-0.060946792 -0.12748651 0.0073303096 2.3509886e-38
-0.059133679 -0.12748651 0.0073303096 2.3509886e-38
-0.057320565 -0.12748651 0.0073303096 2.3509886e-38
-0.055354476 -0.1266733 0.010391723 2.3509886e-38
-0.053259134 -0.12508895 0.016356241 2.3509886e-38
-0.051322073 -0.12428986 0.019364487 2.3509886e-38
-0.049530067 -0.12428986 0.019364487 2.3509886e-38
-0.047738053 -0.12428986 0.019364487 2.3509886e-38
-0.045946039 -0.12428986 0.019364487 2.3509886e-38
-0.044154029 -0.12428986 0.019364487 2.3509886e-38
-0.042475417 -0.12508895 0.016356241 2.3509886e-38
-0.040678132 -0.12508895 0.016356241 2.3509886e-38
-0.038880844 -0.12508895 0.016356241 2.3509886e-38
-0.037083559 -0.12508895 0.016356241 2.3509886e-38
-0.03528627 -0.12508895 0.016356241 2.3509886e-38
-0.033488981 -0.12508895 0.016356241 2.3509886e-38
-0.031609945 -0.12428986 0.019364487 2.3509886e-38
-0.029817931 -0.12428986 0.019364487 2.3509886e-38
-0.028097123 -0.12508895 0.016356241 2.3509886e-38
-0.026299834 -0.12508895 0.016356241 2.3509886e-38
-0.024381593 -0.12349547 0.022355091 2.3509886e-38
-0.022594824 -0.12349547 0.022355091 2.3509886e-38
-0.020808056 -0.12349547 0.022355091 2.3509886e-38
-0.019021288 -0.12349547 0.022355091 2.3509886e-38
-0.017313402 -0.12508895 0.016356241 2.3509886e-38
-0.015516117 -0.12508895 0.016356241 2.3509886e-38
-0.013718829 -0.12508895 0.016356241 2.3509886e-38
-0.011945417 -0.12589271 0.013330352 2.3509886e-38
-0.010142826 -0.12589271 0.013330352 2.3509886e-38
-0.0083402321 -0.12589271 0.013330352 2.3509886e-38
-0.0065376405 -0.12589271 0.013330352 2.3509886e-38
-0.0047350489 -0.12589271 0.013330352 2.3509886e-38
-0.0029324554 -0.12589271 0.013330352 2.3509886e-38
-0.0011378229 -0.12508895 0.016356241 2.3509886e-38
0.00065946579 -0.12508895 0.016356241 2.3509886e-38
0.0024567517 -0.12508895 0.016356241 2.3509886e-38
0.0042540384 -0.12508895 0.016356241 2.3509886e-38
0.0060513252 -0.12508895 0.016356241 2.3509886e-38
0.007848612 -0.12508895 0.016356241 2.3509886e-38
0.0096458988 -0.12508895 0.016356241 2.3509886e-38
0.011398353 -0.12428986 0.019364487 2.3509886e-38
0.013140552 -0.12349547 0.022355091 2.3509886e-38
0.01492732 -0.12349547 0.022355091 2.3509886e-38
0.016835045 -0.12508895 0.016356241 2.3509886e-38
0.018566402 -0.12428986 0.019364487 2.3509886e-38
0.020358413 -0.12428986 0.019364487 2.3509886e-38
0.022150425 -0.12428986 0.019364487 2.3509886e-38
0.023942439 -0.12428986 0.019364487 2.3509886e-38
0.025821479 -0.12508895 0.016356241 2.3509886e-38
0.027618766 -0.12508895 0.016356241 2.3509886e-38
0.029318474 -0.12428986 0.019364487 2.3509886e-38
0.031110488 -0.12428986 0.019364487 2.3509886e-38
0.032795008 -0.12349547 0.022355091 2.3509886e-38
0.034581777 -0.12349547 0.022355091 2.3509886e-38
0.036368545 -0.12349547 0.022355091 2.3509886e-38
0.038155314 -0.12349547 0.022355091 2.3509886e-38
0.039814368 -0.12270571 0.025328171 2.3509886e-38
0.041595925 -0.12270571 0.025328171 2.3509886e-38
0.043235421 -0.12189357 0.02838565 2.3509886e-38
0.045011617 -0.12189357 0.02838565 2.3509886e-38
0.04678781 -0.12189357 0.02838565 2.3509886e-38
0.048564006 -0.12189357 0.02838565 2.3509886e-38
0.050340202 -0.12189357 0.02838565 2.3509886e-38
0.052285261 -0.12270571 0.025328171 2.3509886e-38
0.054236233 -0.12349547 0.022355091 2.3509886e-38
0.055848371 -0.12270571 0.025328171 2.3509886e-38
0.057629928 -0.12270571 0.025328171 2.3509886e-38
0.059411485 -0.12270571 0.025328171 2.3509886e-38
0.061193038 -0.12270571 0.025328171 2.3509886e-38
0.062974602 -0.12270571 0.025328171 2.3509886e-38
0.064756155 -0.12270571 0.025328171 2.3509886e-38
0.066537708 -0.12270571 0.025328171 2.3509886e-38
0.068319261 -0.12270571 0.025328171 2.3509886e-38
0.070100814 -0.12270571 0.025328171 2.3509886e-38
0.071882382 -0.12270571 0.025328171 2.3509886e-38
0.073663935 -0.12270571 0.025328171 2.3509886e-38
0.075445488 -0.12270571 0.025328171 2.3509886e-38
0.077227041 -0.12270571 0.025328171 2.3509886e-38
0.079008594 -0.12270571 0.025328171 2.3509886e-38
0.080790162 -0.12270571 0.025328171 2.3509886e-38
0.083078846 -0.12428986 0.019364487 2.3509886e-38
0.085131943 -0.12508895 0.016356241 2.3509886e-38
0.086662874 -0.12428986 0.019364487 2.3509886e-38
0.088454887 -0.12428986 0.019364487 2.3509886e-38
0.089971602 -0.12349547 0.022355091 2.3509527e-38
0.09175837 -0.12349547 0.022355091 2.3509883e-38
0.093261048 -0.12270571 0.025328171 2.3509883e-38
0.095042601 -0.12270571 0.025328171 2.3509883e-38
0.096521273 -0.12189357 0.02838565 2.3417327e-38
0.098297477 -0.12189357 0.02838565 2.3509886e-38
0.099761948 -0.12108628 0.031424772 2.3233302e-38
0.10091481 -0.11951269 0.037348758 2.3509886e-38
0.10267527 -0.11951269 0.037348758 2.2587576e-38
0.10443576 -0.11951269 0.037348758 7.5596899e-39
0.10619624 -0.11951269 0.037348758 6.7299321e-39
0.10795672 -0.11951269 0.037348758 2.4892932e-39
0.10971721 -0.11951269 0.037348758 2.8591519e-39
-0.11758417 -0.13035102 0.003398072 9.4968547e-39
-0.11576417 -0.13035102 0.003398072 9.3139054e-39
-0.11352704 -0.1292996 0.0073303096 1.0974866e-38
-0.11171393 -0.1292996 0.0073303096 1.1620239e-38
-0.10990082 -0.1292996 0.0073303096 2.1485532e-38
-0.1080877 -0.1292996 0.0073303096 2.295887e-38
-0.10627459 -0.1292996 0.0073303096 2.3142542e-38
-0.10446148 -0.1292996 0.0073303096 2.3509886e-38
-0.10264836 -0.1292996 0.0073303096 2.3509527e-38
-0.10054809 -0.12848105 0.010391723 2.3509168e-38
-0.098740339 -0.12848105 0.010391723 2.3509168e-38
-0.09693259 -0.12848105 0.010391723 2.3509168e-38
-0.095124856 -0.12848105 0.010391723 2.3509886e-38
-0.093062058 -0.12769531 0.013330352 2.341805e-38
-0.091259465 -0.12769531 0.013330352 2.3234379e-38
-0.089701623 -0.12848105 0.010391723 2.3509886e-38
-0.087893873 -0.12848105 0.010391723 2.3509886e-38
-0.086086124 -0.12848105 0.010391723 2.3509886e-38
-0.08427839 -0.12848105 0.010391723 2.3509886e-38
-0.082470641 -0.12848105 0.010391723 2.3509886e-38
-0.080662891 -0.12848105 0.010391723 2.3509886e-38
-0.078855157 -0.12848105 0.010391723 2.3509886e-38
-0.077047408 -0.12848105 0.010391723 2.3509886e-38
-0.075239658 -0.12848105 0.010391723 2.3509886e-38
-0.073431924 -0.12848105 0.010391723 2.3509886e-38
-0.071624175 -0.12848105 0.010391723 2.3509886e-38
-0.069816425 -0.12848105 0.010391723 2.3509886e-38
-0.068008676 -0.12848105 0.010391723 2.3509886e-38
-0.066200942 -0.12848105 0.010391723 2.3509886e-38
-0.064393193 -0.12848105 0.010391723 2.3509886e-38
-0.062585451 -0.12848105 0.010391723 2.3509886e-38
-0.060777709 -0.12848105 0.010391723 2.3509886e-38
-0.05896996 -0.12848105 0.010391723 2.3509886e-38
-0.05716221 -0.12848105 0.010391723 2.3509886e-38
-0.055056423 -0.12688623 0.016356241 2.3509886e-38
-0.053259134 -0.12688623 0.016356241 2.3509886e-38
-0.051322073 -0.12608187 0.019364487 2.3509886e-38
-0.049530067 -0.12608187 0.019364487 2.3509886e-38
-0.047738053 -0.12608187 0.019364487 2.3509886e-38
-0.045946039 -0.12608187 0.019364487 2.3509886e-38
-0.044154029 -0.12608187 0.019364487 2.3509886e-38
-0.042362016 -0.12608187 0.019364487 2.3509886e-38
-0.040678132 -0.12688623 0.016356241 2.3509886e-38
-0.038880844 -0.12688623 0.016356241 2.3509886e-38
-0.037083559 -0.12688623 0.016356241 2.3509886e-38
-0.03528627 -0.12688623 0.016356241 2.3509886e-38
-0.033401955 -0.12608187 0.019364487 2.3509886e-38
-0.031609945 -0.12608187 0.019364487 2.3509886e-38
-0.029817931 -0.12608187 0.019364487 2.3509886e-38
-0.028097123 -0.12688623 0.016356241 2.3509886e-38
-0.026299834 -0.12688623 0.016356241 2.3509886e-38
-0.024441894 -0.12608187 0.019364487 2.3509886e-38
-0.02264988 -0.12608187 0.019364487 2.3509886e-38
-0.020857871 -0.12608187 0.019364487 2.3509886e-38
-0.019065857 -0.12608187 0.019364487 2.3509886e-38
-0.017313402 -0.12688623 0.016356241 2.3509886e-38
-0.015516117 -0.12688623 0.016356241 2.3509886e-38
-0.013718829 -0.12688623 0.016356241 2.3509886e-38
-0.011921544 -0.12688623 0.016356241 2.3509886e-38
-0.010124255 -0.12688623 0.016356241 2.3509886e-38
-0.00832697 -0.12688623 0.016356241 2.3509886e-38
-0.0065296814 -0.12688623 0.016356241 2.3509886e-38
-0.0047323965 -0.12688623 0.016356241 2.3509886e-38
-0.0029351078 -0.12688623 0.016356241 2.3509886e-38
-0.0011378229 -0.12688623 0.016356241 2.3509886e-38
0.00065946579 -0.12688623 0.016356241 2.3509886e-38
0.0024567517 -0.12688623 0.016356241 2.3509886e-38
0.0042540384 -0.12688623 0.016356241 2.3509886e-38
0.0060513252 -0.12688623 0.016356241 2.3509886e-38
0.007848612 -0.12688623 0.016356241 2.3509886e-38
0.0096458988 -0.12688623 0.016356241 2.3509886e-38
0.011443186 -0.12688623 0.016356241 2.3509886e-38
0.013190364 -0.12608187 0.019364487 2.3509886e-38
0.014982376 -0.12608187 0.019364487 2.3509886e-38
0.01677439 -0.12608187 0.019364487 2.3509886e-38
0.018566402 -0.12608187 0.019364487 2.3509886e-38
0.020358413 -0.12608187 0.019364487 2.3509886e-38
0.022150425 -0.12608187 0.019364487 2.3509886e-38
0.023942439 -0.12608187 0.019364487 2.3509886e-38
0.025734451 -0.12608187 0.019364487 2.3509886e-38
0.027618766 -0.12688623 0.016356241 2.3509886e-38
0.029318474 -0.12608187 0.019364487 2.3509886e-38
0.031110488 -0.12608187 0.019364487 2.3509886e-38
0.032795008 -0.12528224 0.022355091 2.3509886e-38
0.034581777 -0.12528224 0.022355091 2.3509886e-38
0.036368545 -0.12528224 0.022355091 2.3509886e-38
0.038155314 -0.12528224 0.022355091 2.3509886e-38
0.039814368 -0.1244873 0.025328171 2.3509886e-38
0.041595925 -0.1244873 0.025328171 2.3509886e-38
0.043377481 -0.1244873 0.025328171 2.3509886e-38
0.045159038 -0.1244873 0.025328171 2.3509886e-38
0.046940591 -0.1244873 0.025328171 2.3509886e-38
0.048722148 -0.1244873 0.025328171 2.3509886e-38
0.050503705 -0.1244873 0.025328171 2.3509886e-38
0.052285261 -0.1244873 0.025328171 2.3509886e-38
0.054236233 -0.12528224 0.022355091 2.3509886e-38
0.055848371 -0.1244873 0.025328171 2.3509886e-38
0.057629928 -0.1244873 0.025328171 2.3509886e-38
0.059411485 -0.1244873 0.025328171 2.3509886e-38
0.061193038 -0.1244873 0.025328171 2.3509886e-38
0.062974602 -0.1244873 0.025328171 2.3509886e-38
0.064756155 -0.1244873 0.025328171 2.3509886e-38
0.066537708 -0.1244873 0.025328171 2.3509886e-38
0.068319261 -0.1244873 0.025328171 2.3509886e-38
0.069878355 -0.12366976 0.02838565 2.3509886e-38
0.071654543 -0.12366976 0.02838565 2.3509886e-38
0.073663935 -0.1244873 0.025328171 2.3509886e-38
0.075445488 -0.1244873 0.025328171 2.3509886e-38
0.077227041 -0.1244873 0.025328171 2.3509886e-38
0.079008594 -0.1244873 0.025328171 2.3509886e-38
0.080790162 -0.1244873 0.025328171 2.3509886e-38
0.082571715 -0.1244873 0.025328171 2.341805e-38
0.08487086 -0.12608187 0.019364487 2.341805e-38
0.086662874 -0.12608187 0.019364487 2.3325856e-38
0.088454887 -0.12608187 0.019364487 2.341805e-38
0.089971602 -0.12528224 0.022355091 2.3509886e-38
0.09175837 -0.12528224 0.022355091 2.3326213e-38
0.093261048 -0.1244873 0.025328171 2.3509883e-38
0.095042601 -0.1244873 0.025328171 2.3418047e-38
0.096521273 -0.12366976 0.02838565 2.3233299e-38
0.098297477 -0.12366976 0.02838565 2.341805e-38
0.09946239 -0.12207626 0.03434528 2.3325856e-38
0.10091481 -0.12127317 0.037348758 2.3141466e-38
0.10267527 -0.12127317 0.037348758 2.0467077e-38
0.10443576 -0.12127317 0.037348758 8.8504287e-39
0.10619624 -0.12127317 0.037348758 8.3894506e-39
0.10795672 -0.12127317 0.037348758 3.1350186e-39
0.10971721 -0.12127317 0.037348758 2.9517049e-39
-0.11758417 -0.13217102 0.003398072 1.0142224e-38
-0.11576417 -0.13217102 0.003398072 1.0328057e-38
-0.11352704 -0.13111271 0.0073303096 1.2265605e-38
-0.11171393 -0.13111271 0.0073303096 1.2910978e-38
-0.10990082 -0.13111271 0.0073303096 2.2315293e-38
-0.1080877 -0.13111271 0.0073303096 2.3142544e-38
-0.10627459 -0.13111271 0.0073303096 2.3234379e-38
-0.10416357 -0.13028879 0.010391723 2.3509886e-38
-0.10235582 -0.13028879 0.010391723 2.3509527e-38
-0.10054809 -0.13028879 0.010391723 2.3509168e-38
-0.098740339 -0.13028879 0.010391723 2.3509168e-38
-0.09693259 -0.13028879 0.010391723 2.3509168e-38
-0.095124856 -0.13028879 0.010391723 2.3509886e-38
-0.093062058 -0.1294979 0.013330352 2.341805e-38
-0.091259465 -0.1294979 0.013330352 2.3234379e-38
-0.089701623 -0.13028879 0.010391723 2.3509886e-38
-0.087893873 -0.13028879 0.010391723 2.3509886e-38
-0.086086124 -0.13028879 0.010391723 2.3509886e-38
-0.08427839 -0.13028879 0.010391723 2.3509886e-38
-0.082470641 -0.13028879 0.010391723 2.3509886e-38
-0.080662891 -0.13028879 0.010391723 2.3509886e-38
-0.078855157 -0.13028879 0.010391723 2.3509886e-38
-0.077047408 -0.13028879 0.010391723 2.3509886e-38
-0.075239658 -0.13028879 0.010391723 2.3509886e-38
-0.073431924 -0.13028879 0.010391723 2.3509886e-38
-0.071430951 -0.1294979 0.013330352 2.3509886e-38
-0.069628358 -0.1294979 0.013330352 2.3509886e-38
-0.068008676 -0.13028879 0.010391723 2.3509886e-38
-0.066200942 -0.13028879 0.010391723 2.3509886e-38
-0.064393193 -0.13028879 0.010391723 2.3509886e-38
-0.062417999 -0.1294979 0.013330352 2.3509886e-38
-0.060615405 -0.1294979 0.013330352 2.3509886e-38
-0.058651 -0.12868352 0.016356241 2.3509886e-38
-0.056853712 -0.12868352 0.016356241 2.3509886e-38
-0.055056423 -0.12868352 0.016356241 2.3509886e-38
-0.053114086 -0.12787388 0.019364487 2.3509886e-38
-0.051322073 -0.12787388 0.019364487 2.3509886e-38
-0.049530067 -0.12787388 0.019364487 2.3509886e-38
-0.047738053 -0.12787388 0.019364487 2.3509886e-38
-0.045946039 -0.12787388 0.019364487 2.3509886e-38
-0.044154029 -0.12787388 0.019364487 2.3509886e-38
-0.042362016 -0.12787388 0.019364487 2.3509886e-38
-0.040570006 -0.12787388 0.019364487 2.3509886e-38
-0.038777992 -0.12787388 0.019364487 2.3509886e-38
-0.036985978 -0.12787388 0.019364487 2.3509886e-38
-0.035193969 -0.12787388 0.019364487 2.3509886e-38
-0.033401955 -0.12787388 0.019364487 2.3509886e-38
-0.031609945 -0.12787388 0.019364487 2.3509886e-38
-0.029817931 -0.12787388 0.019364487 2.3509886e-38
-0.028097123 -0.12868352 0.016356241 2.3509886e-38
-0.026299834 -0.12868352 0.016356241 2.3509886e-38
-0.024441894 -0.12787388 0.019364487 2.3509886e-38
-0.02264988 -0.12787388 0.019364487 2.3509886e-38
-0.020907976 -0.12868352 0.016356241 2.3509886e-38
-0.019110691 -0.12868352 0.016356241 2.3509886e-38
-0.017313402 -0.12868352 0.016356241 2.3509886e-38
-0.015516117 -0.12868352 0.016356241 2.3509886e-38
-0.013718829 -0.12868352 0.016356241 2.3509886e-38
-0.011921544 -0.12868352 0.016356241 2.3509886e-38
-0.010124255 -0.12868352 0.016356241 2.3509886e-38
-0.00832697 -0.12868352 0.016356241 2.3509886e-38
-0.0065296814 -0.12868352 0.016356241 2.3509886e-38
-0.0047323965 -0.12868352 0.016356241 2.3509886e-38
-0.0029351078 -0.12868352 0.016356241 2.3509886e-38
-0.0011378229 -0.12868352 0.016356241 2.3509886e-38
0.00065946579 -0.12868352 0.016356241 2.3509886e-38
0.0024567517 -0.12868352 0.016356241 2.3509886e-38
0.0042540384 -0.12868352 0.016356241 2.3509886e-38
0.0060513252 -0.12868352 0.016356241 2.3509886e-38
0.007848612 -0.12868352 0.016356241 2.3509886e-38
0.0096458988 -0.12868352 0.016356241 2.3509886e-38
0.011398353 -0.12787388 0.019364487 2.3509886e-38
0.013190364 -0.12787388 0.019364487 2.3509886e-38
