# .PCD v0.7 - Point Cloud Data file format
VERSION 0.7
FIELDS x y z rgb
SIZE 4 4 4 4
TYPE F F F F
COUNT 1 1 1 1
WIDTH 948
HEIGHT 1
VIEWPOINT 0 0 0 1 0 0 0
POINTS 948
DATA ascii
-0.11928362 -0.13393532 -0.035688423 2.2867023e-38
-0.11711964 -0.13315077 -0.032654785 2.185323e-38
-0.11489069 -0.13213144 -0.028713249 2.2036548e-38
-0.11299692 -0.13213144 -0.028713249 2.2774116e-38
-0.11110316 -0.13213144 -0.028713249 2.2590085e-38
-0.10897571 -0.13135691 -0.025718354 2.3050704e-38
-0.10708719 -0.13135691 -0.025718354 2.2036911e-38
-0.10490021 -0.13032107 -0.021713041 1.9639824e-38
-0.1030187 -0.13032107 -0.021713041 1.8533477e-38
-0.10113721 -0.13032107 -0.021713041 1.7059426e-38
-0.099255711 -0.13032107 -0.021713041 1.7243817e-38
-0.097374216 -0.13032107 -0.021713041 1.7336013e-38
-0.095492706 -0.13032107 -0.021713041 1.7243817e-38
-0.093414769 -0.12952723 -0.018643521 1.6967949e-38
-0.091355696 -0.12876706 -0.015704177 1.7060145e-38
-0.089484736 -0.12876706 -0.015704177 1.7521842e-38
-0.087613776 -0.12876706 -0.015704177 1.8443079e-38
-0.085742816 -0.12876706 -0.015704177 1.899625e-38
-0.083871849 -0.12876706 -0.015704177 1.9271396e-38
-0.081784666 -0.12772138 -0.011660837 1.963946e-38
-0.079920784 -0.12772138 -0.011660837 1.9916047e-38
-0.078056917 -0.12772138 -0.011660837 2.0100438e-38
-0.076193042 -0.12772138 -0.011660837 2.0284829e-38
-0.074189201 -0.12694232 -0.0086484179 2.0930199e-38
-0.072330609 -0.12694232 -0.0086484179 2.2035826e-38
-0.070343345 -0.12616767 -0.0056530461 2.2773388e-38
-0.068489999 -0.12616767 -0.0056530461 2.3049975e-38
-0.066519164 -0.1253974 -0.002674602 2.3142171e-38
-0.064671047 -0.1253974 -0.002674602 2.3418039e-38
-0.062822931 -0.1253974 -0.002674602 2.3418036e-38
-0.060836185 -0.12434883 0.0013799444 2.3418036e-38
-0.058995176 -0.12434883 0.0013799444 2.3418036e-38
-0.057063986 -0.12358873 0.0043190494 2.3509873e-38
-0.055228129 -0.12358873 0.0043190494 2.3509873e-38
-0.053472146 -0.12434883 0.0013799444 2.3509873e-38
-0.051631138 -0.12434883 0.0013799444 2.3509876e-38
-0.049790129 -0.12434883 0.0013799444 2.3509876e-38
-0.047884706 -0.12358873 0.0043190494 2.3509876e-38
-0.045987744 -0.12280498 0.007349588 2.3509876e-38
-0.0441572 -0.12280498 0.007349588 2.3509876e-38
-0.042326659 -0.12280498 0.007349588 2.3509876e-38
-0.040496118 -0.12280498 0.007349588 2.3509876e-38
-0.038625952 -0.12202574 0.010362722 2.3233648e-38
-0.036766551 -0.121251 0.013358451 2.3325843e-38
-0.034908626 -0.12023406 0.017290689 2.3509876e-38
-0.033095513 -0.12023406 0.017290689 2.3509876e-38
-0.031263616 -0.11944233 0.020352103 2.3418042e-38
-0.029455872 -0.11944233 0.020352103 2.3418042e-38
-0.027640399 -0.11868234 0.023290731 2.3509879e-38
-0.025837807 -0.11868234 0.023290731 2.350988e-38
-0.024035214 -0.11868234 0.023290731 2.3509883e-38
-0.022232622 -0.11868234 0.023290731 2.3509886e-38
-0.02043003 -0.11868234 0.023290731 2.3509886e-38
-0.018627437 -0.11868234 0.023290731 2.3509886e-38
-0.016824845 -0.11868234 0.023290731 2.3509886e-38
-0.015022254 -0.11868234 0.023290731 2.3509886e-38
-0.01321966 -0.11868234 0.023290731 2.3509886e-38
-0.011456858 -0.11789979 0.02631662 2.3509886e-38
-0.0096595716 -0.11789979 0.02631662 2.3509886e-38
-0.0078622866 -0.11789979 0.02631662 2.3509886e-38
-0.0060649994 -0.11789979 0.02631662 2.3509886e-38
-0.0042066998 -0.11868234 0.023290731 2.3509886e-38
-0.0024041082 -0.11868234 0.023290731 2.3509886e-38
-0.00060151657 -0.11868234 0.023290731 2.3509886e-38
0.0011241478 -0.11789979 0.02631662 2.3509886e-38
0.0029214346 -0.11789979 0.02631662 2.3509886e-38
0.0047187214 -0.11789979 0.02631662 2.3509886e-38
0.0065160082 -0.11789979 0.02631662 2.3509886e-38
0.0084114429 -0.11868234 0.023290731 2.3509886e-38
0.010314507 -0.11944233 0.020352103 2.3509886e-38
0.012122253 -0.11944233 0.020352103 2.3509886e-38
0.014045401 -0.12023406 0.017290689 2.3509886e-38
0.016131824 -0.12202574 0.010362722 2.3509886e-38
0.018206103 -0.12358873 0.0043190494 2.3509886e-38
0.020342382 -0.1253974 -0.002674602 2.3509886e-38
0.022190498 -0.1253974 -0.002674602 2.3509886e-38
0.024038618 -0.1253974 -0.002674602 2.3509886e-38
0.026030345 -0.12616767 -0.0056530461 2.3509886e-38
0.027532248 -0.12434883 0.0013799444 2.3509886e-38
0.029373256 -0.12434883 0.0013799444 2.3509886e-38
0.031057091 -0.12358873 0.0043190494 2.3509886e-38
0.032559156 -0.12202574 0.010362722 2.3509886e-38
0.034213711 -0.121251 0.013358451 2.3509886e-38
0.036033716 -0.121251 0.013358451 2.3509886e-38
0.037853722 -0.121251 0.013358451 2.3509886e-38
0.039673734 -0.121251 0.013358451 2.3509886e-38
0.041242089 -0.12023406 0.017290689 2.3509886e-38
0.043055203 -0.12023406 0.017290689 2.3509886e-38
0.044868309 -0.12023406 0.017290689 2.3509886e-38
0.046265882 -0.11868234 0.023290731 2.3509886e-38
0.047853608 -0.11789979 0.02631662 2.3509886e-38
0.049431998 -0.1171218 0.029324867 2.3509886e-38
0.051224012 -0.1171218 0.029324867 2.3509886e-38
0.052787933 -0.1163484 0.03231547 2.3509886e-38
0.054342736 -0.1155795 0.03528855 2.3509886e-38
0.055880371 -0.11478879 0.03834603 2.3509886e-38
0.057656568 -0.11478879 0.03834603 2.3509886e-38
0.059179649 -0.11400281 0.041385151 2.3509883e-38
0.060950518 -0.11400281 0.041385151 2.3417323e-38
0.062985152 -0.11478879 0.03834603 2.3417679e-38
0.064761356 -0.11478879 0.03834603 2.3509879e-38
0.066537544 -0.11478879 0.03834603 2.350988e-38
0.072089687 -0.1253974 -0.002674602 2.3325492e-38
0.07328178 -0.12358873 0.0043190494 2.2864513e-38
0.075117633 -0.12358873 0.0043190494 2.2773039e-38
0.076658592 -0.12280498 0.007349588 2.3050347e-38
0.07819064 -0.12202574 0.010362722 2.3234379e-38
0.080015898 -0.12202574 0.010362722 2.2774479e-38
0.081533879 -0.121251 0.013358451 2.2406772e-38
0.082943663 -0.12023406 0.017290689 2.2130185e-38
0.084432036 -0.11944233 0.020352103 2.1669923e-38
0.085922912 -0.11868234 0.023290731 2.2039063e-38
0.087725505 -0.11868234 0.023290731 2.1946867e-38
0.089528099 -0.11868234 0.023290731 2.0932716e-38
0.091330677 -0.11868234 0.023290731 1.9549781e-38
0.096115217 -0.1253974 -0.002674602 1.7797345e-38
0.097963333 -0.1253974 -0.002674602 1.623002e-38
0.099811465 -0.1253974 -0.002674602 1.6136745e-38
0.10165957 -0.1253974 -0.002674602 1.6228223e-38
0.1035077 -0.1253974 -0.002674602 1.6134948e-38
0.10535581 -0.1253974 -0.002674602 1.6042393e-38
0.10757731 -0.12616767 -0.0056530461 1.6226784e-38
0.10943066 -0.12616767 -0.0056530461 1.6134232e-38
0.11167 -0.12694232 -0.0086484179 1.6134232e-38
0.11392209 -0.12772138 -0.011660837 1.6503015e-38
0.11632121 -0.12876706 -0.015704177 1.3276168e-38
0.11819218 -0.12876706 -0.015704177 9.957128e-39
0.12087964 -0.13032107 -0.021713041 2.3978052e-39
0.12276115 -0.13032107 -0.021713041 1.9368271e-39
-0.12718275 -0.13660498 -0.038621329 1.0049675e-38
-0.12500162 -0.13584132 -0.035688423 1.0142587e-38
-0.12309563 -0.13584132 -0.035688423 1.5582852e-38
-0.12118962 -0.13584132 -0.035688423 2.2037621e-38
-0.11928362 -0.13584132 -0.035688423 2.2682635e-38
-0.11711964 -0.13505147 -0.032654785 2.1300779e-38
-0.11521897 -0.13505147 -0.032654785 2.2222737e-38
-0.11299692 -0.1340252 -0.028713249 2.2591164e-38
-0.11110316 -0.1340252 -0.028713249 2.2130185e-38
-0.10897571 -0.13324542 -0.025718354 2.2775196e-38
-0.10708719 -0.13324542 -0.025718354 2.2130185e-38
-0.10519867 -0.13324542 -0.025718354 1.9733818e-38
-0.10331015 -0.13324542 -0.025718354 1.8258688e-38
-0.10113721 -0.13220255 -0.021713041 1.6599166e-38
-0.099255711 -0.13220255 -0.021713041 1.6783558e-38
-0.097374216 -0.13220255 -0.021713041 1.6692081e-38
-0.095492706 -0.13220255 -0.021713041 1.6876472e-38
-0.093414769 -0.13140334 -0.018643521 1.7060863e-38
-0.091355696 -0.13063805 -0.015704177 1.733745e-38
-0.089484736 -0.13063805 -0.015704177 1.7522562e-38
-0.087786421 -0.13140334 -0.018643521 1.8259407e-38
-0.085910305 -0.13140334 -0.018643521 1.8904054e-38
-0.083871849 -0.13063805 -0.015704177 2.0008961e-38
-0.081784666 -0.12958528 -0.011660837 2.0285185e-38
-0.079920784 -0.12958528 -0.011660837 2.0377381e-38
-0.078056917 -0.12958528 -0.011660837 2.019299e-38
-0.076193042 -0.12958528 -0.011660837 2.0100794e-38
-0.074189201 -0.12880091 -0.0086484179 2.0469577e-38
-0.072330609 -0.12880091 -0.0086484179 2.1390454e-38
-0.070343345 -0.12802102 -0.0056530461 2.2035821e-38
-0.068489999 -0.12802102 -0.0056530461 2.2496799e-38
-0.066519164 -0.12724553 -0.002674602 2.2497155e-38
-0.064671047 -0.12724553 -0.002674602 2.2588631e-38
-0.062822931 -0.12724553 -0.002674602 2.2588631e-38
-0.060836185 -0.12618984 0.0013799444 2.2680826e-38
-0.058995176 -0.12618984 0.0013799444 2.2865217e-38
-0.057063986 -0.12542458 0.0043190494 2.3233999e-38
-0.055228129 -0.12542458 0.0043190494 2.3509869e-38
-0.053472146 -0.12618984 0.0013799444 2.3418032e-38
-0.051631138 -0.12618984 0.0013799444 2.3418032e-38
-0.049790129 -0.12618984 0.0013799444 2.3509869e-38
-0.047884706 -0.12542458 0.0043190494 2.3509869e-38
-0.045987744 -0.12463553 0.007349588 2.3509869e-38
-0.0441572 -0.12463553 0.007349588 2.3509869e-38
-0.042326659 -0.12463553 0.007349588 2.350987e-38
-0.040451214 -0.12385099 0.010362722 2.350987e-38
-0.038625952 -0.12385099 0.010362722 2.3509873e-38
-0.036766551 -0.123071 0.013358451 2.3509873e-38
-0.034946546 -0.123071 0.013358451 2.3509873e-38
-0.03312654 -0.123071 0.013358451 2.3509873e-38
-0.031282403 -0.12204717 0.017290689 2.3509876e-38
-0.029469291 -0.12204717 0.017290689 2.3418039e-38
-0.027648127 -0.12125005 0.020352103 2.3325843e-38
-0.025840383 -0.12125005 0.020352103 2.3418042e-38
-0.024032637 -0.12125005 0.020352103 2.3509883e-38
-0.022224894 -0.12125005 0.020352103 2.3509886e-38
-0.020417148 -0.12125005 0.020352103 2.3509886e-38
-0.018627437 -0.12048493 0.023290731 2.3509886e-38
-0.016824845 -0.12048493 0.023290731 2.3509886e-38
-0.015022254 -0.12048493 0.023290731 2.3509886e-38
-0.01321966 -0.12048493 0.023290731 2.3509886e-38
-0.011417069 -0.12048493 0.023290731 2.3509886e-38
-0.0096144769 -0.12048493 0.023290731 2.3509886e-38
-0.0078622866 -0.11969708 0.02631662 2.3509886e-38
-0.0060649994 -0.11969708 0.02631662 2.3509886e-38
-0.0042066998 -0.12048493 0.023290731 2.3509886e-38
-0.0024041082 -0.12048493 0.023290731 2.3509886e-38
-0.000673139 -0.11969708 0.02631662 2.3509886e-38
0.0011241478 -0.11969708 0.02631662 2.3509886e-38
0.0028396812 -0.11891381 0.029324867 2.3509886e-38
0.004631693 -0.11891381 0.029324867 2.3509886e-38
0.0064237067 -0.11891381 0.029324867 2.3509886e-38
0.0083132964 -0.11969708 0.02631662 2.3509886e-38
0.010110581 -0.11969708 0.02631662 2.3509886e-38
0.01190787 -0.11969708 0.02631662 2.3509886e-38
0.013705155 -0.11969708 0.02631662 2.3509886e-38
0.016131824 -0.12385099 0.010362722 2.3509886e-38
0.018206103 -0.12542458 0.0043190494 2.3509886e-38
0.020342382 -0.12724553 -0.002674602 2.3509886e-38
0.022190498 -0.12724553 -0.002674602 2.3509886e-38
0.024038618 -0.12724553 -0.002674602 2.3509886e-38
0.023184864 -0.11265542 0.053361453 2.3509886e-38
0.024934733 -0.11265542 0.053361453 2.3509886e-38
0.026843214 -0.11345388 0.050294854 2.3509886e-38
0.031057091 -0.12542458 0.0043190494 2.3509886e-38
0.032393705 -0.123071 0.013358451 2.3509886e-38
0.034213711 -0.123071 0.013358451 2.3509886e-38
0.035802752 -0.12204717 0.017290689 2.3509886e-38
0.037430678 -0.12125005 0.020352103 2.3509886e-38
0.039238419 -0.12125005 0.020352103 2.3509886e-38
0.040858101 -0.12048493 0.023290731 2.3509886e-38
0.042461742 -0.11969708 0.02631662 2.3509886e-38
0.04425903 -0.11969708 0.02631662 2.3509886e-38
0.046056319 -0.11969708 0.02631662 2.3509886e-38
0.047853608 -0.11969708 0.02631662 2.3509886e-38
0.049431998 -0.11891381 0.029324867 2.3509886e-38
0.051224012 -0.11891381 0.029324867 2.3509886e-38
0.052561175 -0.11736105 0.03528855 2.3509886e-38
0.054342736 -0.11736105 0.03528855 2.3509886e-38
0.055880371 -0.11656497 0.03834603 2.3509886e-38
0.057408791 -0.11577369 0.041385151 2.3509886e-38
0.059179649 -0.11577369 0.041385151 2.3509883e-38
0.060950518 -0.11577369 0.041385151 2.350988e-38
0.062721387 -0.11577369 0.041385151 2.3509879e-38
0.064761356 -0.11656497 0.03834603 2.350988e-38
0.066813618 -0.11736105 0.03528855 2.350988e-38
0.068595186 -0.11736105 0.03528855 2.3509883e-38
0.072714865 -0.12385099 0.010362722 2.3509883e-38
0.074540123 -0.12385099 0.010362722 2.341805e-38
0.076365381 -0.12385099 0.010362722 2.341805e-38
0.077893868 -0.123071 0.013358451 2.341805e-38
0.079713881 -0.123071 0.013358451 2.3234379e-38
0.081130549 -0.12204717 0.017290689 2.3234376e-38
0.082624286 -0.12125005 0.020352103 2.3142541e-38
0.084120318 -0.12048493 0.023290731 2.3050701e-38
0.085596621 -0.11969708 0.02631662 2.2958863e-38
0.08739391 -0.11969708 0.02631662 2.1760678e-38
0.089191198 -0.11969708 0.02631662 1.9917122e-38
0.091330677 -0.12048493 0.023290731 1.9363592e-38
0.095312044 -0.12542458 0.0043190494 1.7335288e-38
0.097490594 -0.12618984 0.0013799444 1.5675767e-38
0.099811465 -0.12724553 -0.002674602 1.5859439e-38
0.10165957 -0.12724553 -0.002674602 1.668848e-38
0.1035077 -0.12724553 -0.002674602 1.6779956e-38
0.10535581 -0.12724553 -0.002674602 1.631898e-38
0.10720393 -0.12724553 -0.002674602 1.6226065e-38
0.10943066 -0.12802102 -0.0056530461 1.54885e-38
0.11128399 -0.12802102 -0.0056530461 1.5765087e-38
0.11352859 -0.12880091 -0.0086484179 1.5857283e-38
0.11578597 -0.12958528 -0.011660837 1.3184328e-38
0.11819218 -0.13063805 -0.015704177 9.772734e-39
0.12087964 -0.13220255 -0.021713041 1.6602374e-39
0.12331241 -0.13324542 -0.025718354 1.6602374e-39
0.12520094 -0.13324542 -0.025718354 2.3066858e-39
-0.12909389 -0.13851611 -0.038621329 1.0326262e-38
-0.12718275 -0.13851611 -0.038621329 1.0326981e-38
-0.12500162 -0.13774733 -0.035688423 1.0419897e-38
-0.12309563 -0.13774733 -0.035688423 1.5583571e-38
-0.12118962 -0.13774733 -0.035688423 2.1669562e-38
-0.11928362 -0.13774733 -0.035688423 2.2314931e-38
-0.11737762 -0.13774733 -0.035688423 2.1116749e-38
-0.11521897 -0.13695215 -0.032654785 2.2130904e-38
-0.11331828 -0.13695215 -0.032654785 2.2130904e-38
-0.11110316 -0.13591899 -0.028713249 2.157773e-38
-0.10920939 -0.13591899 -0.028713249 2.2775197e-38
-0.10708719 -0.13513394 -0.025718354 2.2867034e-38
-0.10519867 -0.13513394 -0.025718354 2.2591524e-38
-0.10331015 -0.13513394 -0.025718354 2.2316014e-38
-0.10113721 -0.13408406 -0.021713041 2.1301862e-38
-0.099255711 -0.13408406 -0.021713041 2.0656493e-38
-0.097374216 -0.13408406 -0.021713041 1.945795e-38
-0.095492706 -0.13408406 -0.021713041 1.8535994e-38
-0.093414769 -0.13327946 -0.018643521 1.8628909e-38
-0.091538653 -0.13327946 -0.018643521 2.0011124e-38
-0.089662537 -0.13327946 -0.018643521 2.0841605e-38
-0.087786421 -0.13327946 -0.018643521 2.1394778e-38
-0.085910305 -0.13327946 -0.018643521 2.1762838e-38
-0.083871849 -0.13250901 -0.015704177 2.2682636e-38
-0.081784666 -0.13144915 -0.011660837 2.3050698e-38
-0.079920784 -0.13144915 -0.011660837 2.3234372e-38
-0.078056917 -0.13144915 -0.011660837 2.3234372e-38
-0.076193042 -0.13144915 -0.011660837 2.2958503e-38
-0.074189201 -0.13065951 -0.0086484179 2.2774467e-38
-0.072330609 -0.13065951 -0.0086484179 2.3049975e-38
-0.070472017 -0.13065951 -0.0086484179 2.3142168e-38
-0.068489999 -0.12987436 -0.0056530461 2.3049972e-38
-0.066636667 -0.12987436 -0.0056530461 2.2958133e-38
-0.064783327 -0.12987436 -0.0056530461 2.2680827e-38
-0.062822931 -0.12909363 -0.002674602 2.2312043e-38
-0.060836185 -0.12803085 0.0013799444 2.1943261e-38
-0.058995176 -0.12803085 0.0013799444 2.1759225e-38
-0.057063986 -0.12726043 0.0043190494 2.1851421e-38
-0.055228129 -0.12726043 0.0043190494 2.1943616e-38
-0.053472146 -0.12803085 0.0013799444 2.1206049e-38
-0.051631138 -0.12803085 0.0013799444 2.1298244e-38
-0.049790129 -0.12803085 0.0013799444 2.1482638e-38
-0.047884706 -0.12726043 0.0043190494 2.166703e-38
-0.045987744 -0.12646608 0.007349588 2.1943616e-38
-0.0441572 -0.12646608 0.007349588 2.2128008e-38
-0.042326659 -0.12646608 0.007349588 2.2312043e-38
-0.040451214 -0.12567626 0.010362722 2.2404239e-38
-0.038625952 -0.12567626 0.010362722 2.2496436e-38
-0.036800694 -0.12567626 0.010362722 2.2773023e-38
-0.034975436 -0.12567626 0.010362722 2.3049612e-38
-0.033150174 -0.12567626 0.010362722 2.3234004e-38
-0.031306531 -0.124891 0.013358451 2.3326199e-38
-0.029486528 -0.124891 0.013358451 2.3418039e-38
-0.027656179 -0.12386028 0.017290689 2.3509876e-38
-0.025843067 -0.12386028 0.017290689 2.3509879e-38
-0.024029953 -0.12386028 0.017290689 2.3509883e-38
-0.022216842 -0.12386028 0.017290689 2.3509886e-38
-0.02040373 -0.12386028 0.017290689 2.3509886e-38
-0.018590618 -0.12386028 0.017290689 2.3509886e-38
-0.016801659 -0.1230578 0.020352103 2.3509886e-38
-0.014993915 -0.1230578 0.020352103 2.3509886e-38
-0.01318617 -0.1230578 0.020352103 2.3509886e-38
-0.011417069 -0.12228753 0.023290731 2.3509886e-38
-0.0096144769 -0.12228753 0.023290731 2.3509886e-38
-0.0078622866 -0.12149437 0.02631662 2.3509886e-38
-0.0060649994 -0.12149437 0.02631662 2.3509886e-38
-0.0042066998 -0.12228753 0.023290731 2.3509886e-38
-0.0024041082 -0.12228753 0.023290731 2.3509886e-38
-0.000673139 -0.12149437 0.02631662 2.3509886e-38
0.0010476676 -0.12070583 0.029324867 2.3509886e-38
0.0027584066 -0.11992194 0.03231547 2.3509886e-38
0.004545175 -0.11992194 0.03231547 2.3509886e-38
0.0063319453 -0.11992194 0.03231547 2.3509886e-38
0.0081187133 -0.11992194 0.03231547 2.3509886e-38
0.0099054817 -0.11992194 0.03231547 2.3509886e-38
0.01169225 -0.11992194 0.03231547 2.3509886e-38
0.013591753 -0.12070583 0.029324867 2.3509886e-38
0.0151485 -0.11914261 0.03528855 2.3509886e-38
0.016434768 -0.11599173 0.047309138 2.3509886e-38
0.018195247 -0.11599173 0.047309138 2.3509886e-38
0.019822234 -0.11520912 0.050294854 2.3509886e-38
0.021577479 -0.11520912 0.050294854 2.3509886e-38
0.023184864 -0.11440529 0.053361453 2.3509886e-38
0.024934733 -0.11440529 0.053361453 2.3509886e-38
0.026843214 -0.11520912 0.050294854 2.3509886e-38
0.028598459 -0.11520912 0.050294854 2.3509886e-38
0.030353704 -0.11520912 0.050294854 2.3509886e-38
0.034213711 -0.124891 0.013358451 2.3509886e-38
0.035450328 -0.12228753 0.023290731 2.3509886e-38
0.037252922 -0.12228753 0.023290731 2.3509886e-38
0.038867172 -0.12149437 0.02631662 2.3509886e-38
0.040664461 -0.12149437 0.02631662 2.3509886e-38
0.042263951 -0.12070583 0.029324867 2.3509886e-38
0.044055965 -0.12070583 0.029324867 2.3509886e-38
0.045434956 -0.11914261 0.03528855 2.3509886e-38
0.046999399 -0.11834116 0.03834603 2.3509886e-38
0.048554454 -0.11754455 0.041385151 2.3509886e-38
0.049883883 -0.11599173 0.047309138 2.3509886e-38
0.051644366 -0.11599173 0.047309138 2.3509886e-38
0.053639185 -0.11677901 0.04430566 2.3509886e-38
0.055404935 -0.11677901 0.04430566 2.3509886e-38
0.057170678 -0.11677901 0.04430566 2.3509886e-38
0.058936432 -0.11677901 0.04430566 2.3509883e-38
0.060950518 -0.11754455 0.041385151 2.350988e-38
0.062721387 -0.11754455 0.041385151 2.3418042e-38
0.064761356 -0.11834116 0.03834603 2.3233652e-38
0.066537544 -0.11834116 0.03834603 2.3325847e-38
0.068595186 -0.11914261 0.03528855 2.3509883e-38
0.070376739 -0.11914261 0.03528855 2.3509883e-38
0.073304757 -0.12228753 0.023290731 2.3234018e-38
0.07607387 -0.124891 0.013358451 2.3049626e-38
0.077893868 -0.124891 0.013358451 2.3049626e-38
0.079317451 -0.12386028 0.017290689 2.2773039e-38
0.080515131 -0.12228753 0.023290731 2.3141819e-38
0.082002059 -0.12149437 0.02631662 2.3418045e-38
0.083799347 -0.12149437 0.02631662 2.3326206e-38
0.085596621 -0.12149437 0.02631662 2.2496804e-38
0.08739391 -0.12149437 0.02631662 2.0376302e-38
0.089191198 -0.12149437 0.02631662 1.7611512e-38
0.090988487 -0.12149437 0.02631662 1.7703352e-38
0.093133271 -0.12228753 0.023290731 1.6781395e-38
0.097490594 -0.12803085 0.0013799444 1.5951635e-38
0.099331602 -0.12803085 0.0013799444 1.5766523e-38
0.10117261 -0.12803085 0.0013799444 1.5858e-38
0.1035077 -0.12909363 -0.002674602 1.5765086e-38
0.10535581 -0.12909363 -0.002674602 1.5580696e-38
0.10720393 -0.12909363 -0.002674602 1.5764008e-38
0.10905205 -0.12909363 -0.002674602 1.5671812e-38
0.11128399 -0.12987436 -0.0056530461 1.5948399e-38
0.11313733 -0.12987436 -0.0056530461 1.5764008e-38
0.11499068 -0.12987436 -0.0056530461 1.3552392e-38
0.11724578 -0.13065951 -0.0086484179 1.0233349e-38
0.12087964 -0.13408406 -0.021713041 1.6598745e-39
0.12331241 -0.13513394 -0.025718354 1.8439098e-39
0.12520094 -0.13513394 -0.025718354 2.4899981e-39
-0.12909389 -0.14042725 -0.038621329 1.1063829e-38
-0.12718275 -0.14042725 -0.038621329 1.1064189e-38
-0.1252716 -0.14042725 -0.038621329 1.1065268e-38
-0.12309563 -0.13965334 -0.035688423 1.5860159e-38
-0.12118962 -0.13965334 -0.035688423 2.1669563e-38
-0.11928362 -0.13965334 -0.035688423 2.2499684e-38
-0.11737762 -0.13965334 -0.035688423 2.1762119e-38
-0.11547162 -0.13965334 -0.035688423 2.2499687e-38
-0.11331828 -0.13885282 -0.032654785 2.2407491e-38
-0.11141759 -0.13885282 -0.032654785 2.1485535e-38
-0.10920939 -0.13781275 -0.028713249 2.22231e-38
-0.10731561 -0.13781275 -0.028713249 2.2591524e-38
-0.10519867 -0.13702248 -0.025718354 2.2130904e-38
-0.10331015 -0.13702248 -0.025718354 2.2591524e-38
-0.10142162 -0.13702248 -0.025718354 2.2130904e-38
-0.099255711 -0.13596557 -0.021713041 2.1762122e-38
-0.097374216 -0.13596557 -0.021713041 2.0471383e-38
-0.095492706 -0.13596557 -0.021713041 1.9457231e-38
-0.093414769 -0.13515557 -0.018643521 1.9826732e-38
-0.091538653 -0.13515557 -0.018643521 2.1116752e-38
-0.089662537 -0.13515557 -0.018643521 2.1947232e-38
-0.087786421 -0.13515557 -0.018643521 2.2316014e-38
-0.085742816 -0.13437997 -0.015704177 2.2591524e-38
-0.083871849 -0.13437997 -0.015704177 2.2958867e-38
-0.081784666 -0.13331302 -0.011660837 2.3234376e-38
-0.079920784 -0.13331302 -0.011660837 2.3234374e-38
-0.078056917 -0.13331302 -0.011660837 2.3234374e-38
-0.076047793 -0.1325181 -0.0086484179 2.3234374e-38
-0.074189201 -0.1325181 -0.0086484179 2.3234372e-38
-0.072330609 -0.1325181 -0.0086484179 2.3418043e-38
-0.070472017 -0.1325181 -0.0086484179 2.3326203e-38
-0.068489999 -0.13172771 -0.0056530461 2.3418038e-38
-0.066636667 -0.13172771 -0.0056530461 2.3418035e-38
-0.064783327 -0.13172771 -0.0056530461 2.350987e-38
-0.062822931 -0.13094176 -0.002674602 2.3049608e-38
-0.060836185 -0.12987186 0.0013799444 2.2404239e-38
-0.058995176 -0.12987186 0.0013799444 2.1943261e-38
-0.057154167 -0.12987186 0.0013799444 2.1666674e-38
-0.055313155 -0.12987186 0.0013799444 2.1574834e-38
-0.053472146 -0.12987186 0.0013799444 2.0837266e-38
-0.051631138 -0.12987186 0.0013799444 2.0929462e-38
-0.049790129 -0.12987186 0.0013799444 2.102166e-38
-0.047884706 -0.12909628 0.0043190494 2.1298247e-38
-0.045987744 -0.1282966 0.007349588 2.1482282e-38
-0.0441572 -0.1282966 0.007349588 2.1666674e-38
-0.042326659 -0.1282966 0.007349588 2.1851066e-38
-0.040496118 -0.1282966 0.007349588 2.1943262e-38
-0.038625952 -0.1275015 0.010362722 2.1943265e-38
-0.036800694 -0.1275015 0.010362722 2.2312047e-38
-0.034975436 -0.1275015 0.010362722 2.2772669e-38
-0.033150174 -0.1275015 0.010362722 2.3049256e-38
-0.031306531 -0.126711 0.013358451 2.3325843e-38
-0.029486528 -0.126711 0.013358451 2.3418042e-38
-0.02766652 -0.126711 0.013358451 2.3509879e-38
-0.025843067 -0.1256734 0.017290689 2.350988e-38
-0.024029953 -0.1256734 0.017290689 2.3509883e-38
-0.022224894 -0.12486555 0.020352103 2.3509886e-38
-0.020417148 -0.12486555 0.020352103 2.3509886e-38
-0.018590618 -0.1256734 0.017290689 2.3509886e-38
-0.016801659 -0.12486555 0.020352103 2.3509886e-38
-0.014993915 -0.12486555 0.020352103 2.3509886e-38
-0.01318617 -0.12486555 0.020352103 2.3509886e-38
-0.011378426 -0.12486555 0.020352103 2.3509886e-38
-0.0095706806 -0.12486555 0.020352103 2.3509886e-38
-0.0078118849 -0.12409012 0.023290731 2.3509886e-38
-0.0060092914 -0.12409012 0.023290731 2.3509886e-38
-0.0042066998 -0.12409012 0.023290731 2.3509886e-38
-0.0024041082 -0.12409012 0.023290731 2.3509886e-38
-0.000673139 -0.12329166 0.02631662 2.3509886e-38
0.0010476676 -0.12249784 0.029324867 2.3509886e-38
0.0027584066 -0.12170871 0.03231547 2.3509886e-38
0.004545175 -0.12170871 0.03231547 2.3509886e-38
0.0063319453 -0.12170871 0.03231547 2.3509886e-38
0.0080222767 -0.12092416 0.03528855 2.3509886e-38
0.0098038297 -0.12092416 0.03528855 2.3509886e-38
0.01147549 -0.12011738 0.03834603 2.3509886e-38
0.013137123 -0.11931543 0.041385151 2.3509886e-38
0.014907988 -0.11931543 0.041385151 2.3509886e-38
0.016434768 -0.11775221 0.047309138 2.3509886e-38
0.018195247 -0.11775221 0.047309138 2.3509886e-38
0.019822234 -0.11696436 0.050294854 2.3509886e-38
0.021577479 -0.11696436 0.050294854 2.3509886e-38
0.023332724 -0.11696436 0.050294854 2.3509886e-38
0.025087969 -0.11696436 0.050294854 2.3509886e-38
0.026843214 -0.11696436 0.050294854 2.3509886e-38
0.028598459 -0.11696436 0.050294854 2.3509886e-38
0.030353704 -0.11696436 0.050294854 2.3509886e-38
0.032279089 -0.11775221 0.047309138 2.3509886e-38
0.034215983 -0.11854477 0.04430566 2.3509886e-38
0.037252922 -0.12409012 0.023290731 2.3509886e-38
0.038493786 -0.12170871 0.03231547 2.3509886e-38
0.040280554 -0.12170871 0.03231547 2.3509886e-38
0.041871842 -0.12092416 0.03528855 2.3509886e-38
0.043653395 -0.12092416 0.03528855 2.3509886e-38
0.045223203 -0.12011738 0.03834603 2.3509886e-38
0.046576206 -0.11854477 0.04430566 2.3509886e-38
0.048123408 -0.11775221 0.047309138 2.3509886e-38
0.049661402 -0.11696436 0.050294854 2.3509886e-38
0.051416647 -0.11696436 0.050294854 2.3509886e-38
0.053404849 -0.11775221 0.047309138 2.3509886e-38
0.055165324 -0.11775221 0.047309138 2.3509886e-38
0.056925807 -0.11775221 0.047309138 2.3509886e-38
0.058686286 -0.11775221 0.047309138 2.3509883e-38
0.060446769 -0.11775221 0.047309138 2.350988e-38
0.062207252 -0.11775221 0.047309138 2.3509879e-38
0.064492255 -0.11931543 0.041385151 2.350988e-38
0.066263124 -0.11931543 0.041385151 2.350988e-38
0.068033993 -0.11931543 0.041385151 2.3509883e-38
0.070089936 -0.12011738 0.03834603 2.3509883e-38
0.071866125 -0.12011738 0.03834603 2.3509886e-38
0.073939845 -0.12092416 0.03528855 2.3325494e-38
0.076015919 -0.12170871 0.03231547 2.3509886e-38
0.078104198 -0.12249784 0.029324867 2.341769e-38
0.079589471 -0.12170871 0.03231547 2.3509883e-38
0.08137624 -0.12170871 0.03231547 2.350988e-38
0.083163008 -0.12170871 0.03231547 2.323365e-38
0.084949777 -0.12170871 0.03231547 2.2219499e-38
0.087064266 -0.12249784 0.029324867 2.0375583e-38
0.088856265 -0.12249784 0.029324867 1.8162888e-38
0.090648279 -0.12249784 0.029324867 1.7149458e-38
0.092440292 -0.12249784 0.029324867 1.7149458e-38
0.097147897 -0.12909628 0.0043190494 1.6780675e-38
0.099331602 -0.12987186 0.0013799444 1.6226783e-38
0.10117261 -0.12987186 0.0013799444 1.5949477e-38
0.1035077 -0.13094176 -0.002674602 1.6225343e-38
0.10535581 -0.13094176 -0.002674602 1.6317539e-38
0.10720393 -0.13094176 -0.002674602 1.6224625e-38
0.10905205 -0.13094176 -0.002674602 1.5948038e-38
0.11128399 -0.13172771 -0.0056530461 1.6040952e-38
0.11313733 -0.13172771 -0.0056530461 1.5579974e-38
0.11499068 -0.13172771 -0.0056530461 1.3828977e-38
0.11684401 -0.13172771 -0.0056530461 1.0694326e-38
0.11869736 -0.13172771 -0.0056530461 1.7520687e-39
0.12096296 -0.1325181 -0.0086484179 2.1208526e-39
-0.12909389 -0.14233841 -0.038621329 1.1432971e-38
-0.12718275 -0.14233841 -0.038621329 1.1249659e-38
-0.1252716 -0.14233841 -0.038621329 1.1342574e-38
-0.12336046 -0.14233841 -0.038621329 1.5861238e-38
-0.12144931 -0.14233841 -0.038621329 2.1669923e-38
-0.11953817 -0.14233841 -0.038621329 2.2775196e-38
-0.11737762 -0.14155935 -0.035688423 2.2683359e-38
-0.11547162 -0.14155935 -0.035688423 2.2315295e-38
-0.11356561 -0.14155935 -0.035688423 2.2591164e-38
-0.11141759 -0.14075352 -0.032654785 2.203799e-38
-0.10951692 -0.14075352 -0.032654785 2.2867033e-38
-0.10731561 -0.13970654 -0.028713249 2.295887e-38
-0.10519867 -0.13891099 -0.025718354 2.2683359e-38
-0.10331015 -0.13891099 -0.025718354 2.295887e-38
-0.10142162 -0.13891099 -0.025718354 2.295887e-38
-0.099255711 -0.13784705 -0.021713041 2.2867033e-38
-0.097374216 -0.13784705 -0.021713041 2.2591164e-38
-0.095492706 -0.13784705 -0.021713041 2.2683359e-38
-0.093414769 -0.13703169 -0.018643521 2.295887e-38
-0.091538653 -0.13703169 -0.018643521 2.295887e-38
-0.089662537 -0.13703169 -0.018643521 2.295887e-38
-0.087786421 -0.13703169 -0.018643521 2.2867034e-38
-0.085742816 -0.13625093 -0.015704177 2.295887e-38
-0.083871849 -0.13625093 -0.015704177 2.3142544e-38
-0.081784666 -0.13517688 -0.011660837 2.3234379e-38
-0.079920784 -0.13517688 -0.011660837 2.2958151e-38
-0.078056917 -0.13517688 -0.011660837 2.2958151e-38
-0.076047793 -0.13437669 -0.0086484179 2.3050703e-38
-0.074189201 -0.13437669 -0.0086484179 2.3234376e-38
-0.072330609 -0.13437669 -0.0086484179 2.3418045e-38
-0.070472017 -0.13437669 -0.0086484179 2.3418045e-38
-0.068489999 -0.13358103 -0.0056530461 2.3142174e-38
-0.066519164 -0.13278987 -0.002674602 2.341804e-38
-0.064671047 -0.13278987 -0.002674602 2.3509873e-38
-0.062822931 -0.13278987 -0.002674602 2.3509873e-38
-0.060836185 -0.13171287 0.0013799444 2.350987e-38
-0.058995176 -0.13171287 0.0013799444 2.3418033e-38
-0.057154167 -0.13171287 0.0013799444 2.3234001e-38
-0.055313155 -0.13171287 0.0013799444 2.3141804e-38
-0.053472146 -0.13171287 0.0013799444 2.3326195e-38
-0.051631138 -0.13171287 0.0013799444 2.3326192e-38
-0.049790129 -0.13171287 0.0013799444 2.3326195e-38
-0.047884706 -0.13093217 0.0043190494 2.3418032e-38
-0.04604885 -0.13093217 0.0043190494 2.3418033e-38
-0.0441572 -0.13012715 0.007349588 2.350987e-38
-0.042326659 -0.13012715 0.007349588 2.3509873e-38
-0.040496118 -0.13012715 0.007349588 2.3509873e-38
-0.038625952 -0.12932678 0.010362722 2.3325843e-38
-0.036800694 -0.12932678 0.010362722 2.3509876e-38
-0.034975436 -0.12932678 0.010362722 2.3509879e-38
-0.033150174 -0.12932678 0.010362722 2.3509879e-38
-0.031306531 -0.12853102 0.013358451 2.350988e-38
-0.029486528 -0.12853102 0.013358451 2.3418043e-38
-0.027656179 -0.12748651 0.017290689 2.3325492e-38
-0.025843067 -0.12748651 0.017290689 2.3325492e-38
-0.024032637 -0.1266733 0.020352103 2.3509886e-38
-0.022224894 -0.1266733 0.020352103 2.3509886e-38
-0.020417148 -0.1266733 0.020352103 2.3509886e-38
-0.018627437 -0.12589271 0.023290731 2.3509886e-38
-0.016824845 -0.12589271 0.023290731 2.3509886e-38
-0.014993915 -0.1266733 0.020352103 2.3509886e-38
-0.01321966 -0.12589271 0.023290731 2.3509886e-38
-0.011417069 -0.12589271 0.023290731 2.3509886e-38
-0.0096144769 -0.12589271 0.023290731 2.3509886e-38
-0.0078622866 -0.12508895 0.02631662 2.3509886e-38
-0.0060649994 -0.12508895 0.02631662 2.3509886e-38
-0.0042066998 -0.12589271 0.023290731 2.3509886e-38
-0.0024704258 -0.12508895 0.02631662 2.3509886e-38
-0.000673139 -0.12508895 0.02631662 2.3509886e-38
0.0010476676 -0.12428986 0.029324867 2.3509886e-38
0.0027584066 -0.12349547 0.03231547 2.3509886e-38
0.004545175 -0.12349547 0.03231547 2.3509886e-38
0.0063319453 -0.12349547 0.03231547 2.3509886e-38
0.0080222767 -0.12270571 0.03528855 2.3509886e-38
0.0098038297 -0.12270571 0.03528855 2.3509886e-38
0.01147549 -0.12189357 0.03834603 2.3509886e-38
0.013137123 -0.12108628 0.041385151 2.3509886e-38
0.014907988 -0.12108628 0.041385151 2.3509886e-38
0.016558519 -0.1203105 0.04430566 2.3509886e-38
0.018324265 -0.1203105 0.04430566 2.3509886e-38
0.019955726 -0.11951269 0.047309138 2.3509886e-38
0.021716205 -0.11951269 0.047309138 2.3509886e-38
0.023476684 -0.11951269 0.047309138 2.3509886e-38
0.025237167 -0.11951269 0.047309138 2.3509886e-38
0.026843214 -0.11871959 0.050294854 2.3509886e-38
0.028598459 -0.11871959 0.050294854 2.3509886e-38
0.030518604 -0.11951269 0.047309138 2.3509886e-38
0.032279089 -0.11951269 0.047309138 2.3509886e-38
0.034039568 -0.11951269 0.047309138 2.3509886e-38
0.035800047 -0.11951269 0.047309138 2.3509886e-38
0.037560526 -0.11951269 0.047309138 2.3509886e-38
0.039321009 -0.11951269 0.047309138 2.3509886e-38
0.041278962 -0.1203105 0.04430566 2.3509886e-38
0.042841967 -0.11951269 0.047309138 2.3509886e-38
0.04460245 -0.11951269 0.047309138 2.3509886e-38
0.046150912 -0.11871959 0.050294854 2.3509886e-38
0.047906157 -0.11871959 0.050294854 2.3509886e-38
0.049432885 -0.11790501 0.053361453 2.3509886e-38
0.051182758 -0.11790501 0.053361453 2.3509886e-38
0.052932624 -0.11790501 0.053361453 2.3509886e-38
0.054682489 -0.11790501 0.053361453 2.3509886e-38
0.056432363 -0.11790501 0.053361453 2.3509886e-38
0.058437631 -0.11871959 0.050294854 2.3509883e-38
0.060192868 -0.11871959 0.050294854 2.3325847e-38
0.061948121 -0.11871959 0.050294854 2.3509879e-38
0.06396772 -0.11951269 0.047309138 2.350988e-38
0.065728202 -0.11951269 0.047309138 2.3418043e-38
0.067488685 -0.11951269 0.047309138 2.3325492e-38
0.069804847 -0.12108628 0.041385151 2.3417687e-38
0.071296647 -0.1203105 0.04430566 2.3509886e-38
0.07306239 -0.1203105 0.04430566 2.3509886e-38
0.074828133 -0.1203105 0.04430566 2.3509527e-38
0.076888323 -0.12108628 0.041385151 2.3509523e-38
0.078970909 -0.12189357 0.03834603 2.3509883e-38
0.080747098 -0.12189357 0.03834603 2.3232933e-38
0.082523301 -0.12189357 0.03834603 2.1942193e-38
0.084629178 -0.12270571 0.03528855 2.1112788e-38
0.086410746 -0.12270571 0.03528855 2.0190832e-38
0.088523313 -0.12349547 0.03231547 1.8715702e-38
0.090310082 -0.12349547 0.03231547 1.733313e-38
0.09209685 -0.12349547 0.03231547 1.7240935e-38
0.097147897 -0.13093217 0.0043190494 1.6595565e-38
0.099331602 -0.13171287 0.0013799444 1.5949477e-38
0.10117261 -0.13171287 0.0013799444 1.6133148e-38
0.1035077 -0.13278987 -0.002674602 1.6594126e-38
0.10535581 -0.13278987 -0.002674602 1.6409016e-38
0.10720393 -0.13278987 -0.002674602 1.5671451e-38
0.10905205 -0.13278987 -0.002674602 1.548706e-38
0.11128399 -0.13358103 -0.0056530461 1.5671451e-38
0.11313733 -0.13358103 -0.0056530461 1.4934605e-38
0.11499068 -0.13358103 -0.0056530461 1.3643866e-38
0.11684401 -0.13358103 -0.0056530461 1.060213e-38
0.11910437 -0.13437669 -0.0086484179 1.5669586e-39
0.12096296 -0.13437669 -0.0086484179 1.8442643e-39
0.12282155 -0.13437669 -0.0086484179 2.3052439e-39
-0.12718275 -0.14424954 -0.038621329 9.6823334e-39
-0.1252716 -0.14424954 -0.038621329 1.1711356e-38
-0.12336046 -0.14424954 -0.038621329 1.5769043e-38
-0.12144931 -0.14424954 -0.038621329 2.2038706e-38
-0.11953817 -0.14424954 -0.038621329 2.2039425e-38
-0.11737762 -0.14346536 -0.035688423 2.2775196e-38
-0.11547162 -0.14346536 -0.035688423 2.2314577e-38
-0.11356561 -0.14346536 -0.035688423 2.2866671e-38
-0.11141759 -0.1426542 -0.032654785 2.3142541e-38
-0.10920939 -0.1416003 -0.028713249 2.3142541e-38
-0.10731561 -0.1416003 -0.028713249 2.2958867e-38
-0.10519867 -0.14079951 -0.025718354 2.2774476e-38
-0.10331015 -0.14079951 -0.025718354 2.2866671e-38
-0.10142162 -0.14079951 -0.025718354 2.3050704e-38
-0.099255711 -0.13972856 -0.021713041 2.3050704e-38
-0.097374216 -0.13972856 -0.021713041 2.3142541e-38
-0.095492706 -0.13972856 -0.021713041 2.3142541e-38
-0.093414769 -0.13890781 -0.018643521 2.2958867e-38
-0.091538653 -0.13890781 -0.018643521 2.2958867e-38
-0.089662537 -0.13890781 -0.018643521 2.3142541e-38
-0.087786421 -0.13890781 -0.018643521 2.3234376e-38
-0.085742816 -0.13812189 -0.015704177 2.2958151e-38
-0.083871849 -0.13812189 -0.015704177 2.3234379e-38
-0.082000881 -0.13812189 -0.015704177 2.3234379e-38
-0.079920784 -0.13704078 -0.011660837 2.3234379e-38
-0.078056917 -0.13704078 -0.011660837 2.3234379e-38
-0.076047793 -0.13623528 -0.0086484179 2.3234379e-38
-0.074189201 -0.13623528 -0.0086484179 2.3234379e-38
-0.072330609 -0.13623528 -0.0086484179 2.3326213e-38
-0.070472017 -0.13623528 -0.0086484179 2.3326213e-38
-0.068489999 -0.13543437 -0.0056530461 2.3418047e-38
-0.066519164 -0.134638 -0.002674602 2.3418045e-38
-0.064671047 -0.134638 -0.002674602 2.3509879e-38
-0.062822931 -0.134638 -0.002674602 2.3509879e-38
-0.060836185 -0.13355388 0.0013799444 2.3509876e-38
-0.058995176 -0.13355388 0.0013799444 2.3509876e-38
-0.057154167 -0.13355388 0.0013799444 2.3509876e-38
-0.055313155 -0.13355388 0.0013799444 2.3509873e-38
-0.053472146 -0.13355388 0.0013799444 2.3509873e-38
-0.051631138 -0.13355388 0.0013799444 2.350987e-38
-0.049790129 -0.13355388 0.0013799444 2.3509873e-38
-0.04794912 -0.13355388 0.0013799444 2.3509873e-38
-0.04604885 -0.13276802 0.0043190494 2.3509876e-38
-0.044212997 -0.13276802 0.0043190494 2.3509876e-38
-0.042326659 -0.13195769 0.007349588 2.3509879e-38
-0.040496118 -0.13195769 0.007349588 2.3509879e-38
-0.038625952 -0.13115202 0.010362722 2.350988e-38
-0.036800694 -0.13115202 0.010362722 2.350988e-38
-0.034975436 -0.13115202 0.010362722 2.3509883e-38
-0.033150174 -0.13115202 0.010362722 2.3509886e-38
-0.031306531 -0.13035102 0.013358451 2.3509886e-38
-0.029486528 -0.13035102 0.013358451 2.3509886e-38
-0.027656179 -0.1292996 0.017290689 2.3509886e-38
-0.025843067 -0.1292996 0.017290689 2.3509886e-38
-0.024032637 -0.12848105 0.020352103 2.3509886e-38
-0.022224894 -0.12848105 0.020352103 2.3509886e-38
-0.020417148 -0.12848105 0.020352103 2.3509886e-38
-0.018627437 -0.12769531 0.023290731 2.3509886e-38
-0.016824845 -0.12769531 0.023290731 2.3509886e-38
-0.015022254 -0.12769531 0.023290731 2.3509886e-38
-0.01321966 -0.12769531 0.023290731 2.3509886e-38
-0.011417069 -0.12769531 0.023290731 2.3509886e-38
-0.0096595716 -0.12688623 0.02631662 2.3509886e-38
-0.0078622866 -0.12688623 0.02631662 2.3509886e-38
-0.0060649994 -0.12688623 0.02631662 2.3509886e-38
-0.0042677126 -0.12688623 0.02631662 2.3509886e-38
-0.002536356 -0.12608187 0.029324867 2.3509886e-38
-0.0007443442 -0.12608187 0.029324867 2.3509886e-38
0.0010476676 -0.12608187 0.029324867 2.3509886e-38
0.0027584066 -0.12528224 0.03231547 2.3509886e-38
0.004545175 -0.12528224 0.03231547 2.3509886e-38
0.0063319453 -0.12528224 0.03231547 2.3509886e-38
0.0080222767 -0.1244873 0.03528855 2.3509886e-38
0.0098038297 -0.1244873 0.03528855 2.3509886e-38
0.011585386 -0.1244873 0.03528855 2.3509886e-38
0.013251686 -0.12366976 0.03834603 2.3509886e-38
0.015027883 -0.12366976 0.03834603 2.3509886e-38
0.016678853 -0.12285714 0.041385151 2.3509886e-38
0.018324265 -0.12207626 0.04430566 2.3509886e-38
0.020090012 -0.12207626 0.04430566 2.3509886e-38
0.021855759 -0.12207626 0.04430566 2.3509886e-38
0.023476684 -0.12127317 0.047309138 2.3509886e-38
0.025237167 -0.12127317 0.047309138 2.3509886e-38
0.026997646 -0.12127317 0.047309138 2.3509886e-38
0.028758125 -0.12127317 0.047309138 2.3509886e-38
0.030518604 -0.12127317 0.047309138 2.3509886e-38
0.032279089 -0.12127317 0.047309138 2.3509886e-38
0.034039568 -0.12127317 0.047309138 2.3509886e-38
0.035800047 -0.12127317 0.047309138 2.3509886e-38
0.037560526 -0.12127317 0.047309138 2.3509886e-38
0.039321009 -0.12127317 0.047309138 2.3509886e-38
0.041081484 -0.12127317 0.047309138 2.3509886e-38
0.042640422 -0.12047486 0.050294854 2.3509886e-38
0.044395667 -0.12047486 0.050294854 2.3509886e-38
0.046150912 -0.12047486 0.050294854 2.3509886e-38
0.047683019 -0.11965488 0.053361453 2.3509886e-38
0.049432885 -0.11965488 0.053361453 2.3509886e-38
0.050957773 -0.11886616 0.056311227 2.3509886e-38
0.052702475 -0.11886616 0.056311227 2.3509886e-38
0.05444717 -0.11886616 0.056311227 2.3509886e-38
0.056191865 -0.11886616 0.056311227 2.3509886e-38
0.057684224 -0.11805601 0.05934111 2.3509883e-38
0.059423611 -0.11805601 0.05934111 2.350988e-38
0.061162993 -0.11805601 0.05934111 2.3325847e-38
0.062902376 -0.11805601 0.05934111 2.3417687e-38
0.064915344 -0.11886616 0.056311227 2.3509883e-38
0.066660047 -0.11886616 0.056311227 2.341769e-38
0.068404734 -0.11886616 0.056311227 2.3509886e-38
0.070724338 -0.12047486 0.050294854 2.3509527e-38
0.072479591 -0.12047486 0.050294854 2.3416971e-38
0.074234828 -0.12047486 0.050294854 2.3509527e-38
0.076291084 -0.12127317 0.047309138 2.3417327e-38
0.078659192 -0.12285714 0.041385151 2.3416248e-38
0.080430061 -0.12285714 0.041385151 2.2770876e-38
0.082523301 -0.12366976 0.03834603 2.2218059e-38
0.08429949 -0.12366976 0.03834603 1.9913166e-38
0.086410746 -0.1244873 0.03528855 1.982097e-38
0.088192299 -0.1244873 0.03528855 1.742496e-38
0.090310082 -0.12528224 0.03231547 1.6963985e-38
0.09209685 -0.12528224 0.03231547 1.6687398e-38
0.094935864 -0.12769531 0.023290731 1.622642e-38
0.099331602 -0.13355388 0.0013799444 1.5948754e-38
0.10117261 -0.13355388 0.0013799444 1.5579971e-38
0.1035077 -0.134638 -0.002674602 1.5394861e-38
0.10535581 -0.134638 -0.002674602 1.5578532e-38
0.10720393 -0.134638 -0.002674602 1.5578532e-38
0.10905205 -0.134638 -0.002674602 1.5671448e-38
0.11128399 -0.13543437 -0.0056530461 1.4933883e-38
0.11313733 -0.13543437 -0.0056530461 1.4934602e-38
0.11499068 -0.13543437 -0.0056530461 1.3090689e-38
0.11684401 -0.13543437 -0.0056530461 1.0510291e-38
0.11910437 -0.13623528 -0.0086484179 2.6736621e-39
0.12096296 -0.13623528 -0.0086484179 1.7520659e-39
-0.12947749 -0.1472411 -0.042635702 1.0603211e-38
-0.12718275 -0.14616071 -0.038621329 1.0419898e-38
-0.1252716 -0.14616071 -0.038621329 1.0790479e-38
-0.12336046 -0.14616071 -0.038621329 1.4663055e-38
-0.12144931 -0.14616071 -0.038621329 2.1855033e-38
-0.11953817 -0.14616071 -0.038621329 2.1856112e-38
-0.11737762 -0.14537133 -0.035688423 2.1855033e-38
-0.11547162 -0.14537133 -0.035688423 2.2590085e-38
-0.11356561 -0.14537133 -0.035688423 2.2866311e-38
-0.11141759 -0.14455487 -0.032654785 2.2958507e-38
-0.10920939 -0.14349405 -0.028713249 2.3050703e-38
-0.10731561 -0.14349405 -0.028713249 2.2958507e-38
-0.10519867 -0.14268802 -0.025718354 2.2958507e-38
-0.10331015 -0.14268802 -0.025718354 2.2958507e-38
-0.10142162 -0.14268802 -0.025718354 2.3050703e-38
-0.099255711 -0.14161004 -0.021713041 2.3142539e-38
-0.097374216 -0.14161004 -0.021713041 2.3234376e-38
-0.095492706 -0.14161004 -0.021713041 2.3234376e-38
-0.093611211 -0.14161004 -0.021713041 2.3142539e-38
-0.091538653 -0.14078392 -0.018643521 2.332621e-38
-0.089662537 -0.14078392 -0.018643521 2.3418047e-38
-0.087786421 -0.14078392 -0.018643521 2.3418047e-38
-0.085910305 -0.14078392 -0.018643521 2.3234018e-38
-0.083871849 -0.13999285 -0.015704177 2.3142185e-38
-0.082000881 -0.13999285 -0.015704177 2.3234379e-38
-0.079920784 -0.13890465 -0.011660837 2.3234379e-38
-0.078056917 -0.13890465 -0.011660837 2.3234379e-38
-0.076047793 -0.13809387 -0.0086484179 2.3234379e-38
-0.074189201 -0.13809387 -0.0086484179 2.3234379e-38
-0.072330609 -0.13809387 -0.0086484179 2.3325856e-38
-0.070472017 -0.13809387 -0.0086484179 2.3325856e-38
-0.068489999 -0.13728772 -0.0056530461 2.341805e-38
-0.066519164 -0.13648613 -0.002674602 2.341805e-38
-0.064671047 -0.13648613 -0.002674602 2.3509883e-38
-0.062677197 -0.13539489 0.0013799444 2.350988e-38
-0.060836185 -0.13539489 0.0013799444 2.350988e-38
-0.058995176 -0.13539489 0.0013799444 2.350988e-38
-0.057154167 -0.13539489 0.0013799444 2.350988e-38
-0.055313155 -0.13539489 0.0013799444 2.3509879e-38
-0.053472146 -0.13539489 0.0013799444 2.3509876e-38
-0.051631138 -0.13539489 0.0013799444 2.3509876e-38
-0.049790129 -0.13539489 0.0013799444 2.3509879e-38
-0.04794912 -0.13539489 0.0013799444 2.3509879e-38
-0.04604885 -0.13460387 0.0043190494 2.350988e-38
-0.044212997 -0.13460387 0.0043190494 2.350988e-38
-0.042326659 -0.13378824 0.007349588 2.3509883e-38
-0.040496118 -0.13378824 0.007349588 2.3509883e-38
-0.038625952 -0.13297729 0.010362722 2.3509886e-38
-0.036800694 -0.13297729 0.010362722 2.3509886e-38
-0.034975436 -0.13297729 0.010362722 2.3509886e-38
-0.033150174 -0.13297729 0.010362722 2.3509527e-38
-0.031324916 -0.13297729 0.010362722 2.3509527e-38
-0.029486528 -0.13217102 0.013358451 2.3509527e-38
-0.02766652 -0.13217102 0.013358451 2.3509527e-38
-0.025843067 -0.13111271 0.017290689 2.3509527e-38
-0.024029953 -0.13111271 0.017290689 2.3509886e-38
-0.022224894 -0.13028879 0.020352103 2.3509886e-38
-0.020417148 -0.13028879 0.020352103 2.3509886e-38
-0.018627437 -0.1294979 0.023290731 2.3509886e-38
-0.016824845 -0.1294979 0.023290731 2.3509886e-38
-0.015022254 -0.1294979 0.023290731 2.3509886e-38
-0.01321966 -0.1294979 0.023290731 2.3509886e-38
-0.011417069 -0.1294979 0.023290731 2.3509886e-38
-0.0096595716 -0.12868352 0.02631662 2.3509886e-38
-0.0078622866 -0.12868352 0.02631662 2.3509886e-38
-0.0060649994 -0.12868352 0.02631662 2.3509886e-38
-0.0043283678 -0.12787388 0.029324867 2.3509886e-38
-0.002536356 -0.12787388 0.029324867 2.3509886e-38
-0.00081513217 -0.12706901 0.03231547 2.3509886e-38
0.00097163813 -0.12706901 0.03231547 2.3509886e-38
0.0026776069 -0.12626885 0.03528855 2.3509886e-38
0.0044591636 -0.12626885 0.03528855 2.3509886e-38
0.0063319453 -0.12706901 0.03231547 2.3509886e-38
0.0080222767 -0.12626885 0.03528855 2.3509886e-38
0.0098038297 -0.12626885 0.03528855 2.3509886e-38
0.011585386 -0.12626885 0.03528855 2.3509886e-38
0.013251686 -0.12544595 0.03834603 2.3509886e-38
0.015027883 -0.12544595 0.03834603 2.3509886e-38
0.016678853 -0.12462802 0.041385151 2.3509886e-38
0.018449722 -0.12462802 0.041385151 2.3509886e-38
0.020090012 -0.12384202 0.04430566 2.3509886e-38
0.021855759 -0.12384202 0.04430566 2.3509886e-38
0.023621505 -0.12384202 0.04430566 2.3509886e-38
0.025237167 -0.12303366 0.047309138 2.3509886e-38
0.026997646 -0.12303366 0.047309138 2.3509886e-38
0.028758125 -0.12303366 0.047309138 2.3509886e-38
0.030518604 -0.12303366 0.047309138 2.3509886e-38
0.032279089 -0.12303366 0.047309138 2.3509886e-38
0.033864196 -0.1222301 0.050294854 2.3509886e-38
0.035619441 -0.1222301 0.050294854 2.3509886e-38
0.037560526 -0.12303366 0.047309138 2.3509886e-38
0.039321009 -0.12303366 0.047309138 2.3509886e-38
0.041081484 -0.12303366 0.047309138 2.3509886e-38
0.042640422 -0.1222301 0.050294854 2.3509886e-38
0.044395667 -0.1222301 0.050294854 2.3509886e-38
0.045933153 -0.12140475 0.053361453 2.3509886e-38
0.047683019 -0.12140475 0.053361453 2.3509886e-38
0.049213078 -0.12061088 0.056311227 2.3509886e-38
0.050957773 -0.12061088 0.056311227 2.3509886e-38
0.052466068 -0.1197954 0.05934111 2.3509886e-38
0.054205459 -0.1197954 0.05934111 2.3509886e-38
0.055944841 -0.1197954 0.05934111 2.3509886e-38
0.057684224 -0.1197954 0.05934111 2.3509886e-38
0.059423611 -0.1197954 0.05934111 2.3509883e-38
0.061162993 -0.1197954 0.05934111 2.3049261e-38
0.062902376 -0.1197954 0.05934111 2.3233296e-38
0.064641759 -0.1197954 0.05934111 2.3509883e-38
0.066381142 -0.1197954 0.05934111 2.3509886e-38
0.068120524 -0.1197954 0.05934111 2.3509886e-38
0.070149437 -0.12061088 0.056311227 2.3509527e-38
0.07218118 -0.12140475 0.053361453 2.3509527e-38
0.073931038 -0.12140475 0.053361453 2.323258e-38
0.076291084 -0.12303366 0.047309138 2.2771958e-38
0.078659192 -0.12462802 0.041385151 2.2863071e-38
0.080430061 -0.12462802 0.041385151 2.2402451e-38
0.082200915 -0.12462802 0.041385151 2.2033668e-38
0.08429949 -0.12544595 0.03834603 1.982097e-38
0.086410746 -0.12626885 0.03528855 1.9544381e-38
0.088192299 -0.12626885 0.03528855 1.7147294e-38
0.090310082 -0.12706901 0.03231547 1.6687398e-38
0.09209685 -0.12706901 0.03231547 1.6410811e-38
0.094583064 -0.12868352 0.02631662 1.6225341e-38
0.099331602 -0.13539489 0.0013799444 1.5856558e-38
0.10117261 -0.13539489 0.0013799444 1.5671448e-38
0.1035077 -0.13648613 -0.002674602 1.5579252e-38
0.10535581 -0.13648613 -0.002674602 1.5762923e-38
0.10720393 -0.13648613 -0.002674602 1.5762923e-38
0.10905205 -0.13648613 -0.002674602 1.4749492e-38
0.11128399 -0.13728772 -0.0056530461 1.4657296e-38
0.11313733 -0.13728772 -0.0056530461 1.4842406e-38
0.11499068 -0.13728772 -0.0056530461 1.2446399e-38
0.11724578 -0.13809387 -0.0086484179 1.0233704e-38
0.11910437 -0.13809387 -0.0086484179 2.950965e-39
-0.12947749 -0.1491593 -0.042635702 9.774529e-39
-0.12718275 -0.14807184 -0.038621329 9.8674435e-39
-0.1252716 -0.14807184 -0.038621329 1.0513892e-38
-0.12336046 -0.14807184 -0.038621329 1.4202077e-38
-0.12144931 -0.14807184 -0.038621329 2.1486251e-38
-0.11953817 -0.14807184 -0.038621329 2.1579526e-38
-0.11737762 -0.14727734 -0.035688423 2.1670642e-38
-0.11547162 -0.14727734 -0.035688423 2.268228e-38
-0.11356561 -0.14727734 -0.035688423 2.268192e-38
-0.11141759 -0.14645557 -0.032654785 2.268192e-38
-0.10920939 -0.14538784 -0.028713249 2.268192e-38
-0.10731561 -0.14538784 -0.028713249 2.2866311e-38
-0.10542184 -0.14538784 -0.028713249 2.2958507e-38
-0.10331015 -0.14457656 -0.025718354 2.3141819e-38
-0.10142162 -0.14457656 -0.025718354 2.3141819e-38
