# .PCD v0.7 - Point Cloud Data file format
VERSION 0.7
FIELDS x y z rgb
SIZE 4 4 4 4
TYPE F F F F
COUNT 1 1 1 1
WIDTH 930
HEIGHT 1
VIEWPOINT 0 0 0 1 0 0 0
POINTS 930
DATA ascii
0.032420151 -0.11575161 -0.02448356 2.3509886e-38
0.034346767 -0.11505674 -0.021536944 2.3509886e-38
0.036296628 -0.11505674 -0.021536944 2.3509886e-38
0.038285241 -0.11575161 -0.02448356 2.3509886e-38
0.040240273 -0.11575161 -0.02448356 2.3509886e-38
0.042195305 -0.11575161 -0.02448356 2.3509886e-38
0.044150334 -0.11575161 -0.02448356 2.3509886e-38
0.046105362 -0.11575161 -0.02448356 2.3509886e-38
0.048060395 -0.11575161 -0.02448356 2.3509886e-38
0.050015427 -0.11575161 -0.02448356 2.3509886e-38
0.051970456 -0.11575161 -0.02448356 2.3509886e-38
0.053925484 -0.11575161 -0.02448356 2.3509886e-38
0.055880517 -0.11575161 -0.02448356 2.3509527e-38
0.057835549 -0.11575161 -0.02448356 2.3509527e-38
0.059790578 -0.11575161 -0.02448356 2.3509886e-38
0.06174561 -0.11575161 -0.02448356 2.3509886e-38
0.063700639 -0.11575161 -0.02448356 2.3509886e-38
0.065655671 -0.11575161 -0.02448356 2.3509886e-38
0.067494452 -0.11505674 -0.021536944 2.341805e-38
0.069444321 -0.11505674 -0.021536944 2.3234379e-38
0.071221232 -0.11410724 -0.017510651 2.2866674e-38
0.073164031 -0.11410724 -0.017510651 2.1022762e-38
0.075106837 -0.11410724 -0.017510651 2.0378471e-38
0.080566883 -0.13130976 -0.09045732 2.1208232e-38
0.082043275 -0.12850504 -0.078563929 2.1577014e-38
0.084093131 -0.12850504 -0.078563929 2.2038711e-38
0.085711747 -0.12660335 -0.070500016 2.2223103e-38
0.087527081 -0.12566237 -0.066509724 2.185468e-38
0.089329973 -0.1247278 -0.06254673 2.1856842e-38
0.090883315 -0.1228471 -0.054571748 2.2224189e-38
0.092891105 -0.1228471 -0.054571748 2.1488429e-38
0.094898887 -0.1228471 -0.054571748 1.5496458e-38
0.097156785 -0.12376876 -0.058480024 8.3977589e-39
0.09917143 -0.12376876 -0.058480024 2.6816256e-39
-0.096675515 -0.12222783 -0.043514013 2.1852157e-38
-0.094687119 -0.12222783 -0.043514013 2.3234376e-38
-0.090031564 -0.11605005 -0.017510651 2.3234376e-38
-0.088088751 -0.11605005 -0.017510651 2.3326213e-38
-0.086145952 -0.11605005 -0.017510651 2.3325856e-38
-0.083908215 -0.11533 -0.014479875 2.341805e-38
-0.081970736 -0.11533 -0.014479875 2.341805e-38
-0.079660341 -0.11438553 -0.010504483 2.3509886e-38
-0.077729821 -0.11438553 -0.010504483 2.3509886e-38
-0.075799301 -0.11438553 -0.010504483 2.3509886e-38
-0.073868766 -0.11438553 -0.010504483 2.3509883e-38
-0.071938246 -0.11438553 -0.010504483 2.3509883e-38
-0.070007727 -0.11438553 -0.010504483 2.3509883e-38
-0.068077207 -0.11438553 -0.010504483 2.3509886e-38
-0.066146687 -0.11438553 -0.010504483 2.3509886e-38
-0.064216167 -0.11438553 -0.010504483 2.3509886e-38
-0.062285651 -0.11438553 -0.010504483 2.3509886e-38
-0.060658339 -0.11533 -0.014479875 2.3509886e-38
-0.058720846 -0.11533 -0.014479875 2.3509886e-38
-0.056783352 -0.11533 -0.014479875 2.3509886e-38
-0.054845858 -0.11533 -0.014479875 2.3509886e-38
-0.05290838 -0.11533 -0.014479875 2.3509886e-38
-0.050970886 -0.11533 -0.014479875 2.3509886e-38
-0.048772011 -0.11438553 -0.010504483 2.3509886e-38
-0.046841491 -0.11438553 -0.010504483 2.3509886e-38
-0.044910971 -0.11438553 -0.010504483 2.3509886e-38
-0.042980451 -0.11438553 -0.010504483 2.3509886e-38
-0.041049931 -0.11438553 -0.010504483 2.3509886e-38
-0.039119411 -0.11438553 -0.010504483 2.3509886e-38
-0.037408445 -0.11533 -0.014479875 2.3509886e-38
-0.035258364 -0.11438553 -0.010504483 2.3509886e-38
-0.033327844 -0.11438553 -0.010504483 2.3509886e-38
-0.031397324 -0.11438553 -0.010504483 2.3509886e-38
-0.029466804 -0.11438553 -0.010504483 2.3509886e-38
-0.027536284 -0.11438553 -0.010504483 2.3509886e-38
-0.025605757 -0.11438553 -0.010504483 2.3509886e-38
-0.023675237 -0.11438553 -0.010504483 2.3509886e-38
-0.021744717 -0.11438553 -0.010504483 2.3509886e-38
-0.019814197 -0.11438553 -0.010504483 2.3509886e-38
-0.017883681 -0.11438553 -0.010504483 2.3509886e-38
-0.015953161 -0.11438553 -0.010504483 2.3509886e-38
-0.014022637 -0.11438553 -0.010504483 2.3509886e-38
-0.012221068 -0.11533 -0.014479875 2.3509886e-38
-0.010283574 -0.11533 -0.014479875 2.3509886e-38
-0.0083460845 -0.11533 -0.014479875 2.3509886e-38
-0.0064085945 -0.11533 -0.014479875 2.3509886e-38
-0.0046505183 -0.11700659 -0.021536944 2.3509886e-38
-0.0026053526 -0.11605005 -0.017510651 2.3509886e-38
-0.0006625466 -0.11605005 -0.017510651 2.3509886e-38
0.0012802593 -0.11605005 -0.017510651 2.3509886e-38
0.0032230653 -0.11605005 -0.017510651 2.3509886e-38
0.0051658675 -0.11605005 -0.017510651 2.3509886e-38
0.0071086697 -0.11605005 -0.017510651 2.3509886e-38
0.0090514757 -0.11605005 -0.017510651 2.3509886e-38
0.010994282 -0.11605005 -0.017510651 2.3509886e-38
0.012937088 -0.11605005 -0.017510651 2.3509886e-38
0.014879892 -0.11605005 -0.017510651 2.3509886e-38
0.016797988 -0.11700659 -0.021536944 2.3509886e-38
0.018734936 -0.11770664 -0.02448356 2.3509886e-38
0.020689966 -0.11770664 -0.02448356 2.3509886e-38
0.022644997 -0.11770664 -0.02448356 2.3509886e-38
0.024597446 -0.11700659 -0.021536944 2.3509886e-38
0.026547309 -0.11700659 -0.021536944 2.3509886e-38
0.028497174 -0.11700659 -0.021536944 2.3509886e-38
0.03046512 -0.11770664 -0.02448356 2.3509886e-38
0.032396901 -0.11700659 -0.021536944 2.3509886e-38
0.034346767 -0.11700659 -0.021536944 2.3509886e-38
0.036296628 -0.11700659 -0.021536944 2.3509886e-38
0.038246494 -0.11700659 -0.021536944 2.3509886e-38
0.040240273 -0.11770664 -0.02448356 2.3509886e-38
0.042195305 -0.11770664 -0.02448356 2.3509886e-38
0.044150334 -0.11770664 -0.02448356 2.3509886e-38
0.046105362 -0.11770664 -0.02448356 2.3509886e-38
0.047995813 -0.11700659 -0.021536944 2.3509886e-38
0.049945679 -0.11700659 -0.021536944 2.3509886e-38
0.051895544 -0.11700659 -0.021536944 2.3509886e-38
0.053925484 -0.11770664 -0.02448356 2.3509886e-38
0.055880517 -0.11770664 -0.02448356 2.3509527e-38
0.057835549 -0.11770664 -0.02448356 2.3509527e-38
0.059695002 -0.11700659 -0.021536944 2.3509886e-38
0.061644863 -0.11700659 -0.021536944 2.3509886e-38
0.063594729 -0.11700659 -0.021536944 2.3509886e-38
0.06554459 -0.11700659 -0.021536944 2.3509886e-38
0.067494452 -0.11700659 -0.021536944 2.341805e-38
0.069278419 -0.11605005 -0.017510651 2.341805e-38
0.071221232 -0.11605005 -0.017510651 2.2681564e-38
0.073164031 -0.11605005 -0.017510651 2.1944718e-38
0.075106837 -0.11605005 -0.017510651 2.0377392e-38
0.077049643 -0.11605005 -0.017510651 2.0470667e-38
0.081039682 -0.1257834 -0.058480024 2.1484819e-38
0.083054326 -0.1257834 -0.058480024 2.2222384e-38
0.085286438 -0.12674956 -0.06254673 2.2498971e-38
0.0870836 -0.1257834 -0.058480024 2.2867037e-38
0.089098237 -0.1257834 -0.058480024 2.2775202e-38
0.090647742 -0.12390204 -0.05056107 2.2499695e-38
0.092461832 -0.12316893 -0.047475219 2.2499695e-38
0.094210617 -0.12222783 -0.043514013 2.148807e-38
0.096199013 -0.12222783 -0.043514013 1.7248172e-38
0.098187409 -0.12222783 -0.043514013 9.9654363e-39
-0.096675515 -0.12421621 -0.043514013 2.2589722e-38
-0.094687119 -0.12421621 -0.043514013 2.332621e-38
-0.092698723 -0.12421621 -0.043514013 2.3418047e-38
-0.088088751 -0.11799283 -0.017510651 2.341805e-38
-0.086145952 -0.11799283 -0.017510651 2.341805e-38
-0.083908215 -0.11726747 -0.014479875 2.3509886e-38
-0.081970736 -0.11726747 -0.014479875 2.3509886e-38
-0.079660341 -0.11631607 -0.010504483 2.3509886e-38
-0.077729821 -0.11631607 -0.010504483 2.3509886e-38
-0.075799301 -0.11631607 -0.010504483 2.3509886e-38
-0.073519319 -0.11537148 -0.0065577021 2.3509883e-38
-0.071595713 -0.11537148 -0.0065577021 2.3509883e-38
-0.070007727 -0.11631607 -0.010504483 2.3509883e-38
-0.067748517 -0.11537148 -0.0065577021 2.3509886e-38
-0.065824911 -0.11537148 -0.0065577021 2.3509886e-38
-0.064216167 -0.11631607 -0.010504483 2.3509886e-38
-0.062285651 -0.11631607 -0.010504483 2.3509886e-38
-0.060658339 -0.11726747 -0.014479875 2.3509886e-38
-0.058720846 -0.11726747 -0.014479875 2.3509886e-38
-0.056783352 -0.11726747 -0.014479875 2.3509886e-38
-0.054563571 -0.11631607 -0.010504483 2.3509886e-38
-0.052633051 -0.11631607 -0.010504483 2.3509886e-38
-0.050970886 -0.11726747 -0.014479875 2.3509886e-38
-0.049033392 -0.11726747 -0.014479875 2.3509886e-38
-0.046841491 -0.11631607 -0.010504483 2.3509886e-38
-0.044910971 -0.11631607 -0.010504483 2.3509886e-38
-0.042980451 -0.11631607 -0.010504483 2.3509886e-38
-0.041049931 -0.11631607 -0.010504483 2.3509886e-38
-0.039119411 -0.11631607 -0.010504483 2.3509886e-38
-0.037188891 -0.11631607 -0.010504483 2.3509886e-38
-0.035258364 -0.11631607 -0.010504483 2.3509886e-38
-0.033327844 -0.11631607 -0.010504483 2.3509886e-38
-0.031397324 -0.11631607 -0.010504483 2.3509886e-38
-0.029466804 -0.11631607 -0.010504483 2.3509886e-38
-0.027536284 -0.11631607 -0.010504483 2.3509886e-38
-0.025605757 -0.11631607 -0.010504483 2.3509886e-38
-0.023675237 -0.11631607 -0.010504483 2.3509886e-38
-0.021744717 -0.11631607 -0.010504483 2.3509886e-38
-0.019814197 -0.11631607 -0.010504483 2.3509886e-38
-0.017883681 -0.11631607 -0.010504483 2.3509886e-38
-0.015953161 -0.11631607 -0.010504483 2.3509886e-38
-0.014022637 -0.11631607 -0.010504483 2.3509886e-38
-0.012092117 -0.11631607 -0.010504483 2.3509886e-38
-0.010161597 -0.11631607 -0.010504483 2.3509886e-38
-0.0082310773 -0.11631607 -0.010504483 2.3509886e-38
-0.0064085945 -0.11726747 -0.014479875 2.3509886e-38
-0.0045481585 -0.11799283 -0.017510651 2.3509886e-38
-0.0026053526 -0.11799283 -0.017510651 2.3509886e-38
-0.0006625466 -0.11799283 -0.017510651 2.3509886e-38
0.0012802593 -0.11799283 -0.017510651 2.3509886e-38
0.0032230653 -0.11799283 -0.017510651 2.3509886e-38
0.0051658675 -0.11799283 -0.017510651 2.3509886e-38
0.0071086697 -0.11799283 -0.017510651 2.3509886e-38
0.0090514757 -0.11799283 -0.017510651 2.3509886e-38
0.010994282 -0.11799283 -0.017510651 2.3509886e-38
0.012937088 -0.11799283 -0.017510651 2.3509886e-38
0.014879892 -0.11799283 -0.017510651 2.3509886e-38
0.016797988 -0.11895646 -0.021536944 2.3509886e-38
0.018747851 -0.11895646 -0.021536944 2.3509886e-38
0.020689966 -0.11966167 -0.02448356 2.3509886e-38
0.022644997 -0.11966167 -0.02448356 2.3509886e-38
0.024597446 -0.11895646 -0.021536944 2.3509886e-38
0.026547309 -0.11895646 -0.021536944 2.3509886e-38
0.028497174 -0.11895646 -0.021536944 2.3509886e-38
0.030447038 -0.11895646 -0.021536944 2.3509886e-38
0.032396901 -0.11895646 -0.021536944 2.3509886e-38
0.034346767 -0.11895646 -0.021536944 2.3509886e-38
0.036296628 -0.11895646 -0.021536944 2.3509886e-38
0.038246494 -0.11895646 -0.021536944 2.3509886e-38
0.040196359 -0.11895646 -0.021536944 2.3509886e-38
0.042146221 -0.11895646 -0.021536944 2.3509886e-38
0.044096086 -0.11895646 -0.021536944 2.3509886e-38
0.046105362 -0.11966167 -0.02448356 2.3509886e-38
0.047995813 -0.11895646 -0.021536944 2.3509886e-38
0.049945679 -0.11895646 -0.021536944 2.3509886e-38
0.051895544 -0.11895646 -0.021536944 2.3509886e-38
0.053925484 -0.11966167 -0.02448356 2.3509886e-38
0.055880517 -0.11966167 -0.02448356 2.3509527e-38
0.057835549 -0.11966167 -0.02448356 2.3509527e-38
0.059695002 -0.11895646 -0.021536944 2.3509886e-38
0.061644863 -0.11895646 -0.021536944 2.3509886e-38
0.063594729 -0.11895646 -0.021536944 2.3509886e-38
0.06554459 -0.11895646 -0.021536944 2.3509886e-38
0.067335621 -0.11799283 -0.017510651 2.341805e-38
0.069278419 -0.11799283 -0.017510651 2.341805e-38
0.071221232 -0.11799283 -0.017510651 2.2497173e-38
0.073164031 -0.11799283 -0.017510651 2.1944718e-38
0.075106837 -0.11799283 -0.017510651 2.148374e-38
0.079025045 -0.12779804 -0.058480024 2.1575935e-38
0.081039682 -0.12779804 -0.058480024 2.2129109e-38
0.083054326 -0.12779804 -0.058480024 2.2498971e-38
0.085286438 -0.12877132 -0.06254673 2.2867036e-38
0.086475804 -0.12516426 -0.047475219 2.2867036e-38
0.088471144 -0.12516426 -0.047475219 2.3234379e-38
0.090466492 -0.12516426 -0.047475219 2.2865958e-38
0.092461832 -0.12516426 -0.047475219 2.2591166e-38
0.093957894 -0.12324448 -0.039453745 2.2775202e-38
0.095939174 -0.12324448 -0.039453745 2.1948682e-38
0.097920448 -0.12324448 -0.039453745 1.7893167e-38
0.099901728 -0.12324448 -0.039453745 9.8725246e-39
-0.096675515 -0.12620462 -0.043514013 2.3234376e-38
-0.094687119 -0.12620462 -0.043514013 2.3418047e-38
-0.092698723 -0.12620462 -0.043514013 2.3418047e-38
-0.088088751 -0.11993565 -0.017510651 2.3326213e-38
-0.085845709 -0.11920498 -0.014479875 2.3234018e-38
-0.083908215 -0.11920498 -0.014479875 2.3509886e-38
-0.081970736 -0.11920498 -0.014479875 2.3509886e-38
-0.079660341 -0.11824657 -0.010504483 2.3509886e-38
-0.077729821 -0.11824657 -0.010504483 2.3509886e-38
-0.07544291 -0.11729507 -0.0065577021 2.3509886e-38
-0.073519319 -0.11729507 -0.0065577021 2.3509886e-38
-0.071595713 -0.11729507 -0.0065577021 2.3509883e-38
-0.069672108 -0.11729507 -0.0065577021 2.3509883e-38
-0.067491189 -0.11655019 -0.0034679163 2.3509886e-38
-0.065573007 -0.11655019 -0.0034679163 2.3509886e-38
-0.063901305 -0.11729507 -0.0065577021 2.3509886e-38
-0.062285651 -0.11824657 -0.010504483 2.3509886e-38
-0.060355131 -0.11824657 -0.010504483 2.3509886e-38
-0.058720846 -0.11920498 -0.014479875 2.3509886e-38
-0.056494091 -0.11824657 -0.010504483 2.3509886e-38
-0.054563571 -0.11824657 -0.010504483 2.3509886e-38
-0.052633051 -0.11824657 -0.010504483 2.3509886e-38
-0.050970886 -0.11920498 -0.014479875 2.3509886e-38
-0.048772011 -0.11824657 -0.010504483 2.3509886e-38
-0.046841491 -0.11824657 -0.010504483 2.3509886e-38
-0.044910971 -0.11824657 -0.010504483 2.3509886e-38
-0.042980451 -0.11824657 -0.010504483 2.3509886e-38
-0.041049931 -0.11824657 -0.010504483 2.3509886e-38
-0.039119411 -0.11824657 -0.010504483 2.3509886e-38
-0.037188891 -0.11824657 -0.010504483 2.3509886e-38
-0.035258364 -0.11824657 -0.010504483 2.3509886e-38
-0.033327844 -0.11824657 -0.010504483 2.3509886e-38
-0.031397324 -0.11824657 -0.010504483 2.3509886e-38
-0.029466804 -0.11824657 -0.010504483 2.3509886e-38
-0.027536284 -0.11824657 -0.010504483 2.3509886e-38
-0.025605757 -0.11824657 -0.010504483 2.3509886e-38
-0.023675237 -0.11824657 -0.010504483 2.3509886e-38
-0.021744717 -0.11824657 -0.010504483 2.3509886e-38
-0.019814197 -0.11824657 -0.010504483 2.3509886e-38
-0.017883681 -0.11824657 -0.010504483 2.3509886e-38
-0.015953161 -0.11824657 -0.010504483 2.3509886e-38
-0.014022637 -0.11824657 -0.010504483 2.3509886e-38
-0.012092117 -0.11824657 -0.010504483 2.3509886e-38
-0.010161597 -0.11824657 -0.010504483 2.3509886e-38
-0.0082310773 -0.11824657 -0.010504483 2.3509886e-38
-0.0064085945 -0.11920498 -0.014479875 2.3509886e-38
-0.0045481585 -0.11993565 -0.017510651 2.3509886e-38
-0.0026053526 -0.11993565 -0.017510651 2.3509886e-38
-0.0006625466 -0.11993565 -0.017510651 2.3509886e-38
0.0012802593 -0.11993565 -0.017510651 2.3509886e-38
0.0032230653 -0.11993565 -0.017510651 2.3509886e-38
0.0051658675 -0.11993565 -0.017510651 2.3509886e-38
0.0071086697 -0.11993565 -0.017510651 2.3509886e-38
0.0090514757 -0.11993565 -0.017510651 2.3509886e-38
0.010994282 -0.11993565 -0.017510651 2.3509886e-38
0.012937088 -0.11993565 -0.017510651 2.3509886e-38
0.014879892 -0.11993565 -0.017510651 2.3509886e-38
0.016797988 -0.12090631 -0.021536944 2.3509886e-38
0.018747851 -0.12090631 -0.021536944 2.3509886e-38
0.020689966 -0.12161671 -0.02448356 2.3509886e-38
0.022644997 -0.12161671 -0.02448356 2.3509886e-38
0.024597446 -0.12090631 -0.021536944 2.3509886e-38
0.026547309 -0.12090631 -0.021536944 2.3509886e-38
0.028497174 -0.12090631 -0.021536944 2.3509886e-38
0.030447038 -0.12090631 -0.021536944 2.3509886e-38
0.032396901 -0.12090631 -0.021536944 2.3509886e-38
0.034346767 -0.12090631 -0.021536944 2.3509886e-38
0.036296628 -0.12090631 -0.021536944 2.3509886e-38
0.038246494 -0.12090631 -0.021536944 2.3509886e-38
0.040196359 -0.12090631 -0.021536944 2.3509886e-38
0.042146221 -0.12090631 -0.021536944 2.3509886e-38
0.044096086 -0.12090631 -0.021536944 2.3509886e-38
0.046045952 -0.12090631 -0.021536944 2.3509886e-38
0.047995813 -0.12090631 -0.021536944 2.3509886e-38
0.049945679 -0.12090631 -0.021536944 2.3509886e-38
0.051895544 -0.12090631 -0.021536944 2.3509886e-38
0.053845406 -0.12090631 -0.021536944 2.3509886e-38
0.055880517 -0.12161671 -0.02448356 2.3509527e-38
0.057745136 -0.12090631 -0.021536944 2.3509527e-38
0.059695002 -0.12090631 -0.021536944 2.3509886e-38
0.061644863 -0.12090631 -0.021536944 2.3509886e-38
0.063594729 -0.12090631 -0.021536944 2.3509886e-38
0.06554459 -0.12090631 -0.021536944 2.3509886e-38
0.067335621 -0.11993565 -0.017510651 2.341805e-38
0.069278419 -0.11993565 -0.017510651 2.341805e-38
0.071221232 -0.11993565 -0.017510651 2.3234379e-38
0.073164031 -0.11993565 -0.017510651 2.3142542e-38
0.075106837 -0.11993565 -0.017510651 2.277376e-38
0.077774443 -0.12355967 -0.032542825 2.2682283e-38
0.079544619 -0.12259962 -0.028560637 2.3050707e-38
0.081868209 -0.12428416 -0.035548091 2.3142544e-38
0.083842635 -0.12428416 -0.035548091 2.3142544e-38
0.085817069 -0.12428416 -0.035548091 2.3142542e-38
0.088014059 -0.12522577 -0.039453745 2.3416971e-38
0.090233825 -0.12620462 -0.043514013 2.350988e-38
0.092222221 -0.12620462 -0.043514013 2.3418038e-38
0.093527734 -0.12355967 -0.032542825 2.295886e-38
0.095496893 -0.12355967 -0.032542825 2.2591525e-38
0.097920448 -0.12522577 -0.039453745 2.1856847e-38
0.099901728 -0.12522577 -0.039453745 1.752368e-38
-0.099450052 -0.12552883 -0.032542825 2.3418047e-38
-0.097480893 -0.12552883 -0.032542825 2.3418047e-38
-0.095830515 -0.1262586 -0.035548091 2.341805e-38
-0.093856096 -0.1262586 -0.035548091 2.3326213e-38
-0.091881663 -0.1262586 -0.035548091 2.341805e-38
-0.087783203 -0.12114246 -0.014479875 2.3509886e-38
-0.085845709 -0.12114246 -0.014479875 2.3509886e-38
-0.083521381 -0.12017711 -0.010504483 2.3509886e-38
-0.081590861 -0.12017711 -0.010504483 2.3509886e-38
-0.079660341 -0.12017711 -0.010504483 2.3509527e-38
-0.077729821 -0.12017711 -0.010504483 2.3509527e-38
-0.07544291 -0.11921866 -0.0065577021 2.3509527e-38
-0.073519319 -0.11921866 -0.0065577021 2.3509527e-38
-0.071595713 -0.11921866 -0.0065577021 2.3509527e-38
-0.069672108 -0.11921866 -0.0065577021 2.3509527e-38
-0.067491189 -0.11846836 -0.0034679163 2.3509886e-38
-0.065573007 -0.11846836 -0.0034679163 2.3509886e-38
-0.063901305 -0.11921866 -0.0065577021 2.3509886e-38
-0.062285651 -0.12017711 -0.010504483 2.3509886e-38
-0.060355131 -0.12017711 -0.010504483 2.3509886e-38
-0.058424611 -0.12017711 -0.010504483 2.3509886e-38
-0.056494091 -0.12017711 -0.010504483 2.3509886e-38
-0.054563571 -0.12017711 -0.010504483 2.3509886e-38
-0.052633051 -0.12017711 -0.010504483 2.3509886e-38
-0.050702531 -0.12017711 -0.010504483 2.3509886e-38
-0.048772011 -0.12017711 -0.010504483 2.3509886e-38
-0.046841491 -0.12017711 -0.010504483 2.3509886e-38
-0.044910971 -0.12017711 -0.010504483 2.3509886e-38
-0.042980451 -0.12017711 -0.010504483 2.3509886e-38
-0.041049931 -0.12017711 -0.010504483 2.3509886e-38
-0.039119411 -0.12017711 -0.010504483 2.3509886e-38
-0.037188891 -0.12017711 -0.010504483 2.3509886e-38
-0.035258364 -0.12017711 -0.010504483 2.3509886e-38
-0.033327844 -0.12017711 -0.010504483 2.3509886e-38
-0.031397324 -0.12017711 -0.010504483 2.3509886e-38
-0.029466804 -0.12017711 -0.010504483 2.3509886e-38
-0.027536284 -0.12017711 -0.010504483 2.3509886e-38
-0.025605757 -0.12017711 -0.010504483 2.3509886e-38
-0.023675237 -0.12017711 -0.010504483 2.3509886e-38
-0.021744717 -0.12017711 -0.010504483 2.3509886e-38
-0.019814197 -0.12017711 -0.010504483 2.3509886e-38
-0.017883681 -0.12017711 -0.010504483 2.3509886e-38
-0.016096048 -0.12114246 -0.014479875 2.3509886e-38
-0.014158558 -0.12114246 -0.014479875 2.3509886e-38
-0.012092117 -0.12017711 -0.010504483 2.3509886e-38
-0.010161597 -0.12017711 -0.010504483 2.3509886e-38
-0.0082310773 -0.12017711 -0.010504483 2.3509886e-38
-0.0063005574 -0.12017711 -0.010504483 2.3509886e-38
-0.0044711046 -0.12114246 -0.014479875 2.3509886e-38
-0.0026053526 -0.12187846 -0.017510651 2.3509886e-38
-0.0006625466 -0.12187846 -0.017510651 2.3509886e-38
0.0012802593 -0.12187846 -0.017510651 2.3509886e-38
0.0032230653 -0.12187846 -0.017510651 2.3509886e-38
0.0051658675 -0.12187846 -0.017510651 2.3509886e-38
0.0071086697 -0.12187846 -0.017510651 2.3509886e-38
0.0090514757 -0.12187846 -0.017510651 2.3509886e-38
0.010994282 -0.12187846 -0.017510651 2.3509886e-38
0.012937088 -0.12187846 -0.017510651 2.3509886e-38
0.014879892 -0.12187846 -0.017510651 2.3509886e-38
0.016797988 -0.12285618 -0.021536944 2.3509886e-38
0.018747851 -0.12285618 -0.021536944 2.3509886e-38
0.020689966 -0.12357174 -0.02448356 2.3509886e-38
0.022644997 -0.12357174 -0.02448356 2.3509886e-38
0.024600029 -0.12357174 -0.02448356 2.3509886e-38
0.026547309 -0.12285618 -0.021536944 2.3509886e-38
0.028497174 -0.12285618 -0.021536944 2.3509886e-38
0.030447038 -0.12285618 -0.021536944 2.3509886e-38
0.032396901 -0.12285618 -0.021536944 2.3509886e-38
0.034307938 -0.12187846 -0.017510651 2.3509886e-38
0.036250744 -0.12187846 -0.017510651 2.3509886e-38
0.038246494 -0.12285618 -0.021536944 2.3509886e-38
0.040196359 -0.12285618 -0.021536944 2.3509886e-38
0.042146221 -0.12285618 -0.021536944 2.3509886e-38
0.044096086 -0.12285618 -0.021536944 2.3509886e-38
0.046045952 -0.12285618 -0.021536944 2.3509886e-38
0.047907572 -0.12187846 -0.017510651 2.3509886e-38
0.049850374 -0.12187846 -0.017510651 2.3509886e-38
0.051895544 -0.12285618 -0.021536944 2.3509886e-38
0.053845406 -0.12285618 -0.021536944 2.3509886e-38
0.055795271 -0.12285618 -0.021536944 2.3509886e-38
0.057745136 -0.12285618 -0.021536944 2.3509886e-38
0.059695002 -0.12285618 -0.021536944 2.3509886e-38
0.061644863 -0.12285618 -0.021536944 2.3509886e-38
0.063594729 -0.12285618 -0.021536944 2.3509886e-38
0.06554459 -0.12285618 -0.021536944 2.3509886e-38
0.067494452 -0.12285618 -0.021536944 2.341805e-38
0.069278419 -0.12187846 -0.017510651 2.341805e-38
0.071221232 -0.12187846 -0.017510651 2.341805e-38
0.073164031 -0.12187846 -0.017510651 2.3234379e-38
0.075106837 -0.12187846 -0.017510651 2.3234379e-38
0.077774443 -0.12552883 -0.032542825 2.3234379e-38
0.079544619 -0.1245618 -0.028560637 2.3234379e-38
0.081506796 -0.1245618 -0.028560637 2.3234379e-38
0.083468974 -0.1245618 -0.028560637 2.3142542e-38
0.085431151 -0.1245618 -0.028560637 2.3049624e-38
0.087393329 -0.1245618 -0.028560637 2.3508797e-38
0.08999534 -0.12720706 -0.039453745 2.3509514e-38
0.091976613 -0.12720706 -0.039453745 2.350987e-38
0.093026102 -0.12357174 -0.02448356 2.295778e-38
0.094792552 -0.12285618 -0.021536944 2.2774476e-38
0.096477687 -0.12187846 -0.017510651 2.2775202e-38
0.098420493 -0.12187846 -0.017510651 2.2499695e-38
-0.099450052 -0.12749799 -0.032542825 2.3234018e-38
-0.097051501 -0.12652399 -0.028560637 2.3234018e-38
-0.095089316 -0.12652399 -0.028560637 2.3141822e-38
-0.093127131 -0.12652399 -0.028560637 2.3234018e-38
-0.091573417 -0.12749799 -0.032542825 2.341805e-38
-0.087783203 -0.12307997 -0.014479875 2.3509886e-38
-0.085451901 -0.12210761 -0.010504483 2.3509886e-38
-0.083521381 -0.12210761 -0.010504483 2.3509886e-38
-0.081590861 -0.12210761 -0.010504483 2.3509886e-38
-0.079660341 -0.12210761 -0.010504483 2.3509527e-38
-0.077729821 -0.12210761 -0.010504483 2.3509527e-38
-0.07544291 -0.12114228 -0.0065577021 2.3509527e-38
-0.073519319 -0.12114228 -0.0065577021 2.3509527e-38
-0.071595713 -0.12114228 -0.0065577021 2.3509527e-38
-0.069672108 -0.12114228 -0.0065577021 2.3509527e-38
-0.067491189 -0.12038656 -0.0034679163 2.3509886e-38
-0.065573007 -0.12038656 -0.0034679163 2.3509886e-38
-0.063901305 -0.12114228 -0.0065577021 2.3509886e-38
-0.062285651 -0.12210761 -0.010504483 2.3509886e-38
-0.060355131 -0.12210761 -0.010504483 2.3509886e-38
-0.058424611 -0.12210761 -0.010504483 2.3509886e-38
-0.056494091 -0.12210761 -0.010504483 2.3509886e-38
-0.054563571 -0.12210761 -0.010504483 2.3509886e-38
-0.052633051 -0.12210761 -0.010504483 2.3509886e-38
-0.050702531 -0.12210761 -0.010504483 2.3509886e-38
-0.048772011 -0.12210761 -0.010504483 2.3509886e-38
-0.046841491 -0.12210761 -0.010504483 2.3509886e-38
-0.044910971 -0.12210761 -0.010504483 2.3509886e-38
-0.042980451 -0.12210761 -0.010504483 2.3509886e-38
-0.041049931 -0.12210761 -0.010504483 2.3509886e-38
-0.039119411 -0.12210761 -0.010504483 2.3509886e-38
-0.037188891 -0.12210761 -0.010504483 2.3509886e-38
-0.035258364 -0.12210761 -0.010504483 2.3509886e-38
-0.033327844 -0.12210761 -0.010504483 2.3509886e-38
-0.031397324 -0.12210761 -0.010504483 2.3509886e-38
-0.029466804 -0.12210761 -0.010504483 2.3509886e-38
-0.027536284 -0.12210761 -0.010504483 2.3509886e-38
-0.025605757 -0.12210761 -0.010504483 2.3509886e-38
-0.023675237 -0.12210761 -0.010504483 2.3509886e-38
-0.021744717 -0.12210761 -0.010504483 2.3509886e-38
-0.019814197 -0.12210761 -0.010504483 2.3509886e-38
-0.017883681 -0.12210761 -0.010504483 2.3509886e-38
-0.016096048 -0.12307997 -0.014479875 2.3509886e-38
-0.014158558 -0.12307997 -0.014479875 2.3509886e-38
-0.012092117 -0.12210761 -0.010504483 2.3509886e-38
-0.010161597 -0.12210761 -0.010504483 2.3509886e-38
-0.0082310773 -0.12210761 -0.010504483 2.3509886e-38
-0.0063005574 -0.12210761 -0.010504483 2.3509886e-38
-0.0044711046 -0.12307997 -0.014479875 2.3509886e-38
-0.0026053526 -0.12382124 -0.017510651 2.3509886e-38
-0.0006625466 -0.12382124 -0.017510651 2.3509886e-38
0.0012802593 -0.12382124 -0.017510651 2.3509886e-38
0.0032230653 -0.12382124 -0.017510651 2.3509886e-38
0.0051658675 -0.12382124 -0.017510651 2.3509886e-38
0.0071086697 -0.12382124 -0.017510651 2.3509886e-38
0.0090514757 -0.12382124 -0.017510651 2.3509886e-38
0.010994282 -0.12382124 -0.017510651 2.3509886e-38
0.012937088 -0.12382124 -0.017510651 2.3509886e-38
0.014879892 -0.12382124 -0.017510651 2.3509886e-38
0.016797988 -0.12480606 -0.021536944 2.3509886e-38
0.018747851 -0.12480606 -0.021536944 2.3509886e-38
0.020689966 -0.12552677 -0.02448356 2.3509886e-38
0.02264758 -0.12480606 -0.021536944 2.3509886e-38
0.024597446 -0.12480606 -0.021536944 2.3509886e-38
0.026547309 -0.12480606 -0.021536944 2.3509886e-38
0.028497174 -0.12480606 -0.021536944 2.3509886e-38
0.030447038 -0.12480606 -0.021536944 2.3509886e-38
0.032396901 -0.12480606 -0.021536944 2.3509886e-38
0.034307938 -0.12382124 -0.017510651 2.3509886e-38
0.036250744 -0.12382124 -0.017510651 2.3509886e-38
0.038246494 -0.12480606 -0.021536944 2.3509886e-38
0.040196359 -0.12480606 -0.021536944 2.3509886e-38
0.042079158 -0.12382124 -0.017510651 2.3509886e-38
0.044021964 -0.12382124 -0.017510651 2.3509886e-38
0.04596477 -0.12382124 -0.017510651 2.3509886e-38
0.047907572 -0.12382124 -0.017510651 2.3509886e-38
0.049850374 -0.12382124 -0.017510651 2.3509886e-38
0.05179318 -0.12382124 -0.017510651 2.3509886e-38
0.053735986 -0.12382124 -0.017510651 2.3509886e-38
0.055795271 -0.12480606 -0.021536944 2.3509886e-38
0.057745136 -0.12480606 -0.021536944 2.3509886e-38
0.059695002 -0.12480606 -0.021536944 2.3509886e-38
0.061644863 -0.12480606 -0.021536944 2.3509886e-38
0.063450009 -0.12382124 -0.017510651 2.3509886e-38
0.065392815 -0.12382124 -0.017510651 2.3509886e-38
0.067335621 -0.12382124 -0.017510651 2.341805e-38
0.069278419 -0.12382124 -0.017510651 2.341805e-38
0.071221232 -0.12382124 -0.017510651 2.3326213e-38
0.073164031 -0.12382124 -0.017510651 2.3234018e-38
0.075106837 -0.12382124 -0.017510651 2.3050347e-38
0.077774443 -0.12749799 -0.032542825 2.3234379e-38
0.079544619 -0.12652399 -0.028560637 2.3234379e-38
0.081506796 -0.12652399 -0.028560637 2.3234379e-38
0.083468974 -0.12652399 -0.028560637 2.3142542e-38
0.085431151 -0.12652399 -0.028560637 2.3233652e-38
0.087393329 -0.12652399 -0.028560637 2.3509511e-38
0.08999534 -0.12918831 -0.039453745 2.350807e-38
0.091976613 -0.12918831 -0.039453745 2.3509157e-38
0.093026102 -0.12552677 -0.02448356 2.350988e-38
0.094534889 -0.12382124 -0.017510651 2.304927e-38
0.096477687 -0.12382124 -0.017510651 2.2958514e-38
0.098420493 -0.12382124 -0.017510651 2.2775202e-38
0.1003633 -0.12382124 -0.017510651 2.240786e-38
-0.10141923 -0.12946714 -0.032542825 2.341805e-38
-0.099013671 -0.12848614 -0.028560637 2.341805e-38
-0.096611857 -0.1274818 -0.02448356 2.341805e-38
-0.09465684 -0.1274818 -0.02448356 2.341805e-38
-0.092394397 -0.12675591 -0.021536944 2.341805e-38
-0.090031564 -0.12576406 -0.017510651 2.341805e-38
-0.087382421 -0.12403814 -0.010504483 2.3509886e-38
-0.085451901 -0.12403814 -0.010504483 2.341769e-38
-0.083521381 -0.12403814 -0.010504483 2.3509886e-38
-0.081590861 -0.12403814 -0.010504483 2.3509886e-38
-0.079660341 -0.12403814 -0.010504483 2.3509527e-38
-0.077729821 -0.12403814 -0.010504483 2.3509527e-38
-0.07544291 -0.12306587 -0.0065577021 2.3509527e-38
-0.073519319 -0.12306587 -0.0065577021 2.3509527e-38
-0.071595713 -0.12306587 -0.0065577021 2.3509527e-38
-0.069672108 -0.12306587 -0.0065577021 2.3509527e-38
-0.067491189 -0.12230472 -0.0034679163 2.3509886e-38
-0.065573007 -0.12230472 -0.0034679163 2.3509886e-38
-0.063901305 -0.12306587 -0.0065577021 2.3509886e-38
-0.061977718 -0.12306587 -0.0065577021 2.3509886e-38
-0.060355131 -0.12403814 -0.010504483 2.3509886e-38
-0.058424611 -0.12403814 -0.010504483 2.3509886e-38
-0.056494091 -0.12403814 -0.010504483 2.3509886e-38
-0.054563571 -0.12403814 -0.010504483 2.3509886e-38
-0.052633051 -0.12403814 -0.010504483 2.3509886e-38
-0.050702531 -0.12403814 -0.010504483 2.3509886e-38
-0.048772011 -0.12403814 -0.010504483 2.3509886e-38
-0.046841491 -0.12403814 -0.010504483 2.3509886e-38
-0.044910971 -0.12403814 -0.010504483 2.3509886e-38
-0.042980451 -0.12403814 -0.010504483 2.3509886e-38
-0.041049931 -0.12403814 -0.010504483 2.3509886e-38
-0.039119411 -0.12403814 -0.010504483 2.3509886e-38
-0.037188891 -0.12403814 -0.010504483 2.3509886e-38
-0.035258364 -0.12403814 -0.010504483 2.3509886e-38
-0.033327844 -0.12403814 -0.010504483 2.3509886e-38
-0.031397324 -0.12403814 -0.010504483 2.3509886e-38
-0.029466804 -0.12403814 -0.010504483 2.3509886e-38
-0.027536284 -0.12403814 -0.010504483 2.3509886e-38
-0.025605757 -0.12403814 -0.010504483 2.3509886e-38
-0.023675237 -0.12403814 -0.010504483 2.3509886e-38
-0.021744717 -0.12403814 -0.010504483 2.3509886e-38
-0.019814197 -0.12403814 -0.010504483 2.3509886e-38
-0.017883681 -0.12403814 -0.010504483 2.3509886e-38
-0.016096048 -0.12501745 -0.014479875 2.3509886e-38
-0.014158558 -0.12501745 -0.014479875 2.3509886e-38
-0.012092117 -0.12403814 -0.010504483 2.3509886e-38
-0.010161597 -0.12403814 -0.010504483 2.3509886e-38
-0.0082310773 -0.12403814 -0.010504483 2.3509886e-38
-0.0063005574 -0.12403814 -0.010504483 2.3509886e-38
-0.0044711046 -0.12501745 -0.014479875 2.3509886e-38
-0.0026053526 -0.12576406 -0.017510651 2.3509886e-38
-0.0006625466 -0.12576406 -0.017510651 2.3509886e-38
0.0012802593 -0.12576406 -0.017510651 2.3509886e-38
0.0032230653 -0.12576406 -0.017510651 2.3509886e-38
0.0051658675 -0.12576406 -0.017510651 2.3509886e-38
0.0071086697 -0.12576406 -0.017510651 2.3509886e-38
0.0090514757 -0.12576406 -0.017510651 2.3509886e-38
0.010994282 -0.12576406 -0.017510651 2.3509886e-38
0.012937088 -0.12576406 -0.017510651 2.3509886e-38
0.014879892 -0.12576406 -0.017510651 2.3509886e-38
0.016822696 -0.12576406 -0.017510651 2.3509886e-38
0.018747851 -0.12675591 -0.021536944 2.3509886e-38
0.020689966 -0.1274818 -0.02448356 2.3509886e-38
0.02264758 -0.12675591 -0.021536944 2.3509886e-38
0.024597446 -0.12675591 -0.021536944 2.3509886e-38
0.026547309 -0.12675591 -0.021536944 2.3509886e-38
0.028479524 -0.12576406 -0.017510651 2.3509886e-38
0.03042233 -0.12576406 -0.017510651 2.3509886e-38
0.032365136 -0.12576406 -0.017510651 2.3509886e-38
0.034307938 -0.12576406 -0.017510651 2.3509886e-38
0.036250744 -0.12576406 -0.017510651 2.3509886e-38
0.038193546 -0.12576406 -0.017510651 2.3509886e-38
0.040136352 -0.12576406 -0.017510651 2.3509886e-38
0.042079158 -0.12576406 -0.017510651 2.3509886e-38
0.044021964 -0.12576406 -0.017510651 2.3509886e-38
0.04596477 -0.12576406 -0.017510651 2.3509886e-38
0.047907572 -0.12576406 -0.017510651 2.3509886e-38
0.049850374 -0.12576406 -0.017510651 2.3509886e-38
0.05179318 -0.12576406 -0.017510651 2.3509886e-38
0.053735986 -0.12576406 -0.017510651 2.3509886e-38
0.055678792 -0.12576406 -0.017510651 2.3509886e-38
0.057621595 -0.12576406 -0.017510651 2.3509886e-38
0.0595644 -0.12576406 -0.017510651 2.3509886e-38
0.061403584 -0.12501745 -0.014479875 2.3509886e-38
0.063198186 -0.12403814 -0.010504483 2.3509886e-38
0.065128706 -0.12403814 -0.010504483 2.3509886e-38
0.066903524 -0.12306587 -0.0065577021 2.341805e-38
0.068827122 -0.12306587 -0.0065577021 2.341805e-38
0.071221232 -0.12576406 -0.017510651 2.341805e-38
0.073164031 -0.12576406 -0.017510651 2.3326213e-38
0.075106837 -0.12576406 -0.017510651 2.3326213e-38
0.077774443 -0.12946714 -0.032542825 2.341805e-38
0.079544619 -0.12848614 -0.028560637 2.341805e-38
0.081506796 -0.12848614 -0.028560637 2.341805e-38
0.08325094 -0.1274818 -0.02448356 2.341805e-38
0.085205972 -0.1274818 -0.02448356 2.3509879e-38
0.087393329 -0.12848614 -0.028560637 2.3509149e-38
0.089355513 -0.12848614 -0.028560637 2.3415512e-38
0.089557 -0.12131582 0.00054645655 2.3508805e-38
0.092592083 -0.12576406 -0.017510651 2.3509168e-38
0.094534889 -0.12576406 -0.017510651 2.3416974e-38
0.095554382 -0.12230472 -0.0034679163 2.2957796e-38
0.097472563 -0.12230472 -0.0034679163 2.3142544e-38
0.099390745 -0.12230472 -0.0034679163 2.2867037e-38
-0.10141923 -0.1314363 -0.032542825 2.3325856e-38
-0.09856689 -0.12943684 -0.02448356 2.341805e-38
-0.095859975 -0.12770687 -0.017510651 2.341805e-38
-0.093595669 -0.12695493 -0.014479875 2.341805e-38
-0.09165819 -0.12695493 -0.014479875 2.341805e-38
-0.089312941 -0.12596865 -0.010504483 2.341805e-38
-0.086984515 -0.12498946 -0.0065577021 2.3509886e-38
-0.084754825 -0.12422292 -0.0034679163 2.341769e-38
-0.082836643 -0.12422292 -0.0034679163 2.3509886e-38
-0.080918461 -0.12422292 -0.0034679163 2.3509886e-38
-0.079660341 -0.12596865 -0.010504483 2.3509527e-38
-0.077729821 -0.12596865 -0.010504483 2.3509527e-38
-0.07544291 -0.12498946 -0.0065577021 2.3509527e-38
-0.073519319 -0.12498946 -0.0065577021 2.3509527e-38
-0.071595713 -0.12498946 -0.0065577021 2.3509527e-38
-0.069672108 -0.12498946 -0.0065577021 2.3509527e-38
-0.067491189 -0.12422292 -0.0034679163 2.3509886e-38
-0.065573007 -0.12422292 -0.0034679163 2.3509886e-38
-0.06365481 -0.12422292 -0.0034679163 2.3509886e-38
-0.061736632 -0.12422292 -0.0034679163 2.3509886e-38
-0.060355131 -0.12596865 -0.010504483 2.3509886e-38
-0.058424611 -0.12596865 -0.010504483 2.3509886e-38
-0.056494091 -0.12596865 -0.010504483 2.3509886e-38
-0.054563571 -0.12596865 -0.010504483 2.3509886e-38
-0.052633051 -0.12596865 -0.010504483 2.3509886e-38
-0.050702531 -0.12596865 -0.010504483 2.3509886e-38
-0.048772011 -0.12596865 -0.010504483 2.3509886e-38
-0.046841491 -0.12596865 -0.010504483 2.3509886e-38
-0.044910971 -0.12596865 -0.010504483 2.3509886e-38
-0.042980451 -0.12596865 -0.010504483 2.3509886e-38
-0.041049931 -0.12596865 -0.010504483 2.3509886e-38
-0.039119411 -0.12596865 -0.010504483 2.3509886e-38
-0.037188891 -0.12596865 -0.010504483 2.3509886e-38
-0.035047304 -0.12498946 -0.0065577021 2.3509886e-38
-0.033123706 -0.12498946 -0.0065577021 2.3509886e-38
-0.0312001 -0.12498946 -0.0065577021 2.3509886e-38
-0.029276501 -0.12498946 -0.0065577021 2.3509886e-38
-0.027352903 -0.12498946 -0.0065577021 2.3509886e-38
-0.025605757 -0.12596865 -0.010504483 2.3509886e-38
-0.023675237 -0.12596865 -0.010504483 2.3509886e-38
-0.021744717 -0.12596865 -0.010504483 2.3509886e-38
-0.019814197 -0.12596865 -0.010504483 2.3509886e-38
-0.017883681 -0.12596865 -0.010504483 2.3509886e-38
-0.015953161 -0.12596865 -0.010504483 2.3509886e-38
-0.014022637 -0.12596865 -0.010504483 2.3509886e-38
-0.012092117 -0.12596865 -0.010504483 2.3509886e-38
-0.010161597 -0.12596865 -0.010504483 2.3509886e-38
-0.0082310773 -0.12596865 -0.010504483 2.3509886e-38
-0.0063005574 -0.12596865 -0.010504483 2.3509886e-38
-0.0044711046 -0.12695493 -0.014479875 2.3509886e-38
-0.0025336109 -0.12695493 -0.014479875 2.3509886e-38
-0.0006625466 -0.12770687 -0.017510651 2.3509886e-38
0.0012802593 -0.12770687 -0.017510651 2.3509886e-38
0.0032230653 -0.12770687 -0.017510651 2.3509886e-38
0.0051658675 -0.12770687 -0.017510651 2.3509886e-38
0.0071086697 -0.12770687 -0.017510651 2.3509886e-38
0.0090514757 -0.12770687 -0.017510651 2.3509886e-38
0.010994282 -0.12770687 -0.017510651 2.3509886e-38
0.012937088 -0.12770687 -0.017510651 2.3509886e-38
0.014879892 -0.12770687 -0.017510651 2.3509886e-38
0.016822696 -0.12770687 -0.017510651 2.3509886e-38
0.018765502 -0.12770687 -0.017510651 2.3509886e-38
0.020697717 -0.12870578 -0.021536944 2.3509886e-38
0.02264758 -0.12870578 -0.021536944 2.3509886e-38
0.024597446 -0.12870578 -0.021536944 2.3509886e-38
0.02653672 -0.12770687 -0.017510651 2.3509886e-38
0.028479524 -0.12770687 -0.017510651 2.3509886e-38
0.03042233 -0.12770687 -0.017510651 2.3509886e-38
0.032365136 -0.12770687 -0.017510651 2.3509886e-38
0.034307938 -0.12770687 -0.017510651 2.3509886e-38
0.036250744 -0.12770687 -0.017510651 2.3509886e-38
0.038193546 -0.12770687 -0.017510651 2.3509886e-38
0.040136352 -0.12770687 -0.017510651 2.3509886e-38
0.042028673 -0.12695493 -0.014479875 2.3509886e-38
0.043966167 -0.12695493 -0.014479875 2.3509886e-38
0.045903657 -0.12695493 -0.014479875 2.3509886e-38
0.047841147 -0.12695493 -0.014479875 2.3509886e-38
0.04977864 -0.12695493 -0.014479875 2.3509886e-38
0.051716127 -0.12695493 -0.014479875 2.3509886e-38
0.05365362 -0.12695493 -0.014479875 2.3509886e-38
0.05559111 -0.12695493 -0.014479875 2.3509886e-38
0.0575286 -0.12695493 -0.014479875 2.3509886e-38
0.059466094 -0.12695493 -0.014479875 2.3509886e-38
0.061267663 -0.12596865 -0.010504483 2.3509886e-38
0.062695563 -0.1224993 0.0034793627 2.3509886e-38
0.064601563 -0.1224993 0.0034793627 2.3509886e-38
0.066507563 -0.1224993 0.0034793627 2.341805e-38
0.068413571 -0.1224993 0.0034793627 2.341805e-38
0.070319563 -0.1224993 0.0034793627 2.341805e-38
0.07208994 -0.12174667 0.0065130005 2.341805e-38
0.073990621 -0.12174667 0.0065130005 2.341805e-38
0.075891301 -0.12174667 0.0065130005 2.3326213e-38
0.078992449 -0.12770687 -0.017510651 2.3326213e-38
0.080935255 -0.12770687 -0.017510651 2.341805e-38
0.082878053 -0.12770687 -0.017510651 2.341805e-38
0.084820867 -0.12770687 -0.017510651 2.350988e-38
0.086763665 -0.12770687 -0.017510651 2.3508793e-38
0.087645859 -0.12322696 0.00054645655 2.3509876e-38
0.089557 -0.12322696 0.00054645655 2.3509168e-38
0.091468148 -0.12322696 0.00054645655 2.3508809e-38
0.0936362 -0.12422292 -0.0034679163 2.2956362e-38
0.095290437 -0.12322696 0.00054645655 2.341805e-38
0.097003601 -0.1224993 0.0034793627 2.3234379e-38
0.098699503 -0.12174667 0.0065130005 2.2774832e-38
0.10060018 -0.12174667 0.0065130005 2.3050704e-38
0.10293502 -0.12322696 0.00054645655 2.2958873e-38
0.10410784 -0.1207688 0.010454536 2.2129483e-38
0.10600162 -0.1207688 0.010454536 1.4845677e-38
-0.10467361 -0.12364738 0.0065130005 2.3509167e-38
-0.10277292 -0.12364738 0.0065130005 2.3416974e-38
-0.10097586 -0.13241051 -0.028560637 2.314075e-38
-0.097470656 -0.12889244 -0.014479875 2.3049273e-38
-0.095533162 -0.12889244 -0.014479875 2.3233662e-38
-0.092755318 -0.12691309 -0.0065577021 2.3325856e-38
-0.090831712 -0.12691309 -0.0065577021 2.3509886e-38
-0.088908121 -0.12691309 -0.0065577021 2.3509886e-38
-0.086984515 -0.12691309 -0.0065577021 2.3509886e-38
-0.084357157 -0.12513812 0.00054645655 2.3509886e-38
-0.082446009 -0.12513812 0.00054645655 2.3509527e-38
-0.080918461 -0.12614109 -0.0034679163 2.3509527e-38
-0.079290107 -0.12691309 -0.0065577021 2.3509527e-38
-0.077729821 -0.12789918 -0.010504483 2.3509527e-38
-0.07544291 -0.12691309 -0.0065577021 2.3509527e-38
-0.073519319 -0.12691309 -0.0065577021 2.3509527e-38
-0.071595713 -0.12691309 -0.0065577021 2.3509527e-38
-0.069672108 -0.12691309 -0.0065577021 2.3509527e-38
-0.067156851 -0.12513812 0.00054645655 2.3509886e-38
-0.065245703 -0.12513812 0.00054645655 2.3509886e-38
-0.063334569 -0.12513812 0.00054645655 2.3509886e-38
-0.061423425 -0.12513812 0.00054645655 2.3509886e-38
-0.05981845 -0.12614109 -0.0034679163 2.3509886e-38
-0.057900269 -0.12614109 -0.0034679163 2.3509886e-38
-0.056206916 -0.12691309 -0.0065577021 2.3509886e-38
-0.054563571 -0.12789918 -0.010504483 2.3509886e-38
-0.052633051 -0.12789918 -0.010504483 2.3509886e-38
-0.050702531 -0.12789918 -0.010504483 2.3509886e-38
-0.048772011 -0.12789918 -0.010504483 2.3509886e-38
-0.046841491 -0.12789918 -0.010504483 2.3509886e-38
-0.044910971 -0.12789918 -0.010504483 2.3509886e-38
-0.042980451 -0.12789918 -0.010504483 2.3509886e-38
-0.041049931 -0.12789918 -0.010504483 2.3509886e-38
-0.039119411 -0.12789918 -0.010504483 2.3509886e-38
-0.037188891 -0.12789918 -0.010504483 2.3509886e-38
-0.035047304 -0.12691309 -0.0065577021 2.3509886e-38
-0.033123706 -0.12691309 -0.0065577021 2.3509886e-38
-0.0312001 -0.12691309 -0.0065577021 2.3509886e-38
-0.029276501 -0.12691309 -0.0065577021 2.3509886e-38
-0.027352903 -0.12691309 -0.0065577021 2.3509886e-38
-0.025605757 -0.12789918 -0.010504483 2.3509886e-38
-0.023675237 -0.12789918 -0.010504483 2.3509886e-38
-0.021744717 -0.12789918 -0.010504483 2.3509886e-38
-0.019814197 -0.12789918 -0.010504483 2.3509886e-38
-0.017883681 -0.12789918 -0.010504483 2.3509886e-38
-0.015953161 -0.12789918 -0.010504483 2.3509886e-38
-0.014022637 -0.12789918 -0.010504483 2.3509886e-38
-0.011964098 -0.12691309 -0.0065577021 2.3509886e-38
-0.010040496 -0.12691309 -0.0065577021 2.3509886e-38
-0.0081168972 -0.12691309 -0.0065577021 2.3509886e-38
-0.0063005574 -0.12789918 -0.010504483 2.3509886e-38
-0.0043700375 -0.12789918 -0.010504483 2.3509886e-38
-0.0025336109 -0.12889244 -0.014479875 2.3509886e-38
-0.00059612468 -0.12889244 -0.014479875 2.3509886e-38
0.001341369 -0.12889244 -0.014479875 2.3509886e-38
0.0032230653 -0.12964968 -0.017510651 2.3509886e-38
0.0052163489 -0.12889244 -0.014479875 2.3509886e-38
0.0071538426 -0.12889244 -0.014479875 2.3509886e-38
0.0090913326 -0.12889244 -0.014479875 2.3509886e-38
0.011028823 -0.12889244 -0.014479875 2.3509886e-38
0.012966312 -0.12889244 -0.014479875 2.3509886e-38
0.014879892 -0.12964968 -0.017510651 2.3509886e-38
0.016822696 -0.12964968 -0.017510651 2.3509886e-38
0.018765502 -0.12964968 -0.017510651 2.3509886e-38
0.020697717 -0.13065563 -0.021536944 2.3509886e-38
0.02264758 -0.13065563 -0.021536944 2.3509886e-38
0.024597446 -0.13065563 -0.021536944 2.3509886e-38
0.02653672 -0.12964968 -0.017510651 2.3509886e-38
0.028479524 -0.12964968 -0.017510651 2.3509886e-38
0.03042233 -0.12964968 -0.017510651 2.3509886e-38
0.032365136 -0.12964968 -0.017510651 2.3509886e-38
0.034307938 -0.12964968 -0.017510651 2.3509886e-38
0.036216203 -0.12889244 -0.014479875 2.3509886e-38
0.038153693 -0.12889244 -0.014479875 2.3509886e-38
0.040091187 -0.12889244 -0.014479875 2.3509886e-38
0.042028673 -0.12889244 -0.014479875 2.3509886e-38
0.04389298 -0.12789918 -0.010504483 2.3509886e-38
0.0458235 -0.12789918 -0.010504483 2.3509886e-38
0.047754019 -0.12789918 -0.010504483 2.3509886e-38
0.049684539 -0.12789918 -0.010504483 2.3509886e-38
0.051615059 -0.12789918 -0.010504483 2.3509886e-38
0.053545579 -0.12789918 -0.010504483 2.3509886e-38
0.055476103 -0.12789918 -0.010504483 2.3509886e-38
0.057406623 -0.12789918 -0.010504483 2.3509886e-38
0.059337143 -0.12789918 -0.010504483 2.3509886e-38
0.061027084 -0.12614109 -0.0034679163 2.3509886e-38
0.062586516 -0.12364738 0.0065130005 2.3509886e-38
0.064487204 -0.12364738 0.0065130005 2.3509886e-38
0.066387892 -0.12364738 0.0065130005 2.3509886e-38
0.068288565 -0.12364738 0.0065130005 2.3509886e-38
0.070189252 -0.12364738 0.0065130005 2.341805e-38
0.07208994 -0.12364738 0.0065130005 2.341805e-38
0.073990621 -0.12364738 0.0065130005 2.341805e-38
0.075891301 -0.12364738 0.0065130005 2.3326213e-38
0.078290731 -0.12614109 -0.0034679163 2.3234018e-38
0.080208912 -0.12614109 -0.0034679163 2.3234018e-38
0.082292333 -0.12691309 -0.0065577021 2.3234018e-38
0.083661586 -0.12440531 0.0034793627 2.3326213e-38
0.085567586 -0.12440531 0.0034793627 2.3509886e-38
0.087473586 -0.12440531 0.0034793627 2.3509886e-38
0.089379594 -0.12440531 0.0034793627 2.3509886e-38
0.091096766 -0.12364738 0.0065130005 2.341769e-38
0.092997454 -0.12364738 0.0065130005 2.2864516e-38
0.095097594 -0.12440531 0.0034793627 2.3509886e-38
0.096798822 -0.12364738 0.0065130005 2.341805e-38
0.098426528 -0.12266256 0.010454536 2.2957078e-38
0.10032029 -0.12266256 0.010454536 2.341805e-38
0.10221407 -0.12266256 0.010454536 2.3141466e-38
0.10388467 -0.12191428 0.013449431 2.341805e-38
0.1057732 -0.12191428 0.013449431 1.7241299e-38
0.10766172 -0.12191428 0.013449431 1.0511018e-38
0.10955024 -0.12191428 0.013449431 1.7524358e-39
0.11143877 -0.12191428 0.013449431 1.1999851e-39
-0.10467361 -0.12554805 0.0065130005 2.3509527e-38
-0.10277292 -0.12554805 0.0065130005 2.3509527e-38
-0.10122064 -0.12631132 0.0034793627 2.3509168e-38
-0.09931463 -0.12631132 0.0034793627 2.3509527e-38
-0.097735167 -0.12704925 0.00054645655 2.3509527e-38
-0.096602514 -0.12883668 -0.0065577021 2.341805e-38
-0.093912885 -0.12704925 0.00054645655 2.341805e-38
-0.092001736 -0.12704925 0.00054645655 2.341805e-38
-0.090090588 -0.12704925 0.00054645655 2.3509886e-38
-0.088179439 -0.12704925 0.00054645655 2.3509886e-38
-0.086268306 -0.12704925 0.00054645655 2.3509886e-38
-0.084066615 -0.12631132 0.0034793627 2.3509886e-38
-0.082160607 -0.12631132 0.0034793627 2.3509527e-38
-0.08053486 -0.12704925 0.00054645655 2.3509527e-38
-0.079000279 -0.12805928 -0.0034679163 2.3509527e-38
-0.077366516 -0.12883668 -0.0065577021 2.3509527e-38
-0.07544291 -0.12883668 -0.0065577021 2.3509527e-38
-0.073519319 -0.12883668 -0.0065577021 2.3509527e-38
-0.071327552 -0.12805928 -0.0034679163 2.3509527e-38
-0.06940937 -0.12805928 -0.0034679163 2.3509527e-38
-0.066659942 -0.12554805 0.0065130005 2.3509886e-38
-0.064759254 -0.12554805 0.0065130005 2.3509886e-38
-0.062858567 -0.12554805 0.0065130005 2.3509886e-38
-0.061194587 -0.12631132 0.0034793627 2.3509886e-38
-0.05981845 -0.12805928 -0.0034679163 2.3509886e-38
-0.057900269 -0.12805928 -0.0034679163 2.3509886e-38
-0.056206916 -0.12883668 -0.0065577021 2.3509886e-38
-0.054563571 -0.12982969 -0.010504483 2.3509886e-38
-0.052633051 -0.12982969 -0.010504483 2.3509886e-38
-0.050702531 -0.12982969 -0.010504483 2.3509886e-38
-0.048772011 -0.12982969 -0.010504483 2.3509886e-38
-0.046841491 -0.12982969 -0.010504483 2.3509886e-38
-0.044665311 -0.12883668 -0.0065577021 2.3509886e-38
-0.042741705 -0.12883668 -0.0065577021 2.3509886e-38
-0.040818099 -0.12883668 -0.0065577021 2.3509886e-38
-0.038894508 -0.12883668 -0.0065577021 2.3509886e-38
-0.036970902 -0.12883668 -0.0065577021 2.3509886e-38
-0.034882072 -0.12805928 -0.0034679163 2.3509886e-38
-0.032963891 -0.12805928 -0.0034679163 2.3509886e-38
-0.031045709 -0.12805928 -0.0034679163 2.3509886e-38
-0.029276501 -0.12883668 -0.0065577021 2.3509886e-38
-0.027352903 -0.12883668 -0.0065577021 2.3509886e-38
-0.025605757 -0.12982969 -0.010504483 2.3509886e-38
-0.023675237 -0.12982969 -0.010504483 2.3509886e-38
-0.021908525 -0.13082992 -0.014479875 2.3509886e-38
-0.019971032 -0.13082992 -0.014479875 2.3509886e-38
-0.018033538 -0.13082992 -0.014479875 2.3509886e-38
-0.015953161 -0.12982969 -0.010504483 2.3509886e-38
-0.0138877 -0.12883668 -0.0065577021 2.3509886e-38
-0.011964098 -0.12883668 -0.0065577021 2.3509886e-38
-0.010040496 -0.12883668 -0.0065577021 2.3509886e-38
-0.0081168972 -0.12883668 -0.0065577021 2.3509886e-38
-0.0063005574 -0.12982969 -0.010504483 2.3509886e-38
-0.0043700375 -0.12982969 -0.010504483 2.3509886e-38
-0.0024395175 -0.12982969 -0.010504483 2.3509886e-38
-0.00050899386 -0.12982969 -0.010504483 2.3509886e-38
0.001341369 -0.13082992 -0.014479875 2.3509886e-38
0.003278859 -0.13082992 -0.014479875 2.3509886e-38
0.0052163489 -0.13082992 -0.014479875 2.3509886e-38
0.0071538426 -0.13082992 -0.014479875 2.3509886e-38
0.0091436096 -0.12982969 -0.010504483 2.3509886e-38
0.011268072 -0.12554805 0.0065130005 2.3509886e-38
0.013206765 -0.12455635 0.010454536 2.3509886e-38
0.015100537 -0.12455635 0.010454536 2.3509886e-38
0.016994309 -0.12455635 0.010454536 2.3509886e-38
0.018888082 -0.12455635 0.010454536 2.3509886e-38
0.020789731 -0.12380283 0.013449431 2.3509886e-38
