# .PCD v0.7 - Point Cloud Data file format
VERSION 0.7
FIELDS x y z rgb
SIZE 4 4 4 4
TYPE F F F F
COUNT 1 1 1 1
WIDTH 941
HEIGHT 1
VIEWPOINT 0 0 0 1 0 0 0
POINTS 941
DATA ascii
-0.04765404 -0.12125005 -0.015598752 2.3509886e-38
-0.045846298 -0.12125005 -0.015598752 2.3509886e-38
-0.044038553 -0.12125005 -0.015598752 2.3509886e-38
-0.042230807 -0.12125005 -0.015598752 2.3509886e-38
-0.040423065 -0.12125005 -0.015598752 2.3509886e-38
-0.038566373 -0.12048493 -0.012660123 2.3509886e-38
-0.03676378 -0.12048493 -0.012660123 2.3509886e-38
-0.034961186 -0.12048493 -0.012660123 2.3509886e-38
-0.033158597 -0.12048493 -0.012660123 2.3509886e-38
-0.031509727 -0.12463553 -0.028601266 2.3509886e-38
-0.029703096 -0.12542458 -0.031631805 2.3509886e-38
-0.027830152 -0.12385099 -0.025588132 2.3509886e-38
-0.025991762 -0.123071 -0.022592403 2.3509886e-38
-0.024171755 -0.123071 -0.022592403 2.3509886e-38
-0.022354374 -0.12385099 -0.025588132 2.3509886e-38
-0.020531742 -0.123071 -0.022592403 2.3509886e-38
-0.018722076 -0.12204717 -0.018660165 2.3509886e-38
-0.016908964 -0.12204717 -0.018660165 2.3509886e-38
-0.015132673 -0.12048493 -0.012660123 2.3509886e-38
-0.013353955 -0.11969708 -0.009634234 2.3509886e-38
-0.011556668 -0.11969708 -0.009634234 2.3509886e-38
-0.0097936653 -0.11891381 -0.0066259876 2.3509886e-38
-0.0080409795 -0.11813517 -0.0036353841 2.3509886e-38
-0.0062542111 -0.11813517 -0.0036353841 2.3509886e-38
-0.0044674417 -0.11813517 -0.0036353841 2.3509886e-38
-0.002625617 -0.11891381 -0.0066259876 2.3509886e-38
-0.00083360338 -0.11891381 -0.0066259876 2.3509886e-38
0.0009584084 -0.11891381 -0.0066259876 2.3509886e-38
0.0027504202 -0.11891381 -0.0066259876 2.3509886e-38
0.0047705499 -0.12125005 -0.015598752 2.3509886e-38
0.0066614943 -0.12204717 -0.018660165 2.3509886e-38
0.0084746061 -0.12204717 -0.018660165 2.3509886e-38
0.010408373 -0.123071 -0.022592403 2.3509886e-38
0.012228378 -0.123071 -0.022592403 2.3509886e-38
0.014048387 -0.123071 -0.022592403 2.3509886e-38
0.015868394 -0.123071 -0.022592403 2.3509886e-38
0.017688399 -0.123071 -0.022592403 2.3509886e-38
0.019508408 -0.123071 -0.022592403 2.3509886e-38
0.021040251 -0.12125005 -0.015598752 2.3509886e-38
0.022847997 -0.12125005 -0.015598752 2.3509886e-38
0.024655743 -0.12125005 -0.015598752 2.3509886e-38
0.027671771 -0.12802102 -0.0416039 2.3509886e-38
0.02952511 -0.12802102 -0.0416039 2.3509886e-38
0.031229621 -0.12724553 -0.038625456 2.3509886e-38
0.033077735 -0.12724553 -0.038625456 2.3509886e-38
0.035245314 -0.12880091 -0.044599272 2.3509886e-38
0.036550038 -0.12618984 -0.03457091 2.3509886e-38
0.037708472 -0.123071 -0.022592403 2.3509886e-38
0.039297514 -0.12204717 -0.018660165 2.3509886e-38
0.041110624 -0.12204717 -0.018660165 2.3509886e-38
0.042923737 -0.12204717 -0.018660165 2.3509883e-38
0.045755085 -0.12618984 -0.03457091 2.3509883e-38
0.047596093 -0.12618984 -0.03457091 2.3509883e-38
0.049437102 -0.12618984 -0.03457091 2.3509886e-38
0.05086467 -0.12463553 -0.028601266 2.3509527e-38
0.052695218 -0.12463553 -0.028601266 2.3509527e-38
0.054525759 -0.12463553 -0.028601266 2.3417333e-38
0.056131769 -0.12385099 -0.025588132 2.3417333e-38
0.057957035 -0.12385099 -0.025588132 2.3509886e-38
0.059782293 -0.12385099 -0.025588132 2.3509879e-38
-0.051269531 -0.1230578 -0.015598752 1.5397375e-38
-0.049461789 -0.1230578 -0.015598752 2.350988e-38
-0.04765404 -0.1230578 -0.015598752 2.3509886e-38
-0.04577674 -0.12228753 -0.012660123 2.3509886e-38
-0.043974146 -0.12228753 -0.012660123 2.3509886e-38
-0.042171557 -0.12228753 -0.012660123 2.3509886e-38
-0.040313259 -0.12149437 -0.009634234 2.3509886e-38
-0.03851597 -0.12149437 -0.009634234 2.3509886e-38
-0.036718685 -0.12149437 -0.009634234 2.3509886e-38
-0.034921397 -0.12149437 -0.009634234 2.3509886e-38
-0.033124112 -0.12149437 -0.009634234 2.3509886e-38
-0.031326823 -0.12149437 -0.009634234 2.3509886e-38
-0.029600749 -0.12386028 -0.018660165 2.3509886e-38
-0.027787637 -0.12386028 -0.018660165 2.3509886e-38
-0.025991762 -0.124891 -0.022592403 2.3509886e-38
-0.024171755 -0.124891 -0.022592403 2.3509886e-38
-0.022354374 -0.12567626 -0.025588132 2.3509886e-38
-0.020531742 -0.124891 -0.022592403 2.3509886e-38
-0.018722076 -0.12386028 -0.018660165 2.3509886e-38
-0.016908964 -0.12386028 -0.018660165 2.3509886e-38
-0.015132673 -0.12228753 -0.012660123 2.3509886e-38
-0.013353955 -0.12149437 -0.009634234 2.3509886e-38
-0.011556668 -0.12149437 -0.009634234 2.3509886e-38
-0.0097936653 -0.12070583 -0.0066259876 2.3509886e-38
-0.0080016535 -0.12070583 -0.0066259876 2.3509886e-38
-0.0062542111 -0.11992194 -0.0036353841 2.3509886e-38
-0.0044674417 -0.11992194 -0.0036353841 2.3509886e-38
-0.002625617 -0.12070583 -0.0066259876 2.3509886e-38
-0.00083360338 -0.12070583 -0.0066259876 2.3509886e-38
0.0009584084 -0.12070583 -0.0066259876 2.3509886e-38
0.0027504202 -0.12070583 -0.0066259876 2.3509886e-38
0.004618912 -0.12149437 -0.009634234 2.3509886e-38
0.0064984327 -0.12228753 -0.012660123 2.3509886e-38
0.0083010243 -0.12228753 -0.012660123 2.3509886e-38
0.010408373 -0.124891 -0.022592403 2.3509886e-38
0.012228378 -0.124891 -0.022592403 2.3509886e-38
0.014048387 -0.124891 -0.022592403 2.3509886e-38
0.015868394 -0.124891 -0.022592403 2.3509886e-38
0.017688399 -0.124891 -0.022592403 2.3509886e-38
0.01935328 -0.12386028 -0.018660165 2.3509886e-38
0.021040251 -0.1230578 -0.015598752 2.3509886e-38
0.022847997 -0.1230578 -0.015598752 2.3509886e-38
0.024655743 -0.1230578 -0.015598752 2.3509886e-38
0.02604658 -0.12070583 -0.0066259876 2.3509886e-38
0.027838593 -0.12070583 -0.0066259876 2.3509886e-38
0.029332599 -0.11914261 -0.00066230446 2.3509886e-38
0.031114155 -0.11914261 -0.00066230446 2.3509886e-38
0.03289571 -0.11914261 -0.00066230446 2.3509886e-38
0.035339907 -0.12228753 -0.012660123 2.3509886e-38
0.037142497 -0.12228753 -0.012660123 2.3509527e-38
0.03894509 -0.12228753 -0.012660123 2.3509527e-38
0.040747683 -0.12228753 -0.012660123 2.3509886e-38
0.042361934 -0.12149437 -0.009634234 2.3509886e-38
0.044159222 -0.12149437 -0.009634234 2.3509886e-38
0.045956504 -0.12149437 -0.009634234 2.3509886e-38
0.049437102 -0.12803085 -0.03457091 2.3509886e-38
0.05086467 -0.12646608 -0.028601266 2.3509886e-38
0.052695218 -0.12646608 -0.028601266 2.3417333e-38
0.054306511 -0.12567626 -0.025588132 2.3509527e-38
0.056131769 -0.12567626 -0.025588132 2.3509527e-38
0.057957035 -0.12567626 -0.025588132 2.3325494e-38
-0.051184516 -0.12409012 -0.012660123 1.8440194e-38
-0.049381927 -0.12409012 -0.012660123 2.3509883e-38
-0.047579333 -0.12409012 -0.012660123 2.3509886e-38
-0.04577674 -0.12409012 -0.012660123 2.3509886e-38
-0.043907829 -0.12329166 -0.009634234 2.3509886e-38
-0.042110544 -0.12329166 -0.009634234 2.3509886e-38
-0.040202819 -0.12170871 -0.0036353841 2.3509886e-38
-0.03841605 -0.12170871 -0.0036353841 2.3509886e-38
-0.036673851 -0.12249784 -0.0066259876 2.3509886e-38
-0.034842514 -0.12170871 -0.0036353841 2.3509886e-38
-0.033055745 -0.12170871 -0.0036353841 2.3509886e-38
-0.031268973 -0.12170871 -0.0036353841 2.3509886e-38
-0.02955341 -0.12409012 -0.012660123 2.3509886e-38
-0.027750818 -0.12409012 -0.012660123 2.3509886e-38
-0.025974525 -0.1256734 -0.018660165 2.3509886e-38
-0.024161413 -0.1256734 -0.018660165 2.3509886e-38
-0.022351747 -0.126711 -0.022592403 2.3509886e-38
-0.020531742 -0.126711 -0.022592403 2.3509886e-38
-0.018711735 -0.126711 -0.022592403 2.3509886e-38
-0.016908964 -0.1256734 -0.018660165 2.3509886e-38
-0.015132673 -0.12409012 -0.012660123 2.3509886e-38
-0.013353955 -0.12329166 -0.009634234 2.3509886e-38
-0.011556668 -0.12329166 -0.009634234 2.3509886e-38
-0.0097936653 -0.12249784 -0.0066259876 2.3509886e-38
-0.0080016535 -0.12249784 -0.0066259876 2.3509886e-38
-0.0062096408 -0.12249784 -0.0066259876 2.3509886e-38
-0.004417629 -0.12249784 -0.0066259876 2.3509886e-38
-0.002625617 -0.12249784 -0.0066259876 2.3509886e-38
-0.00083360338 -0.12249784 -0.0066259876 2.3509886e-38
0.00089286378 -0.12170871 -0.0036353841 2.3509886e-38
0.0026796323 -0.12170871 -0.0036353841 2.3509886e-38
0.0044664023 -0.12170871 -0.0036353841 2.3509886e-38
0.0061723711 -0.12092416 -0.00066230446 2.3509886e-38
0.0079539279 -0.12092416 -0.00066230446 2.3509886e-38
0.010408373 -0.126711 -0.022592403 2.3509886e-38
0.012325552 -0.1275015 -0.025588132 2.3509886e-38
0.01415081 -0.1275015 -0.025588132 2.3509886e-38
0.015976069 -0.1275015 -0.025588132 2.3509886e-38
0.017688399 -0.126711 -0.022592403 2.3509886e-38
0.01935328 -0.1256734 -0.018660165 2.3509886e-38
0.021040251 -0.12486555 -0.015598752 2.3509886e-38
0.022847997 -0.12486555 -0.015598752 2.3509886e-38
0.024655743 -0.12486555 -0.015598752 2.3509886e-38
0.025907626 -0.12170871 -0.0036353841 2.3509886e-38
0.027694395 -0.12170871 -0.0036353841 2.3509886e-38
0.029332599 -0.12092416 -0.00066230446 2.3509886e-38
0.031114155 -0.12092416 -0.00066230446 2.3509886e-38
0.03289571 -0.12092416 -0.00066230446 2.3509886e-38
0.035339907 -0.12409012 -0.012660123 2.3509886e-38
0.037142497 -0.12409012 -0.012660123 2.3509527e-38
0.03894509 -0.12409012 -0.012660123 2.3509527e-38
0.040747683 -0.12409012 -0.012660123 2.3509886e-38
0.042361934 -0.12329166 -0.009634234 2.3509886e-38
0.044159222 -0.12329166 -0.009634234 2.3509886e-38
0.045956504 -0.12329166 -0.009634234 2.3509886e-38
0.047753792 -0.12329166 -0.009634234 2.3509886e-38
0.05086467 -0.1282966 -0.028601266 2.3509886e-38
0.052695218 -0.1282966 -0.028601266 2.3325138e-38
0.054306511 -0.1275015 -0.025588132 2.3509527e-38
0.056131769 -0.1275015 -0.025588132 2.3509886e-38
0.057957035 -0.1275015 -0.025588132 2.31411e-38
0.059782293 -0.1275015 -0.025588132 2.3509873e-38
-0.051184516 -0.12589271 -0.012660123 2.3234369e-38
-0.049381927 -0.12589271 -0.012660123 2.3509883e-38
-0.047502406 -0.12508895 -0.009634234 2.3509886e-38
-0.045705117 -0.12508895 -0.009634234 2.3509886e-38
-0.043776356 -0.12349547 -0.0036353841 2.3509886e-38
-0.041989587 -0.12349547 -0.0036353841 2.3509886e-38
-0.040091798 -0.12189357 0.0023951754 2.3509886e-38
-0.038315602 -0.12189357 0.0023951754 2.3509886e-38
-0.036539406 -0.12189357 0.0023951754 2.3509886e-38
-0.034803417 -0.12270571 -0.00066230446 2.3509886e-38
-0.03302186 -0.12270571 -0.00066230446 2.3509886e-38
-0.031210819 -0.12189357 0.0023951754 2.3509886e-38
-0.029434623 -0.12189357 0.0023951754 2.3509886e-38
-0.027750818 -0.12589271 -0.012660123 2.3509886e-38
-0.025974525 -0.12748651 -0.018660165 2.3509886e-38
-0.024161413 -0.12748651 -0.018660165 2.3509886e-38
-0.022351747 -0.12853102 -0.022592403 2.3509886e-38
-0.020531742 -0.12853102 -0.022592403 2.3509886e-38
-0.018722076 -0.12748651 -0.018660165 2.3509886e-38
-0.016908964 -0.12748651 -0.018660165 2.3509886e-38
-0.015132673 -0.12589271 -0.012660123 2.3509886e-38
-0.013353955 -0.12508895 -0.009634234 2.3509886e-38
-0.011556668 -0.12508895 -0.009634234 2.3509886e-38
-0.0097936653 -0.12428986 -0.0066259876 2.3509886e-38
-0.0080016535 -0.12428986 -0.0066259876 2.3509886e-38
-0.0062096408 -0.12428986 -0.0066259876 2.3509886e-38
-0.004417629 -0.12428986 -0.0066259876 2.3509886e-38
-0.002625617 -0.12428986 -0.0066259876 2.3509886e-38
-0.00083360338 -0.12428986 -0.0066259876 2.3509886e-38
0.00082770473 -0.12270571 -0.00066230446 2.3509886e-38
0.0026092597 -0.12270571 -0.00066230446 2.3509886e-38
0.0043908162 -0.12270571 -0.00066230446 2.3509886e-38
0.0061723711 -0.12270571 -0.00066230446 2.3509886e-38
0.0079539279 -0.12270571 -0.00066230446 2.3509886e-38
0.0097354846 -0.12270571 -0.00066230446 2.3509886e-38
0.010736854 -0.11631663 0.023390256 2.3509886e-38
0.01247624 -0.11631663 0.023390256 2.3509886e-38
0.014107377 -0.11551671 0.026401781 2.3509886e-38
0.015841482 -0.11551671 0.026401781 2.3509886e-38
0.017575586 -0.11551671 0.026401781 2.3509886e-38
0.01930969 -0.11551671 0.026401781 2.3509886e-38
0.02233409 -0.12349547 -0.0036353841 2.3509886e-38
0.024120858 -0.12349547 -0.0036353841 2.3509886e-38
0.025907626 -0.12349547 -0.0036353841 2.3509886e-38
0.027694395 -0.12349547 -0.0036353841 2.3509886e-38
0.029332599 -0.12270571 -0.00066230446 2.3509886e-38
0.031114155 -0.12270571 -0.00066230446 2.3509886e-38
0.033375498 -0.12508895 -0.009634234 2.3509886e-38
0.035339907 -0.12589271 -0.012660123 2.3509886e-38
0.037142497 -0.12589271 -0.012660123 2.3509527e-38
0.03894509 -0.12589271 -0.012660123 2.3509527e-38
0.040747683 -0.12589271 -0.012660123 2.3509527e-38
0.042550277 -0.12589271 -0.012660123 2.3509886e-38
0.044352863 -0.12589271 -0.012660123 2.3509886e-38
0.046155456 -0.12589271 -0.012660123 2.3509886e-38
0.047263917 -0.11631663 0.023390256 2.3509886e-38
0.049003299 -0.11631663 0.023390256 2.3232944e-38
0.05383696 -0.11497755 0.028431438 2.3049261e-38
-0.05298711 -0.12769531 -0.012660123 1.5306621e-38
-0.051184516 -0.12769531 -0.012660123 2.2774111e-38
-0.049381927 -0.12769531 -0.012660123 2.3509883e-38
-0.047502406 -0.12688623 -0.009634234 2.3509886e-38
-0.045705117 -0.12688623 -0.009634234 2.3509886e-38
-0.043776356 -0.12528224 -0.0036353841 2.3509886e-38
-0.04192964 -0.1244873 -0.00066230446 2.3509886e-38
-0.03998208 -0.12207626 0.0083548054 2.3509886e-38
-0.038216334 -0.12207626 0.0083548054 2.3509886e-38
-0.036361329 -0.12047486 0.014343999 2.3509886e-38
-0.034606084 -0.12047486 0.014343999 2.3509886e-38
-0.032884866 -0.12127317 0.011358283 2.3509886e-38
-0.031124385 -0.12127317 0.011358283 2.3509886e-38
-0.029340347 -0.12047486 0.014343999 2.3509886e-38
-0.027585102 -0.12047486 0.014343999 2.3509886e-38
-0.025829857 -0.12047486 0.014343999 2.3509886e-38
-0.024074612 -0.12047486 0.014343999 2.3509886e-38
-0.022319367 -0.12047486 0.014343999 2.3509886e-38
-0.020564122 -0.12047486 0.014343999 2.3509886e-38
-0.018722076 -0.1292996 -0.018660165 2.3509886e-38
-0.016908964 -0.1292996 -0.018660165 2.3509886e-38
-0.015132673 -0.12769531 -0.012660123 2.3509886e-38
-0.013614519 -0.11805601 0.023390256 2.3509886e-38
-0.011904175 -0.11725079 0.026401781 2.3509886e-38
-0.010170072 -0.11725079 0.026401781 2.3509886e-38
-0.0083963666 -0.11805601 0.023390256 2.3509886e-38
-0.0066569829 -0.11805601 0.023390256 2.3509886e-38
-0.0051005771 -0.11511876 0.034375511 2.3509886e-38
-0.0033804539 -0.11511876 0.034375511 2.3509886e-38
-0.0016603309 -0.11511876 0.034375511 2.3509886e-38
0.00082770473 -0.1244873 -0.00066230446 2.3509886e-38
0.0026092597 -0.1244873 -0.00066230446 2.3509886e-38
0.0043908162 -0.1244873 -0.00066230446 2.3509886e-38
0.0061723711 -0.1244873 -0.00066230446 2.3509886e-38
0.0079539279 -0.1244873 -0.00066230446 2.3509886e-38
0.0089050671 -0.11725079 0.026401781 2.3509886e-38
0.010736854 -0.11805601 0.023390256 2.3509886e-38
0.01247624 -0.11805601 0.023390256 2.3509886e-38
0.014107377 -0.11725079 0.026401781 2.3509886e-38
0.015841482 -0.11725079 0.026401781 2.3509886e-38
0.017575586 -0.11725079 0.026401781 2.3509886e-38
0.01930969 -0.11725079 0.026401781 2.3509886e-38
0.020956608 -0.11670811 0.028431438 2.3509886e-38
0.024120858 -0.12528224 -0.0036353841 2.3509886e-38
0.025907626 -0.12528224 -0.0036353841 2.3509886e-38
0.027694395 -0.12528224 -0.0036353841 2.3509886e-38
0.029630607 -0.12608187 -0.0066259876 2.3509886e-38
0.031422615 -0.12608187 -0.0066259876 2.3509886e-38
0.033375498 -0.12688623 -0.009634234 2.3509886e-38
0.035172787 -0.12688623 -0.009634234 2.3509886e-38
0.036970071 -0.12688623 -0.009634234 2.3509527e-38
0.03894509 -0.12769531 -0.012660123 2.3509527e-38
0.040747683 -0.12769531 -0.012660123 2.3509527e-38
0.03962262 -0.11511876 0.034375511 2.3509886e-38
0.041342746 -0.11511876 0.034375511 2.3509886e-38
0.043785144 -0.11805601 0.023390256 2.3509886e-38
0.045184236 -0.11670811 0.028431438 2.3509886e-38
0.047263917 -0.11805601 0.023390256 2.3509886e-38
0.049003299 -0.11805601 0.023390256 2.3325138e-38
0.050742682 -0.11805601 0.023390256 2.3325497e-38
0.052482065 -0.11805601 0.023390256 2.3509886e-38
0.055567507 -0.11670811 0.028431438 2.1758871e-38
-0.048484538 -0.12061088 0.020360373 2.3509883e-38
-0.046739839 -0.12061088 0.020360373 2.3509886e-38
-0.044995144 -0.12061088 0.020360373 2.3509886e-38
-0.043250449 -0.12061088 0.020360373 2.3509886e-38
-0.041505754 -0.12061088 0.020360373 2.3509886e-38
-0.039761059 -0.12061088 0.020360373 2.3509886e-38
-0.03801636 -0.12061088 0.020360373 2.3509886e-38
-0.036271665 -0.12061088 0.020360373 2.3509886e-38
-0.034526967 -0.12061088 0.020360373 2.3509886e-38
-0.032782272 -0.12061088 0.020360373 2.3509886e-38
-0.031066019 -0.12140475 0.017410599 2.3509886e-38
-0.029292878 -0.12061088 0.020360373 2.3509886e-38
-0.027548181 -0.12061088 0.020360373 2.3509886e-38
-0.025803486 -0.12061088 0.020360373 2.3509886e-38
-0.024058789 -0.12061088 0.020360373 2.3509886e-38
-0.022314092 -0.12061088 0.020360373 2.3509886e-38
-0.020569397 -0.12061088 0.020360373 2.3509886e-38
-0.018832669 -0.1197954 0.023390256 2.3509886e-38
-0.017093284 -0.1197954 0.023390256 2.3509886e-38
-0.015372383 -0.11898489 0.026401781 2.3509886e-38
-0.013638279 -0.11898489 0.026401781 2.3509886e-38
-0.011904175 -0.11898489 0.026401781 2.3509886e-38
-0.010170072 -0.11898489 0.026401781 2.3509886e-38
-0.0084359683 -0.11898489 0.026401781 2.3509886e-38
-0.0067018652 -0.11898489 0.026401781 2.3509886e-38
-0.0051005771 -0.11683889 0.034375511 2.3509886e-38
-0.0033804539 -0.11683889 0.034375511 2.3509886e-38
-0.0014388307 -0.1197954 0.023390256 2.3509886e-38
0.00030055194 -0.1197954 0.023390256 2.3509886e-38
0.0019686532 -0.11898489 0.026401781 2.3509886e-38
0.0037027572 -0.11898489 0.026401781 2.3509886e-38
0.005436861 -0.11898489 0.026401781 2.3509886e-38
0.0072580865 -0.1197954 0.023390256 2.3509886e-38
0.0089050671 -0.11898489 0.026401781 2.3509886e-38
0.010639173 -0.11898489 0.026401781 2.3509886e-38
0.012373273 -0.11898489 0.026401781 2.3509886e-38
0.014107377 -0.11898489 0.026401781 2.3509886e-38
0.015841482 -0.11898489 0.026401781 2.3509886e-38
0.017575586 -0.11898489 0.026401781 2.3509886e-38
0.01930969 -0.11898489 0.026401781 2.3509886e-38
0.020956608 -0.11843865 0.028431438 2.3509886e-38
0.02268715 -0.11843865 0.028431438 2.3509886e-38
0.024417697 -0.11843865 0.028431438 2.3509886e-38
0.026148243 -0.11843865 0.028431438 2.3509886e-38
0.027878786 -0.11843865 0.028431438 2.3509886e-38
0.029609332 -0.11843865 0.028431438 2.3509886e-38
0.031448413 -0.11898489 0.026401781 2.3509886e-38
0.033348843 -0.1197954 0.023390256 2.3509886e-38
0.034631096 -0.11763634 0.031412445 2.3509527e-38
0.036356416 -0.11763634 0.031412445 2.3509527e-38
0.037902497 -0.11683889 0.034375511 2.3509527e-38
0.03962262 -0.11683889 0.034375511 2.3509886e-38
0.041342746 -0.11683889 0.034375511 2.3509886e-38
0.043785144 -0.1197954 0.023390256 2.3509886e-38
0.045184236 -0.11843865 0.028431438 2.3509886e-38
0.046914775 -0.11843865 0.028431438 2.3509886e-38
0.048789453 -0.11898489 0.026401781 2.3509527e-38
0.050523553 -0.11898489 0.026401781 2.3325497e-38
0.052106414 -0.11843865 0.028431438 2.3509886e-38
0.05383696 -0.11843865 0.028431438 2.3418042e-38
0.055567507 -0.11843865 0.028431438 2.1297893e-38
-0.055256765 -0.120719 0.026401781 9.6812544e-39
-0.053522665 -0.120719 0.026401781 2.3418045e-38
-0.051788561 -0.120719 0.026401781 2.3418045e-38
-0.048564702 -0.12315463 0.017410599 2.3509883e-38
-0.046739839 -0.12235557 0.020360373 2.3509886e-38
-0.044995144 -0.12235557 0.020360373 2.3509886e-38
-0.043184042 -0.12153481 0.023390256 2.3509886e-38
-0.041444659 -0.12153481 0.023390256 2.3509886e-38
-0.039761059 -0.12235557 0.020360373 2.3509886e-38
-0.03801636 -0.12235557 0.020360373 2.3509886e-38
-0.036271665 -0.12235557 0.020360373 2.3509886e-38
-0.034487125 -0.12153481 0.023390256 2.3509886e-38
-0.032747742 -0.12153481 0.023390256 2.3509886e-38
-0.031037575 -0.12235557 0.020360373 2.3509886e-38
-0.029268971 -0.12153481 0.023390256 2.3509886e-38
-0.027529588 -0.12153481 0.023390256 2.3509886e-38
-0.025790205 -0.12153481 0.023390256 2.3509886e-38
-0.024050821 -0.12153481 0.023390256 2.3509886e-38
-0.022311436 -0.12153481 0.023390256 2.3509886e-38
-0.020572053 -0.12153481 0.023390256 2.3509886e-38
-0.018840589 -0.120719 0.026401781 2.3509886e-38
-0.017106486 -0.120719 0.026401781 2.3509886e-38
-0.015372383 -0.120719 0.026401781 2.3509886e-38
-0.013638279 -0.120719 0.026401781 2.3509886e-38
-0.011904175 -0.120719 0.026401781 2.3509886e-38
-0.010170072 -0.120719 0.026401781 2.3509886e-38
-0.0084359683 -0.120719 0.026401781 2.3509886e-38
-0.0067018652 -0.120719 0.026401781 2.3509886e-38
-0.0049677612 -0.120719 0.026401781 2.3509886e-38
-0.003233657 -0.120719 0.026401781 2.3509886e-38
-0.001499553 -0.120719 0.026401781 2.3509886e-38
0.00023454911 -0.120719 0.026401781 2.3509886e-38
0.0019686532 -0.120719 0.026401781 2.3509886e-38
0.0036511563 -0.12016918 0.028431438 2.3509886e-38
0.0053817006 -0.12016918 0.028431438 2.3509886e-38
0.0071122451 -0.12016918 0.028431438 2.3509886e-38
0.0088427914 -0.12016918 0.028431438 2.3509886e-38
0.010573336 -0.12016918 0.028431438 2.3509886e-38
0.012303882 -0.12016918 0.028431438 2.3509886e-38
0.014034425 -0.12016918 0.028431438 2.3509886e-38
0.015764972 -0.12016918 0.028431438 2.3509886e-38
0.017495515 -0.12016918 0.028431438 2.3509886e-38
0.019226061 -0.12016918 0.028431438 2.3509886e-38
0.020956608 -0.12016918 0.028431438 2.3509886e-38
0.02268715 -0.12016918 0.028431438 2.3509886e-38
0.024417697 -0.12016918 0.028431438 2.3509886e-38
0.026148243 -0.12016918 0.028431438 2.3509886e-38
0.027729826 -0.11936165 0.031412445 2.3509886e-38
0.029455142 -0.11936165 0.031412445 2.3509886e-38
0.031180462 -0.11936165 0.031412445 2.3509886e-38
0.03290578 -0.11936165 0.031412445 2.3509886e-38
0.034631096 -0.11936165 0.031412445 2.3509527e-38
0.036356416 -0.11936165 0.031412445 2.3509527e-38
0.037902497 -0.11855899 0.034375511 2.3509886e-38
0.03962262 -0.11855899 0.034375511 2.3509886e-38
0.041342746 -0.11855899 0.034375511 2.3509886e-38
0.043257687 -0.11936165 0.031412445 2.3509883e-38
0.044983003 -0.11936165 0.031412445 2.3509886e-38
0.046708327 -0.11936165 0.031412445 2.3509886e-38
0.048433643 -0.11936165 0.031412445 2.3509527e-38
0.050158959 -0.11936165 0.031412445 2.3417691e-38
0.051884282 -0.11936165 0.031412445 2.341769e-38
0.053151745 -0.11773549 0.037415527 2.3049259e-38
0.054866534 -0.11773549 0.037415527 2.0836914e-38
0.05658133 -0.11773549 0.037415527 7.7454839e-39
-0.053522665 -0.12245311 0.026401781 2.3326208e-38
-0.051788561 -0.12245311 0.026401781 2.3418045e-38
-0.05014158 -0.12327419 0.023390256 2.332621e-38
-0.048402198 -0.12327419 0.023390256 2.3509886e-38
-0.046662811 -0.12327419 0.023390256 2.3509886e-38
-0.044923428 -0.12327419 0.023390256 2.3509886e-38
-0.043184042 -0.12327419 0.023390256 2.3509886e-38
-0.041444659 -0.12327419 0.023390256 2.3509886e-38
-0.039705276 -0.12327419 0.023390256 2.3509886e-38
-0.037965894 -0.12327419 0.023390256 2.3509886e-38
-0.036226511 -0.12327419 0.023390256 2.3509886e-38
-0.034487125 -0.12327419 0.023390256 2.3509886e-38
-0.032747742 -0.12327419 0.023390256 2.3509886e-38
-0.031008355 -0.12327419 0.023390256 2.3509886e-38
-0.029268971 -0.12327419 0.023390256 2.3509886e-38
-0.027529588 -0.12327419 0.023390256 2.3509886e-38
-0.025790205 -0.12327419 0.023390256 2.3509886e-38
-0.024050821 -0.12327419 0.023390256 2.3509886e-38
-0.022311436 -0.12327419 0.023390256 2.3509886e-38
-0.020574693 -0.12245311 0.026401781 2.3509886e-38
-0.018840589 -0.12245311 0.026401781 2.3509886e-38
-0.017106486 -0.12245311 0.026401781 2.3509886e-38
-0.015372383 -0.12245311 0.026401781 2.3509886e-38
-0.013638279 -0.12245311 0.026401781 2.3509886e-38
-0.011904175 -0.12245311 0.026401781 2.3509886e-38
-0.010170072 -0.12245311 0.026401781 2.3509886e-38
-0.0084359683 -0.12245311 0.026401781 2.3509886e-38
-0.0067018652 -0.12245311 0.026401781 2.3509886e-38
-0.0049677612 -0.12245311 0.026401781 2.3509886e-38
-0.003233657 -0.12245311 0.026401781 2.3509886e-38
-0.001540479 -0.12189974 0.028431438 2.3509886e-38
0.00019006542 -0.12189974 0.028431438 2.3509886e-38
0.0018500511 -0.12108697 0.031412445 2.3509886e-38
0.003575369 -0.12108697 0.031412445 2.3509886e-38
0.0053006867 -0.12108697 0.031412445 2.3509886e-38
0.0070260046 -0.12108697 0.031412445 2.3509886e-38
0.0087513244 -0.12108697 0.031412445 2.3509886e-38
0.010476642 -0.12108697 0.031412445 2.3509886e-38
0.012201958 -0.12108697 0.031412445 2.3509886e-38
0.013927278 -0.12108697 0.031412445 2.3509886e-38
0.015652599 -0.12108697 0.031412445 2.3509886e-38
0.017377915 -0.12108697 0.031412445 2.3509886e-38
0.019226061 -0.12189974 0.028431438 2.3509886e-38
0.020828551 -0.12108697 0.031412445 2.3509886e-38
0.02255387 -0.12108697 0.031412445 2.3509886e-38
0.02427919 -0.12108697 0.031412445 2.3509886e-38
0.026004506 -0.12108697 0.031412445 2.3509886e-38
0.027729826 -0.12108697 0.031412445 2.3509886e-38
0.029301884 -0.12027912 0.034375511 2.3509886e-38
0.031022007 -0.12027912 0.034375511 2.3509886e-38
0.032742128 -0.12027912 0.034375511 2.3509886e-38
0.034462251 -0.12027912 0.034375511 2.3509527e-38
0.036182374 -0.12027912 0.034375511 2.3509527e-38
0.037902497 -0.12027912 0.034375511 2.3509886e-38
0.03962262 -0.12027912 0.034375511 2.3509883e-38
0.041342746 -0.12027912 0.034375511 2.3509883e-38
0.043062869 -0.12027912 0.034375511 2.3509883e-38
0.044782992 -0.12027912 0.034375511 2.3509886e-38
0.046503115 -0.12027912 0.034375511 2.3509886e-38
0.048223238 -0.12027912 0.034375511 2.3509886e-38
0.049943361 -0.12027912 0.034375511 2.3417691e-38
0.05143695 -0.11945029 0.037415527 2.3509886e-38
0.052928496 -0.11865224 0.040342592 2.3049259e-38
0.054638159 -0.11865224 0.040342592 2.0836914e-38
0.056347813 -0.11865224 0.040342592 7.6532911e-39
-0.055256765 -0.12418722 0.026401781 1.1893233e-38
-0.053522665 -0.12418722 0.026401781 2.3509883e-38
-0.051788561 -0.12418722 0.026401781 2.3509883e-38
-0.05014158 -0.12501357 0.023390256 2.3509883e-38
-0.048402198 -0.12501357 0.023390256 2.3509886e-38
-0.046662811 -0.12501357 0.023390256 2.3509886e-38
-0.044923428 -0.12501357 0.023390256 2.3509886e-38
-0.043184042 -0.12501357 0.023390256 2.3509886e-38
-0.041444659 -0.12501357 0.023390256 2.3509886e-38
-0.039705276 -0.12501357 0.023390256 2.3509886e-38
-0.037965894 -0.12501357 0.023390256 2.3509886e-38
-0.036226511 -0.12501357 0.023390256 2.3509886e-38
-0.034487125 -0.12501357 0.023390256 2.3509886e-38
-0.032747742 -0.12501357 0.023390256 2.3509886e-38
-0.031008355 -0.12501357 0.023390256 2.3509886e-38
-0.029245211 -0.12418722 0.026401781 2.3509886e-38
-0.027511107 -0.12418722 0.026401781 2.3509886e-38
-0.025777003 -0.12418722 0.026401781 2.3509886e-38
-0.024042901 -0.12418722 0.026401781 2.3509886e-38
-0.022308797 -0.12418722 0.026401781 2.3509886e-38
-0.020574693 -0.12418722 0.026401781 2.3509886e-38
-0.018840589 -0.12418722 0.026401781 2.3509886e-38
-0.017106486 -0.12418722 0.026401781 2.3509886e-38
-0.015372383 -0.12418722 0.026401781 2.3509886e-38
-0.013638279 -0.12418722 0.026401781 2.3509886e-38
-0.011904175 -0.12418722 0.026401781 2.3509886e-38
-0.010170072 -0.12418722 0.026401781 2.3509886e-38
-0.0084359683 -0.12418722 0.026401781 2.3509886e-38
-0.0067018652 -0.12418722 0.026401781 2.3509886e-38
-0.0049677612 -0.12418722 0.026401781 2.3509886e-38
-0.0032710235 -0.12363027 0.028431438 2.3509886e-38
-0.001540479 -0.12363027 0.028431438 2.3509886e-38
0.00012473314 -0.12281232 0.031412445 2.3509886e-38
0.0018500511 -0.12281232 0.031412445 2.3509886e-38
0.003575369 -0.12281232 0.031412445 2.3509886e-38
0.0053006867 -0.12281232 0.031412445 2.3509886e-38
0.0070260046 -0.12281232 0.031412445 2.3509886e-38
0.0087513244 -0.12281232 0.031412445 2.3509886e-38
0.010476642 -0.12281232 0.031412445 2.3509886e-38
0.012201958 -0.12281232 0.031412445 2.3509886e-38
0.013927278 -0.12281232 0.031412445 2.3509886e-38
0.015652599 -0.12281232 0.031412445 2.3509886e-38
0.017377915 -0.12281232 0.031412445 2.3509886e-38
0.019226061 -0.12363027 0.028431438 2.3509886e-38
0.020828551 -0.12281232 0.031412445 2.3509886e-38
0.02255387 -0.12281232 0.031412445 2.3509886e-38
0.02427919 -0.12281232 0.031412445 2.3509886e-38
0.026004506 -0.12281232 0.031412445 2.3509886e-38
0.027581761 -0.12199925 0.034375511 2.3509886e-38
0.029301884 -0.12199925 0.034375511 2.3509886e-38
0.031022007 -0.12199925 0.034375511 2.3509886e-38
0.032742128 -0.12199925 0.034375511 2.3509886e-38
0.034462251 -0.12199925 0.034375511 2.3509886e-38
0.036182374 -0.12199925 0.034375511 2.3509886e-38
0.037902497 -0.12199925 0.034375511 2.3509886e-38
0.03962262 -0.12199925 0.034375511 2.3509883e-38
0.041342746 -0.12199925 0.034375511 2.3509883e-38
0.043062869 -0.12199925 0.034375511 2.350988e-38
0.044782992 -0.12199925 0.034375511 2.3509883e-38
0.046503115 -0.12199925 0.034375511 2.3509886e-38
0.048223238 -0.12199925 0.034375511 2.3509886e-38
0.049943361 -0.12199925 0.034375511 2.3509886e-38
0.05143695 -0.12116508 0.037415527 2.3509886e-38
0.052928496 -0.12036191 0.040342592 2.3418042e-38
0.054638159 -0.12036191 0.040342592 2.1205697e-38
0.058057476 -0.12036191 0.040342592 7.4692515e-39
-0.055256765 -0.12592132 0.026401781 1.1247864e-38
-0.053522665 -0.12592132 0.026401781 2.3509883e-38
-0.051788561 -0.12592132 0.026401781 2.3048905e-38
-0.05014158 -0.12675296 0.023390256 2.2864513e-38
-0.048402198 -0.12675296 0.023390256 2.3509886e-38
-0.046662811 -0.12675296 0.023390256 2.3509886e-38
-0.044923428 -0.12675296 0.023390256 2.3509886e-38
-0.043184042 -0.12675296 0.023390256 2.3509886e-38
-0.041444659 -0.12675296 0.023390256 2.3509886e-38
-0.039705276 -0.12675296 0.023390256 2.3509886e-38
-0.037965894 -0.12675296 0.023390256 2.3509886e-38
-0.036226511 -0.12675296 0.023390256 2.3509886e-38
-0.034447525 -0.12592132 0.026401781 2.3509886e-38
-0.032713421 -0.12592132 0.026401781 2.3509886e-38
-0.030979315 -0.12592132 0.026401781 2.3509886e-38
-0.029245211 -0.12592132 0.026401781 2.3509886e-38
-0.027511107 -0.12592132 0.026401781 2.3509886e-38
-0.025777003 -0.12592132 0.026401781 2.3509886e-38
-0.024042901 -0.12592132 0.026401781 2.3509886e-38
-0.022308797 -0.12592132 0.026401781 2.3509886e-38
-0.020574693 -0.12592132 0.026401781 2.3509886e-38
-0.018840589 -0.12592132 0.026401781 2.3509886e-38
-0.017106486 -0.12592132 0.026401781 2.3509886e-38
-0.015372383 -0.12592132 0.026401781 2.3509886e-38
-0.013638279 -0.12592132 0.026401781 2.3509886e-38
-0.011904175 -0.12592132 0.026401781 2.3509886e-38
-0.010170072 -0.12592132 0.026401781 2.3509886e-38
-0.0084359683 -0.12592132 0.026401781 2.3509886e-38
-0.0067018652 -0.12592132 0.026401781 2.3509886e-38
-0.0050015682 -0.12536083 0.028431438 2.3509886e-38
-0.0032710235 -0.12536083 0.028431438 2.3509886e-38
-0.0016005847 -0.12453763 0.031412445 2.3509886e-38
5.9792015e-05 -0.12371938 0.034375511 2.3509886e-38
0.0017799151 -0.12371938 0.034375511 2.3509886e-38
0.0035000381 -0.12371938 0.034375511 2.3509886e-38
0.0052201608 -0.12371938 0.034375511 2.3509886e-38
0.0069402838 -0.12371938 0.034375511 2.3509886e-38
0.0086604068 -0.12371938 0.034375511 2.3509886e-38
0.01038053 -0.12371938 0.034375511 2.3509886e-38
0.012201958 -0.12453763 0.031412445 2.3509886e-38
0.013927278 -0.12453763 0.031412445 2.3509886e-38
0.015652599 -0.12453763 0.031412445 2.3509886e-38
0.017377915 -0.12453763 0.031412445 2.3509886e-38
0.019103235 -0.12453763 0.031412445 2.3509886e-38
0.020701269 -0.12371938 0.034375511 2.3509886e-38
0.022421392 -0.12371938 0.034375511 2.3509886e-38
0.02427919 -0.12453763 0.031412445 2.3509886e-38
0.025861638 -0.12371938 0.034375511 2.3509886e-38
0.027581761 -0.12371938 0.034375511 2.3509886e-38
0.029301884 -0.12371938 0.034375511 2.3509886e-38
0.031022007 -0.12371938 0.034375511 2.3509886e-38
0.032742128 -0.12371938 0.034375511 2.3509886e-38
0.034462251 -0.12371938 0.034375511 2.3509886e-38
0.036182374 -0.12371938 0.034375511 2.3509886e-38
0.037902497 -0.12371938 0.034375511 2.3509883e-38
0.03962262 -0.12371938 0.034375511 2.350988e-38
0.041342746 -0.12371938 0.034375511 2.350988e-38
0.043062869 -0.12371938 0.034375511 2.350988e-38
0.044782992 -0.12371938 0.034375511 2.3509883e-38
0.046503115 -0.12371938 0.034375511 2.3509886e-38
0.048223238 -0.12371938 0.034375511 2.3509886e-38
0.049943361 -0.12371938 0.034375511 2.3509886e-38
0.05143695 -0.12287988 0.037415527 2.3509886e-38
0.052928496 -0.12207155 0.040342592 2.350988e-38
0.054638159 -0.12207155 0.040342592 2.1482287e-38
0.056347813 -0.12207155 0.040342592 7.9298807e-39
-0.055256765 -0.12765543 0.026401781 1.0509583e-38
-0.053522665 -0.12765543 0.026401781 2.3509527e-38
-0.051788561 -0.12765543 0.026401781 2.3509883e-38
-0.05014158 -0.12849234 0.023390256 2.3509883e-38
-0.048402198 -0.12849234 0.023390256 2.3509886e-38
-0.046662811 -0.12849234 0.023390256 2.3509886e-38
-0.044923428 -0.12849234 0.023390256 2.3509886e-38
-0.043184042 -0.12849234 0.023390256 2.3509886e-38
-0.041444659 -0.12849234 0.023390256 2.3509886e-38
-0.039705276 -0.12849234 0.023390256 2.3509886e-38
-0.037965894 -0.12849234 0.023390256 2.3509886e-38
-0.036226511 -0.12849234 0.023390256 2.3509886e-38
-0.034447525 -0.12765543 0.026401781 2.3509886e-38
-0.032713421 -0.12765543 0.026401781 2.3509886e-38
-0.030979315 -0.12765543 0.026401781 2.3509886e-38
-0.029245211 -0.12765543 0.026401781 2.3509886e-38
-0.027511107 -0.12765543 0.026401781 2.3509886e-38
-0.025777003 -0.12765543 0.026401781 2.3509886e-38
-0.024042901 -0.12765543 0.026401781 2.3509886e-38
-0.022308797 -0.12765543 0.026401781 2.3509886e-38
-0.020574693 -0.12765543 0.026401781 2.3509886e-38
-0.018840589 -0.12765543 0.026401781 2.3509886e-38
-0.017106486 -0.12765543 0.026401781 2.3509886e-38
-0.015372383 -0.12765543 0.026401781 2.3509886e-38
-0.013638279 -0.12765543 0.026401781 2.3509886e-38
-0.011904175 -0.12765543 0.026401781 2.3509886e-38
-0.010170072 -0.12765543 0.026401781 2.3509886e-38
-0.0084359683 -0.12765543 0.026401781 2.3509886e-38
-0.0067018652 -0.12765543 0.026401781 2.3509886e-38
-0.0050015682 -0.12709136 0.028431438 2.3509886e-38
-0.0032710235 -0.12709136 0.028431438 2.3509886e-38
-0.0016005847 -0.12626295 0.031412445 2.3509886e-38
5.9792015e-05 -0.12543948 0.034375511 2.3509886e-38
0.0017799151 -0.12543948 0.034375511 2.3509886e-38
0.0035000381 -0.12543948 0.034375511 2.3509886e-38
0.0052201608 -0.12543948 0.034375511 2.3509886e-38
0.0069402838 -0.12543948 0.034375511 2.3509886e-38
0.0086604068 -0.12543948 0.034375511 2.3509886e-38
0.01038053 -0.12543948 0.034375511 2.3509886e-38
0.012100653 -0.12543948 0.034375511 2.3509886e-38
0.013820776 -0.12543948 0.034375511 2.3509886e-38
0.015652599 -0.12626295 0.031412445 2.3509886e-38
0.017377915 -0.12626295 0.031412445 2.3509886e-38
0.019103235 -0.12626295 0.031412445 2.3509886e-38
0.020701269 -0.12543948 0.034375511 2.3509886e-38
0.022421392 -0.12543948 0.034375511 2.3509886e-38
0.024141515 -0.12543948 0.034375511 2.3509886e-38
0.025715059 -0.12459467 0.037415527 2.3509886e-38
0.027429851 -0.12459467 0.037415527 2.3509886e-38
0.029144643 -0.12459467 0.037415527 2.3509886e-38
0.030859439 -0.12459467 0.037415527 2.3509886e-38
0.032574229 -0.12459467 0.037415527 2.3509886e-38
0.034462251 -0.12543948 0.034375511 2.3509886e-38
0.036182374 -0.12543948 0.034375511 2.3509886e-38
0.037902497 -0.12543948 0.034375511 2.3509883e-38
0.03962262 -0.12543948 0.034375511 2.350988e-38
0.041342746 -0.12543948 0.034375511 2.350988e-38
0.043062869 -0.12543948 0.034375511 2.350988e-38
0.044782992 -0.12543948 0.034375511 2.3509883e-38
0.046503115 -0.12543948 0.034375511 2.3509886e-38
0.048223238 -0.12543948 0.034375511 2.3509886e-38
0.049722154 -0.12459467 0.037415527 2.3417691e-38
0.05143695 -0.12459467 0.037415527 2.3509886e-38
0.052928496 -0.12378122 0.040342592 2.350988e-38
0.054638159 -0.12378122 0.040342592 2.1390091e-38
0.056347813 -0.12378122 0.040342592 7.9298807e-39
0.058543976 -0.12543948 0.034375511 7.4692543e-39
0.060264099 -0.12543948 0.034375511 2.4899728e-39
-0.056990869 -0.12938951 0.026401781 6.6380854e-39
-0.055256765 -0.12938951 0.026401781 9.2188441e-39
-0.053522665 -0.12938951 0.026401781 2.3140384e-38
-0.051788561 -0.12938951 0.026401781 2.3417327e-38
-0.05014158 -0.13023172 0.023390256 2.2956349e-38
-0.048402198 -0.13023172 0.023390256 2.3509886e-38
-0.046662811 -0.13023172 0.023390256 2.3509886e-38
-0.044923428 -0.13023172 0.023390256 2.3509886e-38
-0.043184042 -0.13023172 0.023390256 2.3509886e-38
-0.041444659 -0.13023172 0.023390256 2.3509886e-38
-0.039705276 -0.13023172 0.023390256 2.3509886e-38
-0.037965894 -0.13023172 0.023390256 2.3509886e-38
-0.036226511 -0.13023172 0.023390256 2.3509886e-38
-0.034447525 -0.12938951 0.026401781 2.3509886e-38
-0.032713421 -0.12938951 0.026401781 2.3509886e-38
-0.030979315 -0.12938951 0.026401781 2.3509886e-38
-0.029245211 -0.12938951 0.026401781 2.3509886e-38
-0.027511107 -0.12938951 0.026401781 2.3509886e-38
-0.025777003 -0.12938951 0.026401781 2.3509886e-38
-0.024042901 -0.12938951 0.026401781 2.3509886e-38
-0.022308797 -0.12938951 0.026401781 2.3509886e-38
-0.020574693 -0.12938951 0.026401781 2.3509886e-38
-0.018840589 -0.12938951 0.026401781 2.3509886e-38
-0.017115382 -0.12882192 0.028431438 2.3509886e-38
-0.015384839 -0.12882192 0.028431438 2.3509886e-38
-0.013638279 -0.12938951 0.026401781 2.3509886e-38
-0.011904175 -0.12938951 0.026401781 2.3509886e-38
-0.010170072 -0.12938951 0.026401781 2.3509886e-38
-0.0084626582 -0.12882192 0.028431438 2.3509886e-38
-0.0067321137 -0.12882192 0.028431438 2.3509886e-38
-0.0050015682 -0.12882192 0.028431438 2.3509886e-38
-0.0033259045 -0.12798826 0.031412445 2.3509886e-38
-0.0016005847 -0.12798826 0.031412445 2.3509886e-38
5.9792015e-05 -0.12715961 0.034375511 2.3509886e-38
0.0017799151 -0.12715961 0.034375511 2.3509886e-38
0.0035000381 -0.12715961 0.034375511 2.3509886e-38
0.0052201608 -0.12715961 0.034375511 2.3509886e-38
0.0069402838 -0.12715961 0.034375511 2.3509886e-38
0.0086604068 -0.12715961 0.034375511 2.3509886e-38
0.01038053 -0.12715961 0.034375511 2.3509886e-38
0.012100653 -0.12715961 0.034375511 2.3509886e-38
0.013820776 -0.12715961 0.034375511 2.3509886e-38
0.015652599 -0.12798826 0.031412445 2.3509886e-38
0.017377915 -0.12798826 0.031412445 2.3509886e-38
0.018981146 -0.12715961 0.034375511 2.3509886e-38
0.020701269 -0.12715961 0.034375511 2.3509886e-38
0.022421392 -0.12715961 0.034375511 2.3509886e-38
0.024141515 -0.12715961 0.034375511 2.3509886e-38
0.025715059 -0.12630944 0.037415527 2.3509886e-38
0.027429851 -0.12630944 0.037415527 2.3509886e-38
0.029144643 -0.12630944 0.037415527 2.3509886e-38
0.030859439 -0.12630944 0.037415527 2.3509886e-38
0.032574229 -0.12630944 0.037415527 2.3509886e-38
0.034462251 -0.12715961 0.034375511 2.3509886e-38
0.036182374 -0.12715961 0.034375511 2.3509886e-38
0.037718605 -0.12630944 0.037415527 2.3509883e-38
0.039433401 -0.12630944 0.037415527 2.350988e-38
0.041148189 -0.12630944 0.037415527 2.350988e-38
0.043062869 -0.12715961 0.034375511 2.350988e-38
0.044782992 -0.12715961 0.034375511 2.3509883e-38
0.046503115 -0.12715961 0.034375511 2.3509886e-38
0.048223238 -0.12715961 0.034375511 2.3509527e-38
0.049722154 -0.12630944 0.037415527 2.3417333e-38
0.05143695 -0.12630944 0.037415527 2.3509886e-38
0.053151745 -0.12630944 0.037415527 2.3509883e-38
0.054866534 -0.12630944 0.037415527 2.1205344e-38
0.05658133 -0.12630944 0.037415527 7.8373292e-39
0.058543976 -0.12715961 0.034375511 7.468897e-39
0.06051087 -0.12798826 0.031412445 2.4899728e-39
0.062236182 -0.12798826 0.031412445 2.4885449e-39
-0.056990869 -0.13112362 0.026401781 5.9927159e-39
-0.055256765 -0.13112362 0.026401781 8.0210198e-39
-0.053522665 -0.13112362 0.026401781 2.2956712e-38
-0.051788561 -0.13112362 0.026401781 2.3509886e-38
-0.05014158 -0.13197111 0.023390256 2.3509886e-38
-0.048402198 -0.13197111 0.023390256 2.3509886e-38
-0.046662811 -0.13197111 0.023390256 2.3509886e-38
-0.044923428 -0.13197111 0.023390256 2.3509886e-38
-0.043184042 -0.13197111 0.023390256 2.3509886e-38
-0.041444659 -0.13197111 0.023390256 2.3509886e-38
-0.039705276 -0.13197111 0.023390256 2.3509886e-38
-0.037965894 -0.13197111 0.023390256 2.3509886e-38
-0.036181629 -0.13112362 0.026401781 2.3509886e-38
-0.034447525 -0.13112362 0.026401781 2.3509886e-38
-0.032713421 -0.13112362 0.026401781 2.3509886e-38
-0.030979315 -0.13112362 0.026401781 2.3509886e-38
-0.029245211 -0.13112362 0.026401781 2.3509886e-38
-0.027511107 -0.13112362 0.026401781 2.3509886e-38
-0.025777003 -0.13112362 0.026401781 2.3509886e-38
-0.024042901 -0.13112362 0.026401781 2.3509886e-38
-0.022308797 -0.13112362 0.026401781 2.3509886e-38
-0.020574693 -0.13112362 0.026401781 2.3509886e-38
-0.018840589 -0.13112362 0.026401781 2.3509886e-38
-0.017115382 -0.13055246 0.028431438 2.3509886e-38
-0.015384839 -0.13055246 0.028431438 2.3509886e-38
-0.013638279 -0.13112362 0.026401781 2.3509886e-38
-0.011904175 -0.13112362 0.026401781 2.3509886e-38
-0.010170072 -0.13112362 0.026401781 2.3509886e-38
-0.0084626582 -0.13055246 0.028431438 2.3509886e-38
-0.0067321137 -0.13055246 0.028431438 2.3509886e-38
-0.0050015682 -0.13055246 0.028431438 2.3509886e-38
-0.0033259045 -0.12971358 0.031412445 2.3509886e-38
-0.0016005847 -0.12971358 0.031412445 2.3509886e-38
5.9792015e-05 -0.12887974 0.034375511 2.3509886e-38
0.0017799151 -0.12887974 0.034375511 2.3509886e-38
0.0035000381 -0.12887974 0.034375511 2.3509886e-38
0.0052201608 -0.12887974 0.034375511 2.3509886e-38
0.0069402838 -0.12887974 0.034375511 2.3509886e-38
0.0086604068 -0.12887974 0.034375511 2.3509886e-38
0.01038053 -0.12887974 0.034375511 2.3509886e-38
0.012100653 -0.12887974 0.034375511 2.3509886e-38
0.013820776 -0.12887974 0.034375511 2.3509886e-38
0.015652599 -0.12971358 0.031412445 2.3509886e-38
0.017261023 -0.12887974 0.034375511 2.3509886e-38
0.018981146 -0.12887974 0.034375511 2.3509886e-38
0.020701269 -0.12887974 0.034375511 2.3509886e-38
0.022421392 -0.12887974 0.034375511 2.3509886e-38
0.024141515 -0.12887974 0.034375511 2.3509886e-38
0.025715059 -0.12802424 0.037415527 2.3509886e-38
0.027429851 -0.12802424 0.037415527 2.3509886e-38
0.029144643 -0.12802424 0.037415527 2.3509886e-38
0.030859439 -0.12802424 0.037415527 2.3509886e-38
0.032742128 -0.12887974 0.034375511 2.3509886e-38
0.034462251 -0.12887974 0.034375511 2.3509886e-38
0.036182374 -0.12887974 0.034375511 2.3509886e-38
0.037718605 -0.12802424 0.037415527 2.3509883e-38
0.039433401 -0.12802424 0.037415527 2.350988e-38
0.041148189 -0.12802424 0.037415527 2.350988e-38
0.043062869 -0.12887974 0.034375511 2.350988e-38
0.044577781 -0.12802424 0.037415527 2.3509883e-38
0.046292569 -0.12802424 0.037415527 2.3509886e-38
0.048007365 -0.12802424 0.037415527 2.3509527e-38
0.049722154 -0.12802424 0.037415527 2.3509527e-38
0.05143695 -0.12802424 0.037415527 2.3325497e-38
0.053151745 -0.12802424 0.037415527 2.3509883e-38
0.054866534 -0.12802424 0.037415527 2.0559974e-38
0.05658133 -0.12802424 0.037415527 7.0997641e-39
0.058543976 -0.12887974 0.034375511 6.0859625e-39
0.06051087 -0.12971358 0.031412445 2.4903358e-39
0.062236182 -0.12971358 0.031412445 1.9368103e-39
0.063961513 -0.12971358 0.031412445 1.9364572e-39
-0.057099115 -0.13371049 0.023390256 5.9005203e-39
-0.055359732 -0.13371049 0.023390256 7.7444329e-39
-0.053522665 -0.13285773 0.026401781 2.3234018e-38
-0.051788561 -0.13285773 0.026401781 2.3509886e-38
-0.05014158 -0.13371049 0.023390256 2.341769e-38
-0.048484538 -0.13456844 0.020360373 2.3509886e-38
-0.046662811 -0.13371049 0.023390256 2.3509886e-38
-0.044923428 -0.13371049 0.023390256 2.3509886e-38
-0.043184042 -0.13371049 0.023390256 2.3509886e-38
-0.041444659 -0.13371049 0.023390256 2.3509886e-38
-0.039705276 -0.13371049 0.023390256 2.3509886e-38
-0.037965894 -0.13371049 0.023390256 2.3509886e-38
-0.036181629 -0.13285773 0.026401781 2.3509886e-38
-0.034447525 -0.13285773 0.026401781 2.3509886e-38
-0.032713421 -0.13285773 0.026401781 2.3509886e-38
-0.030979315 -0.13285773 0.026401781 2.3509886e-38
-0.029245211 -0.13285773 0.026401781 2.3509886e-38
-0.027511107 -0.13285773 0.026401781 2.3509886e-38
-0.025777003 -0.13285773 0.026401781 2.3509886e-38
-0.024042901 -0.13285773 0.026401781 2.3509886e-38
-0.022308797 -0.13285773 0.026401781 2.3509886e-38
-0.020574693 -0.13285773 0.026401781 2.3509886e-38
-0.018840589 -0.13285773 0.026401781 2.3509886e-38
-0.017115382 -0.13228302 0.028431438 2.3509886e-38
-0.015384839 -0.13228302 0.028431438 2.3509886e-38
-0.013638279 -0.13285773 0.026401781 2.3509886e-38
-0.011904175 -0.13285773 0.026401781 2.3509886e-38
-0.010193204 -0.13228302 0.028431438 2.3509886e-38
-0.0084626582 -0.13228302 0.028431438 2.3509886e-38
-0.0067321137 -0.13228302 0.028431438 2.3509886e-38
-0.0050015682 -0.13228302 0.028431438 2.3509886e-38
-0.0033259045 -0.1314389 0.031412445 2.3509886e-38
-0.0016603309 -0.13059987 0.034375511 2.3509886e-38
5.9792015e-05 -0.13059987 0.034375511 2.3509886e-38
0.0017799151 -0.13059987 0.034375511 2.3509886e-38
0.0035000381 -0.13059987 0.034375511 2.3509886e-38
0.0052201608 -0.13059987 0.034375511 2.3509886e-38
0.0069402838 -0.13059987 0.034375511 2.3509886e-38
0.0086604068 -0.13059987 0.034375511 2.3509886e-38
0.01038053 -0.13059987 0.034375511 2.3509886e-38
0.012100653 -0.13059987 0.034375511 2.3509886e-38
0.013820776 -0.13059987 0.034375511 2.3509886e-38
0.015540899 -0.13059987 0.034375511 2.3509886e-38
0.017261023 -0.13059987 0.034375511 2.3509886e-38
0.018981146 -0.13059987 0.034375511 2.3509886e-38
0.020701269 -0.13059987 0.034375511 2.3509886e-38
0.022421392 -0.13059987 0.034375511 2.3509886e-38
0.024141515 -0.13059987 0.034375511 2.3509886e-38
0.025715059 -0.12973903 0.037415527 2.3509886e-38
0.027429851 -0.12973903 0.037415527 2.3509886e-38
0.029144643 -0.12973903 0.037415527 2.3509886e-38
0.030859439 -0.12973903 0.037415527 2.3509886e-38
0.032742128 -0.13059987 0.034375511 2.3509886e-38
0.034462251 -0.13059987 0.034375511 2.3509886e-38
0.036182374 -0.13059987 0.034375511 2.3509886e-38
0.037718605 -0.12973903 0.037415527 2.3509886e-38
0.039433401 -0.12973903 0.037415527 2.3509883e-38
0.041148189 -0.12973903 0.037415527 2.350988e-38
0.042862985 -0.12973903 0.037415527 2.350988e-38
0.044577781 -0.12973903 0.037415527 2.3509886e-38
0.046292569 -0.12973903 0.037415527 2.3509886e-38
0.048007365 -0.12973903 0.037415527 2.3325138e-38
0.049722154 -0.12973903 0.037415527 2.3509527e-38
0.05143695 -0.12973903 0.037415527 2.3417333e-38
0.053151745 -0.12973903 0.037415527 2.3509883e-38
0.054866534 -0.12973903 0.037415527 2.0744366e-38
0.05658133 -0.12973903 0.037415527 7.4685467e-39
0.058296118 -0.12973903 0.037415527 6.1781582e-39
0.060759138 -0.13228302 0.028431438 2.0293576e-39
0.062489681 -0.13228302 0.028431438 5.546003e-40
-0.057099115 -0.13544987 0.023390256 5.8086876e-39
-0.055359732 -0.13544987 0.023390256 7.2838177e-39
-0.053620346 -0.13544987 0.023390256 2.3234379e-38
-0.051880963 -0.13544987 0.023390256 2.3325856e-38
-0.050229236 -0.13631313 0.020360373 2.3233662e-38
-0.048484538 -0.13631313 0.020360373 2.3509886e-38
-0.046662811 -0.13544987 0.023390256 2.3509886e-38
-0.044923428 -0.13544987 0.023390256 2.3509886e-38
-0.043184042 -0.13544987 0.023390256 2.3509886e-38
-0.041444659 -0.13544987 0.023390256 2.3509886e-38
-0.039705276 -0.13544987 0.023390256 2.3509886e-38
-0.037965894 -0.13544987 0.023390256 2.3509886e-38
-0.036181629 -0.13459183 0.026401781 2.3509886e-38
-0.034447525 -0.13459183 0.026401781 2.3509886e-38
-0.032713421 -0.13459183 0.026401781 2.3509886e-38
-0.030979315 -0.13459183 0.026401781 2.3509886e-38
-0.029245211 -0.13459183 0.026401781 2.3509886e-38
-0.027511107 -0.13459183 0.026401781 2.3509886e-38
-0.025777003 -0.13459183 0.026401781 2.3509886e-38
-0.024042901 -0.13459183 0.026401781 2.3509886e-38
-0.022307018 -0.13401355 0.028431438 2.3509886e-38
-0.020576471 -0.13401355 0.028431438 2.3509886e-38
-0.018845927 -0.13401355 0.028431438 2.3509886e-38
-0.017115382 -0.13401355 0.028431438 2.3509886e-38
-0.015384839 -0.13401355 0.028431438 2.3509886e-38
-0.013654293 -0.13401355 0.028431438 2.3509886e-38
-0.011923748 -0.13401355 0.028431438 2.3509886e-38
-0.010193204 -0.13401355 0.028431438 2.3509886e-38
-0.0084626582 -0.13401355 0.028431438 2.3509886e-38
-0.0067321137 -0.13401355 0.028431438 2.3509886e-38
-0.0050015682 -0.13401355 0.028431438 2.3509886e-38
-0.0033259045 -0.13316421 0.031412445 2.3509886e-38
-0.0016603309 -0.13231997 0.034375511 2.3509886e-38
5.9792015e-05 -0.13231997 0.034375511 2.3509886e-38
0.0017799151 -0.13231997 0.034375511 2.3509886e-38
0.0035000381 -0.13231997 0.034375511 2.3509886e-38
