# .PCD v0.7 - Point Cloud Data file format
VERSION 0.7
FIELDS x y z rgb
SIZE 4 4 4 4
TYPE F F F F
COUNT 1 1 1 1
WIDTH 931
HEIGHT 1
VIEWPOINT 0 0 0 1 0 0 0
POINTS 931
DATA ascii
0.04327821 -0.11624874 -0.0092076156 2.3509886e-38
0.045166731 -0.11624874 -0.0092076156 2.3509886e-38
0.047055252 -0.11624874 -0.0092076156 2.3509886e-38
0.048943773 -0.11624874 -0.0092076156 2.3509886e-38
0.050832294 -0.11624874 -0.0092076156 2.3509886e-38
0.052720815 -0.11624874 -0.0092076156 2.3509886e-38
0.054680228 -0.11698125 -0.012202511 2.3509886e-38
0.056573998 -0.11698125 -0.012202511 2.3509886e-38
0.058467772 -0.11698125 -0.012202511 2.3509886e-38
0.060274899 -0.11624874 -0.0092076156 2.3509527e-38
0.062163424 -0.11624874 -0.0092076156 2.3509527e-38
0.063922025 -0.11526908 -0.0052023027 2.3509527e-38
0.065803528 -0.11526908 -0.0052023027 2.3509527e-38
0.067574695 -0.1145183 -0.0021327827 2.3509883e-38
0.069450811 -0.1145183 -0.0021327827 2.3509883e-38
0.071326926 -0.1145183 -0.0021327827 2.3509883e-38
0.073203042 -0.1145183 -0.0021327827 2.3509883e-38
-0.099181831 -0.119846 -0.016144047 2.3418043e-38
-0.097634852 -0.12059332 -0.019177685 2.3049259e-38
-0.095728859 -0.12059332 -0.019177685 2.2957064e-38
-0.093822852 -0.12059332 -0.019177685 2.3325129e-38
-0.095030144 -0.1274818 -0.047140606 2.3509883e-38
-0.093075112 -0.1274818 -0.047140606 2.3324775e-38
-0.091120079 -0.1274818 -0.047140606 2.3416971e-38
-0.089165062 -0.1274818 -0.047140606 2.341769e-38
-0.086166412 -0.12501745 -0.03713692 2.2864516e-38
-0.084228918 -0.12501745 -0.03713692 2.3141822e-38
-0.081890643 -0.12403814 -0.033161528 2.341805e-38
-0.079960123 -0.12403814 -0.033161528 2.3234018e-38
-0.078029603 -0.12403814 -0.033161528 2.3234379e-38
-0.076099083 -0.12403814 -0.033161528 2.3234379e-38
-0.074541464 -0.12501745 -0.03713692 2.341805e-38
-0.072603971 -0.12501745 -0.03713692 2.341805e-38
-0.070307523 -0.12403814 -0.033161528 2.3509886e-38
-0.068376988 -0.12403814 -0.033161528 2.3509886e-38
-0.066446468 -0.12403814 -0.033161528 2.3509527e-38
-0.064515948 -0.12403814 -0.033161528 2.3509527e-38
-0.062585428 -0.12403814 -0.033161528 2.3509886e-38
-0.060654905 -0.12403814 -0.033161528 2.3509886e-38
-0.058724385 -0.12403814 -0.033161528 2.3509886e-38
-0.056485932 -0.12306587 -0.029214749 2.3509886e-38
-0.054562327 -0.12306587 -0.029214749 2.3509886e-38
-0.052638721 -0.12306587 -0.029214749 2.3509886e-38
-0.050490301 -0.12230472 -0.026124964 2.3509886e-38
-0.048572119 -0.12230472 -0.026124964 2.3509886e-38
-0.046653938 -0.12230472 -0.026124964 2.3509886e-38
-0.044735756 -0.12230472 -0.026124964 2.3509886e-38
-0.04255363 -0.12131582 -0.022110591 2.3509886e-38
-0.040642481 -0.12131582 -0.022110591 2.3509886e-38
-0.038731333 -0.12131582 -0.022110591 2.3509886e-38
-0.036820184 -0.12131582 -0.022110591 2.3509886e-38
-0.034909051 -0.12131582 -0.022110591 2.3509886e-38
-0.032997902 -0.12131582 -0.022110591 2.3509886e-38
-0.031086754 -0.12131582 -0.022110591 2.3509886e-38
-0.029175613 -0.12131582 -0.022110591 2.3509886e-38
-0.027264472 -0.12131582 -0.022110591 2.3509886e-38
-0.025353324 -0.12131582 -0.022110591 2.3509886e-38
-0.023442175 -0.12131582 -0.022110591 2.3509886e-38
-0.021394756 -0.12059332 -0.019177685 2.3509886e-38
-0.019488763 -0.12059332 -0.019177685 2.3509886e-38
-0.017582756 -0.12059332 -0.019177685 2.3509886e-38
-0.015676755 -0.12059332 -0.019177685 2.3509886e-38
-0.013770755 -0.12059332 -0.019177685 2.3509886e-38
-0.011864752 -0.12059332 -0.019177685 2.3509886e-38
-0.0099587478 -0.12059332 -0.019177685 2.3509886e-38
-0.008052744 -0.12059332 -0.019177685 2.3509886e-38
-0.0061467439 -0.12059332 -0.019177685 2.3509886e-38
-0.0042407401 -0.12059332 -0.019177685 2.3509886e-38
-0.00233474 -0.12059332 -0.019177685 2.3509886e-38
-0.00042873621 -0.12059332 -0.019177685 2.3509886e-38
0.0014772676 -0.12059332 -0.019177685 2.3509886e-38
0.0033138469 -0.12131582 -0.022110591 2.3509886e-38
0.0052892677 -0.12059332 -0.019177685 2.3509886e-38
0.0071952753 -0.12059332 -0.019177685 2.3509886e-38
0.0091012754 -0.12059332 -0.019177685 2.3509886e-38
0.011007275 -0.12059332 -0.019177685 2.3509886e-38
0.012913279 -0.12059332 -0.019177685 2.3509886e-38
0.014819283 -0.12059332 -0.019177685 2.3509886e-38
0.016725283 -0.12059332 -0.019177685 2.3509886e-38
0.018631287 -0.12059332 -0.019177685 2.3509886e-38
0.020561224 -0.119846 -0.016144047 2.3509886e-38
0.022461906 -0.119846 -0.016144047 2.3509886e-38
0.02436259 -0.119846 -0.016144047 2.3509886e-38
0.026263274 -0.119846 -0.016144047 2.3509886e-38
0.028167412 -0.11887501 -0.012202511 2.3509886e-38
0.030061185 -0.11887501 -0.012202511 2.3509886e-38
0.031954959 -0.11887501 -0.012202511 2.3509886e-38
0.033848729 -0.11887501 -0.012202511 2.3509886e-38
0.035742503 -0.11887501 -0.012202511 2.3509886e-38
0.037612647 -0.11813726 -0.0092076156 2.3509886e-38
0.039501168 -0.11813726 -0.0092076156 2.3509886e-38
0.041389689 -0.11813726 -0.0092076156 2.3509886e-38
0.04327821 -0.11813726 -0.0092076156 2.3509886e-38
0.045166731 -0.11813726 -0.0092076156 2.3509886e-38
0.047055252 -0.11813726 -0.0092076156 2.3509886e-38
0.048943773 -0.11813726 -0.0092076156 2.3509886e-38
0.050832294 -0.11813726 -0.0092076156 2.3509886e-38
0.052720815 -0.11813726 -0.0092076156 2.3509886e-38
0.054609336 -0.11813726 -0.0092076156 2.3509886e-38
0.056497857 -0.11813726 -0.0092076156 2.3509886e-38
0.058386378 -0.11813726 -0.0092076156 2.3509886e-38
0.060274899 -0.11813726 -0.0092076156 2.3509527e-38
0.062163424 -0.11813726 -0.0092076156 2.3509527e-38
0.063922025 -0.11715056 -0.0052023027 2.3509527e-38
0.065698579 -0.11639442 -0.0021327827 2.3509527e-38
0.067574695 -0.11639442 -0.0021327827 2.3509883e-38
0.069450811 -0.11639442 -0.0021327827 2.350988e-38
0.071326926 -0.11639442 -0.0021327827 2.350988e-38
0.073203042 -0.11639442 -0.0021327827 2.350988e-38
-0.099181831 -0.12174667 -0.016144047 2.3325847e-38
-0.097634852 -0.1224993 -0.019177685 2.3417687e-38
-0.095728859 -0.1224993 -0.019177685 2.3509883e-38
-0.093822852 -0.1224993 -0.019177685 2.3509883e-38
-0.095030144 -0.12943684 -0.047140606 2.3508807e-38
-0.092752218 -0.12870578 -0.044193991 2.3416251e-38
-0.090041384 -0.12695493 -0.03713692 2.3509167e-38
-0.087682202 -0.12596865 -0.033161528 2.3509167e-38
-0.085339934 -0.12498946 -0.029214749 2.3325494e-38
-0.083416343 -0.12498946 -0.029214749 2.3509886e-38
-0.081890643 -0.12596865 -0.033161528 2.341805e-38
-0.079960123 -0.12596865 -0.033161528 2.341805e-38
-0.078029603 -0.12596865 -0.033161528 2.3234379e-38
-0.076099083 -0.12596865 -0.033161528 2.3234379e-38
-0.074168563 -0.12596865 -0.033161528 2.341805e-38
-0.072238043 -0.12596865 -0.033161528 2.341805e-38
-0.070307523 -0.12596865 -0.033161528 2.3509886e-38
-0.068376988 -0.12596865 -0.033161528 2.3509886e-38
-0.066446468 -0.12596865 -0.033161528 2.3509527e-38
-0.064515948 -0.12596865 -0.033161528 2.3509527e-38
-0.062256735 -0.12498946 -0.029214749 2.3509886e-38
-0.060333129 -0.12498946 -0.029214749 2.3509886e-38
-0.058409523 -0.12498946 -0.029214749 2.3509886e-38
-0.056485932 -0.12498946 -0.029214749 2.3509886e-38
-0.054562327 -0.12498946 -0.029214749 2.3509886e-38
-0.052638721 -0.12498946 -0.029214749 2.3509886e-38
-0.050490301 -0.12422292 -0.026124964 2.3509886e-38
-0.048572119 -0.12422292 -0.026124964 2.3509886e-38
-0.046653938 -0.12422292 -0.026124964 2.3509886e-38
-0.044735756 -0.12422292 -0.026124964 2.3509886e-38
-0.04255363 -0.12322696 -0.022110591 2.3509886e-38
-0.040642481 -0.12322696 -0.022110591 2.3509886e-38
-0.038731333 -0.12322696 -0.022110591 2.3509886e-38
-0.036820184 -0.12322696 -0.022110591 2.3509886e-38
-0.034909051 -0.12322696 -0.022110591 2.3509886e-38
-0.032997902 -0.12322696 -0.022110591 2.3509886e-38
-0.031086754 -0.12322696 -0.022110591 2.3509886e-38
-0.029175613 -0.12322696 -0.022110591 2.3509886e-38
-0.027264472 -0.12322696 -0.022110591 2.3509886e-38
-0.025353324 -0.12322696 -0.022110591 2.3509886e-38
-0.023442175 -0.12322696 -0.022110591 2.3509886e-38
-0.021394756 -0.1224993 -0.019177685 2.3509886e-38
-0.019488763 -0.1224993 -0.019177685 2.3509886e-38
-0.017582756 -0.1224993 -0.019177685 2.3509886e-38
-0.015676755 -0.1224993 -0.019177685 2.3509886e-38
-0.013770755 -0.1224993 -0.019177685 2.3509886e-38
-0.011864752 -0.1224993 -0.019177685 2.3509886e-38
-0.0099587478 -0.1224993 -0.019177685 2.3509886e-38
-0.008052744 -0.1224993 -0.019177685 2.3509886e-38
-0.0061467439 -0.1224993 -0.019177685 2.3509886e-38
-0.00414766 -0.12174667 -0.016144047 2.3509886e-38
-0.0022469759 -0.12174667 -0.016144047 2.3509886e-38
-0.00034629181 -0.12174667 -0.016144047 2.3509886e-38
0.0014772676 -0.1224993 -0.019177685 2.3509886e-38
0.0033832677 -0.1224993 -0.019177685 2.3509886e-38
0.0052892677 -0.1224993 -0.019177685 2.3509886e-38
0.0071952753 -0.1224993 -0.019177685 2.3509886e-38
0.0091012754 -0.1224993 -0.019177685 2.3509886e-38
0.011007275 -0.1224993 -0.019177685 2.3509886e-38
0.012913279 -0.1224993 -0.019177685 2.3509886e-38
0.014819283 -0.1224993 -0.019177685 2.3509886e-38
0.016725283 -0.1224993 -0.019177685 2.3509886e-38
0.018631287 -0.1224993 -0.019177685 2.3509886e-38
0.020561224 -0.12174667 -0.016144047 2.3509886e-38
0.022461906 -0.12174667 -0.016144047 2.3509886e-38
0.024379868 -0.1207688 -0.012202511 2.3509886e-38
0.02627364 -0.1207688 -0.012202511 2.3509886e-38
0.028167412 -0.1207688 -0.012202511 2.3509886e-38
0.030061185 -0.1207688 -0.012202511 2.3509886e-38
0.031954959 -0.1207688 -0.012202511 2.3509886e-38
0.033848729 -0.1207688 -0.012202511 2.3509886e-38
0.035724126 -0.12002577 -0.0092076156 2.3509886e-38
0.037612647 -0.12002577 -0.0092076156 2.3509886e-38
0.039501168 -0.12002577 -0.0092076156 2.3509886e-38
0.041389689 -0.12002577 -0.0092076156 2.3509886e-38
0.04327821 -0.12002577 -0.0092076156 2.3509886e-38
0.045166731 -0.12002577 -0.0092076156 2.3509886e-38
0.047055252 -0.12002577 -0.0092076156 2.3509886e-38
0.048943773 -0.12002577 -0.0092076156 2.3509886e-38
0.050832294 -0.12002577 -0.0092076156 2.3509886e-38
0.052720815 -0.12002577 -0.0092076156 2.3509886e-38
0.054609336 -0.12002577 -0.0092076156 2.3509886e-38
0.056497857 -0.12002577 -0.0092076156 2.3509886e-38
0.058386378 -0.12002577 -0.0092076156 2.3509886e-38
0.060159028 -0.11903207 -0.0052023027 2.3509527e-38
0.062040526 -0.11903207 -0.0052023027 2.3509527e-38
0.063822463 -0.11827053 -0.0021327827 2.3509527e-38
0.065598086 -0.1175413 0.00080656074 2.3509883e-38
0.067469046 -0.1175413 0.00080656074 2.3509883e-38
0.069340006 -0.1175413 0.00080656074 2.350988e-38
0.071210966 -0.1175413 0.00080656074 2.350988e-38
0.073081933 -0.1175413 0.00080656074 2.350988e-38
-0.09871535 -0.12266256 -0.012202511 2.3509883e-38
-0.097281143 -0.12364738 -0.016144047 2.3509527e-38
-0.095380455 -0.12364738 -0.016144047 2.3509527e-38
-0.093822852 -0.12440531 -0.019177685 2.2863077e-38
-0.091916844 -0.12440531 -0.019177685 2.3508448e-38
-0.091110736 -0.12691309 -0.029214749 2.3509527e-38
-0.08885397 -0.12614109 -0.026124964 2.3509527e-38
-0.086935788 -0.12614109 -0.026124964 2.3509527e-38
-0.085339934 -0.12691309 -0.029214749 2.3509886e-38
-0.083416343 -0.12691309 -0.029214749 2.2956712e-38
-0.081492737 -0.12691309 -0.029214749 2.2680844e-38
-0.079569131 -0.12691309 -0.029214749 2.2773039e-38
-0.07764554 -0.12691309 -0.029214749 2.341805e-38
-0.076099083 -0.12789918 -0.033161528 2.341805e-38
-0.074168563 -0.12789918 -0.033161528 2.341805e-38
-0.072238043 -0.12789918 -0.033161528 2.341805e-38
-0.070307523 -0.12789918 -0.033161528 2.3509886e-38
-0.068376988 -0.12789918 -0.033161528 2.3509886e-38
-0.066446468 -0.12789918 -0.033161528 2.3509527e-38
-0.064515948 -0.12789918 -0.033161528 2.3509527e-38
-0.062256735 -0.12691309 -0.029214749 2.3509886e-38
-0.060081225 -0.12614109 -0.026124964 2.3509886e-38
-0.058163028 -0.12614109 -0.026124964 2.3509886e-38
-0.056485932 -0.12691309 -0.029214749 2.3509886e-38
-0.054562327 -0.12691309 -0.029214749 2.3509886e-38
-0.052638721 -0.12691309 -0.029214749 2.3509886e-38
-0.050490301 -0.12614109 -0.026124964 2.3509886e-38
-0.048572119 -0.12614109 -0.026124964 2.3509886e-38
-0.046653938 -0.12614109 -0.026124964 2.3509886e-38
-0.044735756 -0.12614109 -0.026124964 2.3509886e-38
-0.04255363 -0.12513812 -0.022110591 2.3509886e-38
-0.040642481 -0.12513812 -0.022110591 2.3509886e-38
-0.038731333 -0.12513812 -0.022110591 2.3509886e-38
-0.036820184 -0.12513812 -0.022110591 2.3509886e-38
-0.034909051 -0.12513812 -0.022110591 2.3509886e-38
-0.032997902 -0.12513812 -0.022110591 2.3509886e-38
-0.030924771 -0.12440531 -0.019177685 2.3509886e-38
-0.029018771 -0.12440531 -0.019177685 2.3509886e-38
-0.027112763 -0.12440531 -0.019177685 2.3509886e-38
-0.025206771 -0.12440531 -0.019177685 2.3509886e-38
-0.023300763 -0.12440531 -0.019177685 2.3509886e-38
-0.021531034 -0.12513812 -0.022110591 2.3509886e-38
-0.019619893 -0.12513812 -0.022110591 2.3509886e-38
-0.017582756 -0.12440531 -0.019177685 2.3509886e-38
-0.015676755 -0.12440531 -0.019177685 2.3509886e-38
-0.013770755 -0.12440531 -0.019177685 2.3509886e-38
-0.011864752 -0.12440531 -0.019177685 2.3509886e-38
-0.0099587478 -0.12440531 -0.019177685 2.3509886e-38
-0.008052744 -0.12440531 -0.019177685 2.3509886e-38
-0.0061467439 -0.12440531 -0.019177685 2.3509886e-38
-0.00414766 -0.12364738 -0.016144047 2.3509886e-38
-0.0022469759 -0.12364738 -0.016144047 2.3509886e-38
-0.00034629181 -0.12364738 -0.016144047 2.3509886e-38
0.0014772676 -0.12440531 -0.019177685 2.3509886e-38
0.0033832677 -0.12440531 -0.019177685 2.3509886e-38
0.0052892677 -0.12440531 -0.019177685 2.3509886e-38
0.0071952753 -0.12440531 -0.019177685 2.3509886e-38
0.0091012754 -0.12440531 -0.019177685 2.3509886e-38
0.011007275 -0.12440531 -0.019177685 2.3509886e-38
0.012913279 -0.12440531 -0.019177685 2.3509886e-38
0.014819283 -0.12440531 -0.019177685 2.3509886e-38
0.016725283 -0.12440531 -0.019177685 2.3509886e-38
0.018660542 -0.12364738 -0.016144047 2.3509886e-38
0.020561224 -0.12364738 -0.016144047 2.3509886e-38
0.022461906 -0.12364738 -0.016144047 2.3509886e-38
0.024379868 -0.12266256 -0.012202511 2.3509886e-38
0.02627364 -0.12266256 -0.012202511 2.3509886e-38
0.028167412 -0.12266256 -0.012202511 2.3509886e-38
0.030061185 -0.12266256 -0.012202511 2.3509886e-38
0.031954959 -0.12266256 -0.012202511 2.3509886e-38
0.033835601 -0.12191428 -0.0092076156 2.3509886e-38
0.035724126 -0.12191428 -0.0092076156 2.3509886e-38
0.037612647 -0.12191428 -0.0092076156 2.3509886e-38
0.039501168 -0.12191428 -0.0092076156 2.3509886e-38
0.041389689 -0.12191428 -0.0092076156 2.3509886e-38
0.04327821 -0.12191428 -0.0092076156 2.3509886e-38
0.045166731 -0.12191428 -0.0092076156 2.3509886e-38
0.047055252 -0.12191428 -0.0092076156 2.3509886e-38
0.048943773 -0.12191428 -0.0092076156 2.3509886e-38
0.050832294 -0.12191428 -0.0092076156 2.3509886e-38
0.052720815 -0.12191428 -0.0092076156 2.3509886e-38
0.054609336 -0.12191428 -0.0092076156 2.3509886e-38
0.056497857 -0.12191428 -0.0092076156 2.3509886e-38
0.058277529 -0.12091358 -0.0052023027 2.3509886e-38
0.060070224 -0.12014665 -0.0021327827 2.3509527e-38
0.061946344 -0.12014665 -0.0021327827 2.3509168e-38
0.063822463 -0.12014665 -0.0021327827 2.3509527e-38
0.065598086 -0.11941226 0.00080656074 2.3509883e-38
0.067469046 -0.11941226 0.00080656074 2.3509883e-38
0.069340006 -0.11941226 0.00080656074 2.350988e-38
0.071210966 -0.11941226 0.00080656074 2.3509879e-38
0.073081933 -0.11941226 0.00080656074 2.3509879e-38
0.0749529 -0.11941226 0.00080656074 2.3509879e-38
-0.09871535 -0.12455635 -0.012202511 2.3140384e-38
-0.097281143 -0.12554805 -0.016144047 2.258721e-38
-0.095380455 -0.12554805 -0.016144047 2.3509527e-38
-0.092695341 -0.12380283 -0.0092076156 2.3509527e-38
-0.090806812 -0.12380283 -0.0092076156 2.3509527e-38
-0.090772152 -0.12805928 -0.026124964 2.3509167e-38
-0.087352708 -0.12455635 -0.012202511 2.3047468e-38
-0.085141256 -0.12380283 -0.0092076156 2.323258e-38
-0.083252728 -0.12380283 -0.0092076156 2.3509886e-38
-0.083099425 -0.12805928 -0.026124964 2.3509886e-38
-0.081492737 -0.12883668 -0.029214749 2.3234018e-38
-0.079569131 -0.12883668 -0.029214749 2.341805e-38
-0.07764554 -0.12883668 -0.029214749 2.341805e-38
-0.075721934 -0.12883668 -0.029214749 2.341805e-38
-0.074168563 -0.12982969 -0.033161528 2.341805e-38
-0.072238043 -0.12982969 -0.033161528 2.341805e-38
-0.070307523 -0.12982969 -0.033161528 2.3509886e-38
-0.068376988 -0.12982969 -0.033161528 2.3509886e-38
-0.066446468 -0.12982969 -0.033161528 2.3509527e-38
-0.064180329 -0.12883668 -0.029214749 2.3509527e-38
-0.061665069 -0.12704925 -0.022110591 2.3509886e-38
-0.059753921 -0.12704925 -0.022110591 2.3509886e-38
-0.057842787 -0.12704925 -0.022110591 2.3509886e-38
-0.055931639 -0.12704925 -0.022110591 2.3509886e-38
-0.054326665 -0.12805928 -0.026124964 2.3509886e-38
-0.052408483 -0.12805928 -0.026124964 2.3509886e-38
-0.050490301 -0.12805928 -0.026124964 2.3509886e-38
-0.048572119 -0.12805928 -0.026124964 2.3509886e-38
-0.046653938 -0.12805928 -0.026124964 2.3509886e-38
-0.044735756 -0.12805928 -0.026124964 2.3509886e-38
-0.042817574 -0.12805928 -0.026124964 2.3509886e-38
-0.040642481 -0.12704925 -0.022110591 2.3509886e-38
-0.038731333 -0.12704925 -0.022110591 2.3509886e-38
-0.036642786 -0.12631132 -0.019177685 2.3509886e-38
-0.034736779 -0.12631132 -0.019177685 2.3509886e-38
-0.032830771 -0.12631132 -0.019177685 2.3509886e-38
-0.030924771 -0.12631132 -0.019177685 2.3509886e-38
-0.029018771 -0.12631132 -0.019177685 2.3509886e-38
-0.027112763 -0.12631132 -0.019177685 2.3509886e-38
-0.025206771 -0.12631132 -0.019177685 2.3509886e-38
-0.023300763 -0.12631132 -0.019177685 2.3509886e-38
-0.021394756 -0.12631132 -0.019177685 2.3509886e-38
-0.019619893 -0.12704925 -0.022110591 2.3509886e-38
-0.017582756 -0.12631132 -0.019177685 2.3509886e-38
-0.015676755 -0.12631132 -0.019177685 2.3509886e-38
-0.013770755 -0.12631132 -0.019177685 2.3509886e-38
-0.011864752 -0.12631132 -0.019177685 2.3509886e-38
-0.0099587478 -0.12631132 -0.019177685 2.3509886e-38
-0.008052744 -0.12631132 -0.019177685 2.3509886e-38
-0.0060483404 -0.12554805 -0.016144047 2.3509886e-38
-0.00414766 -0.12554805 -0.016144047 2.3509886e-38
-0.0022469759 -0.12554805 -0.016144047 2.3509886e-38
-0.00034629181 -0.12554805 -0.016144047 2.3509886e-38
0.0014772676 -0.12631132 -0.019177685 2.3509886e-38
0.0033832677 -0.12631132 -0.019177685 2.3509886e-38
0.0052892677 -0.12631132 -0.019177685 2.3509886e-38
0.0071952753 -0.12631132 -0.019177685 2.3509886e-38
0.0091012754 -0.12631132 -0.019177685 2.3509886e-38
0.011007275 -0.12631132 -0.019177685 2.3509886e-38
0.012913279 -0.12631132 -0.019177685 2.3509886e-38
0.014819283 -0.12631132 -0.019177685 2.3509886e-38
0.016725283 -0.12631132 -0.019177685 2.3509886e-38
0.018660542 -0.12554805 -0.016144047 2.3509886e-38
0.020561224 -0.12554805 -0.016144047 2.3509886e-38
0.022461906 -0.12554805 -0.016144047 2.3509886e-38
0.024379868 -0.12455635 -0.012202511 2.3509886e-38
0.02627364 -0.12455635 -0.012202511 2.3509886e-38
0.028167412 -0.12455635 -0.012202511 2.3509886e-38
0.030061185 -0.12455635 -0.012202511 2.3509886e-38
0.031954959 -0.12455635 -0.012202511 2.3509886e-38
0.033835601 -0.12380283 -0.0092076156 2.3509886e-38
0.035724126 -0.12380283 -0.0092076156 2.3509886e-38
0.037612647 -0.12380283 -0.0092076156 2.3509886e-38
0.039501168 -0.12380283 -0.0092076156 2.3509886e-38
0.041389689 -0.12380283 -0.0092076156 2.3509886e-38
0.04327821 -0.12380283 -0.0092076156 2.3509886e-38
0.045166731 -0.12380283 -0.0092076156 2.3509886e-38
0.047055252 -0.12380283 -0.0092076156 2.3509886e-38
0.048943773 -0.12380283 -0.0092076156 2.3509886e-38
0.050832294 -0.12380283 -0.0092076156 2.3509886e-38
0.052720815 -0.12380283 -0.0092076156 2.3509886e-38
0.054514531 -0.12279506 -0.0052023027 2.3509886e-38
0.05639603 -0.12279506 -0.0052023027 2.3509886e-38
0.058277529 -0.12279506 -0.0052023027 2.3509886e-38
0.060070224 -0.12202276 -0.0021327827 2.3509527e-38
0.061946344 -0.12202276 -0.0021327827 2.3509527e-38
0.063822463 -0.12202276 -0.0021327827 2.3509527e-38
0.065598086 -0.12128322 0.00080656074 2.3509527e-38
0.067469046 -0.12128322 0.00080656074 2.3509883e-38
0.069340006 -0.12128322 0.00080656074 2.350988e-38
0.071210966 -0.12128322 0.00080656074 2.350988e-38
0.073081933 -0.12128322 0.00080656074 2.350988e-38
0.0749529 -0.12128322 0.00080656074 2.2864869e-38
-0.09871535 -0.12645011 -0.012202511 2.3509883e-38
-0.097281143 -0.12744872 -0.016144047 2.3509883e-38
-0.095380455 -0.12744872 -0.016144047 2.3509883e-38
-0.092695341 -0.12569134 -0.0092076156 2.3509527e-38
-0.090806812 -0.12569134 -0.0092076156 2.3509527e-38
-0.090010852 -0.12821732 -0.019177685 2.3509527e-38
-0.087352708 -0.12645011 -0.012202511 2.3509527e-38
-0.085141256 -0.12569134 -0.0092076156 2.3509886e-38
-0.083252728 -0.12569134 -0.0092076156 2.3509886e-38
-0.081364214 -0.12569134 -0.0092076156 2.3509886e-38
-0.079475686 -0.12569134 -0.0092076156 2.3509886e-38
-0.077587157 -0.12569134 -0.0092076156 2.3509886e-38
-0.075308889 -0.12467657 -0.0052023027 2.3509886e-38
-0.072853208 -0.12315418 0.00080656074 2.3509886e-38
-0.070982233 -0.12315418 0.00080656074 2.3509886e-38
-0.072238043 -0.13176022 -0.033161528 2.3509886e-38
-0.070307523 -0.13176022 -0.033161528 2.3509886e-38
-0.068376988 -0.13176022 -0.033161528 2.3509886e-38
-0.066446468 -0.13176022 -0.033161528 2.3509886e-38
-0.064180329 -0.13076027 -0.029214749 2.3509886e-38
-0.061665069 -0.12896039 -0.022110591 2.3509886e-38
-0.059514802 -0.12821732 -0.019177685 2.3509886e-38
-0.057608809 -0.12821732 -0.019177685 2.3509886e-38
-0.055931639 -0.12896039 -0.022110591 2.3509886e-38
-0.054326665 -0.12997745 -0.026124964 2.3509886e-38
-0.052408483 -0.12997745 -0.026124964 2.3509886e-38
-0.050490301 -0.12997745 -0.026124964 2.3509886e-38
-0.048572119 -0.12997745 -0.026124964 2.3509886e-38
-0.046653938 -0.12997745 -0.026124964 2.3509886e-38
-0.044735756 -0.12997745 -0.026124964 2.3509886e-38
-0.04255363 -0.12896039 -0.022110591 2.3509886e-38
-0.040642481 -0.12896039 -0.022110591 2.3509886e-38
-0.038548779 -0.12821732 -0.019177685 2.3509886e-38
-0.036642786 -0.12821732 -0.019177685 2.3509886e-38
-0.034558591 -0.12744872 -0.016144047 2.3509886e-38
-0.032657903 -0.12744872 -0.016144047 2.3509886e-38
-0.03075723 -0.12744872 -0.016144047 2.3509886e-38
-0.029018771 -0.12821732 -0.019177685 2.3509886e-38
-0.027112763 -0.12821732 -0.019177685 2.3509886e-38
-0.025206771 -0.12821732 -0.019177685 2.3509886e-38
-0.023300763 -0.12821732 -0.019177685 2.3509886e-38
-0.021394756 -0.12821732 -0.019177685 2.3509886e-38
-0.019619893 -0.12896039 -0.022110591 2.3509886e-38
-0.017582756 -0.12821732 -0.019177685 2.3509886e-38
-0.015676755 -0.12821732 -0.019177685 2.3509886e-38
-0.013770755 -0.12821732 -0.019177685 2.3509886e-38
-0.011864752 -0.12821732 -0.019177685 2.3509886e-38
-0.0099587478 -0.12821732 -0.019177685 2.3509886e-38
-0.008052744 -0.12821732 -0.019177685 2.3509886e-38
-0.0060483404 -0.12744872 -0.016144047 2.3509886e-38
-0.00414766 -0.12744872 -0.016144047 2.3509886e-38
-0.0022469759 -0.12744872 -0.016144047 2.3509886e-38
-0.00034629181 -0.12744872 -0.016144047 2.3509886e-38
0.0014772676 -0.12821732 -0.019177685 2.3509886e-38
0.0033832677 -0.12821732 -0.019177685 2.3509886e-38
0.0052892677 -0.12821732 -0.019177685 2.3509886e-38
0.0071952753 -0.12821732 -0.019177685 2.3509886e-38
0.0091012754 -0.12821732 -0.019177685 2.3509886e-38
0.011007275 -0.12821732 -0.019177685 2.3509886e-38
0.012913279 -0.12821732 -0.019177685 2.3509886e-38
0.014819283 -0.12821732 -0.019177685 2.3509886e-38
0.016725283 -0.12821732 -0.019177685 2.3509886e-38
0.018631287 -0.12821732 -0.019177685 2.3509886e-38
0.021026507 -0.11250792 0.04282736 2.3509886e-38
0.022823796 -0.11250792 0.04282736 2.3509886e-38
0.024621081 -0.11250792 0.04282736 2.3509886e-38
0.026418369 -0.11250792 0.04282736 2.3509886e-38
0.028215654 -0.11250792 0.04282736 2.3509886e-38
0.030061185 -0.12645011 -0.012202511 2.3509886e-38
0.03194708 -0.12569134 -0.0092076156 2.3509886e-38
0.033835601 -0.12569134 -0.0092076156 2.3509886e-38
0.035699546 -0.12467657 -0.0052023027 2.3509886e-38
0.037581041 -0.12467657 -0.0052023027 2.3509886e-38
0.039501168 -0.12569134 -0.0092076156 2.3509886e-38
0.041389689 -0.12569134 -0.0092076156 2.3509886e-38
0.043225538 -0.12467657 -0.0052023027 2.3509886e-38
0.045107037 -0.12467657 -0.0052023027 2.3509886e-38
0.046988539 -0.12467657 -0.0052023027 2.3509886e-38
0.048870035 -0.12467657 -0.0052023027 2.3509886e-38
0.050751533 -0.12467657 -0.0052023027 2.3509886e-38
0.052633032 -0.12467657 -0.0052023027 2.3509886e-38
0.054514531 -0.12467657 -0.0052023027 2.3509886e-38
0.05639603 -0.12467657 -0.0052023027 2.3509886e-38
0.058277529 -0.12467657 -0.0052023027 2.3509886e-38
0.060070224 -0.12389888 -0.0021327827 2.3509886e-38
0.061946344 -0.12389888 -0.0021327827 2.3509886e-38
0.063822463 -0.12389888 -0.0021327827 2.3509886e-38
0.065598086 -0.12315418 0.00080656074 2.3509886e-38
0.067469046 -0.12315418 0.00080656074 2.3509886e-38
0.069340006 -0.12315418 0.00080656074 2.3509883e-38
0.071210966 -0.12315418 0.00080656074 2.3509883e-38
0.073081933 -0.12315418 0.00080656074 2.3509883e-38
0.0749529 -0.12315418 0.00080656074 2.3509883e-38
-0.098360896 -0.12757985 -0.0092076156 2.3509883e-38
-0.096821576 -0.1283439 -0.012202511 2.3509883e-38
-0.094927803 -0.1283439 -0.012202511 2.3509883e-38
-0.092695341 -0.12757985 -0.0092076156 2.3509883e-38
-0.090806812 -0.12757985 -0.0092076156 2.3509886e-38
-0.088918298 -0.12757985 -0.0092076156 2.3509886e-38
-0.08702977 -0.12757985 -0.0092076156 2.3509886e-38
-0.085141256 -0.12757985 -0.0092076156 2.3509886e-38
-0.082834885 -0.12655805 -0.0052023027 2.3509886e-38
-0.080953389 -0.12655805 -0.0052023027 2.3509886e-38
-0.079071879 -0.12655805 -0.0052023027 2.3509886e-38
-0.077190384 -0.12655805 -0.0052023027 2.3509886e-38
-0.075308889 -0.12655805 -0.0052023027 2.3509886e-38
-0.072853208 -0.12502514 0.00080656074 2.3509886e-38
-0.070982233 -0.12502514 0.00080656074 2.3509886e-38
-0.069111273 -0.12502514 0.00080656074 2.3509886e-38
-0.067505717 -0.12577499 -0.0021327827 2.3509886e-38
-0.066256031 -0.12757985 -0.0092076156 2.3509886e-38
-0.066446468 -0.13369073 -0.033161528 2.3509886e-38
-0.064515948 -0.13369073 -0.033161528 2.3509886e-38
-0.061420809 -0.13012333 -0.019177685 2.3509886e-38
-0.059267472 -0.12934943 -0.016144047 2.3509886e-38
-0.056014534 -0.12502514 0.00080656074 2.3509886e-38
-0.054143559 -0.12502514 0.00080656074 2.3509886e-38
-0.054326665 -0.13189565 -0.026124964 2.3509886e-38
-0.052408483 -0.13189565 -0.026124964 2.3509886e-38
-0.050490301 -0.13189565 -0.026124964 2.3509886e-38
-0.048572119 -0.13189565 -0.026124964 2.3509886e-38
-0.046653938 -0.13189565 -0.026124964 2.3509886e-38
-0.044735756 -0.13189565 -0.026124964 2.3509886e-38
-0.04255363 -0.13087155 -0.022110591 2.3509886e-38
-0.040642481 -0.13087155 -0.022110591 2.3509886e-38
-0.038548779 -0.13012333 -0.019177685 2.3509886e-38
-0.036459278 -0.12934943 -0.016144047 2.3509886e-38
-0.034558591 -0.12934943 -0.016144047 2.3509886e-38
-0.032262649 -0.12757985 -0.0092076156 2.3509886e-38
-0.030374121 -0.12757985 -0.0092076156 2.3509886e-38
-0.028856542 -0.12934943 -0.016144047 2.3509886e-38
-0.026955854 -0.12934943 -0.016144047 2.3509886e-38
-0.025206771 -0.13012333 -0.019177685 2.3509886e-38
-0.023300763 -0.13012333 -0.019177685 2.3509886e-38
-0.021394756 -0.13012333 -0.019177685 2.3509886e-38
-0.019619893 -0.13087155 -0.022110591 2.3509886e-38
-0.017708745 -0.13087155 -0.022110591 2.3509886e-38
-0.015676755 -0.13012333 -0.019177685 2.3509886e-38
-0.013770755 -0.13012333 -0.019177685 2.3509886e-38
-0.011864752 -0.13012333 -0.019177685 2.3509886e-38
-0.0099587478 -0.13012333 -0.019177685 2.3509886e-38
-0.008052744 -0.13012333 -0.019177685 2.3509886e-38
-0.0060483404 -0.12934943 -0.016144047 2.3509886e-38
-0.00414766 -0.12934943 -0.016144047 2.3509886e-38
-0.00233474 -0.13012333 -0.019177685 2.3509886e-38
-0.00042873621 -0.13012333 -0.019177685 2.3509886e-38
0.0014772676 -0.13012333 -0.019177685 2.3509886e-38
0.0033832677 -0.13012333 -0.019177685 2.3509886e-38
0.0052892677 -0.13012333 -0.019177685 2.3509886e-38
0.0071952753 -0.13012333 -0.019177685 2.3509886e-38
0.0091012754 -0.13012333 -0.019177685 2.3509886e-38
0.011007275 -0.13012333 -0.019177685 2.3509886e-38
0.012913279 -0.13012333 -0.019177685 2.3509886e-38
0.014819283 -0.13012333 -0.019177685 2.3509886e-38
0.017250113 -0.11837523 0.02687346 2.3509886e-38
0.019171704 -0.11582683 0.036862843 2.3509886e-38
0.021026507 -0.11430521 0.04282736 2.3509886e-38
0.022823796 -0.11430521 0.04282736 2.3509886e-38
0.024621081 -0.11430521 0.04282736 2.3509886e-38
0.026418369 -0.11430521 0.04282736 2.3509886e-38
0.028215654 -0.11430521 0.04282736 2.3509886e-38
0.030015595 -0.11507715 0.039801471 2.3509886e-38
0.031818189 -0.11507715 0.039801471 2.3509886e-38
0.033620778 -0.11507715 0.039801471 2.3509886e-38
0.035699546 -0.12655805 -0.0052023027 2.3509886e-38
0.037581041 -0.12655805 -0.0052023027 2.3509886e-38
0.039501168 -0.12757985 -0.0092076156 2.3509886e-38
0.041389689 -0.12757985 -0.0092076156 2.3509886e-38
0.043225538 -0.12655805 -0.0052023027 2.3509886e-38
0.045107037 -0.12655805 -0.0052023027 2.3509886e-38
0.046988539 -0.12655805 -0.0052023027 2.3509886e-38
0.048870035 -0.12655805 -0.0052023027 2.3509886e-38
0.050751533 -0.12655805 -0.0052023027 2.3509886e-38
0.052633032 -0.12655805 -0.0052023027 2.3509886e-38
0.054276597 -0.12399365 0.0048499014 2.3509886e-38
0.056140468 -0.12399365 0.0048499014 2.3509886e-38
0.058004342 -0.12399365 0.0048499014 2.3509886e-38
0.059781067 -0.12322514 0.0078623202 2.3509886e-38
0.061639659 -0.12322514 0.0078623202 2.3509886e-38
0.063727118 -0.12502514 0.00080656074 2.3509886e-38
0.065598086 -0.12502514 0.00080656074 2.3509886e-38
0.067469046 -0.12502514 0.00080656074 2.3509886e-38
0.069340006 -0.12502514 0.00080656074 2.3509886e-38
0.071210966 -0.12502514 0.00080656074 2.3509886e-38
0.073081933 -0.12502514 0.00080656074 2.3509886e-38
0.0749529 -0.12502514 0.00080656074 2.3509886e-38
-0.097886875 -0.12843956 -0.0052023027 2.3509883e-38
-0.096472383 -0.1294684 -0.0092076156 2.3509883e-38
-0.094583854 -0.1294684 -0.0092076156 2.3509883e-38
-0.092242375 -0.12843956 -0.0052023027 2.3509883e-38
-0.09036088 -0.12843956 -0.0052023027 2.3509886e-38
-0.08847937 -0.12843956 -0.0052023027 2.3509886e-38
-0.086597875 -0.12843956 -0.0052023027 2.3509886e-38
-0.08471638 -0.12843956 -0.0052023027 2.3509886e-38
-0.082514659 -0.12765111 -0.0021327827 2.3509886e-38
-0.080638543 -0.12765111 -0.0021327827 2.3509886e-38
-0.078762427 -0.12765111 -0.0021327827 2.3509886e-38
-0.076886311 -0.12765111 -0.0021327827 2.3509886e-38
-0.074330702 -0.12585752 0.0048499014 2.3509886e-38
-0.072466835 -0.12585752 0.0048499014 2.3509886e-38
-0.070602953 -0.12585752 0.0048499014 2.3509886e-38
-0.068739086 -0.12585752 0.0048499014 2.3509886e-38
-0.066875204 -0.12585752 0.0048499014 2.3509886e-38
-0.065011337 -0.12585752 0.0048499014 2.3509886e-38
-0.062886015 -0.12508373 0.0078623202 2.3509886e-38
-0.061027419 -0.12508373 0.0078623202 2.3509886e-38
-0.059168827 -0.12508373 0.0078623202 2.3509886e-38
-0.057885494 -0.1268961 0.00080656074 2.3509886e-38
-0.055691969 -0.12585752 0.0048499014 2.3509886e-38
-0.053828087 -0.12585752 0.0048499014 2.3509886e-38
-0.051734459 -0.12508373 0.0078623202 2.3509886e-38
-0.049875867 -0.12508373 0.0078623202 2.3509886e-38
-0.048017275 -0.12508373 0.0078623202 2.3509886e-38
-0.049071785 -0.13562126 -0.033161528 2.3509886e-38
-0.047141265 -0.13562126 -0.033161528 2.3509886e-38
-0.045210745 -0.13562126 -0.033161528 2.3509886e-38
-0.04255363 -0.13278268 -0.022110591 2.3509886e-38
-0.040642481 -0.13278268 -0.022110591 2.3509886e-38
-0.038548779 -0.13202934 -0.019177685 2.3509886e-38
-0.035189357 -0.12585752 0.0048499014 2.3509886e-38
-0.033148538 -0.12508373 0.0078623202 2.3509886e-38
-0.031289946 -0.12508373 0.0078623202 2.3509886e-38
-0.029431354 -0.12508373 0.0078623202 2.3509886e-38
-0.027253296 -0.1235493 0.013836136 2.3509886e-38
-0.025195468 -0.12250783 0.017890682 2.3509886e-38
-0.02335446 -0.12250783 0.017890682 2.3509886e-38
-0.021371733 -0.12175287 0.020829787 2.3509886e-38
-0.019535881 -0.12175287 0.020829787 2.3509886e-38
-0.017564531 -0.12097444 0.023860326 2.3509886e-38
-0.015733983 -0.12097444 0.023860326 2.3509886e-38
-0.01390345 -0.12097444 0.023860326 2.3509886e-38
-0.012072902 -0.12097444 0.023860326 2.3509886e-38
-0.010242362 -0.12097444 0.023860326 2.3509886e-38
-0.0084118173 -0.12097444 0.023860326 2.3509886e-38
-0.0065812767 -0.12097444 0.023860326 2.3509886e-38
-0.0047507323 -0.12097444 0.023860326 2.3509886e-38
-0.0028277375 -0.12020047 0.02687346 2.3509886e-38
-0.0010024793 -0.12020047 0.02687346 2.3509886e-38
0.00074089319 -0.12097444 0.023860326 2.3509886e-38
0.0024943911 -0.12175287 0.020829787 2.3509886e-38
0.0042606778 -0.12250783 0.017890682 2.3509886e-38
0.0061016865 -0.12250783 0.017890682 2.3509886e-38
0.0071952753 -0.13202934 -0.019177685 2.3509886e-38
0.0091012754 -0.13202934 -0.019177685 2.3509886e-38
0.011007275 -0.13202934 -0.019177685 2.3509886e-38
0.012913279 -0.13202934 -0.019177685 2.3509886e-38
0.015424855 -0.12020047 0.02687346 2.3509886e-38
0.017250113 -0.12020047 0.02687346 2.3509886e-38
0.019171704 -0.11763458 0.036862843 2.3509886e-38
0.021002633 -0.11687975 0.039801471 2.3509886e-38
0.022805225 -0.11687975 0.039801471 2.3509886e-38
0.024607819 -0.11687975 0.039801471 2.3509886e-38
0.02641041 -0.11687975 0.039801471 2.3509886e-38
0.028213002 -0.11687975 0.039801471 2.3509886e-38
0.030015595 -0.11687975 0.039801471 2.3509886e-38
0.031818189 -0.11687975 0.039801471 2.3509886e-38
0.033620778 -0.11687975 0.039801471 2.3509886e-38
0.035699546 -0.12843956 -0.0052023027 2.3509886e-38
0.037581041 -0.12843956 -0.0052023027 2.3509886e-38
0.039501168 -0.1294684 -0.0092076156 2.3509886e-38
0.041389689 -0.1294684 -0.0092076156 2.3509886e-38
0.043225538 -0.12843956 -0.0052023027 2.3509886e-38
0.045107037 -0.12843956 -0.0052023027 2.3509886e-38
0.046937406 -0.12765111 -0.0021327827 2.3509886e-38
0.048684977 -0.12585752 0.0048499014 2.3509886e-38
0.050548848 -0.12585752 0.0048499014 2.3509886e-38
0.052346699 -0.12508373 0.0078623202 2.3509886e-38
0.054205291 -0.12508373 0.0078623202 2.3509886e-38
0.05591201 -0.1235493 0.013836136 2.3509886e-38
0.057760127 -0.1235493 0.013836136 2.3509886e-38
0.059318244 -0.12097444 0.023860326 2.3509886e-38
0.061148789 -0.12097444 0.023860326 2.3509886e-38
0.062881596 -0.12020047 0.02687346 2.3509886e-38
0.064706855 -0.12020047 0.02687346 2.3509886e-38
0.066749342 -0.12175287 0.020829787 2.3509886e-38
0.069187582 -0.12585752 0.0048499014 2.3509886e-38
0.071210966 -0.1268961 0.00080656074 2.3509886e-38
0.073081933 -0.1268961 0.00080656074 2.3509886e-38
0.0749529 -0.1268961 0.00080656074 2.3509886e-38
0.081284754 -0.12097444 0.023860326 2.3509886e-38
0.082959443 -0.12020047 0.02687346 2.3509886e-38
0.084784701 -0.12020047 0.02687346 2.3509886e-38
0.086058252 -0.11763458 0.036862843 2.3509886e-38
0.087865993 -0.11763458 0.036862843 2.3509527e-38
0.089673743 -0.11763458 0.036862843 2.3509527e-38
0.091303729 -0.11687975 0.039801471 2.3509527e-38
0.093106322 -0.11687975 0.039801471 2.3509886e-38
-0.099399716 -0.12952723 -0.0021327827 2.3509886e-38
-0.0975236 -0.12952723 -0.0021327827 2.3509883e-38
-0.095647469 -0.12952723 -0.0021327827 2.3509883e-38
-0.093771353 -0.12952723 -0.0021327827 2.3509883e-38
-0.091895238 -0.12952723 -0.0021327827 2.3509883e-38
-0.090019122 -0.12952723 -0.0021327827 2.3509886e-38
-0.088143006 -0.12952723 -0.0021327827 2.3509886e-38
-0.08626689 -0.12952723 -0.0021327827 2.3509886e-38
-0.084390774 -0.12952723 -0.0021327827 2.3509886e-38
-0.082208022 -0.12876706 0.00080656074 2.3509886e-38
-0.080337048 -0.12876706 0.00080656074 2.3509886e-38
-0.078466088 -0.12876706 0.00080656074 2.3509886e-38
-0.076595128 -0.12876706 0.00080656074 2.3509886e-38
-0.074330702 -0.12772138 0.0048499014 2.3509886e-38
-0.072466835 -0.12772138 0.0048499014 2.3509886e-38
-0.070602953 -0.12772138 0.0048499014 2.3509886e-38
-0.068461791 -0.12694232 0.0078623202 2.3509886e-38
-0.066603199 -0.12694232 0.0078623202 2.3509886e-38
-0.064744607 -0.12694232 0.0078623202 2.3509886e-38
-0.062626049 -0.12616767 0.010857692 2.3509886e-38
-0.060772698 -0.12616767 0.010857692 2.3509886e-38
-0.058919366 -0.12616767 0.010857692 2.3509886e-38
-0.057555836 -0.12772138 0.0048499014 2.3509886e-38
-0.055451643 -0.12694232 0.0078623202 2.3509886e-38
-0.053593051 -0.12694232 0.0078623202 2.3509886e-38
-0.051734459 -0.12694232 0.0078623202 2.3509886e-38
-0.049875867 -0.12694232 0.0078623202 2.3509886e-38
-0.047799315 -0.12616767 0.010857692 2.3509886e-38
-0.045945983 -0.12616767 0.010857692 2.3509886e-38
-0.04388636 -0.1253974 0.013836136 2.3509886e-38
-0.042038243 -0.1253974 0.013836136 2.3509886e-38
-0.039923545 -0.12434883 0.017890682 2.3509886e-38
-0.038082536 -0.12434883 0.017890682 2.3509886e-38
-0.036493894 -0.1253974 0.013836136 2.3509886e-38
-0.034645777 -0.1253974 0.013836136 2.3509886e-38
-0.0329726 -0.12616767 0.010857692 2.3509886e-38
-0.031119253 -0.12616767 0.010857692 2.3509886e-38
-0.029265922 -0.12616767 0.010857692 2.3509886e-38
-0.027253296 -0.1253974 0.013836136 2.3509886e-38
-0.025195468 -0.12434883 0.017890682 2.3509886e-38
-0.02335446 -0.12434883 0.017890682 2.3509886e-38
-0.021371733 -0.12358873 0.020829787 2.3509886e-38
-0.019535881 -0.12358873 0.020829787 2.3509886e-38
-0.017564531 -0.12280498 0.023860326 2.3509886e-38
-0.015733983 -0.12280498 0.023860326 2.3509886e-38
-0.01390345 -0.12280498 0.023860326 2.3509886e-38
-0.012072902 -0.12280498 0.023860326 2.3509886e-38
-0.010242362 -0.12280498 0.023860326 2.3509886e-38
-0.0084118173 -0.12280498 0.023860326 2.3509886e-38
-0.0064782575 -0.12202574 0.02687346 2.3509886e-38
-0.0046529993 -0.12202574 0.02687346 2.3509886e-38
-0.0028277375 -0.12202574 0.02687346 2.3509886e-38
-0.0010024793 -0.12202574 0.02687346 2.3509886e-38
0.00074089319 -0.12280498 0.023860326 2.3509886e-38
0.0024943911 -0.12358873 0.020829787 2.3509886e-38
0.0042606778 -0.12434883 0.017890682 2.3509886e-38
0.0061016865 -0.12434883 0.017890682 2.3509886e-38
0.0080019571 -0.12358873 0.020829787 2.3509886e-38
0.00983781 -0.12358873 0.020829787 2.3509886e-38
0.011724148 -0.12280498 0.023860326 2.3509886e-38
0.013554689 -0.12280498 0.023860326 2.3509886e-38
0.015424855 -0.12202574 0.02687346 2.3509886e-38
0.017250113 -0.12202574 0.02687346 2.3509886e-38
0.019104261 -0.121251 0.029869189 2.3509886e-38
0.021002633 -0.11868234 0.039801471 2.3509886e-38
0.022805225 -0.11868234 0.039801471 2.3509886e-38
0.024607819 -0.11868234 0.039801471 2.3509886e-38
0.02641041 -0.11868234 0.039801471 2.3509886e-38
0.028213002 -0.11868234 0.039801471 2.3509886e-38
0.030015595 -0.11868234 0.039801471 2.3509886e-38
0.031818189 -0.11868234 0.039801471 2.3509886e-38
0.033620778 -0.11868234 0.039801471 2.3509886e-38
0.035502706 -0.12202574 0.02687346 2.3509886e-38
0.037327964 -0.12202574 0.02687346 2.3509886e-38
0.039153226 -0.12202574 0.02687346 2.3509886e-38
0.040978484 -0.12202574 0.02687346 2.3509886e-38
0.04327821 -0.13135691 -0.0092076156 2.3509886e-38
0.045107037 -0.13032107 -0.0052023027 2.3509886e-38
0.046454262 -0.12202574 0.02687346 2.3509886e-38
0.04827952 -0.12202574 0.02687346 2.3509886e-38
0.050104782 -0.12202574 0.02687346 2.3509886e-38
0.05193004 -0.12202574 0.02687346 2.3509886e-38
0.053898349 -0.12358873 0.020829787 2.3509886e-38
0.055657163 -0.12280498 0.023860326 2.3509886e-38
0.057487704 -0.12280498 0.023860326 2.3509886e-38
0.059231076 -0.12202574 0.02687346 2.3509886e-38
0.061056335 -0.12202574 0.02687346 2.3509886e-38
0.062881596 -0.12202574 0.02687346 2.3509886e-38
0.064706855 -0.12202574 0.02687346 2.3509886e-38
0.066424437 -0.121251 0.029869189 2.3509886e-38
0.068244442 -0.121251 0.029869189 2.3509886e-38
0.069909319 -0.12023406 0.033801429 2.3509886e-38
0.071596295 -0.11944233 0.036862843 2.3509886e-38
0.073277801 -0.11868234 0.039801471 2.3509886e-38
0.075080395 -0.11868234 0.039801471 2.3509886e-38
0.077161774 -0.12023406 0.033801429 2.3509886e-38
0.078974888 -0.12023406 0.033801429 2.3509886e-38
0.080788001 -0.12023406 0.033801429 2.3509886e-38
0.082601108 -0.12023406 0.033801429 2.3509886e-38
0.08425051 -0.11944233 0.036862843 2.3509886e-38
0.086058252 -0.11944233 0.036862843 2.3509886e-38
0.087865993 -0.11944233 0.036862843 2.3509527e-38
0.089673743 -0.11944233 0.036862843 2.3508446e-38
0.091303729 -0.11868234 0.039801471 2.3509527e-38
0.093106322 -0.11868234 0.039801471 2.3509886e-38
0.094908908 -0.11868234 0.039801471 2.3509886e-38
0.096711501 -0.11868234 0.039801471 2.341805e-38
-0.099399716 -0.13140334 -0.0021327827 2.3509886e-38
-0.0975236 -0.13140334 -0.0021327827 2.3509883e-38
-0.095304757 -0.13063805 0.00080656074 2.3509883e-38
-0.093433797 -0.13063805 0.00080656074 2.3509883e-38
-0.091562837 -0.13063805 0.00080656074 2.3509883e-38
-0.089691862 -0.13063805 0.00080656074 2.3509886e-38
-0.087820902 -0.13063805 0.00080656074 2.3509886e-38
-0.085949942 -0.13063805 0.00080656074 2.3509886e-38
-0.084078982 -0.13063805 0.00080656074 2.3509886e-38
-0.082208022 -0.13063805 0.00080656074 2.3509886e-38
-0.080337048 -0.13063805 0.00080656074 2.3509886e-38
-0.078058451 -0.12958528 0.0048499014 2.3509886e-38
-0.076194584 -0.12958528 0.0048499014 2.3509886e-38
-0.074330702 -0.12958528 0.0048499014 2.3509886e-38
-0.072178975 -0.12880091 0.0078623202 2.3509886e-38
-0.070320383 -0.12880091 0.0078623202 2.3509886e-38
-0.068461791 -0.12880091 0.0078623202 2.3509886e-38
-0.066603199 -0.12880091 0.0078623202 2.3509886e-38
-0.064744607 -0.12880091 0.0078623202 2.3509886e-38
-0.062626049 -0.12802102 0.010857692 2.3509886e-38
-0.060772698 -0.12802102 0.010857692 2.3509886e-38
-0.058919366 -0.12802102 0.010857692 2.3509886e-38
-0.05706602 -0.12802102 0.010857692 2.3509886e-38
-0.055451643 -0.12880091 0.0078623202 2.3509886e-38
-0.053593051 -0.12880091 0.0078623202 2.3509886e-38
-0.051505994 -0.12802102 0.010857692 2.3509886e-38
-0.049652662 -0.12802102 0.010857692 2.3509886e-38
-0.047799315 -0.12802102 0.010857692 2.3509886e-38
-0.045734476 -0.12724553 0.013836136 2.3509886e-38
-0.04388636 -0.12724553 0.013836136 2.3509886e-38
-0.042038243 -0.12724553 0.013836136 2.3509886e-38
-0.039923545 -0.12618984 0.017890682 2.3509886e-38
-0.038082536 -0.12618984 0.017890682 2.3509886e-38
-0.036493894 -0.12724553 0.013836136 2.3509886e-38
-0.034645777 -0.12724553 0.013836136 2.3509886e-38
-0.032797661 -0.12724553 0.013836136 2.3509886e-38
-0.030949537 -0.12724553 0.013836136 2.3509886e-38
-0.02910142 -0.12724553 0.013836136 2.3509886e-38
-0.027036477 -0.12618984 0.017890682 2.3509886e-38
-0.025195468 -0.12618984 0.017890682 2.3509886e-38
-0.02335446 -0.12618984 0.017890682 2.3509886e-38
-0.021371733 -0.12542458 0.020829787 2.3509886e-38
-0.019535881 -0.12542458 0.020829787 2.3509886e-38
-0.017700028 -0.12542458 0.020829787 2.3509886e-38
-0.015864167 -0.12542458 0.020829787 2.3509886e-38
-0.01390345 -0.12463553 0.023860326 2.3509886e-38
-0.012072902 -0.12463553 0.023860326 2.3509886e-38
-0.010128774 -0.12385099 0.02687346 2.3509886e-38
-0.0083035156 -0.12385099 0.02687346 2.3509886e-38
-0.0064782575 -0.12385099 0.02687346 2.3509886e-38
-0.0046529993 -0.12385099 0.02687346 2.3509886e-38
-0.0028277375 -0.12385099 0.02687346 2.3509886e-38
-0.0010896511 -0.12463553 0.023860326 2.3509886e-38
0.00074089319 -0.12463553 0.023860326 2.3509886e-38
0.0024943911 -0.12542458 0.020829787 2.3509886e-38
0.0042606778 -0.12618984 0.017890682 2.3509886e-38
0.0061016865 -0.12618984 0.017890682 2.3509886e-38
0.008063063 -0.12463553 0.023860326 2.3509886e-38
0.0098936073 -0.12463553 0.023860326 2.3509886e-38
0.011774335 -0.12385099 0.02687346 2.3509886e-38
0.013599593 -0.12385099 0.02687346 2.3509886e-38
0.015424855 -0.12385099 0.02687346 2.3509886e-38
0.017250113 -0.12385099 0.02687346 2.3509886e-38
0.019104261 -0.123071 0.029869189 2.3509886e-38
0.020924268 -0.123071 0.029869189 2.3509886e-38
0.022744276 -0.123071 0.029869189 2.3509886e-38
0.024564281 -0.123071 0.029869189 2.3509886e-38
0.026384288 -0.123071 0.029869189 2.3509886e-38
0.028204296 -0.123071 0.029869189 2.3509886e-38
0.030024301 -0.123071 0.029869189 2.3509886e-38
0.03184431 -0.123071 0.029869189 2.3509886e-38
0.033664316 -0.123071 0.029869189 2.3509886e-38
0.035502706 -0.12385099 0.02687346 2.3509886e-38
0.037327964 -0.12385099 0.02687346 2.3509886e-38
0.039153226 -0.12385099 0.02687346 2.3509886e-38
0.040944342 -0.123071 0.029869189 2.3509886e-38
0.042764351 -0.123071 0.029869189 2.3509886e-38
0.044629 -0.12385099 0.02687346 2.3509886e-38
0.046404362 -0.123071 0.029869189 2.3509886e-38
0.048224367 -0.123071 0.029869189 2.3509886e-38
0.050044376 -0.123071 0.029869189 2.3509886e-38
0.051864382 -0.123071 0.029869189 2.3509886e-38
0.053755298 -0.12385099 0.02687346 2.3509886e-38
0.055580556 -0.12385099 0.02687346 2.3509886e-38
0.057405815 -0.12385099 0.02687346 2.3509886e-38
0.059231076 -0.12385099 0.02687346 2.3509886e-38
0.061056335 -0.12385099 0.02687346 2.3509886e-38
0.062881596 -0.12385099 0.02687346 2.3509886e-38
0.064604431 -0.123071 0.029869189 2.3509886e-38
0.066424437 -0.123071 0.029869189 2.3509886e-38
0.068096206 -0.12204717 0.033801429 2.3509886e-38
0.069788545 -0.12125005 0.036862843 2.3509886e-38
0.071596295 -0.12125005 0.036862843 2.3509886e-38
0.073277801 -0.12048493 0.039801471 2.3509886e-38
0.075080395 -0.12048493 0.039801471 2.3509886e-38
0.077019528 -0.12125005 0.036862843 2.3509886e-38
0.078827277 -0.12125005 0.036862843 2.3509886e-38
0.080635019 -0.12125005 0.036862843 2.3509886e-38
0.08244276 -0.12125005 0.036862843 2.3509886e-38
0.08425051 -0.12125005 0.036862843 2.3509886e-38
0.086058252 -0.12125005 0.036862843 2.3509886e-38
0.087865993 -0.12125005 0.036862843 2.3509527e-38
0.089501135 -0.12048493 0.039801471 2.3416251e-38
0.091303729 -0.12048493 0.039801471 2.3509527e-38
0.093106322 -0.12048493 0.039801471 2.3325494e-38
0.094908908 -0.12048493 0.039801471 2.3509886e-38
0.096711501 -0.12048493 0.039801471 2.3049626e-38
0.098309837 -0.11969708 0.04282736 2.2958507e-38
0.10010713 -0.11969708 0.04282736 1.8072139e-38
-0.099046692 -0.13250901 0.00080656074 2.3509886e-38
-0.097175732 -0.13250901 0.00080656074 2.3509883e-38
-0.095304757 -0.13250901 0.00080656074 2.3509883e-38
-0.093433797 -0.13250901 0.00080656074 2.3509883e-38
-0.091105565 -0.13144915 0.0048499014 2.3509883e-38
-0.089241698 -0.13144915 0.0048499014 2.3509886e-38
-0.087377816 -0.13144915 0.0048499014 2.3509886e-38
-0.085513949 -0.13144915 0.0048499014 2.3509886e-38
-0.083650082 -0.13144915 0.0048499014 2.3509886e-38
-0.0817862 -0.13144915 0.0048499014 2.3509886e-38
-0.079922333 -0.13144915 0.0048499014 2.3509886e-38
-0.078058451 -0.13144915 0.0048499014 2.3509886e-38
-0.076194584 -0.13144915 0.0048499014 2.3509886e-38
-0.074037567 -0.13065951 0.0078623202 2.3509886e-38
-0.072178975 -0.13065951 0.0078623202 2.3509886e-38
-0.070320383 -0.13065951 0.0078623202 2.3509886e-38
-0.068461791 -0.13065951 0.0078623202 2.3509886e-38
-0.066603199 -0.13065951 0.0078623202 2.3509886e-38
-0.064744607 -0.13065951 0.0078623202 2.3509886e-38
-0.062626049 -0.12987436 0.010857692 2.3509886e-38
-0.060772698 -0.12987436 0.010857692 2.3509886e-38
-0.058919366 -0.12987436 0.010857692 2.3509886e-38
-0.05706602 -0.12987436 0.010857692 2.3509886e-38
-0.055212688 -0.12987436 0.010857692 2.3509886e-38
-0.053359341 -0.12987436 0.010857692 2.3509886e-38
-0.051505994 -0.12987436 0.010857692 2.3509886e-38
-0.049652662 -0.12987436 0.010857692 2.3509886e-38
-0.047799315 -0.12987436 0.010857692 2.3509886e-38
-0.045734476 -0.12909363 0.013836136 2.3509886e-38
-0.04388636 -0.12909363 0.013836136 2.3509886e-38
-0.042038243 -0.12909363 0.013836136 2.3509886e-38
-0.040190127 -0.12909363 0.013836136 2.3509886e-38
-0.03834201 -0.12909363 0.013836136 2.3509886e-38
-0.036493894 -0.12909363 0.013836136 2.3509886e-38
-0.034645777 -0.12909363 0.013836136 2.3509886e-38
-0.032797661 -0.12909363 0.013836136 2.3509886e-38
-0.030949537 -0.12909363 0.013836136 2.3509886e-38
-0.02910142 -0.12909363 0.013836136 2.3509886e-38
-0.027036477 -0.12803085 0.017890682 2.3509886e-38
-0.025195468 -0.12803085 0.017890682 2.3509886e-38
-0.02335446 -0.12803085 0.017890682 2.3509886e-38
