# .PCD v0.7 - Point Cloud Data file format
VERSION 0.7
FIELDS x y z rgb
SIZE 4 4 4 4
TYPE F F F F
COUNT 1 1 1 1
WIDTH 947
HEIGHT 1
VIEWPOINT 0 0 0 1 0 0 0
POINTS 947
DATA ascii
-0.076447904 -0.12279506 -0.012939857 2.3234379e-38
-0.074566409 -0.12279506 -0.012939857 2.341805e-38
-0.072440028 -0.12202276 -0.0098703373 2.3326213e-38
-0.070563912 -0.12202276 -0.0098703373 2.2496453e-38
-0.068921909 -0.12279506 -0.012939857 2.341805e-38
-0.066811681 -0.12202276 -0.0098703373 2.341805e-38
-0.061884284 -0.11147197 0.032063916 2.3325494e-38
-0.059866831 -0.11071064 0.035089806 2.3509886e-38
-0.058069542 -0.11071064 0.035089806 2.3509886e-38
-0.056272253 -0.11071064 0.035089806 2.3509886e-38
-0.054474965 -0.11071064 0.035089806 2.3509527e-38
-0.052677676 -0.11071064 0.035089806 2.3509527e-38
-0.054739788 -0.12631132 -0.026915239 2.3509527e-38
-0.052833796 -0.12631132 -0.026915239 2.3509527e-38
-0.050927788 -0.12631132 -0.026915239 2.3509527e-38
-0.048848912 -0.12554805 -0.023881601 2.3509886e-38
-0.04656513 -0.12380283 -0.01694517 2.3509886e-38
-0.044676617 -0.12380283 -0.01694517 2.341805e-38
-0.042788088 -0.12380283 -0.01694517 2.341805e-38
-0.041049227 -0.12455635 -0.019940065 2.341805e-38
-0.037416622 -0.11548282 0.016122771 2.3509886e-38
-0.035446078 -0.11472471 0.019135905 2.3509886e-38
-0.033486888 -0.11397095 0.022131635 2.3509886e-38
-0.031666875 -0.11397095 0.022131635 2.3509886e-38
-0.029684849 -0.1129816 0.026063873 2.3509886e-38
-0.027396988 -0.10995375 0.038098052 2.3509886e-38
-0.025380164 -0.10845329 0.044061735 2.3509886e-38
-0.023598608 -0.10845329 0.044061735 2.3509886e-38
-0.021817051 -0.10845329 0.044061735 2.3509886e-38
-0.020035498 -0.10845329 0.044061735 2.3509886e-38
-0.018253941 -0.10845329 0.044061735 2.3509527e-38
-0.016472384 -0.10845329 0.044061735 2.3509886e-38
-0.014690828 -0.10845329 0.044061735 2.3509886e-38
-0.012984857 -0.10920133 0.041088656 2.341805e-38
-0.011198089 -0.10920133 0.041088656 2.3509886e-38
-0.0094768628 -0.10995375 0.038098052 2.341805e-38
-0.0076848529 -0.10995375 0.038098052 2.3509886e-38
-0.0059482232 -0.11071064 0.035089806 2.341805e-38
-0.0041509345 -0.11071064 0.035089806 2.3509886e-38
-0.0023987442 -0.11147197 0.032063916 2.3509886e-38
-0.00063479692 -0.11221133 0.029125286 2.3509886e-38
0.0011729486 -0.11221133 0.029125286 2.3509886e-38
0.0029132515 -0.11397095 0.022131635 2.3509886e-38
0.0047332589 -0.11397095 0.022131635 2.3509886e-38
0.0065348819 -0.11472471 0.019135905 2.3509886e-38
0.00836014 -0.11472471 0.019135905 2.3509886e-38
0.010193279 -0.11397095 0.022131635 2.3509886e-38
0.012013286 -0.11397095 0.022131635 2.3509883e-38
0.013833292 -0.11397095 0.022131635 2.3509886e-38
0.015661178 -0.11472471 0.019135905 2.3418047e-38
0.017486438 -0.11472471 0.019135905 2.3509886e-38
0.019311696 -0.11472471 0.019135905 2.3418047e-38
0.021136954 -0.11472471 0.019135905 2.3509886e-38
0.022962216 -0.11472471 0.019135905 2.341805e-38
0.024821814 -0.11548282 0.016122771 2.3509886e-38
0.026652357 -0.11548282 0.016122771 2.341805e-38
0.028528064 -0.11624531 0.013092233 2.3509886e-38
0.030412875 -0.1169848 0.010153128 2.341805e-38
0.032253884 -0.1169848 0.010153128 2.3509886e-38
0.034094892 -0.1169848 0.010153128 2.341805e-38
0.035935901 -0.1169848 0.010153128 2.3509886e-38
0.03777691 -0.1169848 0.010153128 2.341805e-38
0.039617918 -0.1169848 0.010153128 2.3509886e-38
0.041569121 -0.11800493 0.0060985815 2.3509886e-38
0.043417238 -0.11800493 0.0060985815 2.3509883e-38
0.045140948 -0.1169848 0.010153128 2.350988e-38
0.046981957 -0.1169848 0.010153128 2.350988e-38
0.048961591 -0.11800493 0.0060985815 2.350988e-38
0.050809707 -0.11800493 0.0060985815 2.3509883e-38
0.052657828 -0.11800493 0.0060985815 2.3509883e-38
0.054345991 -0.1169848 0.010153128 2.3509167e-38
0.056187 -0.1169848 0.010153128 2.3416971e-38
0.058028013 -0.1169848 0.010153128 2.3509168e-38
0.059869021 -0.1169848 0.010153128 2.3509168e-38
0.06171003 -0.1169848 0.010153128 2.3508809e-38
0.063551039 -0.1169848 0.010153128 2.3509168e-38
0.065392047 -0.1169848 0.010153128 2.3509168e-38
0.067233056 -0.1169848 0.010153128 2.3509168e-38
0.070144854 -0.12202276 -0.0098703373 2.3509168e-38
0.07202097 -0.12202276 -0.0098703373 2.3508451e-38
0.073897086 -0.12202276 -0.0098703373 2.3509527e-38
0.075773209 -0.12202276 -0.0098703373 2.3509527e-38
0.077834994 -0.12279506 -0.012939857 2.3509527e-38
0.079716489 -0.12279506 -0.012939857 2.3509527e-38
0.081597999 -0.12279506 -0.012939857 2.3509527e-38
0.083277673 -0.12202276 -0.0098703373 2.3509527e-38
0.085153788 -0.12202276 -0.0098703373 2.3509527e-38
0.086826339 -0.12128322 -0.0069309939 2.3509168e-38
0.088697299 -0.12128322 -0.0069309939 2.3509168e-38
0.090568259 -0.12128322 -0.0069309939 2.350773e-38
0.092439219 -0.12128322 -0.0069309939 2.3508451e-38
0.094534367 -0.12202276 -0.0098703373 2.3508451e-38
0.096649989 -0.12279506 -0.012939857 2.3507733e-38
0.098531485 -0.12279506 -0.012939857 2.3508451e-38
0.10041298 -0.12279506 -0.012939857 2.3508092e-38
0.10262805 -0.12380283 -0.01694517 2.3506651e-38
0.10477126 -0.12455635 -0.019940065 2.3325129e-38
0.10666503 -0.12455635 -0.019940065 2.3509879e-38
0.1085588 -0.12455635 -0.019940065 2.350988e-38
0.11080848 -0.12554805 -0.023881601 2.3417687e-38
0.11270916 -0.12554805 -0.023881601 2.341805e-38
0.11460984 -0.12554805 -0.023881601 2.2957078e-38
0.11651053 -0.12554805 -0.023881601 2.0559993e-38
0.11899182 -0.12704925 -0.029848145 1.7885963e-38
0.12061241 -0.12631132 -0.026915239 1.843914e-38
0.12221257 -0.12554805 -0.023881601 1.4751318e-38
0.12340179 -0.12380283 -0.01694517 1.3552774e-38
0.12529032 -0.12380283 -0.01694517 1.3829513e-39
0.12717883 -0.12380283 -0.01694517 1.5414283e-44
-0.11219639 -0.12467657 -0.012939857 2.3234012e-38
-0.11031488 -0.12467657 -0.012939857 2.332621e-38
-0.10843338 -0.12467657 -0.012939857 2.341805e-38
-0.10655189 -0.12467657 -0.012939857 2.341805e-38
-0.10433401 -0.12389888 -0.0098703373 2.341805e-38
-0.1024579 -0.12389888 -0.0098703373 2.341805e-38
-0.10058178 -0.12389888 -0.0098703373 2.3509886e-38
-0.097977206 -0.12212978 -0.0028876532 2.3509886e-38
-0.096113339 -0.12212978 -0.0028876532 2.3509886e-38
-0.094657093 -0.12315418 -0.0069309939 2.3509886e-38
-0.093077317 -0.12389888 -0.0098703373 2.3509883e-38
-0.091201201 -0.12389888 -0.0098703373 2.3509883e-38
-0.089325085 -0.12389888 -0.0098703373 2.3509883e-38
-0.087448969 -0.12389888 -0.0098703373 2.3509883e-38
-0.085572839 -0.12389888 -0.0098703373 2.341805e-38
-0.083696723 -0.12389888 -0.0098703373 2.341805e-38
-0.082092404 -0.12467657 -0.012939857 2.341805e-38
-0.080558524 -0.12569134 -0.01694517 2.341805e-38
-0.078669995 -0.12569134 -0.01694517 2.341805e-38
-0.076447904 -0.12467657 -0.012939857 2.341805e-38
-0.074566409 -0.12467657 -0.012939857 2.341805e-38
-0.072440028 -0.12389888 -0.0098703373 2.341805e-38
-0.070563912 -0.12389888 -0.0098703373 2.341805e-38
-0.068921909 -0.12467657 -0.012939857 2.341805e-38
-0.067040414 -0.12467657 -0.012939857 2.341805e-38
-0.061884284 -0.11327456 0.032063916 2.341805e-38
-0.059866831 -0.11250792 0.035089806 2.341805e-38
-0.058069542 -0.11250792 0.035089806 2.3509886e-38
-0.056272253 -0.11250792 0.035089806 2.3509886e-38
-0.054474965 -0.11250792 0.035089806 2.3509886e-38
-0.052677676 -0.11250792 0.035089806 2.3509886e-38
-0.050880387 -0.11250792 0.035089806 2.3509886e-38
-0.049083099 -0.11250792 0.035089806 2.3509886e-38
-0.047285818 -0.11250792 0.035089806 2.3509886e-38
-0.048624314 -0.12645011 -0.019940065 2.3509886e-38
-0.046343923 -0.12467657 -0.012939857 2.3234379e-38
-0.044462427 -0.12467657 -0.012939857 2.3234379e-38
-0.041386478 -0.11882581 0.010153128 2.3234379e-38
-0.039398603 -0.11808117 0.013092233 2.3234379e-38
-0.037271336 -0.11654995 0.019135905 2.341805e-38
-0.035446078 -0.11654995 0.019135905 2.341805e-38
-0.033486888 -0.11579098 0.022131635 2.341805e-38
-0.031666875 -0.11579098 0.022131635 2.341805e-38
-0.029684849 -0.11479472 0.026063873 2.3509883e-38
-0.027161721 -0.11023484 0.044061735 2.3509883e-38
-0.025264908 -0.10946019 0.047119215 2.3509883e-38
-0.023488712 -0.10946019 0.047119215 2.3509883e-38
-0.021712516 -0.10946019 0.047119215 2.3509883e-38
-0.020035498 -0.11023484 0.044061735 2.3509883e-38
-0.018253941 -0.11023484 0.044061735 2.3509524e-38
-0.016472384 -0.11023484 0.044061735 2.3509527e-38
-0.014690828 -0.11023484 0.044061735 2.341805e-38
-0.012909271 -0.11023484 0.044061735 2.3234379e-38
-0.011198089 -0.1109881 0.041088656 2.341805e-38
-0.0094113201 -0.1109881 0.041088656 2.3234379e-38
-0.0076245517 -0.1109881 0.041088656 2.341805e-38
-0.0058928393 -0.11174576 0.038098052 2.3234379e-38
-0.0041509345 -0.11250792 0.035089806 2.341805e-38
-0.0023987442 -0.11327456 0.032063916 2.341805e-38
-0.00059615076 -0.11327456 0.032063916 2.341805e-38
0.001206439 -0.11327456 0.032063916 2.341805e-38
0.0029806942 -0.11401908 0.029125286 2.341805e-38
0.0047884397 -0.11401908 0.029125286 2.341805e-38
0.0065773968 -0.11479472 0.026063873 2.3509883e-38
0.0083905086 -0.11479472 0.026063873 2.3509883e-38
0.01020362 -0.11479472 0.026063873 2.3509883e-38
0.012016732 -0.11479472 0.026063873 2.350988e-38
0.013833292 -0.11579098 0.022131635 2.3418047e-38
0.015653299 -0.11579098 0.022131635 2.3234374e-38
0.017473307 -0.11579098 0.022131635 2.3418047e-38
0.019293312 -0.11579098 0.022131635 2.3234374e-38
0.021113319 -0.11579098 0.022131635 2.3418047e-38
0.022933327 -0.11579098 0.022131635 2.3234376e-38
0.024787474 -0.11654995 0.019135905 2.3418047e-38
0.026612733 -0.11654995 0.019135905 2.3234376e-38
0.028482899 -0.11731337 0.016122771 2.3418047e-38
0.030363919 -0.11808117 0.013092233 2.3234376e-38
0.032199778 -0.11808117 0.013092233 2.3326213e-38
0.034035631 -0.11808117 0.013092233 2.3050347e-38
0.035935901 -0.11882581 0.010153128 2.3234018e-38
0.03777691 -0.11882581 0.010153128 2.3050347e-38
0.039617918 -0.11882581 0.010153128 2.3326213e-38
0.041458927 -0.11882581 0.010153128 2.3326213e-38
0.043299936 -0.11882581 0.010153128 2.3509883e-38
0.045140948 -0.11882581 0.010153128 2.3509883e-38
0.046981957 -0.11882581 0.010153128 2.3509883e-38
0.048822965 -0.11882581 0.010153128 2.3509883e-38
0.050663974 -0.11882581 0.010153128 2.3417687e-38
0.052504983 -0.11882581 0.010153128 2.3417687e-38
0.054345991 -0.11882581 0.010153128 2.3325494e-38
0.056187 -0.11882581 0.010153128 2.3325494e-38
0.058028013 -0.11882581 0.010153128 2.3509527e-38
0.059869021 -0.11882581 0.010153128 2.3509527e-38
0.061573468 -0.11808117 0.013092233 2.3509527e-38
0.063409328 -0.11808117 0.013092233 2.3509167e-38
0.065245181 -0.11808117 0.013092233 2.3509167e-38
0.067081034 -0.11808117 0.013092233 2.3509167e-38
0.069771439 -0.12212978 -0.0028876532 2.3509527e-38
0.07185863 -0.12315418 -0.0069309939 2.3509527e-38
0.07372959 -0.12315418 -0.0069309939 2.3509165e-38
0.07560055 -0.12315418 -0.0069309939 2.3508805e-38
0.077471524 -0.12315418 -0.0069309939 2.3508445e-38
0.079525441 -0.12389888 -0.0098703373 2.3509165e-38
0.081213444 -0.12315418 -0.0069309939 2.3509524e-38
0.083084404 -0.12315418 -0.0069309939 2.3509527e-38
0.084682435 -0.12212978 -0.0028876532 2.323258e-38
0.086546302 -0.12212978 -0.0028876532 2.3140384e-38
0.088410184 -0.12212978 -0.0028876532 2.3509527e-38
0.090568259 -0.12315418 -0.0069309939 2.3509527e-38
0.092439219 -0.12315418 -0.0069309939 2.3509527e-38
0.094310194 -0.12315418 -0.0069309939 2.3416974e-38
0.096649989 -0.12467657 -0.012939857 2.3508091e-38
0.098531485 -0.12467657 -0.012939857 2.3508451e-38
0.10041298 -0.12467657 -0.012939857 2.3509168e-38
0.10262805 -0.12569134 -0.01694517 2.3509168e-38
0.10451658 -0.12569134 -0.01694517 2.3509521e-38
0.10640509 -0.12569134 -0.01694517 2.3509161e-38
0.1085588 -0.12645011 -0.019940065 2.3508804e-38
0.11045258 -0.12645011 -0.019940065 2.3509167e-38
0.11234634 -0.12645011 -0.019940065 2.3417333e-38
0.11460984 -0.12744872 -0.023881601 2.2864526e-38
0.11651053 -0.12744872 -0.023881601 2.0283053e-38
0.11870642 -0.12821732 -0.026915239 1.659595e-38
0.1203119 -0.12744872 -0.023881601 1.6320082e-38
0.12221257 -0.12744872 -0.023881601 1.4937148e-38
0.12340179 -0.12569134 -0.01694517 1.1341516e-38
0.12529032 -0.12569134 -0.01694517 2.306697e-39
0.12717883 -0.12569134 -0.01694517 2.7839176e-40
0.12981531 -0.12744872 -0.023881601 1.8460706e-39
-0.1145519 -0.12757985 -0.01694517 2.3141816e-38
-0.11266339 -0.12757985 -0.01694517 2.3141816e-38
-0.11077486 -0.12757985 -0.01694517 2.3233652e-38
-0.10843338 -0.12655805 -0.012939857 2.3417687e-38
-0.10655189 -0.12655805 -0.012939857 2.3509886e-38
-0.10433401 -0.12577499 -0.0098703373 2.3509886e-38
-0.1024579 -0.12577499 -0.0098703373 2.3509886e-38
-0.10058178 -0.12577499 -0.0098703373 2.3509886e-38
-0.097977206 -0.12399365 -0.0028876532 2.3509886e-38
-0.096113339 -0.12399365 -0.0028876532 2.3509886e-38
-0.094657093 -0.12502514 -0.0069309939 2.3509886e-38
-0.093077317 -0.12577499 -0.0098703373 2.3509886e-38
-0.091201201 -0.12577499 -0.0098703373 2.3509886e-38
-0.089325085 -0.12577499 -0.0098703373 2.3509886e-38
-0.087448969 -0.12577499 -0.0098703373 2.3509886e-38
-0.085572839 -0.12577499 -0.0098703373 2.3509886e-38
-0.083696723 -0.12577499 -0.0098703373 2.3509886e-38
-0.082092404 -0.12655805 -0.012939857 2.3509886e-38
-0.080558524 -0.12757985 -0.01694517 2.3509886e-38
-0.078669995 -0.12757985 -0.01694517 2.3509886e-38
-0.076447904 -0.12655805 -0.012939857 2.341805e-38
-0.074566409 -0.12655805 -0.012939857 2.341805e-38
-0.072684899 -0.12655805 -0.012939857 2.341805e-38
-0.070803404 -0.12655805 -0.012939857 2.341805e-38
-0.068921909 -0.12655805 -0.012939857 2.341805e-38
-0.063461393 -0.11430521 0.035089806 2.341805e-38
-0.061664104 -0.11430521 0.035089806 2.341805e-38
-0.059866831 -0.11430521 0.035089806 2.341805e-38
-0.058069542 -0.11430521 0.035089806 2.3509886e-38
-0.056272253 -0.11430521 0.035089806 2.3509886e-38
-0.054474965 -0.11430521 0.035089806 2.3509886e-38
-0.052677676 -0.11430521 0.035089806 2.3509886e-38
-0.050880387 -0.11430521 0.035089806 2.3509886e-38
-0.049083099 -0.11430521 0.035089806 2.3509886e-38
-0.047285818 -0.11430521 0.035089806 2.3509886e-38
-0.045660958 -0.11507715 0.032063916 2.341805e-38
-0.043858364 -0.11507715 0.032063916 2.3234379e-38
-0.042212918 -0.11582683 0.029125286 2.3234379e-38
-0.040405169 -0.11582683 0.029125286 2.3234379e-38
-0.038597435 -0.11582683 0.029125286 2.3234379e-38
-0.036937296 -0.11660783 0.026063873 2.3234379e-38
-0.035306886 -0.11761098 0.022131635 2.3234379e-38
-0.032506391 -0.11201639 0.044061735 2.341805e-38
-0.030593492 -0.11123641 0.047119215 2.341805e-38
-0.028817296 -0.11123641 0.047119215 2.3509883e-38
-0.027041104 -0.11123641 0.047119215 2.3509883e-38
-0.025150344 -0.11046107 0.050158337 2.3509883e-38
-0.023379475 -0.11046107 0.050158337 2.3509883e-38
-0.021712516 -0.11123641 0.047119215 2.3509524e-38
-0.019936323 -0.11123641 0.047119215 2.3509524e-38
-0.018160127 -0.11123641 0.047119215 2.3509524e-38
-0.016472384 -0.11201639 0.044061735 2.3509527e-38
-0.014690828 -0.11201639 0.044061735 2.341805e-38
-0.012909271 -0.11201639 0.044061735 2.3234379e-38
-0.011127718 -0.11201639 0.044061735 2.3142544e-38
-0.009346161 -0.11201639 0.044061735 2.3050349e-38
-0.0075646043 -0.11201639 0.044061735 2.3050349e-38
-0.0058377832 -0.11277486 0.041088656 2.3142544e-38
-0.0040510148 -0.11277486 0.041088656 2.3234379e-38
-0.0023088157 -0.11353777 0.038098052 2.3234379e-38
-0.00055636093 -0.11430521 0.035089806 2.341805e-38
0.001240924 -0.11430521 0.035089806 2.341805e-38
0.0030090325 -0.11507715 0.032063916 2.341805e-38
0.0048116241 -0.11507715 0.032063916 2.341805e-38
0.0065961834 -0.11582683 0.029125286 2.3509886e-38
0.0083905086 -0.11660783 0.026063873 2.3509883e-38
0.01020362 -0.11660783 0.026063873 2.3509883e-38
0.012016732 -0.11660783 0.026063873 2.3509883e-38
0.013829846 -0.11660783 0.026063873 2.3418047e-38
0.015653299 -0.11761098 0.022131635 2.3234376e-38
0.017473307 -0.11761098 0.022131635 2.3234376e-38
0.019293312 -0.11761098 0.022131635 2.3234376e-38
0.021113319 -0.11761098 0.022131635 2.3234376e-38
0.022933327 -0.11761098 0.022131635 2.3234376e-38
0.024753332 -0.11761098 0.022131635 2.3234379e-38
0.026612733 -0.11837523 0.019135905 2.3234379e-38
0.028437993 -0.11837523 0.019135905 2.3142542e-38
0.030313442 -0.11914389 0.016122771 2.3142542e-38
0.03214398 -0.11914389 0.016122771 2.3142542e-38
0.033974525 -0.11914389 0.016122771 2.3142542e-38
0.035805069 -0.11914389 0.016122771 2.3234379e-38
0.03763561 -0.11914389 0.016122771 2.3234379e-38
0.03946615 -0.11914389 0.016122771 2.3234379e-38
0.041379057 -0.11991702 0.013092233 2.341805e-38
0.043127239 -0.11914389 0.016122771 2.341769e-38
0.044957779 -0.11914389 0.016122771 2.3509883e-38
0.046981957 -0.12066682 0.010153128 2.3509883e-38
0.048822965 -0.12066682 0.010153128 2.3509883e-38
0.050663974 -0.12066682 0.010153128 2.3509883e-38
0.052504983 -0.12066682 0.010153128 2.3509883e-38
0.054230046 -0.11991702 0.013092233 2.3509886e-38
0.056065902 -0.11991702 0.013092233 2.3509886e-38
0.057901755 -0.11991702 0.013092233 2.3509886e-38
0.059737612 -0.11991702 0.013092233 2.3509886e-38
0.061573468 -0.11991702 0.013092233 2.3509886e-38
0.063409328 -0.11991702 0.013092233 2.341769e-38
0.065245181 -0.11991702 0.013092233 2.341769e-38
0.067081034 -0.11991702 0.013092233 2.341769e-38
0.069290891 -0.12170117 0.0060985815 2.3509886e-38
0.071635321 -0.12399365 -0.0028876532 2.3509527e-38
0.073499188 -0.12399365 -0.0028876532 2.3415529e-38
0.07560055 -0.12502514 -0.0069309939 2.3508085e-38
0.077471524 -0.12502514 -0.0069309939 2.3509165e-38
0.079342484 -0.12502514 -0.0069309939 2.3509524e-38
0.080954686 -0.12399365 -0.0028876532 2.3509527e-38
0.082818553 -0.12399365 -0.0028876532 2.3509886e-38
0.084682435 -0.12399365 -0.0028876532 2.341805e-38
0.086546302 -0.12399365 -0.0028876532 2.341805e-38
0.088410184 -0.12399365 -0.0028876532 2.304927e-38
0.090274051 -0.12399365 -0.0028876532 2.3141466e-38
0.092439219 -0.12502514 -0.0069309939 2.341805e-38
0.094310194 -0.12502514 -0.0069309939 2.341805e-38
0.096649989 -0.12655805 -0.012939857 2.3509527e-38
0.098531485 -0.12655805 -0.012939857 2.3509527e-38
0.10041298 -0.12655805 -0.012939857 2.3048556e-38
0.10262805 -0.12757985 -0.01694517 2.2679409e-38
0.10451658 -0.12757985 -0.01694517 2.2770879e-38
0.10640509 -0.12757985 -0.01694517 2.1848559e-38
0.1085588 -0.1283439 -0.019940065 2.1295032e-38
0.11045258 -0.1283439 -0.019940065 2.0926613e-38
0.11234634 -0.1283439 -0.019940065 2.0651469e-38
0.11424011 -0.1283439 -0.019940065 2.0651835e-38
0.11651053 -0.12934943 -0.023881601 1.8993038e-38
0.11870642 -0.13012333 -0.026915239 1.6320084e-38
0.1203119 -0.12934943 -0.023881601 1.5859826e-38
0.12221257 -0.12934943 -0.023881601 1.4938227e-38
0.12370898 -0.1283439 -0.019940065 1.1711374e-38
0.12560275 -0.1283439 -0.019940065 2.6765571e-39
0.12791462 -0.12934943 -0.023881601 7.4080204e-40
0.12981531 -0.12934943 -0.023881601 2.5850664e-39
-0.1145519 -0.1294684 -0.01694517 2.3049978e-38
-0.11266339 -0.1294684 -0.01694517 2.3326206e-38
-0.11077486 -0.1294684 -0.01694517 2.3509879e-38
-0.10888635 -0.1294684 -0.01694517 2.3418043e-38
-0.10699782 -0.1294684 -0.01694517 2.3509886e-38
-0.10467038 -0.12843956 -0.012939857 2.3509886e-38
-0.10278888 -0.12843956 -0.012939857 2.3509886e-38
-0.10133226 -0.1294684 -0.01694517 2.3509886e-38
-0.098399028 -0.1268961 -0.0069309939 2.3509886e-38
-0.096528053 -0.1268961 -0.0069309939 2.3509886e-38
-0.092934728 -0.12250783 0.010153128 2.3509886e-38
-0.091093719 -0.12250783 0.010153128 2.3509886e-38
-0.089647263 -0.1235493 0.0060985815 2.3509886e-38
-0.087411702 -0.12250783 0.010153128 2.3509886e-38
-0.085570693 -0.12250783 0.010153128 2.3509886e-38
-0.08437708 -0.12431435 0.0031201374 2.3509886e-38
-0.082794204 -0.12508373 0.00012476556 2.3509886e-38
-0.081202343 -0.12585752 -0.0028876532 2.3509886e-38
-0.079689384 -0.1268961 -0.0069309939 2.3509886e-38
-0.078068376 -0.12765111 -0.0098703373 2.3509886e-38
-0.076447904 -0.12843956 -0.012939857 2.341805e-38
-0.074566409 -0.12843956 -0.012939857 2.341805e-38
-0.072684899 -0.12843956 -0.012939857 2.341805e-38
-0.070803404 -0.12843956 -0.012939857 2.341805e-38
-0.065258682 -0.1161025 0.035089806 2.3509886e-38
-0.063461393 -0.1161025 0.035089806 2.3509886e-38
-0.061664104 -0.1161025 0.035089806 2.3509886e-38
-0.059866831 -0.1161025 0.035089806 2.3509886e-38
-0.058069542 -0.1161025 0.035089806 2.3509886e-38
-0.05606918 -0.11532979 0.038098052 2.3509886e-38
-0.054277167 -0.11532979 0.038098052 2.3509886e-38
-0.052485153 -0.11532979 0.038098052 2.3509886e-38
-0.050693154 -0.11532979 0.038098052 2.3509886e-38
-0.048901133 -0.11532979 0.038098052 2.3509886e-38
-0.047109127 -0.11532979 0.038098052 2.3509886e-38
-0.045488529 -0.1161025 0.035089806 2.3509886e-38
-0.043858364 -0.11687975 0.032063916 2.341805e-38
-0.042055771 -0.11687975 0.032063916 2.341805e-38
-0.040253177 -0.11687975 0.032063916 2.341805e-38
-0.038450584 -0.11687975 0.032063916 2.341805e-38
-0.03664799 -0.11687975 0.032063916 2.341805e-38
-0.034426078 -0.11456163 0.041088656 2.341805e-38
-0.032506391 -0.11379795 0.044061735 2.3509886e-38
-0.030593492 -0.1130126 0.047119215 2.3509886e-38
-0.028817296 -0.1130126 0.047119215 2.3509886e-38
-0.026921209 -0.11223195 0.050158337 2.3509886e-38
-0.025150344 -0.11223195 0.050158337 2.3509886e-38
-0.023379475 -0.11223195 0.050158337 2.3509886e-38
-0.02160861 -0.11223195 0.050158337 2.3509527e-38
-0.019837745 -0.11223195 0.050158337 2.3509527e-38
-0.018160127 -0.1130126 0.047119215 2.3509527e-38
-0.016383931 -0.1130126 0.047119215 2.3509886e-38
-0.014607735 -0.1130126 0.047119215 2.341805e-38
-0.012831539 -0.1130126 0.047119215 2.3234379e-38
-0.011127718 -0.11379795 0.044061735 2.3234379e-38
-0.009346161 -0.11379795 0.044061735 2.3050349e-38
-0.0075646043 -0.11379795 0.044061735 2.3233662e-38
-0.0057830513 -0.11379795 0.044061735 2.341805e-38
-0.0040014908 -0.11379795 0.044061735 2.341805e-38
-0.0022642463 -0.11456163 0.041088656 2.341805e-38
-0.00055636093 -0.1161025 0.035089806 2.3509886e-38
0.001240924 -0.1161025 0.035089806 2.3509886e-38
0.0030090325 -0.11687975 0.032063916 2.3509886e-38
0.0048116241 -0.11687975 0.032063916 2.3509886e-38
0.0065961834 -0.11763458 0.029125286 2.3509886e-38
0.0084039271 -0.11763458 0.029125286 2.3509886e-38
0.010211673 -0.11763458 0.029125286 2.3509527e-38
0.012019416 -0.11763458 0.029125286 2.3509886e-38
0.013829846 -0.11842094 0.026063873 2.341805e-38
0.015642958 -0.11842094 0.026063873 2.341805e-38
0.01745607 -0.11842094 0.026063873 2.341805e-38
0.019269181 -0.11842094 0.026063873 2.341805e-38
0.021082293 -0.11842094 0.026063873 2.341805e-38
0.022895407 -0.11842094 0.026063873 2.341805e-38
0.024753332 -0.11943097 0.022131635 2.341805e-38
0.026573339 -0.11943097 0.022131635 2.341805e-38
0.028393347 -0.11943097 0.022131635 2.3233662e-38
0.030263253 -0.12020047 0.019135905 2.3325856e-38
0.032088511 -0.12020047 0.019135905 2.3325856e-38
0.033913769 -0.12020047 0.019135905 2.3325856e-38
0.035739027 -0.12020047 0.019135905 2.341805e-38
0.037564289 -0.12020047 0.019135905 2.341805e-38
0.039389551 -0.12020047 0.019135905 2.341805e-38
0.041296694 -0.12097444 0.016122771 2.341805e-38
0.043040067 -0.12020047 0.019135905 2.3325494e-38
0.044865325 -0.12020047 0.019135905 2.3325494e-38
0.04678832 -0.12097444 0.016122771 2.3325494e-38
0.048618864 -0.12097444 0.016122771 2.3325494e-38
0.050558332 -0.12175287 0.013092233 2.3325494e-38
0.052279949 -0.12097444 0.016122771 2.341769e-38
0.05411049 -0.12097444 0.016122771 2.341769e-38
0.056065902 -0.12175287 0.013092233 2.341769e-38
0.057901755 -0.12175287 0.013092233 2.3509886e-38
0.059737612 -0.12175287 0.013092233 2.3509886e-38
0.061573468 -0.12175287 0.013092233 2.3509886e-38
0.063409328 -0.12175287 0.013092233 2.3417691e-38
0.065245181 -0.12175287 0.013092233 2.3325497e-38
0.067081034 -0.12175287 0.013092233 2.3325497e-38
0.069290891 -0.1235493 0.0060985815 2.3417691e-38
0.071468942 -0.12508373 0.00012476556 2.3417691e-38
0.073499188 -0.12585752 -0.0028876532 2.3509527e-38
0.07536307 -0.12585752 -0.0028876532 2.3509527e-38
0.077226937 -0.12585752 -0.0028876532 2.3509527e-38
0.079090819 -0.12585752 -0.0028876532 2.3048907e-38
0.080954686 -0.12585752 -0.0028876532 2.2588292e-38
0.082818553 -0.12585752 -0.0028876532 2.2958154e-38
0.084682435 -0.12585752 -0.0028876532 2.3142544e-38
0.086337671 -0.12508373 0.00012476556 2.3142544e-38
0.088196263 -0.12508373 0.00012476556 2.2958873e-38
0.090054855 -0.12508373 0.00012476556 2.2958873e-38
0.091913447 -0.12508373 0.00012476556 2.2590813e-38
0.094310194 -0.1268961 -0.0069309939 2.2314228e-38
0.096410483 -0.12765111 -0.0098703373 2.2036565e-38
0.098531485 -0.12843956 -0.012939857 2.1022413e-38
0.10041298 -0.12843956 -0.012939857 1.9547283e-38
0.10262805 -0.1294684 -0.01694517 1.8532409e-38
0.10451658 -0.1294684 -0.01694517 1.6963633e-38
0.10640509 -0.1294684 -0.01694517 1.6133869e-38
0.1085588 -0.13023765 -0.019940065 1.5764734e-38
0.11045258 -0.13023765 -0.019940065 1.5488513e-38
0.11234634 -0.13023765 -0.019940065 1.5581073e-38
0.11424011 -0.13023765 -0.019940065 1.6043133e-38
0.11613388 -0.13023765 -0.019940065 1.5582519e-38
0.11841121 -0.1312501 -0.023881601 1.3831525e-38
0.1203119 -0.1312501 -0.023881601 1.5122261e-38
0.12221257 -0.1312501 -0.023881601 1.4662359e-38
0.12411326 -0.1312501 -0.023881601 1.208016e-38
0.12601395 -0.1312501 -0.023881601 3.0453397e-39
0.12791462 -0.1312501 -0.023881601 1.4772881e-39
0.12981531 -0.1312501 -0.023881601 3.5981407e-39
-0.11490636 -0.13213144 -0.019940065 2.2681193e-38
-0.11266339 -0.13135691 -0.01694517 2.3234367e-38
-0.11077486 -0.13135691 -0.01694517 2.3509876e-38
-0.10888635 -0.13135691 -0.01694517 2.3509879e-38
-0.10655189 -0.13032107 -0.012939857 2.3509886e-38
-0.10467038 -0.13032107 -0.012939857 2.3509886e-38
-0.10170496 -0.12772138 -0.0028876532 2.3509886e-38
-0.098887846 -0.1253974 0.0060985815 2.3509886e-38
-0.096310139 -0.12358873 0.013092233 2.3509886e-38
-0.094474271 -0.12358873 0.013092233 2.3509886e-38
-0.092934728 -0.12434883 0.010153128 2.3509886e-38
-0.091093719 -0.12434883 0.010153128 2.3509886e-38
-0.088671803 -0.12280498 0.016122771 2.3509886e-38
-0.086553335 -0.12202574 0.019135905 2.3509886e-38
-0.084728077 -0.12202574 0.019135905 2.3509886e-38
-0.083180174 -0.12280498 0.016122771 2.3509886e-38
-0.081623286 -0.12358873 0.013092233 2.3509886e-38
-0.080935612 -0.12694232 0.00012476556 2.3509886e-38
-0.076560065 -0.11944233 0.029125286 2.3509886e-38
-0.074752316 -0.11944233 0.029125286 2.3509886e-38
-0.076447904 -0.13032107 -0.012939857 2.341805e-38
-0.074316144 -0.12952723 -0.0098703373 2.341805e-38
-0.072440028 -0.12952723 -0.0098703373 2.341805e-38
-0.070563912 -0.12952723 -0.0098703373 2.341805e-38
-0.065258682 -0.11789979 0.035089806 2.3509886e-38
-0.063461393 -0.11789979 0.035089806 2.3509886e-38
-0.061445221 -0.1171218 0.038098052 2.3509886e-38
-0.059653208 -0.1171218 0.038098052 2.3509886e-38
-0.057861194 -0.1171218 0.038098052 2.3509886e-38
-0.05606918 -0.1171218 0.038098052 2.3509886e-38
-0.054080546 -0.1163484 0.041088656 2.3509886e-38
-0.052293777 -0.1163484 0.041088656 2.3509886e-38
-0.050507009 -0.1163484 0.041088656 2.3509886e-38
-0.048720233 -0.1163484 0.041088656 2.3509886e-38
-0.047109127 -0.1171218 0.038098052 2.3509886e-38
-0.045317113 -0.1171218 0.038098052 2.3509886e-38
-0.0435251 -0.1171218 0.038098052 2.3509886e-38
-0.041893959 -0.11789979 0.035089806 2.341805e-38
-0.04009667 -0.11789979 0.035089806 2.3509886e-38
-0.038149059 -0.1171218 0.038098052 2.341805e-38
-0.036212847 -0.1163484 0.041088656 2.341805e-38
-0.034145884 -0.11478879 0.047119215 2.341805e-38
-0.032369688 -0.11478879 0.047119215 2.3509886e-38
-0.030462943 -0.11400281 0.050158337 2.3509886e-38
-0.028692074 -0.11400281 0.050158337 2.3509886e-38
-0.026921209 -0.11400281 0.050158337 2.3509886e-38
-0.02504025 -0.11324753 0.053078845 2.3509886e-38
-0.023274504 -0.11324753 0.053078845 2.3509886e-38
-0.021508757 -0.11324753 0.053078845 2.3509886e-38
-0.019837745 -0.11400281 0.050158337 2.3509886e-38
-0.018160127 -0.11478879 0.047119215 2.3509527e-38
-0.016383931 -0.11478879 0.047119215 2.3509886e-38
-0.014607735 -0.11478879 0.047119215 2.3418047e-38
-0.012831539 -0.11478879 0.047119215 2.3234376e-38
-0.011055347 -0.11478879 0.047119215 2.3234379e-38
-0.009346161 -0.1155795 0.044061735 2.3234379e-38
-0.0075646043 -0.1155795 0.044061735 2.341805e-38
-0.0057830513 -0.1155795 0.044061735 2.341805e-38
-0.0040014908 -0.1155795 0.044061735 2.341805e-38
-0.0022199377 -0.1155795 0.044061735 2.341805e-38
-0.00047747791 -0.1163484 0.041088656 2.3509886e-38
0.0012752078 -0.1171218 0.038098052 2.3509886e-38
0.0030382127 -0.11789979 0.035089806 2.3509886e-38
0.0048354976 -0.11789979 0.035089806 2.3509886e-38
0.0066142157 -0.11868234 0.032063916 2.3509886e-38
0.0084168091 -0.11868234 0.032063916 2.3509527e-38
0.010219401 -0.11868234 0.032063916 2.3509527e-38
0.012021992 -0.11868234 0.032063916 2.3509527e-38
0.013827162 -0.11944233 0.029125286 2.3509527e-38
0.015642958 -0.12023406 0.026063873 2.341805e-38
0.01745607 -0.12023406 0.026063873 2.3509527e-38
0.019269181 -0.12023406 0.026063873 2.341805e-38
0.021082293 -0.12023406 0.026063873 2.3509527e-38
0.022895407 -0.12023406 0.026063873 2.341805e-38
0.024708519 -0.12023406 0.026063873 2.3509527e-38
0.026521631 -0.12023406 0.026063873 2.341805e-38
0.028393347 -0.121251 0.022131635 2.3417333e-38
0.030213352 -0.121251 0.022131635 2.3325856e-38
0.032033361 -0.121251 0.022131635 2.3417691e-38
0.033853367 -0.121251 0.022131635 2.3325856e-38
0.035673372 -0.121251 0.022131635 2.3417691e-38
0.037564289 -0.12202574 0.019135905 2.3325856e-38
0.039389551 -0.12202574 0.019135905 2.3325497e-38
0.041214809 -0.12202574 0.019135905 2.3325497e-38
0.043040067 -0.12202574 0.019135905 2.3509886e-38
0.044865325 -0.12202574 0.019135905 2.3509886e-38
0.04678832 -0.12280498 0.016122771 2.3509886e-38
0.048618864 -0.12280498 0.016122771 2.3509886e-38
0.050558332 -0.12358873 0.013092233 2.3509886e-38
0.052279949 -0.12280498 0.016122771 2.3509886e-38
0.05411049 -0.12280498 0.016122771 2.3509886e-38
0.056065902 -0.12358873 0.013092233 2.3509886e-38
0.057901755 -0.12358873 0.013092233 2.3509886e-38
0.059737612 -0.12358873 0.013092233 2.3509886e-38
0.061573468 -0.12358873 0.013092233 2.3509886e-38
0.063409328 -0.12358873 0.013092233 2.3509886e-38
0.065245181 -0.12358873 0.013092233 2.3509886e-38
0.067233056 -0.12434883 0.010153128 2.3509886e-38
0.069074064 -0.12434883 0.010153128 2.3509886e-38
0.071139008 -0.1253974 0.0060985815 2.3509886e-38
0.073327534 -0.12694232 0.00012476556 2.2680488e-38
0.07536307 -0.12772138 -0.0028876532 2.3325856e-38
0.077226937 -0.12772138 -0.0028876532 2.2681567e-38
0.079090819 -0.12772138 -0.0028876532 2.0561786e-38
0.080954686 -0.12772138 -0.0028876532 1.8625322e-38
0.082818553 -0.12772138 -0.0028876532 1.696688e-38
0.084682435 -0.12772138 -0.0028876532 1.5123686e-38
0.086337671 -0.12694232 0.00012476556 1.3372331e-38
0.088196263 -0.12694232 0.00012476556 1.3372331e-38
0.090054855 -0.12694232 0.00012476556 1.3095747e-38
0.091913447 -0.12694232 0.00012476556 1.281916e-38
0.094310194 -0.12876706 -0.0069309939 1.2726967e-38
0.096410483 -0.12952723 -0.0098703373 1.2818444e-38
0.098531485 -0.13032107 -0.012939857 1.2541857e-38
0.10041298 -0.13032107 -0.012939857 1.2080881e-38
0.10262805 -0.13135691 -0.01694517 1.1711374e-38
0.10451658 -0.13135691 -0.01694517 1.2908107e-38
0.10640509 -0.13135691 -0.01694517 1.2447126e-38
0.10829362 -0.13135691 -0.01694517 1.2631164e-38
0.11045258 -0.13213144 -0.019940065 1.254005e-38
0.11234634 -0.13213144 -0.019940065 1.2540415e-38
0.11424011 -0.13213144 -0.019940065 1.3185431e-38
0.11613388 -0.13213144 -0.019940065 1.2909566e-38
0.11841121 -0.13315077 -0.023881601 1.1711744e-38
0.1203119 -0.13315077 -0.023881601 1.3832241e-38
0.12221257 -0.13315077 -0.023881601 1.3924794e-38
0.12411326 -0.13315077 -0.023881601 1.1711377e-38
0.12601395 -0.13315077 -0.023881601 2.9531454e-39
0.12791462 -0.13315077 -0.023881601 1.4772881e-39
0.12981531 -0.13315077 -0.023881601 3.8747276e-39
0.13236983 -0.13469382 -0.029848145 3.7825305e-39
-0.1145519 -0.13324542 -0.01694517 2.1943265e-38
-0.11266339 -0.13324542 -0.01694517 2.2773025e-38
-0.11031488 -0.13220255 -0.012939857 2.3509873e-38
-0.10843338 -0.13220255 -0.012939857 2.3417679e-38
-0.10621013 -0.13140334 -0.0098703373 2.3509883e-38
-0.10323872 -0.12880091 0.00012476556 2.3509886e-38
-0.10073596 -0.12724553 0.0060985815 2.3509886e-38
-0.098145992 -0.12542458 0.013092233 2.3509886e-38
-0.095993981 -0.12463553 0.016122771 2.3509886e-38
-0.094163433 -0.12463553 0.016122771 2.3509886e-38
-0.092638418 -0.12542458 0.013092233 2.3509886e-38
-0.090502352 -0.12463553 0.016122771 2.3509886e-38
-0.088378593 -0.12385099 0.019135905 2.3509886e-38
-0.086267084 -0.123071 0.022131635 2.3509886e-38
-0.084447071 -0.123071 0.022131635 2.3509886e-38
-0.082627058 -0.123071 0.022131635 2.3509886e-38
-0.08080706 -0.123071 0.022131635 2.3509886e-38
-0.077839687 -0.11969708 0.035089806 2.3509886e-38
-0.075781316 -0.11891381 0.038098052 2.3509886e-38
-0.073989302 -0.11891381 0.038098052 2.3509886e-38
-0.076447904 -0.13220255 -0.012939857 2.3509886e-38
-0.074316144 -0.13140334 -0.0098703373 2.3509886e-38
-0.072440028 -0.13140334 -0.0098703373 2.3509886e-38
-0.070563912 -0.13140334 -0.0098703373 2.3509886e-38
-0.068687797 -0.13140334 -0.0098703373 2.3509886e-38
-0.063237235 -0.11891381 0.038098052 2.3509886e-38
-0.061445221 -0.11891381 0.038098052 2.3509886e-38
-0.059653208 -0.11891381 0.038098052 2.3509886e-38
-0.057861194 -0.11891381 0.038098052 2.3509886e-38
-0.055867314 -0.11813517 0.041088656 2.3509886e-38
-0.053885058 -0.11736105 0.044061735 2.3509886e-38
-0.052103505 -0.11736105 0.044061735 2.3509886e-38
-0.050321952 -0.11736105 0.044061735 2.3509886e-38
-0.048720233 -0.11813517 0.041088656 2.3509886e-38
-0.046933465 -0.11813517 0.041088656 2.3509886e-38
-0.045317113 -0.11891381 0.038098052 2.3509886e-38
-0.0435251 -0.11891381 0.038098052 2.3509886e-38
-0.041733086 -0.11891381 0.038098052 2.3509883e-38
-0.039941072 -0.11891381 0.038098052 2.3509527e-38
-0.037999623 -0.11813517 0.041088656 2.3509883e-38
-0.036069497 -0.11736105 0.044061735 2.3509883e-38
-0.034145884 -0.11656497 0.047119215 2.3509883e-38
-0.032233804 -0.11577369 0.050158337 2.3509886e-38
-0.030462943 -0.11577369 0.050158337 2.3509886e-38
-0.028692074 -0.11577369 0.050158337 2.3509886e-38
-0.026921209 -0.11577369 0.050158337 2.3509886e-38
-0.02504025 -0.11501329 0.053078845 2.341805e-38
-0.023274504 -0.11501329 0.053078845 2.341805e-38
-0.021508757 -0.11501329 0.053078845 2.341805e-38
-0.01974301 -0.11501329 0.053078845 2.341805e-38
-0.018160127 -0.11656497 0.047119215 2.3509886e-38
-0.016383931 -0.11656497 0.047119215 2.3418047e-38
-0.014607735 -0.11656497 0.047119215 2.3234012e-38
-0.012831539 -0.11656497 0.047119215 2.3326208e-38
-0.011055347 -0.11656497 0.047119215 2.3418047e-38
-0.0092791505 -0.11656497 0.047119215 2.3418047e-38
-0.0075029582 -0.11656497 0.047119215 2.3509883e-38
-0.0057267621 -0.11656497 0.047119215 2.3509883e-38
-0.0040014908 -0.11736105 0.044061735 2.3417687e-38
-0.0022199377 -0.11736105 0.044061735 2.3325492e-38
-0.00047747791 -0.11813517 0.041088656 2.3509883e-38
0.0013092905 -0.11813517 0.041088656 2.3509527e-38
0.0030672215 -0.11891381 0.038098052 2.3509527e-38
0.0048592351 -0.11891381 0.038098052 2.3509527e-38
0.0066327862 -0.11969708 0.035089806 2.3509527e-38
0.0084300712 -0.11969708 0.035089806 2.3509168e-38
0.01022736 -0.11969708 0.035089806 2.3509168e-38
0.012021992 -0.12048493 0.032063916 2.3509527e-38
0.013824586 -0.12048493 0.032063916 2.3509168e-38
0.015627177 -0.12048493 0.032063916 2.3509527e-38
0.017429769 -0.12048493 0.032063916 2.3509168e-38
0.019250395 -0.12125005 0.029125286 2.3509527e-38
0.021058138 -0.12125005 0.029125286 2.3509168e-38
0.022865884 -0.12125005 0.029125286 2.3509527e-38
0.02467363 -0.12125005 0.029125286 2.3509168e-38
0.026481373 -0.12125005 0.029125286 2.3509527e-38
0.028334744 -0.12204717 0.026063873 2.3416974e-38
0.030147854 -0.12204717 0.026063873 2.3417333e-38
0.031960968 -0.12204717 0.026063873 2.3509527e-38
0.033774078 -0.12204717 0.026063873 2.3509886e-38
0.035673372 -0.123071 0.022131635 2.3509527e-38
0.037564289 -0.12385099 0.019135905 2.3509886e-38
0.039389551 -0.12385099 0.019135905 2.3509527e-38
0.041214809 -0.12385099 0.019135905 2.341769e-38
0.043040067 -0.12385099 0.019135905 2.3325497e-38
0.044865325 -0.12385099 0.019135905 2.3325497e-38
0.04678832 -0.12463553 0.016122771 2.3325497e-38
0.048618864 -0.12463553 0.016122771 2.3325497e-38
0.050449405 -0.12463553 0.016122771 2.3325497e-38
0.052279949 -0.12463553 0.016122771 2.3325497e-38
0.05411049 -0.12463553 0.016122771 2.3325497e-38
0.055941034 -0.12463553 0.016122771 2.3325497e-38
0.057901755 -0.12542458 0.013092233 2.3509886e-38
0.059737612 -0.12542458 0.013092233 2.3509886e-38
0.061573468 -0.12542458 0.013092233 2.3509886e-38
0.063409328 -0.12542458 0.013092233 2.3325497e-38
0.065245181 -0.12542458 0.013092233 2.3141106e-38
0.067233056 -0.12618984 0.010153128 2.2956715e-38
0.069074064 -0.12618984 0.010153128 2.2864519e-38
0.071139008 -0.12724553 0.0060985815 2.2772684e-38
0.072987124 -0.12724553 0.0060985815 2.3234379e-38
0.075186126 -0.12880091 0.00012476556 2.203656e-38
0.077226937 -0.12958528 -0.0028876532 1.8626401e-38
0.079090819 -0.12958528 -0.0028876532 1.4754904e-38
0.080761895 -0.12880091 0.00012476556 1.3003188e-38
0.082620487 -0.12880091 0.00012476556 1.3187939e-38
0.084682435 -0.12958528 -0.0028876532 1.337341e-38
0.086546302 -0.12958528 -0.0028876532 1.2912794e-38
0.088410184 -0.12958528 -0.0028876532 1.2544012e-38
0.090054855 -0.12880091 0.00012476556 1.2360702e-38
0.091913447 -0.12880091 0.00012476556 1.2360702e-38
0.094534367 -0.13140334 -0.0098703373 1.2360346e-38
0.096410483 -0.13140334 -0.0098703373 1.2636213e-38
0.098531485 -0.13220255 -0.012939857 1.2820604e-38
0.10041298 -0.13220255 -0.012939857 1.318903e-38
0.10262805 -0.13324542 -0.01694517 1.3465252e-38
0.10451658 -0.13324542 -0.01694517 1.3095019e-38
0.10640509 -0.13324542 -0.01694517 1.2909546e-38
0.10829362 -0.13324542 -0.01694517 1.3186136e-38
0.11045258 -0.1340252 -0.019940065 1.3094665e-38
0.11234634 -0.1340252 -0.019940065 1.2726248e-38
0.11424011 -0.1340252 -0.019940065 1.3002838e-38
0.11613388 -0.1340252 -0.019940065 1.3094676e-38
0.11841121 -0.13505147 -0.023881601 1.2173441e-38
0.1203119 -0.13505147 -0.023881601 1.3003199e-38
0.12221257 -0.13505147 -0.023881601 1.3187589e-38
0.12442443 -0.13584132 -0.026915239 1.1158922e-38
0.12633042 -0.13584132 -0.026915239 2.6765585e-39
0.12823643 -0.13584132 -0.026915239 1.2928996e-39
0.13045868 -0.13660498 -0.029848145 3.5977848e-39
0.13236983 -0.13660498 -0.029848145 3.7818131e-39
0.13428096 -0.13660498 -0.029848145 2.9520552e-39
-0.1145519 -0.13513394 -0.01694517 2.1758874e-38
-0.11219639 -0.13408406 -0.012939857 2.2496436e-38
-0.11031488 -0.13408406 -0.012939857 2.3417673e-38
-0.10808624 -0.13327946 -0.0098703373 2.3509872e-38
-0.1054327 -0.13144915 -0.0028876532 2.350988e-38
-0.10258409 -0.12909363 0.0060985815 2.3509886e-38
-0.099981844 -0.12726043 0.013092233 2.3509886e-38
-0.098145992 -0.12726043 0.013092233 2.3509886e-38
-0.095993981 -0.12646608 0.016122771 2.3509886e-38
-0.094163433 -0.12646608 0.016122771 2.3509886e-38
-0.092332885 -0.12646608 0.016122771 2.3509886e-38
-0.090203851 -0.12567626 0.019135905 2.3509886e-38
-0.088087082 -0.124891 0.022131635 2.3509886e-38
-0.085891321 -0.12386028 0.026063873 2.3509886e-38
-0.083515391 -0.12228753 0.032063916 2.3509886e-38
-0.081434265 -0.12149437 0.035089806 2.3509886e-38
-0.079095304 -0.11992194 0.041088656 2.3509886e-38
-0.077045292 -0.11914261 0.044061735 2.3509886e-38
-0.075263739 -0.11914261 0.044061735 2.3509886e-38
-0.073482171 -0.11914261 0.044061735 2.3509886e-38
-0.076447904 -0.13408406 -0.012939857 2.3509886e-38
-0.074566409 -0.13408406 -0.012939857 2.3509886e-38
-0.072684899 -0.13408406 -0.012939857 2.3509886e-38
-0.070803404 -0.13408406 -0.012939857 2.3509886e-38
-0.064109415 -0.11754455 0.050158337 2.3509886e-38
-0.062792838 -0.11914261 0.044061735 2.3509886e-38
-0.061011285 -0.11914261 0.044061735 2.3509886e-38
-0.059012622 -0.11834116 0.047119215 2.3509886e-38
-0.057236418 -0.11834116 0.047119215 2.3509886e-38
-0.05546023 -0.11834116 0.047119215 2.3509886e-38
-0.053684026 -0.11834116 0.047119215 2.3509886e-38
-0.051907837 -0.11834116 0.047119215 2.3509886e-38
-0.050131634 -0.11834116 0.047119215 2.3509886e-38
-0.048540391 -0.11914261 0.044061735 2.3509886e-38
-0.046758831 -0.11914261 0.044061735 2.3509886e-38
-0.045146696 -0.11992194 0.041088656 2.3509886e-38
-0.043359928 -0.11992194 0.041088656 2.3509883e-38
-0.041573159 -0.11992194 0.041088656 2.3509883e-38
-0.039786391 -0.11992194 0.041088656 2.3509883e-38
-0.03785105 -0.11914261 0.044061735 2.3509883e-38
-0.03592208 -0.11834116 0.047119215 2.3509883e-38
-0.034004673 -0.11754455 0.050158337 2.3509883e-38
-0.032233804 -0.11754455 0.050158337 2.3509886e-38
-0.030337483 -0.11677901 0.053078845 2.3509886e-38
-0.02857174 -0.11677901 0.053078845 2.3509886e-38
-0.026805997 -0.11677901 0.053078845 2.341805e-38
-0.02504025 -0.11677901 0.053078845 2.341805e-38
-0.023166548 -0.11599173 0.056082323 2.341805e-38
-0.021406069 -0.11599173 0.056082323 2.341805e-38
-0.01974301 -0.11677901 0.053078845 2.3234379e-38
-0.018160127 -0.11834116 0.047119215 2.341805e-38
-0.016383931 -0.11834116 0.047119215 2.3418047e-38
-0.014607735 -0.11834116 0.047119215 2.341804e-38
-0.012831539 -0.11834116 0.047119215 2.3418038e-38
-0.011055347 -0.11834116 0.047119215 2.341804e-38
-0.0092791505 -0.11834116 0.047119215 2.341804e-38
-0.0075029582 -0.11834116 0.047119215 2.3509876e-38
-0.0057267621 -0.11834116 0.047119215 2.3509876e-38
-0.0039505661 -0.11834116 0.047119215 2.3509876e-38
-0.0022199377 -0.11914261 0.044061735 2.3509876e-38
-0.00047747791 -0.11992194 0.041088656 2.3509879e-38
0.0013092905 -0.11992194 0.041088656 2.350988e-38
0.0030960608 -0.11992194 0.041088656 2.350988e-38
0.0048828293 -0.11992194 0.041088656 2.3509883e-38
0.0066512451 -0.12070583 0.038098052 2.3509524e-38
0.0084300712 -0.12149437 0.035089806 2.3509527e-38
0.01022736 -0.12149437 0.035089806 2.3509168e-38
0.012024645 -0.12149437 0.035089806 2.3509168e-38
0.013824586 -0.12228753 0.032063916 2.3509168e-38
0.015627177 -0.12228753 0.032063916 2.3509168e-38
0.017429769 -0.12228753 0.032063916 2.3509168e-38
0.019250395 -0.1230578 0.029125286 2.3509168e-38
0.021058138 -0.1230578 0.029125286 2.3509527e-38
0.022865884 -0.1230578 0.029125286 2.3509527e-38
0.02467363 -0.1230578 0.029125286 2.3509527e-38
0.026481373 -0.1230578 0.029125286 2.3509527e-38
0.028289117 -0.1230578 0.029125286 2.3324778e-38
0.030096862 -0.1230578 0.029125286 2.3416971e-38
0.031960968 -0.12386028 0.026063873 2.3509527e-38
0.033774078 -0.12386028 0.026063873 2.3509883e-38
0.035587192 -0.12386028 0.026063873 2.3509883e-38
0.037493378 -0.124891 0.022131635 2.350988e-38
0.039389551 -0.12567626 0.019135905 2.3509883e-38
0.041214809 -0.12567626 0.019135905 2.3509883e-38
0.043040067 -0.12567626 0.019135905 2.3509886e-38
0.044865325 -0.12567626 0.019135905 2.3509886e-38
0.04678832 -0.12646608 0.016122771 2.3509886e-38
0.048618864 -0.12646608 0.016122771 2.3509886e-38
0.050449405 -0.12646608 0.016122771 2.3509886e-38
0.052279949 -0.12646608 0.016122771 2.3509886e-38
0.05411049 -0.12646608 0.016122771 2.3509886e-38
0.055941034 -0.12646608 0.016122771 2.3509886e-38
0.057901755 -0.12726043 0.013092233 2.3509886e-38
0.059737612 -0.12726043 0.013092233 2.3417691e-38
0.061573468 -0.12726043 0.013092233 2.2680128e-38
0.063409328 -0.12726043 0.013092233 2.1758171e-38
0.065245181 -0.12726043 0.013092233 2.0836215e-38
0.067233056 -0.12803085 0.010153128 2.0006454e-38
0.06945017 -0.12987436 0.0031201374 1.9361085e-38
0.071139008 -0.12909363 0.0060985815 1.8900467e-38
0.072987124 -0.12909363 0.0060985815 1.6873961e-38
0.075186126 -0.13065951 0.00012476556 1.6414062e-38
0.077226937 -0.13144915 -0.0028876532 1.5308074e-38
0.079090819 -0.13144915 -0.0028876532 1.4202446e-38
0.080761895 -0.13065951 0.00012476556 1.4018057e-38
0.082620487 -0.13065951 0.00012476556 1.4203888e-38
0.084682435 -0.13144915 -0.0028876532 1.4019498e-38
0.086546302 -0.13144915 -0.0028876532 1.3282653e-38
0.088410184 -0.13144915 -0.0028876532 1.3559962e-38
0.090274051 -0.13144915 -0.0028876532 1.3651801e-38
0.092137933 -0.13144915 -0.0028876532 1.346741e-38
0.094534367 -0.13327946 -0.0098703373 1.3006435e-38
0.096649989 -0.13408406 -0.012939857 1.2544738e-38
0.098531485 -0.13408406 -0.012939857 1.208376e-38
0.10041298 -0.13408406 -0.012939857 1.1899368e-38
0.10262805 -0.13513394 -0.01694517 1.2083037e-38
0.10451658 -0.13513394 -0.01694517 1.291171e-38
0.10640509 -0.13513394 -0.01694517 1.245001e-38
0.10829362 -0.13513394 -0.01694517 1.2542927e-38
0.11045258 -0.13591899 -0.019940065 1.2726961e-38
0.11234634 -0.13591899 -0.019940065 1.2358905e-38
0.11424011 -0.13591899 -0.019940065 1.2912081e-38
0.11651053 -0.13695215 -0.023881601 1.34649e-38
0.11841121 -0.13695215 -0.023881601 1.3096118e-38
0.12061241 -0.13774733 -0.026915239 1.318759e-38
0.12251842 -0.13774733 -0.026915239 1.2911002e-38
0.12442443 -0.13774733 -0.026915239 1.0882335e-38
0.12633042 -0.13774733 -0.026915239 2.7687542e-39
0.12823643 -0.13774733 -0.026915239 1.2928996e-39
0.13045868 -0.13851611 -0.029848145 3.3212007e-39
0.13236983 -0.13851611 -0.029848145 3.6896175e-39
0.13428096 -0.13851611 -0.029848145 3.4126774e-39
-0.1145519 -0.13702248 -0.01694517 2.1943262e-38
-0.11219639 -0.13596557 -0.012939857 2.2496434e-38
-0.11031488 -0.13596557 -0.012939857 2.3233639e-38
-0.10775384 -0.13437997 -0.0069309939 2.3509869e-38
-0.1054327 -0.13331302 -0.0028876532 2.350988e-38
-0.10258409 -0.13094176 0.0060985815 2.3509883e-38
-0.099981844 -0.12909628 0.013092233 2.3509883e-38
-0.097824514 -0.1282966 0.016122771 2.3509883e-38
-0.095993981 -0.1282966 0.016122771 2.3509883e-38
-0.094163433 -0.1282966 0.016122771 2.3509883e-38
-0.092029124 -0.1275015 0.019135905 2.3509883e-38
-0.089907095 -0.126711 0.022131635 2.3509883e-38
-0.087704435 -0.1256734 0.026063873 2.3509886e-38
-0.085028842 -0.12329166 0.035089806 2.3509886e-38
-0.083231553 -0.12329166 0.035089806 2.3509886e-38
-0.080882072 -0.12170871 0.041088656 2.3509886e-38
-0.078826845 -0.12092416 0.044061735 2.3509886e-38
-0.076774567 -0.12011738 0.047119215 2.3509886e-38
-0.074998379 -0.12011738 0.047119215 2.3509886e-38
-0.073222175 -0.12011738 0.047119215 2.3509886e-38
-0.071445987 -0.12011738 0.047119215 2.3509527e-38
-0.068695605 -0.11696436 0.059068039 2.3509527e-38
-0.066940352 -0.11696436 0.059068039 2.3509886e-38
-0.065185115 -0.11696436 0.059068039 2.3509886e-38
-0.064109415 -0.11931543 0.050158337 2.3509886e-38
-0.062338546 -0.11931543 0.050158337 2.3509886e-38
-0.060355172 -0.11854477 0.053078845 2.3509886e-38
-0.058376148 -0.11775221 0.056082323 2.3509886e-38
-0.056615666 -0.11775221 0.056082323 2.3509886e-38
-0.055057928 -0.11854477 0.053078845 2.3509886e-38
-0.053292185 -0.11854477 0.053078845 2.341805e-38
-0.051526442 -0.11854477 0.053078845 2.341805e-38
-0.049942479 -0.11931543 0.050158337 2.341805e-38
-0.048355445 -0.12011738 0.047119215 2.341805e-38
-0.046579249 -0.12011738 0.047119215 2.341805e-38
-0.044977278 -0.12092416 0.044061735 2.3509883e-38
-0.043195724 -0.12092416 0.044061735 2.350988e-38
-0.041414171 -0.12092416 0.044061735 2.350988e-38
-0.039474472 -0.12011738 0.047119215 2.350988e-38
-0.037698269 -0.12011738 0.047119215 2.350988e-38
-0.035775542 -0.11931543 0.050158337 2.3509883e-38
-0.034004673 -0.11931543 0.050158337 2.3509883e-38
-0.032103233 -0.11854477 0.053078845 2.3509886e-38
-0.030337483 -0.11854477 0.053078845 2.3509886e-38
-0.02857174 -0.11854477 0.053078845 2.341805e-38
-0.026805997 -0.11854477 0.053078845 2.341805e-38
-0.02504025 -0.11854477 0.053078845 2.341805e-38
-0.023166548 -0.11775221 0.056082323 2.3234379e-38
-0.021406069 -0.11775221 0.056082323 2.3234379e-38
-0.01974301 -0.11854477 0.053078845 2.3142544e-38
-0.018160127 -0.12011738 0.047119215 2.3234379e-38
-0.016383931 -0.12011738 0.047119215 2.3234374e-38
-0.014607735 -0.12011738 0.047119215 2.3418035e-38
-0.012831539 -0.12011738 0.047119215 2.3509866e-38
