# .PCD v0.7 - Point Cloud Data file format
VERSION 0.7
FIELDS x y z rgb
SIZE 4 4 4 4
TYPE F F F F
COUNT 1 1 1 1
WIDTH 938
HEIGHT 1
VIEWPOINT 0 0 0 1 0 0 0
POINTS 938
DATA ascii
-0.042303577 -0.10409774 -0.027584143 1.2260566e-38
-0.040493395 -0.10578094 -0.034617133 1.2998131e-38
-0.038647931 -0.10649781 -0.037612505 1.2998131e-38
-0.036789339 -0.10649781 -0.037612505 1.2077616e-38
-0.034971945 -0.095250636 0.0093819425 1.1801754e-38
-0.033195753 -0.095250636 0.0093819425 1.1250022e-38
-0.031419557 -0.095250636 0.0093819425 1.0696488e-38
-0.017153706 -0.095982388 0.0063244626 1.1245706e-38
-0.015372151 -0.095982388 0.0063244626 1.0692532e-38
-0.013590594 -0.095982388 0.0063244626 1.0230475e-38
-0.011809039 -0.095982388 0.0063244626 1.0138279e-38
-0.010027482 -0.095982388 0.0063244626 1.0507062e-38
-0.0082459273 -0.095982388 0.0063244626 1.0784728e-38
-0.0064643705 -0.095982388 0.0063244626 7.0068651e-39
-0.0047766278 -0.095250636 0.0093819425 7.0075839e-39
-0.0030004317 -0.095250636 0.0093819425 7.283452e-39
-0.001119704 -0.095982388 0.0063244626 7.8366257e-39
0.00066185277 -0.095982388 0.0063244626 8.2054083e-39
0.0024434095 -0.095982388 0.0063244626 8.2976039e-39
0.0042249663 -0.095982388 0.0063244626 7.9288242e-39
0.006006523 -0.095982388 0.0063244626 7.5600416e-39
0.0079157902 -0.096693933 0.0033513829 7.2827359e-39
0.0097025586 -0.096693933 0.0033513829 8.0203009e-39
0.011489327 -0.096693933 0.0033513829 8.6656703e-39
0.013132746 -0.095982388 0.0063244626 8.9426132e-39
0.014914299 -0.095982388 0.0063244626 9.3103195e-39
0.016695857 -0.095982388 0.0063244626 9.5869036e-39
0.018313911 -0.095250636 0.0093819425 9.4947107e-39
0.020090107 -0.095250636 0.0093819425 9.0344529e-39
0.021866299 -0.095250636 0.0093819425 9.2192099e-39
0.023642495 -0.095250636 0.0093819425 8.758952e-39
0.025418691 -0.095250636 0.0093819425 8.5738419e-39
0.027194884 -0.095250636 0.0093819425 8.5738405e-39
0.029166747 -0.095982388 0.0063244626 8.4816448e-39
0.031143788 -0.096693933 0.0033513829 8.0210226e-39
0.032930557 -0.096693933 0.0033513829 7.1905403e-39
0.034717325 -0.096693933 0.0033513829 6.3611355e-39
0.036716457 -0.09740968 0.00036077946 4.4239483e-39
0.038508464 -0.09740968 0.00036077946 4.1473586e-39
0.040300477 -0.09740968 0.00036077946 3.8704116e-39
0.042092491 -0.09740968 0.00036077946 3.5938233e-39
0.04411922 -0.098129645 -0.002647467 3.2250408e-39
0.045916501 -0.098129645 -0.002647467 2.4874729e-39
0.047713786 -0.098129645 -0.002647467 1.656992e-39
0.049260542 -0.09740968 0.00036077946 9.1907243e-40
0.051052555 -0.09740968 0.00036077946 5.5101298e-40
0.052844569 -0.09740968 0.00036077946 5.5101298e-40
0.054636583 -0.09740968 0.00036077946 4.5918168e-40
0.056428596 -0.09740968 0.00036077946 3.6734759e-40
0.058220595 -0.09740968 0.00036077946 2.7551349e-40
0.060012609 -0.09740968 0.00036077946 9.1845305e-41
0.061804622 -0.09740968 0.00036077946 9.1845305e-41
0.063889369 -0.098129645 -0.002647467 9.1846707e-41
0.06598641 -0.098853827 -0.0056733564 6.4502049e-40
0.067789003 -0.098853827 -0.0056733564 3.6843079e-40
0.069591597 -0.098853827 -0.0056733564 9.1842503e-41
0.07139419 -0.098853827 -0.0056733564 9.1838299e-41
0.073196784 -0.098853827 -0.0056733564 9.1835496e-41
0.074999377 -0.098853827 -0.0056733564 9.1835496e-41
0.076801971 -0.098853827 -0.0056733564 3.6734198e-40
0.078604564 -0.098853827 -0.0056733564 4.5989495e-40
0.080407143 -0.098853827 -0.0056733564 3.6734198e-40
0.082209736 -0.098853827 -0.0056733564 3.6734198e-40
0.08401233 -0.098853827 -0.0056733564 3.6734198e-40
0.085814923 -0.098853827 -0.0056733564 3.6734198e-40
0.087617517 -0.098853827 -0.0056733564 3.6734198e-40
0.08942011 -0.098853827 -0.0056733564 3.6734198e-40
0.091222703 -0.098853827 -0.0056733564 3.6734479e-40
0.093025297 -0.098853827 -0.0056733564 2.7550929e-40
0.09482789 -0.098853827 -0.0056733564 2.7551209e-40
0.096630469 -0.098853827 -0.0056733564 2.7551209e-40
0.098816916 -0.099557132 -0.0086119846 2.7551209e-40
0.10062467 -0.099557132 -0.0086119846 2.7551209e-40
0.10243241 -0.099557132 -0.0086119846 2.7551209e-40
0.10424015 -0.099557132 -0.0086119846 2.7551209e-40
0.1060479 -0.099557132 -0.0086119846 9.1838299e-41
0.10785565 -0.099557132 -0.0086119846 0
0.10966338 -0.099557132 -0.0086119846 1.1077867e-39
0.11147113 -0.099557132 -0.0086119846 9.241115e-40
0.11472385 -0.10194789 -0.018601365 1.4772853e-39
0.1165491 -0.10194789 -0.018601365 1.5694809e-39
0.11837436 -0.10194789 -0.018601365 1.2003383e-39
-0.10694747 -0.094146177 0.021330766 1.0787252e-38
-0.10519221 -0.094146177 0.021330766 6.2696686e-39
-0.10343698 -0.094146177 0.021330766 3.8725822e-39
-0.10207552 -0.09559007 0.015341572 2.675118e-39
-0.10030977 -0.09559007 0.015341572 3.2282918e-39
-0.098357081 -0.094865978 0.018345051 3.4126802e-39
-0.096596599 -0.094865978 0.018345051 3.4126802e-39
-0.07797233 -0.099201679 0.00036077946 3.9619024e-39
-0.07582444 -0.09702684 0.0093819425 3.960822e-39
-0.073823586 -0.09559007 0.015341572 3.5916737e-39
-0.072057836 -0.09559007 0.015341572 3.9600905e-39
-0.070292093 -0.09559007 0.015341572 4.8823985e-39
-0.068526343 -0.09559007 0.015341572 4.7894784e-39
-0.0667606 -0.09559007 0.015341572 4.3288562e-39
-0.065167263 -0.09702684 0.0093819425 4.5139677e-39
-0.063391067 -0.09702684 0.0093819425 4.6076039e-39
-0.061614871 -0.09702684 0.0093819425 5.4380848e-39
-0.05976674 -0.09629415 0.012421064 5.99126e-39
-0.057995878 -0.09629415 0.012421064 5.5302804e-39
-0.05628629 -0.09702684 0.0093819425 5.0693037e-39
-0.054510094 -0.09702684 0.0093819425 5.253695e-39
-0.052733898 -0.09702684 0.0093819425 5.1614993e-39
-0.050957702 -0.09702684 0.0093819425 4.8849124e-39
-0.049181506 -0.09702684 0.0093819425 5.1615021e-39
-0.04740531 -0.09702684 0.0093819425 4.9771109e-39
-0.046024691 -0.10691623 -0.031638689 4.2395458e-39
-0.044176575 -0.10691623 -0.031638689 3.4097852e-39
-0.042328458 -0.10691623 -0.031638689 3.4094292e-39
-0.040480338 -0.10691623 -0.031638689 3.8707633e-39
-0.038516343 -0.09629415 0.012421064 3.6860161e-39
-0.036745477 -0.09629415 0.012421064 2.7658577e-39
-0.034971945 -0.09702684 0.0093819425 2.3977996e-39
-0.033195753 -0.09702684 0.0093819425 2.1222946e-39
-0.031419557 -0.09702684 0.0093819425 1.5691208e-39
-0.017153706 -0.097763941 0.0063244626 2.3949256e-39
-0.015372151 -0.097763941 0.0063244626 2.3027299e-39
-0.013590594 -0.097763941 0.0063244626 1.9328684e-39
-0.011809039 -0.097763941 0.0063244626 1.1953034e-39
-0.010105214 -0.09702684 0.0093819425 6.4284847e-40
-0.008329018 -0.09702684 0.0093819425 3.6734198e-40
-0.0065528238 -0.09702684 0.0093819425 1.3829316e-39
-0.0047766278 -0.09702684 0.0093819425 1.1992593e-39
-0.0030004317 -0.09702684 0.0093819425 1.0141491e-39
-0.0012242394 -0.09702684 0.0093819425 7.3756224e-40
0.00055195671 -0.09702684 0.0093819425 6.4536661e-40
0.0023281528 -0.09702684 0.0093819425 6.4536661e-40
0.0042249663 -0.097763941 0.0063244626 8.2976067e-40
0.006006523 -0.097763941 0.0063244626 1.0141519e-39
0.0077880761 -0.097763941 0.0063244626 2.7586802e-40
0.0095696328 -0.097763941 0.0063244626 4.6025928e-40
0.01135119 -0.097763941 0.0063244626 4.6025928e-40
0.013132746 -0.097763941 0.0063244626 3.6806365e-40
0.014914299 -0.097763941 0.0063244626 8.2832154e-40
0.016695857 -0.097763941 0.0063244626 1.3814953e-39
0.018477414 -0.097763941 0.0063244626 1.7502778e-39
0.020258971 -0.097763941 0.0063244626 1.5666096e-39
0.022040527 -0.097763941 0.0063244626 4.6062502e-40
0.02382208 -0.097763941 0.0063244626 1.847584e-40
0.025603637 -0.097763941 0.0063244626 9.1843904e-41
0.027385194 -0.097763941 0.0063244626 9.1843904e-41
0.029166747 -0.097763941 0.0063244626 2.7623376e-40
0.031143788 -0.098480701 0.0033513829 1.8403813e-40
0.032930557 -0.098480701 0.0033513829 9.1838299e-41
0.034717325 -0.098480701 0.0033513829 9.1835496e-41
0.036716457 -0.099201679 0.00036077946 5.5173465e-40
0.038508464 -0.099201679 0.00036077946 2.7550649e-40
0.040300477 -0.099201679 0.00036077946 3.6734198e-40
0.042092491 -0.099201679 0.00036077946 3.6734198e-40
0.04411922 -0.099926919 -0.002647467 6.4356594e-40
0.045916501 -0.099926919 -0.002647467 7.3576017e-40
0.047713786 -0.099926919 -0.002647467 4.5917748e-40
0.049511075 -0.099926919 -0.002647467 5.5101298e-40
0.051052555 -0.099201679 0.00036077946 5.5101298e-40
0.052844569 -0.099201679 0.00036077946 6.4284987e-40
0.054636583 -0.099201679 0.00036077946 4.5918168e-40
0.056428596 -0.099201679 0.00036077946 4.5918168e-40
0.058220595 -0.099201679 0.00036077946 2.7551209e-40
0.060012609 -0.099201679 0.00036077946 2.7551349e-40
0.061804622 -0.099201679 0.00036077946 9.1842503e-41
0.063596636 -0.099201679 0.00036077946 1.836794e-40
0.065686658 -0.099926919 -0.002647467 2.7623516e-40
0.067483947 -0.099926919 -0.002647467 1.8403813e-40
0.069591597 -0.10065642 -0.0056733564 1.83678e-40
0.07139419 -0.10065642 -0.0056733564 1.836752e-40
0.073196784 -0.10065642 -0.0056733564 1.8367239e-40
0.074999377 -0.10065642 -0.0056733564 2.7622395e-40
0.076801971 -0.10065642 -0.0056733564 3.6734198e-40
0.078604564 -0.10065642 -0.0056733564 2.7550649e-40
0.080407143 -0.10065642 -0.0056733564 2.7550649e-40
0.082209736 -0.10065642 -0.0056733564 3.6734339e-40
0.08401233 -0.10065642 -0.0056733564 5.5101578e-40
0.085814923 -0.10065642 -0.0056733564 4.5953902e-40
0.087617517 -0.10065642 -0.0056733564 3.6734479e-40
0.08942011 -0.10065642 -0.0056733564 2.7550929e-40
0.091222703 -0.10065642 -0.0056733564 2.7550929e-40
0.093025297 -0.10065642 -0.0056733564 2.7550929e-40
0.09482789 -0.10065642 -0.0056733564 2.7550929e-40
0.096630469 -0.10065642 -0.0056733564 2.7550929e-40
0.098816916 -0.10136487 -0.0086119846 2.7550649e-40
0.10062467 -0.10136487 -0.0086119846 2.7550649e-40
0.10243241 -0.10136487 -0.0086119846 2.7550649e-40
0.10424015 -0.10136487 -0.0086119846 2.7550649e-40
0.1060479 -0.10136487 -0.0086119846 9.1835496e-41
0.10785565 -0.10136487 -0.0086119846 3.5873241e-43
0.10966338 -0.10136487 -0.0086119846 7.393601e-40
0.11147113 -0.10136487 -0.0086119846 1.2006984e-39
0.11327888 -0.10136487 -0.0086119846 1.4772853e-39
0.1165491 -0.10377313 -0.018601365 1.2006984e-39
0.11837436 -0.10377313 -0.018601365 1.1081426e-39
-0.10694747 -0.095901415 0.021330766 1.0141882e-38
-0.10519221 -0.095901415 0.021330766 6.5462555e-39
-0.10343698 -0.095901415 0.021330766 3.8725822e-39
-0.10207552 -0.097355813 0.015341572 2.2141399e-39
-0.10011756 -0.096626461 0.018345051 2.3985311e-39
-0.097980365 -0.095156729 0.024397366 2.6751152e-39
-0.096230492 -0.095156729 0.024397366 2.8595065e-39
-0.094660744 -0.095901415 0.021330766 3.228289e-39
-0.092905506 -0.095901415 0.021330766 3.1360905e-39
-0.091150254 -0.095901415 0.021330766 2.3059613e-39
-0.089395016 -0.095901415 0.021330766 3.1357192e-39
-0.087481156 -0.095156729 0.024397366 3.0428075e-39
-0.085731283 -0.095156729 0.024397366 2.9506133e-39
-0.084129274 -0.095901415 0.021330766 4.3324757e-39
-0.082512759 -0.096626461 0.018345051 4.9778479e-39
-0.080752283 -0.096626461 0.018345051 4.4235994e-39
-0.078991801 -0.096626461 0.018345051 3.77823e-39
-0.077231325 -0.096626461 0.018345051 4.4228805e-39
-0.075589329 -0.097355813 0.015341572 4.4218001e-39
-0.073933676 -0.098065019 0.012421064 3.7767838e-39
-0.072162807 -0.098065019 0.012421064 4.0530078e-39
-0.070292093 -0.097355813 0.015341572 4.9753158e-39
-0.068428926 -0.096626461 0.018345051 4.6058116e-39
-0.066668443 -0.096626461 0.018345051 3.49982e-39
-0.065079346 -0.098065019 0.012421064 3.2239506e-39
-0.063308477 -0.098065019 0.012421064 2.6722173e-39
-0.061614871 -0.098803028 0.0093819425 2.3041537e-39
-0.05976674 -0.098065019 0.012421064 1.8428196e-39
-0.057995878 -0.098065019 0.012421064 1.3821974e-39
-0.05628629 -0.098803028 0.0093819425 1.0130603e-39
-0.05445414 -0.098065019 0.012421064 9.2086609e-40
-0.052683275 -0.098065019 0.012421064 1.1974502e-39
-0.05091241 -0.098065019 0.012421064 1.4740371e-39
-0.049103137 -0.097355813 0.015341572 1.7506268e-39
-0.04733739 -0.097355813 0.015341572 9.2086609e-40
-0.045571648 -0.097355813 0.015341572 2.7550649e-40
-0.043805901 -0.097355813 0.015341572 2.7550649e-40
-0.042058077 -0.098065019 0.012421064 3.6770072e-40
-0.040287212 -0.098065019 0.012421064 6.442834e-40
-0.038516343 -0.098065019 0.012421064 3.6770072e-40
-0.036745477 -0.098065019 0.012421064 9.1835496e-41
-0.034974612 -0.098065019 0.012421064 4.6169421e-40
-0.033203743 -0.098065019 0.012421064 6.4608828e-40
-0.031432878 -0.098065019 0.012421064 3.6950139e-40
-0.015372151 -0.099545494 0.0063244626 5.5173465e-40
-0.013590594 -0.099545494 0.0063244626 5.5101578e-40
-0.011809039 -0.099545494 0.0063244626 3.6734198e-40
-0.010105214 -0.098803028 0.0093819425 3.6734198e-40
-0.008329018 -0.098803028 0.0093819425 2.7550649e-40
-0.0065528238 -0.098803028 0.0093819425 8.2975787e-40
-0.0047766278 -0.098803028 0.0093819425 6.4608547e-40
-0.0030004317 -0.098803028 0.0093819425 3.6950139e-40
-0.0012242394 -0.098803028 0.0093819425 3.5873241e-43
0.00055195671 -0.098803028 0.0093819425 3.5873241e-43
0.0023281528 -0.098803028 0.0093819425 3.5873241e-43
0.0041043488 -0.098803028 0.0093819425 0
0.0058805412 -0.098803028 0.0093819425 1.8439126e-40
0.0076567372 -0.098803028 0.0093819425 3.6878532e-40
0.0095696328 -0.099545494 0.0063244626 2.7658969e-40
0.01135119 -0.099545494 0.0063244626 9.1838299e-41
0.013132746 -0.099545494 0.0063244626 9.1838299e-41
0.014914299 -0.099545494 0.0063244626 9.1838299e-41
0.016695857 -0.099545494 0.0063244626 7.3684898e-40
0.018477414 -0.099545494 0.0063244626 1.0134359e-39
0.020258971 -0.099545494 0.0063244626 8.2904741e-40
0.022040527 -0.099545494 0.0063244626 7.0064923e-45
0.02382208 -0.099545494 0.0063244626 7.0064923e-45
0.025603637 -0.099545494 0.0063244626 5.6051939e-45
0.027385194 -0.099545494 0.0063244626 5.6051939e-45
0.029166747 -0.099545494 0.0063244626 9.1841101e-41
0.031143788 -0.10026747 0.0033513829 9.1841101e-41
0.032930557 -0.10026747 0.0033513829 2.7587083e-40
0.034717325 -0.10026747 0.0033513829 3.6806365e-40
0.036716457 -0.10099369 0.00036077946 4.6025928e-40
0.038508464 -0.10099369 0.00036077946 9.1835496e-41
0.040524643 -0.10172421 -0.002647467 2.7550649e-40
0.042321932 -0.10172421 -0.002647467 2.7550649e-40
0.04411922 -0.10172421 -0.002647467 2.7550649e-40
0.045916501 -0.10172421 -0.002647467 5.5173044e-40
0.047713786 -0.10172421 -0.002647467 7.361203e-40
0.049511075 -0.10172421 -0.002647467 8.279558e-40
0.051052555 -0.10099369 0.00036077946 6.4320861e-40
0.052844569 -0.10099369 0.00036077946 5.5101298e-40
0.054636583 -0.10099369 0.00036077946 4.5917888e-40
0.056428596 -0.10099369 0.00036077946 4.5918168e-40
0.058220595 -0.10099369 0.00036077946 4.5918309e-40
0.060012609 -0.10099369 0.00036077946 5.5138152e-40
0.061804622 -0.10099369 0.00036077946 2.7587363e-40
0.063596636 -0.10099369 0.00036077946 1.83678e-40
0.065686658 -0.10172421 -0.002647467 9.1841101e-41
0.067483947 -0.10172421 -0.002647467 9.1838299e-41
0.069281235 -0.10172421 -0.002647467 1.836752e-40
0.071078524 -0.10172421 -0.002647467 3.6806646e-40
0.073196784 -0.10245901 -0.0056733564 3.6878252e-40
0.074999377 -0.10245901 -0.0056733564 2.7658689e-40
0.076801971 -0.10245901 -0.0056733564 9.1835496e-41
0.078604564 -0.10245901 -0.0056733564 9.1835496e-41
0.080407143 -0.10245901 -0.0056733564 1.83678e-40
0.082209736 -0.10245901 -0.0056733564 2.755163e-40
0.08401233 -0.10245901 -0.0056733564 6.4357855e-40
0.085814923 -0.10245901 -0.0056733564 3.6771193e-40
0.087617517 -0.10245901 -0.0056733564 4.5918589e-40
0.08942011 -0.10245901 -0.0056733564 1.83678e-40
0.091222703 -0.10245901 -0.0056733564 1.83678e-40
0.093025297 -0.10245901 -0.0056733564 1.836752e-40
0.09482789 -0.10245901 -0.0056733564 9.1838299e-41
0.096630469 -0.10245901 -0.0056733564 9.1835496e-41
0.098816916 -0.10317262 -0.0086119846 9.1835496e-41
0.10062467 -0.10317262 -0.0086119846 9.1835496e-41
0.10243241 -0.10317262 -0.0086119846 9.1835496e-41
0.10424015 -0.10317262 -0.0086119846 9.1835496e-41
0.1060479 -0.10317262 -0.0086119846 9.1835496e-41
0.10785565 -0.10317262 -0.0086119846 3.5873241e-43
0.10966338 -0.10317262 -0.0086119846 5.5388704e-40
0.11147113 -0.10317262 -0.0086119846 1.9379033e-39
0.11327888 -0.10317262 -0.0086119846 1.9379033e-39
0.11553483 -0.10391603 -0.011673398 1.2003383e-39
0.11734794 -0.10391603 -0.011673398 1.5680446e-39
-0.10694747 -0.097656667 0.021330766 3.6881881e-39
-0.10519221 -0.097656667 0.021330766 2.3052565e-39
-0.10343698 -0.097656667 0.021330766 9.2232204e-40
-0.1014801 -0.096906602 0.024397366 6.4681415e-40
-0.099730223 -0.096906602 0.024397366 1.1077923e-39
-0.097796753 -0.096185118 0.02734714 7.3900698e-40
-0.096052065 -0.096185118 0.02734714 5.5461572e-40
-0.094480626 -0.096906602 0.024397366 9.2339823e-40
-0.092730761 -0.096906602 0.024397366 9.2339543e-40
-0.090980887 -0.096906602 0.024397366 5.5388984e-40
-0.089231022 -0.096906602 0.024397366 1.3836505e-39
-0.087481156 -0.096906602 0.024397366 1.6595185e-39
-0.085731283 -0.096906602 0.024397366 1.1063476e-39
-0.084129274 -0.097656667 0.021330766 7.3684898e-40
-0.082374036 -0.097656667 0.021330766 3.6806926e-40
-0.080618784 -0.097656667 0.021330766 4.5918589e-40
-0.078991801 -0.098386943 0.018345051 5.5138152e-40
-0.077231325 -0.098386943 0.018345051 7.3577278e-40
-0.075589329 -0.099121556 0.015341572 1.3807793e-39
-0.073823586 -0.099121556 0.015341572 1.1041896e-39
-0.072162807 -0.099835888 0.012421064 9.187165e-40
-0.070292093 -0.099121556 0.015341572 8.268782e-40
-0.068428926 -0.098386943 0.018345051 5.5101298e-40
-0.066668443 -0.098386943 0.018345051 6.4284847e-40
-0.065079346 -0.099835888 0.012421064 1.2882095e-39
-0.063308477 -0.099835888 0.012421064 1.5662355e-39
-0.061614871 -0.10057923 0.0093819425 5.5316537e-40
-0.05976674 -0.099835888 0.012421064 2.7550649e-40
-0.057995878 -0.099835888 0.012421064 9.2194229e-41
-0.05628629 -0.10057923 0.0093819425 2.7550649e-40
-0.05445414 -0.099835888 0.012421064 9.2194229e-41
-0.052683275 -0.099835888 0.012421064 6.442834e-40
-0.05091241 -0.099835888 0.012421064 1.198176e-39
-0.049103137 -0.099121556 0.015341572 8.2867326e-40
-0.04733739 -0.099121556 0.015341572 9.1835496e-41
-0.045571648 -0.099121556 0.015341572 2.7550649e-40
-0.043805901 -0.099121556 0.015341572 5.5280804e-40
-0.042040154 -0.099121556 0.015341572 1.2892941e-39
-0.040274408 -0.099121556 0.015341572 1.1059818e-39
-0.038508661 -0.099121556 0.015341572 9.2051156e-40
-0.036742918 -0.099121556 0.015341572 5.5280804e-40
-0.034974612 -0.099835888 0.012421064 0
-0.033211425 -0.099121556 0.015341572 3.5873241e-43
-0.031445678 -0.099121556 0.015341572 0
-0.018935263 -0.10132705 0.0063244626 9.1835496e-41
-0.017153706 -0.10132705 0.0063244626 2.7550649e-40
-0.015372151 -0.10132705 0.0063244626 2.7550649e-40
-0.013590594 -0.10132705 0.0063244626 2.7550649e-40
-0.011809039 -0.10132705 0.0063244626 4.5953902e-40
-0.010105214 -0.10057923 0.0093819425 7.3540704e-40
-0.008329018 -0.10057923 0.0093819425 6.4393028e-40
-0.0064643705 -0.10132705 0.0063244626 4.6097535e-40
-0.0047766278 -0.10057923 0.0093819425 5.5388984e-40
-0.0030004317 -0.10057923 0.0093819425 7.3828391e-40
-0.0012242394 -0.10057923 0.0093819425 6.4608828e-40
0.00055195671 -0.10057923 0.0093819425 4.6169702e-40
0.0023281528 -0.10057923 0.0093819425 1.8511013e-40
0.0041043488 -0.10057923 0.0093819425 2.7658689e-40
0.0058805412 -0.10057923 0.0093819425 3.6878252e-40
0.0076567372 -0.10057923 0.0093819425 2.8025969e-45
0.0094329333 -0.10057923 0.0093819425 2.8025969e-45
0.011209129 -0.10057923 0.0093819425 9.1838299e-41
0.013132746 -0.10132705 0.0063244626 9.1838299e-41
0.014761518 -0.10057923 0.0093819425 5.5245772e-40
0.016537715 -0.10057923 0.0093819425 8.2904741e-40
0.018313911 -0.10057923 0.0093819425 4.6026489e-40
0.020258971 -0.10132705 0.0063244626 9.1841101e-41
0.022040527 -0.10132705 0.0063244626 2.7587363e-40
0.02382208 -0.10132705 0.0063244626 2.7623376e-40
0.025603637 -0.10132705 0.0063244626 2.7587363e-40
0.027385194 -0.10132705 0.0063244626 9.1841101e-41
0.029166747 -0.10132705 0.0063244626 9.1841101e-41
0.030948307 -0.10132705 0.0063244626 9.1841101e-41
0.032930557 -0.10205424 0.0033513829 2.7587083e-40
0.034717325 -0.10205424 0.0033513829 5.5245772e-40
0.036716457 -0.10278571 0.00036077946 1.29002e-39
0.038508464 -0.10278571 0.00036077946 9.2123743e-40
0.040524643 -0.10352151 -0.002647467 4.6025928e-40
0.042321932 -0.10352151 -0.002647467 1.8402972e-40
0.044355307 -0.10426159 -0.0056733564 3.6734339e-40
0.045916501 -0.10352151 -0.002647467 2.7622395e-40
0.047713786 -0.10352151 -0.002647467 5.5173184e-40
0.049511075 -0.10352151 -0.002647467 5.5173184e-40
0.051052555 -0.10278571 0.00036077946 6.4392747e-40
0.052844569 -0.10278571 0.00036077946 4.5953621e-40
0.054636583 -0.10278571 0.00036077946 3.6734198e-40
0.056428596 -0.10278571 0.00036077946 3.6734339e-40
0.058220595 -0.10278571 0.00036077946 5.5173465e-40
0.060012609 -0.10278571 0.00036077946 6.4393028e-40
0.061804622 -0.10278571 0.00036077946 3.6806365e-40
0.063596636 -0.10278571 0.00036077946 9.1838299e-41
0.065686658 -0.10352151 -0.002647467 9.1838299e-41
0.067483947 -0.10352151 -0.002647467 9.1838299e-41
0.069281235 -0.10352151 -0.002647467 1.836752e-40
0.071078524 -0.10352151 -0.002647467 2.7658969e-40
0.072875813 -0.10352151 -0.002647467 3.6878532e-40
0.074673086 -0.10352151 -0.002647467 3.6878252e-40
0.076470375 -0.10352151 -0.002647467 9.2198432e-41
0.078604564 -0.10426159 -0.0056733564 2.8025969e-45
0.080407143 -0.10426159 -0.0056733564 1.836794e-40
0.082209736 -0.10426159 -0.0056733564 2.7623797e-40
0.08401233 -0.10426159 -0.0056733564 4.5991036e-40
0.086162716 -0.10498036 -0.0086119846 2.7623516e-40
0.087970451 -0.10498036 -0.0086119846 2.755163e-40
0.0897782 -0.10498036 -0.0086119846 9.1842503e-41
0.091585949 -0.10498036 -0.0086119846 1.83678e-40
0.093025297 -0.10426159 -0.0056733564 1.8439406e-40
0.09482789 -0.10426159 -0.0056733564 9.1838299e-41
0.096630469 -0.10426159 -0.0056733564 0
0.098433062 -0.10426159 -0.0056733564 9.1835496e-41
0.10023566 -0.10426159 -0.0056733564 9.1835496e-41
0.10203825 -0.10426159 -0.0056733564 9.1835496e-41
0.10424015 -0.10498036 -0.0086119846 9.1835496e-41
0.1060479 -0.10498036 -0.0086119846 9.1835496e-41
0.10785565 -0.10498036 -0.0086119846 3.5873241e-43
0.10966338 -0.10498036 -0.0086119846 2.7730295e-40
0.11147113 -0.10498036 -0.0086119846 2.6754683e-39
0.11327888 -0.10498036 -0.0086119846 2.6754683e-39
0.11508662 -0.10498036 -0.0086119846 1.9368243e-39
0.11734794 -0.10572915 -0.011673398 2.3056096e-39
0.11916105 -0.10572915 -0.011673398 1.4758489e-39
-0.10891996 -0.10014741 0.018345051 6.0852745e-39
-0.10694747 -0.099411905 0.021330766 8.3012361e-40
-0.10519221 -0.099411905 0.021330766 3.657389e-43
-0.10322997 -0.098656476 0.024397366 5.6051939e-45
-0.1014801 -0.098656476 0.024397366 1.084605e-42
-0.099730223 -0.098656476 0.024397366 9.2340104e-40
-0.097796753 -0.09792982 0.02734714 6.4681135e-40
-0.096052065 -0.09792982 0.02734714 2.7802883e-40
-0.094307363 -0.09792982 0.02734714 9.3637566e-41
-0.092562668 -0.09792982 0.02734714 3.61535e-43
-0.090817973 -0.09792982 0.02734714 1.847542e-40
-0.089073278 -0.09792982 0.02734714 2.7658969e-40
-0.087481156 -0.098656476 0.024397366 8.2976347e-40
-0.085731283 -0.098656476 0.024397366 1.2907416e-39
-0.083981417 -0.098656476 0.024397366 8.2940754e-40
-0.082231551 -0.098656476 0.024397366 1.8403813e-40
-0.080481678 -0.098656476 0.024397366 9.1841101e-41
-0.078863546 -0.099411905 0.021330766 9.1838299e-41
-0.077108301 -0.099411905 0.021330766 4.6026209e-40
-0.075470842 -0.10014741 0.018345051 1.5658866e-39
-0.07371036 -0.10014741 0.018345051 1.2892997e-39
-0.072057836 -0.1008873 0.015341572 5.5101578e-40
-0.070292093 -0.1008873 0.015341572 3.6734198e-40
-0.068428926 -0.10014741 0.018345051 3.6734198e-40
-0.066668443 -0.10014741 0.018345051 5.5101298e-40
-0.065079346 -0.10160676 0.012421064 1.1967383e-39
-0.063308477 -0.10160676 0.012421064 1.1059818e-39
-0.061537609 -0.10160676 0.012421064 9.2552961e-41
-0.05976674 -0.10160676 0.012421064 9.1835496e-41
-0.057995878 -0.10160676 0.012421064 9.2552961e-41
-0.056225009 -0.10160676 0.012421064 2.7622395e-40
-0.05445414 -0.10160676 0.012421064 3.5873241e-43
-0.052683275 -0.10160676 0.012421064 9.1835496e-41
-0.05091241 -0.10160676 0.012421064 5.5352691e-40
-0.049103137 -0.1008873 0.015341572 6.4500367e-40
-0.04733739 -0.1008873 0.015341572 3.6913565e-40
-0.045571648 -0.1008873 0.015341572 4.6061241e-40
-0.043805901 -0.1008873 0.015341572 5.5317098e-40
-0.042040154 -0.1008873 0.015341572 4.6061521e-40
-0.040274408 -0.1008873 0.015341572 0
-0.038508661 -0.1008873 0.015341572 9.1835496e-41
-0.036742918 -0.1008873 0.015341572 0
-0.034977172 -0.1008873 0.015341572 3.6806365e-40
-0.033211425 -0.1008873 0.015341572 7.3756504e-40
-0.031445678 -0.1008873 0.015341572 5.5245491e-40
-0.029679932 -0.1008873 0.015341572 4.6025928e-40
-0.027914187 -0.1008873 0.015341572 1.0134331e-39
-0.026148442 -0.1008873 0.015341572 9.2123743e-40
-0.024314776 -0.10235542 0.0093819425 5.5245491e-40
-0.022578545 -0.10160676 0.012421064 8.290418e-40
-0.020807678 -0.10160676 0.012421064 3.6806365e-40
-0.018986188 -0.10235542 0.0093819425 3.6806365e-40
-0.017209996 -0.10235542 0.0093819425 5.5245491e-40
-0.015433799 -0.10235542 0.0093819425 7.3684617e-40
-0.013657604 -0.10235542 0.0093819425 8.290418e-40
-0.011881408 -0.10235542 0.0093819425 5.5245491e-40
-0.010105214 -0.10235542 0.0093819425 3.6734339e-40
-0.008329018 -0.10235542 0.0093819425 9.1835496e-41
-0.0064643705 -0.1031086 0.0063244626 0
-0.0046828138 -0.1031086 0.0063244626 3.5873241e-43
-0.002901257 -0.1031086 0.0063244626 3.5873241e-43
-0.0012242394 -0.10235542 0.0093819425 2.7730576e-40
0.00055195671 -0.10235542 0.0093819425 4.6169702e-40
0.0023281528 -0.10235542 0.0093819425 3.6950139e-40
0.0041043488 -0.10235542 0.0093819425 1.8439406e-40
0.0058805412 -0.10235542 0.0093819425 2.8025969e-45
0.0076567372 -0.10235542 0.0093819425 1.8403813e-40
0.0094329333 -0.10235542 0.0093819425 2.7623376e-40
0.011209129 -0.10235542 0.0093819425 4.6026489e-40
0.012985325 -0.10235542 0.0093819425 6.4465615e-40
0.014761518 -0.10235542 0.0093819425 9.2124304e-40
0.016537715 -0.10235542 0.0093819425 1.105277e-39
0.018313911 -0.10235542 0.0093819425 4.5990756e-40
0.020258971 -0.1031086 0.0063244626 9.1841101e-41
0.022040527 -0.1031086 0.0063244626 3.6806926e-40
0.02382208 -0.1031086 0.0063244626 5.5245772e-40
0.025603637 -0.1031086 0.0063244626 8.2796561e-40
0.027385194 -0.1031086 0.0063244626 4.6026209e-40
0.029166747 -0.1031086 0.0063244626 9.1838299e-41
0.030948307 -0.1031086 0.0063244626 9.1838299e-41
0.032930557 -0.10384102 0.0033513829 9.1838299e-41
0.034717325 -0.10384102 0.0033513829 2.7587083e-40
0.036716457 -0.10457774 0.00036077946 4.6026209e-40
0.038508464 -0.10457774 0.00036077946 2.7587083e-40
0.040300477 -0.10457774 0.00036077946 9.1838299e-41
0.042092491 -0.10457774 0.00036077946 0
0.04411922 -0.1053188 -0.002647467 1.836752e-40
0.045916501 -0.1053188 -0.002647467 1.8439126e-40
0.047713786 -0.1053188 -0.002647467 3.6806365e-40
0.049511075 -0.1053188 -0.002647467 3.6806365e-40
0.051052555 -0.10457774 0.00036077946 3.6841958e-40
0.052844569 -0.10457774 0.00036077946 9.1835496e-41
0.054636583 -0.10457774 0.00036077946 2.7550649e-40
0.056428596 -0.10457774 0.00036077946 9.1835496e-41
0.058220595 -0.10457774 0.00036077946 2.7622395e-40
0.060012609 -0.10457774 0.00036077946 3.6841958e-40
0.061804622 -0.10457774 0.00036077946 1.8402972e-40
0.063596636 -0.10457774 0.00036077946 9.1835496e-41
0.065686658 -0.1053188 -0.002647467 1.8439126e-40
0.067483947 -0.1053188 -0.002647467 9.219563e-41
0.069281235 -0.1053188 -0.002647467 2.8025969e-45
0.071078524 -0.1053188 -0.002647467 9.2198432e-41
0.072875813 -0.1053188 -0.002647467 1.8439406e-40
0.074673086 -0.1053188 -0.002647467 1.847542e-40
0.076470375 -0.1053188 -0.002647467 9.2561369e-41
0.078604564 -0.10606419 -0.0056733564 3.657389e-43
0.080407143 -0.10606419 -0.0056733564 7.0064923e-45
0.082209736 -0.10606419 -0.0056733564 3.671402e-43
0.08401233 -0.10606419 -0.0056733564 2.7623516e-40
0.086162716 -0.10678811 -0.0086119846 9.256277e-41
0.087617517 -0.10606419 -0.0056733564 9.1843904e-41
0.08942011 -0.10606419 -0.0056733564 5.6051939e-45
0.091222703 -0.10606419 -0.0056733564 5.6051939e-45
0.093025297 -0.10606419 -0.0056733564 2.8025969e-45
0.09482789 -0.10606419 -0.0056733564 2.8025969e-45
0.096630469 -0.10606419 -0.0056733564 2.8025969e-45
0.098433062 -0.10606419 -0.0056733564 0
0.10023566 -0.10606419 -0.0056733564 0
0.10203825 -0.10606419 -0.0056733564 0
0.10424015 -0.10678811 -0.0086119846 0
0.1060479 -0.10678811 -0.0086119846 0
0.10785565 -0.10678811 -0.0086119846 0
0.10966338 -0.10678811 -0.0086119846 7.1886611e-43
0.11147113 -0.10678811 -0.0086119846 2.950979e-39
0.11327888 -0.10678811 -0.0086119846 3.4119572e-39
0.11508662 -0.10678811 -0.0086119846 2.6736733e-39
0.11734794 -0.10754226 -0.011673398 3.0424558e-39
0.11916105 -0.10754226 -0.011673398 2.1204995e-39
-0.1087027 -0.10116716 0.021330766 6.7306439e-39
-0.10694747 -0.10116716 0.021330766 1.0145149e-39
-0.10497983 -0.10040633 0.024397366 6.4573515e-40
-0.10322997 -0.10040633 0.024397366 5.6051939e-45
-0.1014801 -0.10040633 0.024397366 3.643376e-43
-0.099730223 -0.10040633 0.024397366 6.4681415e-40
-0.097796753 -0.099674508 0.02734714 1.0155939e-39
-0.096052065 -0.099674508 0.02734714 1.0155939e-39
-0.094307363 -0.099674508 0.02734714 5.5461572e-40
-0.092562668 -0.099674508 0.02734714 3.643376e-43
-0.090817973 -0.099674508 0.02734714 7.0064923e-45
-0.089073278 -0.099674508 0.02734714 9.8090893e-45
-0.087481156 -0.10040633 0.024397366 2.7623516e-40
-0.085731283 -0.10040633 0.024397366 3.6843079e-40
-0.083981417 -0.10040633 0.024397366 5.6051939e-45
-0.082231551 -0.10040633 0.024397366 5.6051939e-45
-0.080481678 -0.10040633 0.024397366 3.6806646e-40
-0.078863546 -0.10116716 0.021330766 1.8367239e-40
-0.077108301 -0.10116716 0.021330766 9.1835496e-41
-0.075353056 -0.10116716 0.021330766 6.4465054e-40
-0.07371036 -0.10190789 0.018345051 3.6806365e-40
-0.071949884 -0.10190789 0.018345051 9.1835496e-41
-0.070189402 -0.10190789 0.018345051 5.5137872e-40
-0.068332076 -0.10116716 0.021330766 5.5137872e-40
-0.066576831 -0.10116716 0.021330766 2.7550929e-40
-0.064907961 -0.10190789 0.018345051 3.6734339e-40
-0.063147485 -0.10190789 0.018345051 8.2975787e-40
-0.06146336 -0.10265306 0.015341572 4.6133128e-40
-0.059697613 -0.10265306 0.015341572 3.6913565e-40
-0.05793187 -0.10265306 0.015341572 8.301138e-40
-0.05616612 -0.10265306 0.015341572 1.0141491e-39
-0.054400377 -0.10265306 0.015341572 6.4572254e-40
-0.05263463 -0.10265306 0.015341572 5.5317098e-40
-0.050868884 -0.10265306 0.015341572 8.2975787e-40
-0.049103137 -0.10265306 0.015341572 1.6595185e-39
-0.04733739 -0.10265306 0.015341572 1.7517142e-39
-0.045571648 -0.10265306 0.015341572 1.4751301e-39
-0.043805901 -0.10265306 0.015341572 8.2976067e-40
-0.042040154 -0.10265306 0.015341572 9.219563e-41
-0.040274408 -0.10265306 0.015341572 0
-0.038508661 -0.10265306 0.015341572 1.8439406e-40
-0.036742918 -0.10265306 0.015341572 6.4536941e-40
-0.034977172 -0.10265306 0.015341572 1.0134331e-39
-0.033219323 -0.10190789 0.018345051 1.4744112e-39
-0.031458843 -0.10190789 0.018345051 8.290418e-40
-0.029679932 -0.10265306 0.015341572 9.1835496e-41
-0.027914187 -0.10265306 0.015341572 2.7586802e-40
-0.026148442 -0.10265306 0.015341572 1.8367239e-40
-0.02434941 -0.10337763 0.012421064 9.1835496e-41
-0.022578545 -0.10337763 0.012421064 9.1835496e-41
-0.020807678 -0.10337763 0.012421064 9.1835496e-41
-0.018986188 -0.10413162 0.0093819425 9.1835496e-41
-0.017209996 -0.10413162 0.0093819425 9.1835496e-41
-0.015433799 -0.10413162 0.0093819425 9.1835496e-41
-0.013657604 -0.10413162 0.0093819425 9.1835496e-41
-0.011881408 -0.10413162 0.0093819425 9.1835496e-41
-0.010105214 -0.10413162 0.0093819425 9.1835496e-41
-0.008329018 -0.10413162 0.0093819425 0
-0.0064643705 -0.10489015 0.0063244626 6.4608828e-40
-0.0046828138 -0.10489015 0.0063244626 3.6950139e-40
-0.002901257 -0.10489015 0.0063244626 9.2914496e-41
-0.001119704 -0.10489015 0.0063244626 2.7730576e-40
0.00055195671 -0.10413162 0.0093819425 5.5389265e-40
0.0023281528 -0.10413162 0.0093819425 7.3828391e-40
0.0041043488 -0.10413162 0.0093819425 6.4537221e-40
0.0058805412 -0.10413162 0.0093819425 4.6098095e-40
0.0076567372 -0.10413162 0.0093819425 5.6051939e-45
0.0094329333 -0.10413162 0.0093819425 5.6051939e-45
0.011209129 -0.10413162 0.0093819425 9.1841101e-41
0.012985325 -0.10413162 0.0093819425 9.1841101e-41
0.014761518 -0.10413162 0.0093819425 9.1842503e-41
0.016537715 -0.10413162 0.0093819425 2.755163e-40
0.018313911 -0.10413162 0.0093819425 9.1842503e-41
0.020090107 -0.10413162 0.0093819425 9.1841101e-41
0.022040527 -0.10489015 0.0063244626 2.7551209e-40
0.02382208 -0.10489015 0.0063244626 2.7550929e-40
0.025603637 -0.10489015 0.0063244626 3.6734619e-40
0.027385194 -0.10489015 0.0063244626 2.7550929e-40
0.029166747 -0.10489015 0.0063244626 9.1838299e-41
0.030948307 -0.10489015 0.0063244626 9.1838299e-41
0.03272986 -0.10489015 0.0063244626 9.1838299e-41
0.034717325 -0.10562779 0.0033513829 9.1838299e-41
0.036504094 -0.10562779 0.0033513829 9.1838299e-41
0.038290862 -0.10562779 0.0033513829 2.8025969e-45
0.040300477 -0.10636975 0.00036077946 9.2198432e-41
0.042092491 -0.10636975 0.00036077946 2.7658969e-40
0.043884505 -0.10636975 0.00036077946 3.6878532e-40
0.045676518 -0.10636975 0.00036077946 3.6878532e-40
0.047713786 -0.10711606 -0.002647467 3.6878532e-40
0.049511075 -0.10711606 -0.002647467 3.6878532e-40
0.051052555 -0.10636975 0.00036077946 9.2194229e-41
0.052844569 -0.10636975 0.00036077946 9.1835496e-41
0.054636583 -0.10636975 0.00036077946 9.1835496e-41
0.056428596 -0.10636975 0.00036077946 9.1835496e-41
0.058220595 -0.10636975 0.00036077946 9.1835496e-41
0.060012609 -0.10636975 0.00036077946 1.8402972e-40
0.061804622 -0.10636975 0.00036077946 9.1835496e-41
0.063596636 -0.10636975 0.00036077946 9.1835496e-41
0.06538865 -0.10636975 0.00036077946 3.6877972e-40
0.067483947 -0.10711606 -0.002647467 1.8439126e-40
0.069281235 -0.10711606 -0.002647467 2.8025969e-45
0.071078524 -0.10711606 -0.002647467 2.8025969e-45
0.072875813 -0.10711606 -0.002647467 5.6051939e-45
0.074673086 -0.10711606 -0.002647467 9.2561369e-41
0.076470375 -0.10711606 -0.002647467 9.2561369e-41
0.078267664 -0.10711606 -0.002647467 9.2561369e-41
0.080407143 -0.10786678 -0.0056733564 5.6051939e-45
0.082209736 -0.10786678 -0.0056733564 3.643376e-43
0.08401233 -0.10786678 -0.0056733564 9.2561369e-41
0.085814923 -0.10786678 -0.0056733564 3.657389e-43
0.087617517 -0.10786678 -0.0056733564 5.6051939e-45
0.08942011 -0.10786678 -0.0056733564 2.8025969e-45
0.091222703 -0.10786678 -0.0056733564 2.8025969e-45
0.093025297 -0.10786678 -0.0056733564 2.8025969e-45
0.09482789 -0.10786678 -0.0056733564 2.8025969e-45
0.096630469 -0.10786678 -0.0056733564 2.8025969e-45
0.098433062 -0.10786678 -0.0056733564 5.6051939e-45
0.10023566 -0.10786678 -0.0056733564 5.6051939e-45
0.10203825 -0.10786678 -0.0056733564 2.8025969e-45
0.10424015 -0.10859586 -0.0086119846 2.8025969e-45
0.1060479 -0.10859586 -0.0086119846 2.8025969e-45
0.10785565 -0.10859586 -0.0086119846 2.8025969e-45
0.10966338 -0.10859586 -0.0086119846 2.8025969e-45
0.11147113 -0.10859586 -0.0086119846 2.5818406e-39
0.11327888 -0.10859586 -0.0086119846 3.5034367e-39
0.11508662 -0.10859586 -0.0086119846 2.9502602e-39
0.11689436 -0.10859586 -0.0086119846 3.0424558e-39
0.11870211 -0.10859586 -0.0086119846 2.489282e-39
-0.1087027 -0.10292239 0.021330766 6.2696658e-39
-0.10694747 -0.10292239 0.021330766 5.5353672e-40
-0.10497983 -0.10215621 0.024397366 8.3012641e-40
-0.10322997 -0.10215621 0.024397366 5.6051939e-45
-0.1014801 -0.10215621 0.024397366 7.2447131e-43
-0.099541456 -0.10141921 0.02734714 4.6242289e-40
-0.097796753 -0.10141921 0.02734714 5.5461572e-40
-0.096052065 -0.10141921 0.02734714 7.3900698e-40
-0.094307363 -0.10141921 0.02734714 7.3900698e-40
-0.092562668 -0.10141921 0.02734714 9.3640369e-41
-0.090817973 -0.10141921 0.02734714 7.3686019e-40
-0.089231022 -0.10215621 0.024397366 1.1056455e-39
-0.087481156 -0.10215621 0.024397366 1.4744252e-39
-0.085731283 -0.10215621 0.024397366 3.684336e-40
-0.083981417 -0.10215621 0.024397366 7.0064923e-45
-0.082374036 -0.10292239 0.021330766 9.219591e-40
-0.080618784 -0.10292239 0.021330766 1.9361082e-39
-0.078863546 -0.10292239 0.021330766 6.4536661e-40
-0.077108301 -0.10292239 0.021330766 4.6097535e-40
-0.075353056 -0.10292239 0.021330766 1.1063448e-39
-0.07371036 -0.10366838 0.018345051 7.3756504e-40
-0.071949884 -0.10366838 0.018345051 6.4537221e-40
-0.070189402 -0.10366838 0.018345051 1.4744168e-39
-0.068332076 -0.10292239 0.021330766 1.6588081e-39
-0.066576831 -0.10292239 0.021330766 1.1974726e-39
-0.064907961 -0.10366838 0.018345051 1.0137988e-39
-0.063147485 -0.10366838 0.018345051 0
-0.061387002 -0.10366838 0.018345051 3.5873241e-43
-0.05962652 -0.10366838 0.018345051 9.2911693e-41
-0.05793187 -0.1044188 0.015341572 3.6949858e-40
-0.05616612 -0.1044188 0.015341572 5.5389265e-40
-0.054345082 -0.10366838 0.018345051 6.4608547e-40
-0.052584603 -0.10366838 0.018345051 7.3828391e-40
-0.050868884 -0.1044188 0.015341572 9.2267516e-40
-0.049063642 -0.10366838 0.018345051 1.1070664e-39
-0.047303163 -0.10366838 0.018345051 1.6602402e-39
-0.045571648 -0.1044188 0.015341572 1.5676886e-39
-0.043805901 -0.1044188 0.015341572 5.5353672e-40
-0.042040154 -0.1044188 0.015341572 2.8025969e-45
-0.040274408 -0.1044188 0.015341572 3.629363e-43
-0.038508661 -0.1044188 0.015341572 4.6134389e-40
-0.036742918 -0.1044188 0.015341572 7.3756784e-40
-0.034977172 -0.1044188 0.015341572 1.1978243e-39
-0.033219323 -0.10366838 0.018345051 1.9346691e-39
-0.031458843 -0.10366838 0.018345051 1.3814953e-39
-0.029679932 -0.1044188 0.015341572 5.5173465e-40
-0.027914187 -0.1044188 0.015341572 4.6025928e-40
-0.026148442 -0.1044188 0.015341572 2.7586802e-40
-0.02434941 -0.10514848 0.012421064 9.1835496e-41
-0.022578545 -0.10514848 0.012421064 9.1835496e-41
-0.020807678 -0.10514848 0.012421064 3.6806365e-40
-0.019036811 -0.10514848 0.012421064 3.6806365e-40
-0.017265946 -0.10514848 0.012421064 1.8439126e-40
-0.015495078 -0.10514848 0.012421064 0
-0.013724211 -0.10514848 0.012421064 0
-0.011953345 -0.10514848 0.012421064 1.8439126e-40
-0.010105214 -0.10590781 0.0093819425 7.3756504e-40
-0.008329018 -0.10590781 0.0093819425 1.2907388e-39
-0.0065528238 -0.10590781 0.0093819425 7.1886611e-43
-0.0046828138 -0.10667174 0.0063244626 3.5873241e-43
-0.002901257 -0.10667174 0.0063244626 3.5873241e-43
-0.001119704 -0.10667174 0.0063244626 3.5873241e-43
0.00055195671 -0.10590781 0.0093819425 3.5873241e-43
0.0023281528 -0.10590781 0.0093819425 3.5873241e-43
0.0041043488 -0.10590781 0.0093819425 2.8025969e-45
0.0058805412 -0.10590781 0.0093819425 2.8025969e-45
0.0076567372 -0.10590781 0.0093819425 5.6051939e-45
0.0094329333 -0.10590781 0.0093819425 1.8403813e-40
0.011209129 -0.10590781 0.0093819425 9.1843904e-41
0.012985325 -0.10590781 0.0093819425 7.0064923e-45
0.014761518 -0.10590781 0.0093819425 9.1842503e-41
0.016537715 -0.10590781 0.0093819425 2.755163e-40
0.018313911 -0.10590781 0.0093819425 3.6771193e-40
0.020090107 -0.10590781 0.0093819425 1.83678e-40
0.022040527 -0.10667174 0.0063244626 3.6734899e-40
0.02382208 -0.10667174 0.0063244626 5.5101858e-40
0.025603637 -0.10667174 0.0063244626 4.5918309e-40
0.027385194 -0.10667174 0.0063244626 4.5918309e-40
0.029166747 -0.10667174 0.0063244626 4.5918309e-40
0.030948307 -0.10667174 0.0063244626 4.5918309e-40
0.03272986 -0.10667174 0.0063244626 3.6806646e-40
0.034511421 -0.10667174 0.0063244626 4.6026209e-40
0.036292974 -0.10667174 0.0063244626 5.6051939e-45
0.038290862 -0.10741456 0.0033513829 5.6051939e-45
0.04007763 -0.10741456 0.0033513829 5.6051939e-45
0.041864399 -0.10741456 0.0033513829 5.6051939e-45
0.043884505 -0.10816176 0.00036077946 5.6051939e-45
0.045676518 -0.10816176 0.00036077946 5.6051939e-45
0.047468528 -0.10816176 0.00036077946 5.6051939e-45
0.049260542 -0.10816176 0.00036077946 2.8025969e-45
0.051308364 -0.10891335 -0.002647467 0
0.052844569 -0.10816176 0.00036077946 3.5873241e-43
0.054636583 -0.10816176 0.00036077946 9.2552961e-41
0.056428596 -0.10816176 0.00036077946 3.5873241e-43
0.058220595 -0.10816176 0.00036077946 9.1835496e-41
0.060012609 -0.10816176 0.00036077946 9.1835496e-41
0.061804622 -0.10816176 0.00036077946 3.5873241e-43
0.063596636 -0.10816176 0.00036077946 9.2552961e-41
0.06538865 -0.10816176 0.00036077946 3.6877972e-40
0.067180663 -0.10816176 0.00036077946 1.8439126e-40
0.069281235 -0.10891335 -0.002647467 2.8025969e-45
0.071078524 -0.10891335 -0.002647467 2.8025969e-45
0.072875813 -0.10891335 -0.002647467 3.657389e-43
0.074673086 -0.10891335 -0.002647467 3.671402e-43
0.076470375 -0.10891335 -0.002647467 3.671402e-43
0.078267664 -0.10891335 -0.002647467 7.0064923e-45
0.080407143 -0.10966937 -0.0056733564 3.61535e-43
0.082209736 -0.10966937 -0.0056733564 7.1746481e-43
0.08401233 -0.10966937 -0.0056733564 1.0789998e-42
0.085814923 -0.10966937 -0.0056733564 7.1886611e-43
0.087617517 -0.10966937 -0.0056733564 3.5873241e-43
0.08942011 -0.10966937 -0.0056733564 3.61535e-43
0.091222703 -0.10966937 -0.0056733564 3.61535e-43
0.093025297 -0.10966937 -0.0056733564 3.61535e-43
0.09482789 -0.10966937 -0.0056733564 3.643376e-43
0.096630469 -0.10966937 -0.0056733564 3.643376e-43
0.098433062 -0.10966937 -0.0056733564 7.0064923e-45
0.10023566 -0.10966937 -0.0056733564 7.0064923e-45
0.10203825 -0.10966937 -0.0056733564 9.8090893e-45
0.10424015 -0.11040358 -0.0086119846 9.8090893e-45
0.1060479 -0.11040358 -0.0086119846 9.8090893e-45
0.10785565 -0.11040358 -0.0086119846 9.8090893e-45
0.10966338 -0.11040358 -0.0086119846 1.8403813e-40
0.11147113 -0.11040358 -0.0086119846 2.1205023e-39
0.11327888 -0.11040358 -0.0086119846 3.4105222e-39
0.11508662 -0.11040358 -0.0086119846 3.1339354e-39
0.11689436 -0.11040358 -0.0086119846 2.8573485e-39
-0.1087027 -0.10467763 0.021330766 7.1916221e-39
-0.10694747 -0.10467763 0.021330766 1.6598843e-39
-0.10497983 -0.10390608 0.024397366 1.84757e-40
-0.10322997 -0.10390608 0.024397366 1.84757e-40
-0.1014801 -0.10390608 0.024397366 7.3900978e-40
-0.099541456 -0.10316391 0.02734714 9.2339823e-40
-0.097796753 -0.10316391 0.02734714 9.3637566e-41
-0.096052065 -0.10316391 0.02734714 1.4419361e-42
-0.094307363 -0.10316391 0.02734714 7.3900698e-40
-0.092562668 -0.10316391 0.02734714 1.1989089e-39
-0.090817973 -0.10316391 0.02734714 1.6595325e-39
-0.089073278 -0.10316391 0.02734714 4.6098936e-40
-0.087481156 -0.10390608 0.024397366 1.3825855e-39
-0.085731283 -0.10390608 0.024397366 5.3477137e-39
-0.083981417 -0.10390608 0.024397366 1.1893602e-38
-0.082231551 -0.10390608 0.024397366 1.5858014e-38
-0.080481678 -0.10390608 0.024397366 1.0418469e-38
-0.078863546 -0.10467763 0.021330766 5.5389265e-40
-0.077108301 -0.10467763 0.021330766 3.5873241e-43
-0.075353056 -0.10467763 0.021330766 3.6914546e-40
-0.073597811 -0.10467763 0.021330766 9.2558566e-41
-0.071842566 -0.10467763 0.021330766 5.6051939e-45
-0.070087321 -0.10467763 0.021330766 7.0064923e-45
-0.068332076 -0.10467763 0.021330766 9.8090893e-45
-0.066576831 -0.10467763 0.021330766 9.8090893e-45
-0.064907961 -0.10542886 0.018345051 3.671402e-43
-0.063147485 -0.10542886 0.018345051 3.5873241e-43
-0.061387002 -0.10542886 0.018345051 1.8510732e-40
-0.05962652 -0.10542886 0.018345051 3.6950139e-40
-0.05793187 -0.10618456 0.015341572 2.7730576e-40
-0.05616612 -0.10618456 0.015341572 2.7694983e-40
-0.054345082 -0.10542886 0.018345051 6.4573235e-40
-0.052584603 -0.10542886 0.018345051 9.2231923e-40
-0.050868884 -0.10618456 0.015341572 1.0145149e-39
-0.049063642 -0.10542886 0.018345051 3.629363e-43
-0.047303163 -0.10542886 0.018345051 1.1067105e-39
-0.045542683 -0.10542886 0.018345051 1.2911018e-39
-0.043782204 -0.10542886 0.018345051 2.7694983e-40
-0.042040154 -0.10618456 0.015341572 5.6051939e-45
-0.040274408 -0.10618456 0.015341572 5.6051939e-45
-0.038508661 -0.10618456 0.015341572 7.0064923e-45
-0.036742918 -0.10618456 0.015341572 5.6051939e-45
-0.034977172 -0.10618456 0.015341572 1.8367239e-40
-0.033211425 -0.10618456 0.015341572 9.2159336e-40
-0.031445678 -0.10618456 0.015341572 8.2831873e-40
-0.029679932 -0.10618456 0.015341572 9.1835496e-41
-0.027914187 -0.10618456 0.015341572 2.7622395e-40
-0.026148442 -0.10618456 0.015341572 3.6841958e-40
-0.02434941 -0.10691936 0.012421064 9.1835496e-41
-0.022578545 -0.10691936 0.012421064 2.7586802e-40
-0.020807678 -0.10691936 0.012421064 9.1835496e-41
-0.019036811 -0.10691936 0.012421064 5.5245491e-40
-0.017265946 -0.10691936 0.012421064 1.0141519e-39
-0.015495078 -0.10691936 0.012421064 1.1063476e-39
-0.013724211 -0.10691936 0.012421064 6.4536941e-40
-0.011953345 -0.10691936 0.012421064 1.8439126e-40
-0.010105214 -0.107684 0.0093819425 0
-0.008329018 -0.107684 0.0093819425 0
-0.0065528238 -0.107684 0.0093819425 3.5873241e-43
-0.0046828138 -0.10845329 0.0063244626 9.2914496e-41
-0.002901257 -0.10845329 0.0063244626 3.6950139e-40
-0.001119704 -0.10845329 0.0063244626 2.7730576e-40
0.00066185277 -0.10845329 0.0063244626 7.1886611e-43
0.0023281528 -0.107684 0.0093819425 3.5873241e-43
0.0041043488 -0.107684 0.0093819425 2.8025969e-45
0.0058805412 -0.107684 0.0093819425 9.2558566e-41
0.0076567372 -0.107684 0.0093819425 5.6051939e-45
0.0094329333 -0.107684 0.0093819425 9.1842503e-41
0.011209129 -0.107684 0.0093819425 3.6842939e-40
0.012985325 -0.107684 0.0093819425 1.8403813e-40
0.014761518 -0.107684 0.0093819425 1.836794e-40
0.016537715 -0.107684 0.0093819425 3.6806926e-40
0.018313911 -0.107684 0.0093819425 3.6771193e-40
0.020090107 -0.107684 0.0093819425 1.83678e-40
0.022040527 -0.10845329 0.0063244626 4.5918309e-40
0.02382208 -0.10845329 0.0063244626 3.6734619e-40
0.025603637 -0.10845329 0.0063244626 2.7550929e-40
0.027385194 -0.10845329 0.0063244626 9.1838299e-41
0.029166747 -0.10845329 0.0063244626 2.7550929e-40
0.030948307 -0.10845329 0.0063244626 1.836752e-40
0.03272986 -0.10845329 0.0063244626 2.7587083e-40
0.034511421 -0.10845329 0.0063244626 3.6806646e-40
0.036292974 -0.10845329 0.0063244626 2.8025969e-45
0.038074527 -0.10845329 0.0063244626 9.2198432e-41
0.04007763 -0.10920133 0.0033513829 1.84757e-40
0.041864399 -0.10920133 0.0033513829 1.847542e-40
0.043884505 -0.10995375 0.00036077946 1.84757e-40
0.045676518 -0.10995375 0.00036077946 9.2561369e-41
0.047468528 -0.10995375 0.00036077946 1.84757e-40
0.049260542 -0.10995375 0.00036077946 1.847542e-40
0.051308364 -0.11071064 -0.002647467 0
0.052844569 -0.10995375 0.00036077946 9.2552961e-41
0.054636583 -0.10995375 0.00036077946 2.7694142e-40
0.056428596 -0.10995375 0.00036077946 1.8474719e-40
0.058220595 -0.10995375 0.00036077946 9.1835496e-41
0.060012609 -0.10995375 0.00036077946 9.1835496e-41
0.061804622 -0.10995375 0.00036077946 3.5873241e-43
0.063596636 -0.10995375 0.00036077946 1.8438846e-40
0.06538865 -0.10995375 0.00036077946 3.6878252e-40
0.067180663 -0.10995375 0.00036077946 1.8439126e-40
0.068972677 -0.10995375 0.00036077946 3.629363e-43
0.070764691 -0.10995375 0.00036077946 3.629363e-43
0.072875813 -0.11071064 -0.002647467 9.2561369e-41
0.074673086 -0.11071064 -0.002647467 7.2447131e-43
0.076470375 -0.11071064 -0.002647467 7.0064923e-45
0.078267664 -0.11071064 -0.002647467 3.643376e-43
0.080064952 -0.11071064 -0.002647467 3.5873241e-43
0.082209736 -0.11147197 -0.0056733564 1.0761972e-42
0.08401233 -0.11147197 -0.0056733564 1.4349296e-42
0.085814923 -0.11147197 -0.0056733564 1.4349296e-42
0.087617517 -0.11147197 -0.0056733564 3.5873241e-43
0.08942011 -0.11147197 -0.0056733564 3.5873241e-43
0.091222703 -0.11147197 -0.0056733564 2.8025969e-45
0.093025297 -0.11147197 -0.0056733564 3.61535e-43
0.09482789 -0.11147197 -0.0056733564 2.8025969e-45
0.096630469 -0.11147197 -0.0056733564 3.643376e-43
0.098433062 -0.11147197 -0.0056733564 7.0064923e-45
0.10023566 -0.11147197 -0.0056733564 7.0064923e-45
0.10203825 -0.11147197 -0.0056733564 9.8090893e-45
0.10424015 -0.11221133 -0.0086119846 9.8090893e-45
0.1060479 -0.11221133 -0.0086119846 9.8090893e-45
0.10785565 -0.11221133 -0.0086119846 9.8090893e-45
0.10966338 -0.11221133 -0.0086119846 5.5282065e-40
0.11147113 -0.11221133 -0.0086119846 1.936111e-39
0.11327888 -0.11221133 -0.0086119846 3.3183266e-39
