# .PCD v0.7 - Point Cloud Data file format
VERSION 0.7
FIELDS x y z rgb
SIZE 4 4 4 4
TYPE F F F F
COUNT 1 1 1 1
WIDTH 964
HEIGHT 1
VIEWPOINT 0 0 0 1 0 0 0
POINTS 964
DATA ascii
0.031520266 -0.10891335 0.0030064881 2.7622395e-40
0.033317551 -0.10891335 0.0030064881 2.7586802e-40
0.03511484 -0.10891335 0.0030064881 9.1835496e-41
0.036912125 -0.10891335 0.0030064881 1.8367239e-40
0.038709413 -0.10891335 0.0030064881 9.1835496e-41
0.040647294 -0.10966937 -1.9401312e-05 9.1838299e-41
0.042449884 -0.10966937 -1.9401312e-05 9.1838299e-41
0.044252478 -0.10966937 -1.9401312e-05 9.1838299e-41
0.046055067 -0.10966937 -1.9401312e-05 2.7587083e-40
0.048014808 -0.11040358 -0.0029580295 3.6806646e-40
0.049822554 -0.11040358 -0.0029580295 5.5245772e-40
0.0516303 -0.11040358 -0.0029580295 1.8367239e-40
0.053438041 -0.11040358 -0.0029580295 9.1835496e-41
0.055245787 -0.11040358 -0.0029580295 1.8367239e-40
0.057244085 -0.11116849 -0.0060194433 3.6806365e-40
0.059057198 -0.11116849 -0.0060194433 3.6878252e-40
0.061128855 -0.11215095 -0.0099516809 2.7658689e-40
0.06294886 -0.11215095 -0.0099516809 9.219563e-41
0.064768866 -0.11215095 -0.0099516809 0
0.066588871 -0.11215095 -0.0099516809 2.8025969e-45
0.068626858 -0.11289944 -0.01294741 2.8025969e-45
0.070452116 -0.11289944 -0.01294741 2.8025969e-45
0.072738327 -0.11440946 -0.018991083 2.8025969e-45
0.074574187 -0.11440946 -0.018991083 2.8025969e-45
0.076644503 -0.11514379 -0.021930188 3.629363e-43
0.078485511 -0.11514379 -0.021930188 9.2558566e-41
0.080081753 -0.11440946 -0.018991083 2.7730576e-40
0.081917606 -0.11440946 -0.018991083 0
0.084008552 -0.11514379 -0.021930188 0
0.085849561 -0.11514379 -0.021930188 0
0.087690569 -0.11514379 -0.021930188 0
0.089531578 -0.11514379 -0.021930188 9.1842503e-41
0.091372587 -0.11514379 -0.021930188 9.1842503e-41
0.093213595 -0.11514379 -0.021930188 9.1843904e-41
0.095449142 -0.1161568 -0.025984734 9.1843904e-41
0.097297259 -0.1161568 -0.025984734 1.8403953e-40
0.09914539 -0.1161568 -0.025984734 9.1843904e-41
0.101299 -0.11690097 -0.028963178 9.1842503e-41
0.10346483 -0.11764936 -0.03195855 9.2198432e-41
0.10532343 -0.11764936 -0.03195855 9.2198432e-41
0.10718202 -0.11764936 -0.03195855 1.8439126e-40
0.10904061 -0.11764936 -0.03195855 2.7658409e-40
0.1108992 -0.11764936 -0.03195855 2.7658409e-40
0.11309846 -0.11840202 -0.034970969 0
0.11496233 -0.11840202 -0.034970969 1.8439126e-40
0.11729766 -0.11941226 -0.03901431 1.8439126e-40
0.11916862 -0.11941226 -0.03901431 0
0.12103958 -0.11941226 -0.03901431 2.1204995e-39
0.12241783 -0.11840202 -0.034970969 4.978564e-39
0.1242817 -0.11840202 -0.034970969 4.5175859e-39
0.12665246 -0.11941226 -0.03901431 4.240999e-39
0.12852344 -0.11941226 -0.03901431 3.5956296e-39
-0.1180219 -0.12026589 -0.034970969 3.6871063e-39
-0.11584904 -0.11950795 -0.03195855 2.8573485e-39
-0.11268311 -0.11624531 -0.018991083 4.9778479e-39
-0.11024854 -0.11472471 -0.01294741 1.714839e-38
-0.10813177 -0.11397095 -0.0099516809 2.194256e-38
-0.10593601 -0.1129816 -0.0060194433 2.3233296e-38
-0.10383574 -0.11221133 -0.0029580295 2.2680841e-38
-0.10147896 -0.11071064 0.0030064881 2.3142541e-38
-0.099139996 -0.10920133 0.009005338 2.1208229e-38
-0.096550159 -0.10691936 0.018075019 9.6848571e-39
-0.094525822 -0.10618456 0.020995528 4.6151793e-39
-0.092250787 -0.10467763 0.026984721 2.0319038e-39
-0.090240143 -0.10390608 0.030051321 3.5034367e-39
-0.088002749 -0.10240157 0.036030978 2.9481022e-39
-0.085861199 -0.1011332 0.04107216 3.8700557e-39
-0.08389806 -0.10038316 0.044053167 4.514702e-39
-0.081946753 -0.099637643 0.047016233 3.3154385e-39
-0.080000095 -0.098872766 0.050056249 3.5916653e-39
-0.078285299 -0.098872766 0.050056249 3.3150756e-39
-0.076570518 -0.098872766 0.050056249 8.2651947e-40
-0.074855722 -0.098872766 0.050056249 1.1945789e-39
-0.073140927 -0.098872766 0.050056249 1.1031022e-39
-0.071426131 -0.098872766 0.050056249 1.7499121e-39
-0.069711335 -0.098872766 0.050056249 8.2939493e-40
-0.067996554 -0.098872766 0.050056249 1.8511013e-40
-0.066281758 -0.098872766 0.050056249 1.8654926e-40
-0.064745523 -0.099637643 0.047016233 1.4391335e-42
-0.0630254 -0.099637643 0.047016233 9.5435432e-41
-0.061305273 -0.099637643 0.047016233 9.4353629e-41
-0.05958515 -0.099637643 0.047016233 3.5873241e-43
-0.058172476 -0.1011332 0.04107216 5.5353672e-40
-0.056441929 -0.1011332 0.04107216 1.474777e-39
-0.05471139 -0.1011332 0.04107216 8.2869008e-40
-0.053075146 -0.10164386 0.039042503 3.6735039e-40
-0.051341046 -0.10164386 0.039042503 1.1038364e-39
-0.049606938 -0.10164386 0.039042503 1.8414015e-39
-0.047789205 -0.1011332 0.04107216 1.0109149e-39
-0.046058659 -0.1011332 0.04107216 2.5793196e-39
-0.044404626 -0.10164386 0.039042503 2.1183415e-39
-0.042670522 -0.10164386 0.039042503 4.5953902e-40
-0.040936418 -0.10164386 0.039042503 3.6806926e-40
-0.039202318 -0.10164386 0.039042503 4.5990756e-40
-0.037560616 -0.10240157 0.036030978 1.2611686e-44
-0.035908889 -0.10316391 0.033001095 3.6879653e-40
-0.034244355 -0.10390608 0.030051321 3.6987553e-40
-0.032494489 -0.10390608 0.030051321 1.1996362e-39
-0.03074462 -0.10390608 0.030051321 1.3829457e-39
-0.02899475 -0.10390608 0.030051321 9.2232344e-40
-0.027306717 -0.10467763 0.026984721 9.2160317e-40
-0.025551472 -0.10467763 0.026984721 8.2976347e-40
-0.023796227 -0.10467763 0.026984721 1.1978243e-39
-0.022040982 -0.10467763 0.026984721 2.3045278e-39
-0.020324998 -0.10542886 0.023999006 1.8402972e-40
-0.018564519 -0.10542886 0.023999006 1.8402972e-40
-0.016804039 -0.10542886 0.023999006 6.4536661e-40
-0.015043559 -0.10542886 0.023999006 8.2975787e-40
-0.013283079 -0.10542886 0.023999006 9.2558566e-41
-0.011522599 -0.10542886 0.023999006 3.629363e-43
-0.0097621204 -0.10542886 0.023999006 1.4419361e-42
-0.0080016395 -0.10542886 0.023999006 2.8025969e-45
-0.0062385267 -0.10618456 0.020995528 3.6841958e-40
-0.0044651004 -0.10691936 0.018075019 9.1835496e-41
-0.0026809117 -0.107684 0.015035897 9.1835496e-41
-0.00090471748 -0.107684 0.015035897 3.6841958e-40
0.00087147858 -0.107684 0.015035897 4.6025928e-40
0.0026476737 -0.107684 0.015035897 1.8367239e-40
0.0044238688 -0.107684 0.015035897 9.1838299e-41
0.006200064 -0.107684 0.015035897 9.1838299e-41
0.0079762591 -0.107684 0.015035897 1.83678e-40
0.0097524552 -0.107684 0.015035897 9.1838299e-41
0.011528649 -0.107684 0.015035897 5.6051939e-45
0.013304845 -0.107684 0.015035897 2.7658969e-40
0.01508104 -0.107684 0.015035897 6.4537221e-40
0.016857237 -0.107684 0.015035897 7.3756784e-40
0.018711161 -0.10845329 0.011978418 3.6878532e-40
0.020492718 -0.10845329 0.011978418 0
0.022274274 -0.10845329 0.011978418 1.8367239e-40
0.024147056 -0.10920133 0.009005338 5.5281084e-40
0.026030827 -0.10995375 0.0060147345 5.5245491e-40
0.027925692 -0.11071064 0.0030064881 2.7622395e-40
0.029722981 -0.11071064 0.0030064881 1.8367239e-40
0.031520266 -0.11071064 0.0030064881 3.6806365e-40
0.033317551 -0.11071064 0.0030064881 2.7586802e-40
0.03511484 -0.11071064 0.0030064881 9.1835496e-41
0.036912125 -0.11071064 0.0030064881 2.7586802e-40
0.038844701 -0.11147197 -1.9401312e-05 1.8367239e-40
0.040647294 -0.11147197 -1.9401312e-05 9.1838299e-41
0.042449884 -0.11147197 -1.9401312e-05 9.1838299e-41
0.044252478 -0.11147197 -1.9401312e-05 9.1838299e-41
0.046207063 -0.11221133 -0.0029580295 1.836752e-40
0.048014808 -0.11221133 -0.0029580295 4.6026209e-40
0.049991637 -0.1129816 -0.0060194433 6.4465335e-40
0.0516303 -0.11221133 -0.0029580295 9.1835496e-41
0.053438041 -0.11221133 -0.0029580295 9.1835496e-41
0.055245787 -0.11221133 -0.0029580295 2.7586802e-40
0.057244085 -0.1129816 -0.0060194433 2.7586802e-40
0.059057198 -0.1129816 -0.0060194433 9.219563e-41
0.061128855 -0.11397095 -0.0099516809 0
0.06294886 -0.11397095 -0.0099516809 0
0.064768866 -0.11397095 -0.0099516809 0
0.066588871 -0.11397095 -0.0099516809 2.8025969e-45
0.068626858 -0.11472471 -0.01294741 2.8025969e-45
0.070452116 -0.11472471 -0.01294741 9.2198432e-41
0.072738327 -0.11624531 -0.018991083 9.2198432e-41
0.074574187 -0.11624531 -0.018991083 3.629363e-43
0.076644503 -0.1169848 -0.021930188 9.2558566e-41
0.078485511 -0.1169848 -0.021930188 1.847542e-40
0.08032652 -0.1169848 -0.021930188 3.6914546e-40
0.082167543 -0.1169848 -0.021930188 0
0.084360443 -0.11800493 -0.025984734 0
0.085849561 -0.1169848 -0.021930188 0
0.087690569 -0.1169848 -0.021930188 9.219563e-41
0.089531578 -0.1169848 -0.021930188 9.2198432e-41
0.091372587 -0.1169848 -0.021930188 9.1842503e-41
0.093213595 -0.1169848 -0.021930188 9.1842503e-41
0.095054604 -0.1169848 -0.021930188 5.6051939e-45
0.096895613 -0.1169848 -0.021930188 5.6051939e-45
0.09914539 -0.11800493 -0.025984734 5.6051939e-45
0.10099351 -0.11800493 -0.025984734 5.6051939e-45
0.10315234 -0.11875431 -0.028963178 2.8025969e-45
0.10500567 -0.11875431 -0.028963178 0
0.10718202 -0.11950795 -0.03195855 0
0.10904061 -0.11950795 -0.03195855 0
0.1108992 -0.11950795 -0.03195855 0
0.11309846 -0.12026589 -0.034970969 1.8439126e-40
0.11496233 -0.12026589 -0.034970969 3.6878252e-40
0.11682621 -0.12026589 -0.034970969 1.8439126e-40
0.11916862 -0.12128322 -0.03901431 0
0.12055395 -0.12026589 -0.034970969 2.0283039e-39
0.12241783 -0.12026589 -0.034970969 5.1629553e-39
0.1242817 -0.12026589 -0.034970969 4.978564e-39
0.12614559 -0.12026589 -0.034970969 4.7019771e-39
-0.1180219 -0.12212978 -0.034970969 3.042453e-39
-0.11584904 -0.12136655 -0.03195855 2.9498972e-39
-0.11338819 -0.11985306 -0.025984734 6.2674966e-39
-0.11054704 -0.11731337 -0.015960544 1.5670722e-38
-0.10813177 -0.11579098 -0.0099516809 1.8896839e-38
-0.10593601 -0.11479472 -0.0060194433 2.3507697e-38
-0.10383574 -0.11401908 -0.0029580295 2.3321502e-38
-0.10147896 -0.11250792 0.0030064881 2.2769413e-38
-0.099139996 -0.1109881 0.009005338 2.3509869e-38
-0.096550159 -0.10869022 0.018075019 1.1063108e-38
-0.094525822 -0.10795029 0.020995528 5.9930789e-39
-0.092504673 -0.10718934 0.023999006 2.3059782e-39
-0.090240143 -0.10565595 0.030051321 2.9499084e-39
-0.088002749 -0.10414095 0.036030978 3.3183294e-39
-0.085861199 -0.10286374 0.04107216 3.4105222e-39
-0.083666883 -0.10135777 0.047016233 3.6871063e-39
-0.081714891 -0.10058756 0.050056249 4.3328317e-39
-0.080000095 -0.10058756 0.050056249 1.2903759e-39
-0.078285299 -0.10058756 0.050056249 9.2159056e-40
-0.076570518 -0.10058756 0.050056249 3.6841818e-40
-0.074855722 -0.10058756 0.050056249 3.6841818e-40
-0.073140927 -0.10058756 0.050056249 1.2910919e-39
-0.071426131 -0.10058756 0.050056249 8.3047953e-40
-0.069711335 -0.10058756 0.050056249 9.2339543e-40
-0.067996554 -0.10058756 0.050056249 1.8048724e-42
-0.066281758 -0.10058756 0.050056249 7.2307001e-43
-0.064566962 -0.10058756 0.050056249 7.2447131e-43
-0.062852167 -0.10058756 0.050056249 3.6027384e-42
-0.061305273 -0.10135777 0.047016233 2.155197e-42
-0.05958515 -0.10135777 0.047016233 1.7992672e-42
-0.058018286 -0.10210848 0.044053167 6.4789875e-40
-0.056441929 -0.10286374 0.04107216 2.490738e-39
-0.05471139 -0.10286374 0.04107216 1.9357705e-39
-0.053075146 -0.10337795 0.039042503 1.0130953e-39
-0.051341046 -0.10337795 0.039042503 1.6581004e-39
-0.049606938 -0.10337795 0.039042503 1.288948e-39
-0.047789205 -0.10286374 0.04107216 1.0119911e-39
-0.046058659 -0.10286374 0.04107216 2.3952773e-39
-0.044404626 -0.10337795 0.039042503 3.6734198e-40
-0.042670522 -0.10337795 0.039042503 2.395999e-39
-0.040936418 -0.10337795 0.039042503 1.0134359e-39
-0.039202318 -0.10337795 0.039042503 9.2089131e-40
-0.037468214 -0.10337795 0.039042503 2.5223372e-44
-0.035908889 -0.1049086 0.033001095 4.6028871e-40
-0.034244355 -0.10565595 0.030051321 1.9364964e-39
-0.032494489 -0.10565595 0.030051321 3.6952381e-40
-0.030817207 -0.1064329 0.026984721 6.4610789e-40
-0.029061962 -0.1064329 0.026984721 8.3049775e-40
-0.027306717 -0.1064329 0.026984721 9.2196751e-40
-0.025551472 -0.1064329 0.026984721 5.5353952e-40
-0.023845959 -0.10718934 0.023999006 2.8025969e-45
-0.022085477 -0.10718934 0.023999006 9.2911693e-41
-0.020324998 -0.10718934 0.023999006 3.6949858e-40
-0.018564519 -0.10718934 0.023999006 1.8510592e-40
-0.016804039 -0.10718934 0.023999006 1.8510732e-40
-0.015043559 -0.10718934 0.023999006 3.6949858e-40
-0.013283079 -0.10718934 0.023999006 3.7022446e-40
-0.011522599 -0.10718934 0.023999006 2.7802883e-40
-0.0097621204 -0.10718934 0.023999006 1.4447387e-42
-0.0080016395 -0.10718934 0.023999006 5.6051939e-45
-0.0062385267 -0.10795029 0.020995528 1.8439126e-40
-0.0044651004 -0.10869022 0.018075019 9.2194229e-41
-0.0026809117 -0.10946019 0.015035897 0
-0.00090471748 -0.10946019 0.015035897 0
0.00087147858 -0.10946019 0.015035897 9.219563e-41
0.0026476737 -0.10946019 0.015035897 2.7658689e-40
0.0044238688 -0.10946019 0.015035897 4.6097815e-40
0.006200064 -0.10946019 0.015035897 5.5317378e-40
0.0079762591 -0.10946019 0.015035897 2.7658969e-40
0.0097524552 -0.10946019 0.015035897 0
0.011528649 -0.10946019 0.015035897 2.8025969e-45
0.013304845 -0.10946019 0.015035897 0
0.01508104 -0.10946019 0.015035897 2.7658689e-40
0.016857237 -0.10946019 0.015035897 4.6097815e-40
0.018711161 -0.11023484 0.011978418 2.7658689e-40
0.020492718 -0.11023484 0.011978418 0
0.022274274 -0.11023484 0.011978418 9.219563e-41
0.024238817 -0.11174576 0.0060147345 9.219563e-41
0.026030827 -0.11174576 0.0060147345 9.2198432e-41
0.027925692 -0.11250792 0.0030064881 9.219563e-41
0.029722981 -0.11250792 0.0030064881 9.2198432e-41
0.031520266 -0.11250792 0.0030064881 9.2198432e-41
0.033317551 -0.11250792 0.0030064881 9.2198432e-41
0.03511484 -0.11250792 0.0030064881 9.2198432e-41
0.036912125 -0.11250792 0.0030064881 9.2198432e-41
0.038844701 -0.11327456 -1.9401312e-05 9.2198432e-41
0.040647294 -0.11327456 -1.9401312e-05 2.8025969e-45
0.042449884 -0.11327456 -1.9401312e-05 9.2198432e-41
0.044252478 -0.11327456 -1.9401312e-05 1.8439406e-40
0.046207063 -0.11401908 -0.0029580295 2.7658969e-40
0.048014808 -0.11401908 -0.0029580295 9.2198432e-41
0.049991637 -0.11479472 -0.0060194433 2.8025969e-45
0.0516303 -0.11401908 -0.0029580295 2.8025969e-45
0.053438041 -0.11401908 -0.0029580295 2.7658969e-40
0.055245787 -0.11401908 -0.0029580295 4.6098095e-40
0.057244085 -0.11479472 -0.0060194433 2.7658969e-40
0.059057198 -0.11479472 -0.0060194433 2.8025969e-45
0.061128855 -0.11579098 -0.0099516809 2.8025969e-45
0.06294886 -0.11579098 -0.0099516809 2.8025969e-45
0.064768866 -0.11579098 -0.0099516809 2.7658969e-40
0.066588871 -0.11579098 -0.0099516809 9.2198432e-41
0.068626858 -0.11654995 -0.01294741 2.8025969e-45
0.070452116 -0.11654995 -0.01294741 2.8025969e-45
0.072738327 -0.11808117 -0.018991083 2.8025969e-45
0.074574187 -0.11808117 -0.018991083 2.8025969e-45
0.076410033 -0.11808117 -0.018991083 2.8025969e-45
0.078485511 -0.11882581 -0.021930188 1.8439406e-40
0.08032652 -0.11882581 -0.021930188 2.7658969e-40
0.082167543 -0.11882581 -0.021930188 0
0.084008552 -0.11882581 -0.021930188 0
0.085849561 -0.11882581 -0.021930188 0
0.087690569 -0.11882581 -0.021930188 0
0.089531578 -0.11882581 -0.021930188 0
0.091372587 -0.11882581 -0.021930188 9.2198432e-41
0.093213595 -0.11882581 -0.021930188 9.2198432e-41
0.095054604 -0.11882581 -0.021930188 9.2198432e-41
0.096895613 -0.11882581 -0.021930188 9.2198432e-41
0.09914539 -0.11985306 -0.025984734 9.2198432e-41
0.10099351 -0.11985306 -0.025984734 9.2198432e-41
0.10315234 -0.12060766 -0.028963178 9.219563e-41
0.10500567 -0.12060766 -0.028963178 9.219563e-41
0.10685902 -0.12060766 -0.028963178 9.219563e-41
0.10871237 -0.12060766 -0.028963178 9.219563e-41
0.1108992 -0.12136655 -0.03195855 9.219563e-41
0.11275779 -0.12136655 -0.03195855 9.2198432e-41
0.11496233 -0.12212978 -0.034970969 2.8025969e-45
0.11682621 -0.12212978 -0.034970969 2.8025969e-45
0.11869008 -0.12212978 -0.034970969 1.8439406e-40
0.12055395 -0.12212978 -0.034970969 2.8025969e-45
0.12241783 -0.12212978 -0.034970969 5.2551537e-39
0.1242817 -0.12212978 -0.034970969 4.6097843e-39
-0.11554181 -0.12246101 -0.028963178 2.6733103e-39
-0.11338819 -0.12170117 -0.025984734 2.5789455e-39
-0.11084726 -0.11991702 -0.018991083 8.2021488e-39
-0.10842329 -0.11837523 -0.01294741 1.2533171e-38
-0.10593601 -0.11660783 -0.0060194433 1.6036597e-38
-0.10383574 -0.11582683 -0.0029580295 2.036907e-38
-0.10175749 -0.11507715 -1.9401312e-05 2.3509488e-38
-0.099139996 -0.11277486 0.009005338 2.3509143e-38
-0.096550159 -0.11046107 0.018075019 1.1245337e-38
-0.094265155 -0.10894983 0.023999006 5.8998071e-39
-0.091990001 -0.10740583 0.030051321 3.1343025e-39
-0.089994468 -0.10665329 0.033001095 3.2264953e-39
-0.087757222 -0.10511206 0.039042503 3.5952764e-39
-0.085623376 -0.10383381 0.044053167 3.687828e-39
-0.083429687 -0.10230236 0.050056249 3.8722165e-39
-0.081714891 -0.10230236 0.050056249 4.3339135e-39
-0.080000095 -0.10230236 0.050056249 1.1992593e-39
-0.078285299 -0.10230236 0.050056249 9.2267236e-40
-0.076570518 -0.10230236 0.050056249 4.6277321e-40
-0.074855722 -0.10230236 0.050056249 9.3990693e-41
-0.073140927 -0.10230236 0.050056249 1.1081426e-39
-0.071426131 -0.10230236 0.050056249 9.2339543e-40
-0.069711335 -0.10230236 0.050056249 5.5533458e-40
-0.067996554 -0.10230236 0.050056249 1.4447387e-42
-0.066281758 -0.10230236 0.050056249 3.2297323e-39
-0.064566962 -0.10230236 0.050056249 2.7676752e-39
-0.062852167 -0.10230236 0.050056249 2.0311877e-39
-0.061305273 -0.1030779 0.047016233 6.8271485e-39
-0.05958515 -0.1030779 0.047016233 1.2081944e-38
-0.058018286 -0.10383381 0.044053167 1.6321875e-38
-0.056441929 -0.10459428 0.04107216 1.576763e-38
-0.05471139 -0.10459428 0.04107216 1.0971668e-38
-0.052980844 -0.10459428 0.04107216 2.5223372e-44
-0.051341046 -0.10511206 0.039042503 1.6815582e-44
-0.049606938 -0.10511206 0.039042503 8.2869008e-40
-0.047789205 -0.10459428 0.04107216 2.7550649e-40
-0.046058659 -0.10459428 0.04107216 6.442834e-40
-0.044328116 -0.10459428 0.04107216 1.474393e-39
-0.04259757 -0.10459428 0.04107216 7.466753e-39
-0.040936418 -0.10511206 0.039042503 5.4388233e-39
-0.039202318 -0.10511206 0.039042503 3.5023689e-39
-0.037468214 -0.10511206 0.039042503 5.161547e-39
-0.035821233 -0.10588033 0.036030978 1.1246824e-38
-0.03416419 -0.10665329 0.033001095 9.7720473e-39
-0.032494489 -0.10740583 0.030051321 2.7697225e-40
-0.03074462 -0.10740583 0.030051321 1.9618179e-44
-0.029061962 -0.10818814 0.026984721 1.1070846e-39
-0.027306717 -0.10818814 0.026984721 9.328584e-41
-0.025551472 -0.10818814 0.026984721 7.272739e-43
-0.023796227 -0.10818814 0.026984721 2.7802883e-40
-0.022085477 -0.10894983 0.023999006 1.4349296e-42
-0.020324998 -0.10894983 0.023999006 1.4349296e-42
-0.018564519 -0.10894983 0.023999006 1.793662e-42
-0.016804039 -0.10894983 0.023999006 9.3990693e-41
-0.015043559 -0.10894983 0.023999006 1.7950633e-42
-0.013283079 -0.10894983 0.023999006 1.0818024e-42
-0.011522599 -0.10894983 0.023999006 3.61535e-43
-0.0097621204 -0.10894983 0.023999006 7.0064923e-45
-0.0080042733 -0.10971604 0.020995528 5.6051939e-45
-0.0062359674 -0.11046107 0.018075019 2.7658969e-40
-0.0044651004 -0.11046107 0.018075019 1.8439126e-40
-0.0026942333 -0.11046107 0.018075019 9.219563e-41
-0.00090471748 -0.11123641 0.015035897 0
0.00087147858 -0.11123641 0.015035897 0
0.0026476737 -0.11123641 0.015035897 9.219563e-41
0.0044238688 -0.11123641 0.015035897 1.8439126e-40
0.006200064 -0.11123641 0.015035897 2.7658689e-40
0.0079762591 -0.11123641 0.015035897 9.219563e-41
0.0097524552 -0.11123641 0.015035897 0
0.011528649 -0.11123641 0.015035897 0
0.013304845 -0.11123641 0.015035897 0
0.01508104 -0.11123641 0.015035897 1.8439126e-40
0.016857237 -0.11123641 0.015035897 2.7658689e-40
0.018711161 -0.11201639 0.011978418 9.219563e-41
0.020492718 -0.11201639 0.011978418 0
0.022360284 -0.11277486 0.009005338 9.2198432e-41
0.024238817 -0.11353777 0.0060147345 9.2198432e-41
0.026128408 -0.11430521 0.0030064881 9.2198432e-41
0.027925692 -0.11430521 0.0030064881 9.2198432e-41
0.029722981 -0.11430521 0.0030064881 9.2198432e-41
0.031520266 -0.11430521 0.0030064881 9.2198432e-41
0.033317551 -0.11430521 0.0030064881 9.2198432e-41
0.03511484 -0.11430521 0.0030064881 9.2198432e-41
0.036912125 -0.11430521 0.0030064881 9.2198432e-41
0.038844701 -0.11507715 -1.9401312e-05 9.2198432e-41
0.040647294 -0.11507715 -1.9401312e-05 2.8025969e-45
0.042449884 -0.11507715 -1.9401312e-05 9.2198432e-41
0.044252478 -0.11507715 -1.9401312e-05 1.8439406e-40
0.046207063 -0.11582683 -0.0029580295 2.7658969e-40
0.048014808 -0.11582683 -0.0029580295 9.2198432e-41
0.049991637 -0.11660783 -0.0060194433 2.8025969e-45
0.0516303 -0.11582683 -0.0029580295 9.2198432e-41
0.053438041 -0.11582683 -0.0029580295 2.7658969e-40
0.055430971 -0.11660783 -0.0060194433 3.6878532e-40
0.057244085 -0.11660783 -0.0060194433 2.7658969e-40
0.059308849 -0.11761098 -0.0099516809 2.8025969e-45
0.061128855 -0.11761098 -0.0099516809 2.8025969e-45
0.06294886 -0.11761098 -0.0099516809 2.8025969e-45
0.064768866 -0.11761098 -0.0099516809 1.8439406e-40
0.066588871 -0.11761098 -0.0099516809 1.8439406e-40
0.068626858 -0.11837523 -0.01294741 1.8439406e-40
0.070452116 -0.11837523 -0.01294741 9.2198432e-41
0.072507188 -0.11914389 -0.015960544 2.8025969e-45
0.074574187 -0.11991702 -0.018991083 2.8025969e-45
0.076410033 -0.11991702 -0.018991083 2.8025969e-45
0.078485511 -0.12066682 -0.021930188 2.8025969e-45
0.08032652 -0.12066682 -0.021930188 2.8025969e-45
0.082167543 -0.12066682 -0.021930188 0
0.084008552 -0.12066682 -0.021930188 0
0.085849561 -0.12066682 -0.021930188 9.219563e-41
0.087690569 -0.12066682 -0.021930188 1.8439126e-40
0.089531578 -0.12066682 -0.021930188 2.7658689e-40
0.091372587 -0.12066682 -0.021930188 2.7658689e-40
0.093213595 -0.12066682 -0.021930188 3.6878252e-40
0.095449142 -0.12170117 -0.025984734 3.6878252e-40
0.097297259 -0.12170117 -0.025984734 9.219563e-41
0.09914539 -0.12170117 -0.025984734 9.219563e-41
0.10099351 -0.12170117 -0.025984734 9.219563e-41
0.10315234 -0.12246101 -0.028963178 9.219563e-41
0.10500567 -0.12246101 -0.028963178 9.219563e-41
0.10685902 -0.12246101 -0.028963178 9.219563e-41
0.10871237 -0.12246101 -0.028963178 9.219563e-41
0.1108992 -0.12322514 -0.03195855 9.219563e-41
0.11275779 -0.12322514 -0.03195855 2.8025969e-45
0.11496233 -0.12399365 -0.034970969 2.8025969e-45
0.11682621 -0.12399365 -0.034970969 1.8439406e-40
0.11869008 -0.12399365 -0.034970969 5.5317658e-40
0.12055395 -0.12399365 -0.034970969 9.2198432e-41
0.12241783 -0.12399365 -0.034970969 5.2551537e-39
0.1242817 -0.12399365 -0.034970969 4.2410018e-39
-0.11482043 -0.12250783 -0.021930188 3.9640491e-39
-0.11268311 -0.12175287 -0.018991083 3.5009046e-39
-0.11054704 -0.12097444 -0.015960544 7.0954453e-39
-0.10842329 -0.12020047 -0.01294741 8.845349e-39
-0.10631178 -0.11943097 -0.0099516809 8.9371775e-39
-0.1041229 -0.11842094 -0.0060194433 1.5022089e-38
-0.10175749 -0.11687975 -1.9401312e-05 2.2121517e-38
-0.099410035 -0.11532979 0.0060147345 2.2030414e-38
-0.096550159 -0.11223195 0.018075019 1.2443881e-38
-0.094265155 -0.11071031 0.023999006 6.6373721e-39
-0.091990001 -0.10915567 0.030051321 2.9499112e-39
-0.089994468 -0.10839801 0.033001095 3.3186895e-39
-0.087757222 -0.10684617 0.039042503 3.7800236e-39
-0.085623376 -0.10555913 0.044053167 3.9644149e-39
-0.083429687 -0.10401715 0.050056249 4.0566077e-39
-0.081714891 -0.10401715 0.050056249 4.4253902e-39
-0.080000095 -0.10401715 0.050056249 1.1070636e-39
-0.078285299 -0.10401715 0.050056249 9.2267236e-40
-0.076570518 -0.10401715 0.050056249 9.2266956e-40
-0.074855722 -0.10401715 0.050056249 1.4758433e-39
-0.073140927 -0.10401715 0.050056249 1.5680418e-39
-0.071426131 -0.10401715 0.050056249 1.1070636e-39
-0.069711335 -0.10401715 0.050056249 3.5873241e-43
-0.067996554 -0.10401715 0.050056249 3.61535e-43
-0.066281758 -0.10401715 0.050056249 1.023552e-38
-0.064566962 -0.10401715 0.050056249 1.1157116e-38
-0.062852167 -0.10401715 0.050056249 1.0420267e-38
-0.061305273 -0.104798 0.047016233 1.0328422e-38
-0.05958515 -0.104798 0.047016233 1.733529e-38
-0.058018286 -0.10555913 0.044053167 2.0192648e-38
-0.05629297 -0.10555913 0.044053167 2.019158e-38
-0.05471139 -0.10632484 0.04107216 1.530486e-38
-0.052980844 -0.10632484 0.04107216 1.1982083e-39
-0.051341046 -0.10684617 0.039042503 1.6815582e-44
-0.049606938 -0.10684617 0.039042503 1.0130813e-39
-0.047789205 -0.10632484 0.04107216 1.2903731e-39
-0.046058659 -0.10632484 0.04107216 9.2194229e-41
-0.044328116 -0.10632484 0.04107216 1.290722e-39
-0.04259757 -0.10632484 0.04107216 1.1155657e-38
-0.040867027 -0.10632484 0.04107216 1.345912e-38
-0.039136481 -0.10632484 0.04107216 1.2813402e-38
-0.037468214 -0.10684617 0.039042503 1.189182e-38
-0.035821233 -0.10761972 0.036030978 1.3182205e-38
-0.03416419 -0.10839801 0.033001095 1.4474379e-38
-0.032419492 -0.10839801 0.033001095 2.7655312e-39
-0.03074462 -0.10915567 0.030051321 1.6815582e-44
-0.029061962 -0.10994337 0.026984721 1.5673397e-39
-0.027306717 -0.10994337 0.026984721 6.4573655e-40
-0.025551472 -0.10994337 0.026984721 5.6051939e-45
-0.023796227 -0.10994337 0.026984721 7.1886611e-43
-0.022085477 -0.11071031 0.023999006 1.8510732e-40
-0.020324998 -0.11071031 0.023999006 3.5873241e-43
-0.018564519 -0.11071031 0.023999006 9.2911693e-41
-0.016804039 -0.11071031 0.023999006 2.7730295e-40
-0.015043559 -0.11071031 0.023999006 9.2911693e-41
-0.013283079 -0.11071031 0.023999006 2.8025969e-45
-0.011522599 -0.11071031 0.023999006 2.8025969e-45
-0.0097621204 -0.11071031 0.023999006 7.0064923e-45
-0.0080042733 -0.11148177 0.020995528 3.657389e-43
-0.0062385267 -0.11148177 0.020995528 2.7658969e-40
-0.0044651004 -0.11223195 0.018075019 1.8439126e-40
-0.0026942333 -0.11223195 0.018075019 1.8439126e-40
-0.00090471748 -0.1130126 0.015035897 9.219563e-41
0.00087147858 -0.1130126 0.015035897 0
0.0026476737 -0.1130126 0.015035897 0
0.0044238688 -0.1130126 0.015035897 0
0.006200064 -0.1130126 0.015035897 0
0.0079762591 -0.1130126 0.015035897 0
0.0097524552 -0.1130126 0.015035897 0
0.011528649 -0.1130126 0.015035897 0
0.013304845 -0.1130126 0.015035897 0
0.01508104 -0.1130126 0.015035897 9.219563e-41
0.016857237 -0.1130126 0.015035897 9.219563e-41
0.018711161 -0.11379795 0.011978418 9.219563e-41
0.020573515 -0.11456163 0.009005338 9.219563e-41
0.022360284 -0.11456163 0.009005338 9.2198432e-41
0.024238817 -0.11532979 0.0060147345 9.2198432e-41
0.026030827 -0.11532979 0.0060147345 9.2198432e-41
0.027925692 -0.1161025 0.0030064881 9.2198432e-41
0.029722981 -0.1161025 0.0030064881 9.2198432e-41
0.031520266 -0.1161025 0.0030064881 9.2198432e-41
0.033317551 -0.1161025 0.0030064881 9.2198432e-41
0.03511484 -0.1161025 0.0030064881 9.2198432e-41
0.036912125 -0.1161025 0.0030064881 9.2198432e-41
0.038844701 -0.11687975 -1.9401312e-05 9.2198432e-41
0.040647294 -0.11687975 -1.9401312e-05 2.8025969e-45
0.042449884 -0.11687975 -1.9401312e-05 9.2198432e-41
0.044252478 -0.11687975 -1.9401312e-05 1.8439406e-40
0.046207063 -0.11763458 -0.0029580295 2.7658969e-40
0.048014808 -0.11763458 -0.0029580295 9.2198432e-41
0.049991637 -0.11842094 -0.0060194433 2.8025969e-45
0.051804747 -0.11842094 -0.0060194433 1.8439406e-40
0.053617861 -0.11842094 -0.0060194433 1.8439406e-40
0.055430971 -0.11842094 -0.0060194433 1.8439406e-40
0.057244085 -0.11842094 -0.0060194433 9.2198432e-41
0.059057198 -0.11842094 -0.0060194433 9.2198432e-41
0.061128855 -0.11943097 -0.0099516809 9.2198432e-41
0.06294886 -0.11943097 -0.0099516809 9.2198432e-41
0.064768866 -0.11943097 -0.0099516809 9.2198432e-41
0.066588871 -0.11943097 -0.0099516809 1.8439406e-40
0.068626858 -0.12020047 -0.01294741 1.8439406e-40
0.070452116 -0.12020047 -0.01294741 1.8439406e-40
0.072507188 -0.12097444 -0.015960544 1.8439406e-40
0.074574187 -0.12175287 -0.018991083 9.2198432e-41
0.076410033 -0.12175287 -0.018991083 2.8025969e-45
0.078245886 -0.12175287 -0.018991083 2.8025969e-45
0.080081753 -0.12175287 -0.018991083 2.8025969e-45
0.082167543 -0.12250783 -0.021930188 0
0.084008552 -0.12250783 -0.021930188 0
0.085849561 -0.12250783 -0.021930188 0
0.087690569 -0.12250783 -0.021930188 1.8439126e-40
0.089531578 -0.12250783 -0.021930188 2.7658689e-40
0.091372587 -0.12250783 -0.021930188 3.6878252e-40
0.093213595 -0.12250783 -0.021930188 4.6097815e-40
0.095054604 -0.12250783 -0.021930188 4.6097815e-40
0.097297259 -0.1235493 -0.025984734 9.219563e-41
0.09914539 -0.1235493 -0.025984734 9.219563e-41
0.10099351 -0.1235493 -0.025984734 9.219563e-41
0.10315234 -0.12431435 -0.028963178 9.219563e-41
0.10500567 -0.12431435 -0.028963178 9.219563e-41
0.10685902 -0.12431435 -0.028963178 9.219563e-41
0.10871237 -0.12431435 -0.028963178 9.219563e-41
0.1105657 -0.12431435 -0.028963178 9.219563e-41
0.11275779 -0.12508373 -0.03195855 2.8025969e-45
0.11496233 -0.12585752 -0.034970969 2.8025969e-45
0.11682621 -0.12585752 -0.034970969 1.8439406e-40
0.11869008 -0.12585752 -0.034970969 5.5317658e-40
0.12055395 -0.12585752 -0.034970969 1.8439406e-40
0.12241783 -0.12585752 -0.034970969 5.439545e-39
0.1242817 -0.12585752 -0.034970969 4.6097843e-39
-0.11482043 -0.12434883 -0.021930188 4.0558888e-39
-0.11268311 -0.12358873 -0.018991083 4.6990918e-39
-0.11054704 -0.12280498 -0.015960544 7.9252088e-39
-0.10842329 -0.12202574 -0.01294741 9.30633e-39
-0.10631178 -0.121251 -0.0099516809 8.4762036e-39
-0.10383574 -0.11944233 -0.0029580295 1.2256222e-38
-0.10175749 -0.11868234 -1.9401312e-05 1.6497586e-38
-0.099681668 -0.11789979 0.0030064881 1.585403e-38
-0.096550159 -0.11400281 0.018075019 1.1798155e-38
-0.094265155 -0.11247079 0.023999006 5.9920027e-39
-0.091990001 -0.11090554 0.030051321 1.9357593e-39
-0.089994468 -0.11014269 0.033001095 3.2264939e-39
-0.087757222 -0.10858028 0.039042503 3.5956296e-39
-0.085623376 -0.10728444 0.044053167 3.7800208e-39
-0.083429687 -0.10573195 0.050056249 3.9644093e-39
-0.081714891 -0.10573195 0.050056249 4.1488005e-39
-0.080000095 -0.10573195 0.050056249 7.3791817e-40
-0.078285299 -0.10573195 0.050056249 7.3791817e-40
-0.076570518 -0.10573195 0.050056249 8.3047393e-40
-0.074855722 -0.10573195 0.050056249 1.0145051e-39
-0.073140927 -0.10573195 0.050056249 5.5388704e-40
-0.071426131 -0.10573195 0.050056249 1.0141491e-39
-0.069711335 -0.10573195 0.050056249 7.1746481e-43
-0.067996554 -0.10573195 0.050056249 3.6950139e-40
-0.066281758 -0.10573195 0.050056249 1.7425337e-38
-0.064745523 -0.10651813 0.047016233 2.0652184e-38
-0.0630254 -0.10651813 0.047016233 2.1666689e-38
-0.061305273 -0.10651813 0.047016233 2.1851069e-38
-0.05958515 -0.10651813 0.047016233 2.3509876e-38
-0.058018286 -0.10728444 0.044053167 1.9914975e-38
-0.05629297 -0.10728444 0.044053167 2.0467441e-38
-0.054567654 -0.10728444 0.044053167 1.917635e-38
-0.052980844 -0.10805537 0.04107216 1.6871463e-38
-0.051250298 -0.10805537 0.04107216 1.770122e-38
-0.049606938 -0.10858028 0.039042503 1.963732e-38
-0.047789205 -0.10805537 0.04107216 2.0744014e-38
-0.046058659 -0.10805537 0.04107216 1.9730214e-38
-0.044328116 -0.10805537 0.04107216 1.9914239e-38
-0.04259757 -0.10805537 0.04107216 2.3509869e-38
-0.040867027 -0.10805537 0.04107216 2.2863071e-38
-0.039136481 -0.10805537 0.04107216 2.3508809e-38
-0.037405934 -0.10805537 0.04107216 2.2216284e-38
-0.035821233 -0.1093591 0.036030978 1.8067845e-38
-0.03416419 -0.11014269 0.033001095 1.2814492e-38
-0.032419492 -0.11014269 0.033001095 5.439559e-39
-0.03074462 -0.11090554 0.030051321 1.290034e-39
-0.029061962 -0.11169861 0.026984721 1.0145191e-39
-0.027306717 -0.11169861 0.026984721 1.474777e-39
-0.025551472 -0.11169861 0.026984721 9.2558566e-41
-0.023796227 -0.11169861 0.026984721 0
-0.022085477 -0.11247079 0.023999006 7.382783e-40
-0.020324998 -0.11247079 0.023999006 9.2552961e-41
-0.018564519 -0.11247079 0.023999006 9.2911693e-41
-0.016804039 -0.11247079 0.023999006 1.8438846e-40
-0.015043559 -0.11247079 0.023999006 3.5873241e-43
-0.013283079 -0.11247079 0.023999006 2.8025969e-45
-0.011522599 -0.11247079 0.023999006 2.8025969e-45
-0.0097621204 -0.11247079 0.023999006 9.1843904e-41
-0.0080042733 -0.11324753 0.020995528 3.6842939e-40
-0.0062385267 -0.11324753 0.020995528 9.2198432e-41
-0.0044651004 -0.11400281 0.018075019 9.219563e-41
-0.0026942333 -0.11400281 0.018075019 9.219563e-41
-0.00090471748 -0.11478879 0.015035897 9.219563e-41
0.00087147858 -0.11478879 0.015035897 9.219563e-41
0.0026476737 -0.11478879 0.015035897 0
0.0044238688 -0.11478879 0.015035897 0
0.006200064 -0.11478879 0.015035897 0
0.0080218259 -0.1155795 0.011978418 0
0.0098033817 -0.1155795 0.011978418 9.219563e-41
0.011584939 -0.1155795 0.011978418 1.8439126e-40
0.013366493 -0.1155795 0.011978418 1.8439126e-40
0.01514805 -0.1155795 0.011978418 9.219563e-41
0.016929604 -0.1155795 0.011978418 9.219563e-41
0.018786747 -0.1163484 0.009005338 1.8439126e-40
0.020573515 -0.1163484 0.009005338 2.7658689e-40
0.022360284 -0.1163484 0.009005338 9.2198432e-41
0.024238817 -0.1171218 0.0060147345 9.2198432e-41
0.026030827 -0.1171218 0.0060147345 9.2198432e-41
0.027925692 -0.11789979 0.0030064881 9.2198432e-41
0.029722981 -0.11789979 0.0030064881 9.2198432e-41
0.031520266 -0.11789979 0.0030064881 9.2198432e-41
0.033317551 -0.11789979 0.0030064881 9.2198432e-41
0.03511484 -0.11789979 0.0030064881 9.2198432e-41
0.036912125 -0.11789979 0.0030064881 9.2198432e-41
0.038709413 -0.11789979 0.0030064881 9.2198432e-41
0.040647294 -0.11868234 -1.9401312e-05 2.8025969e-45
0.042449884 -0.11868234 -1.9401312e-05 9.2198432e-41
0.044252478 -0.11868234 -1.9401312e-05 1.8439406e-40
0.046207063 -0.11944233 -0.0029580295 2.7658969e-40
0.048014808 -0.11944233 -0.0029580295 9.2198432e-41
0.049991637 -0.12023406 -0.0060194433 2.8025969e-45
0.051804747 -0.12023406 -0.0060194433 2.7658969e-40
0.053617861 -0.12023406 -0.0060194433 9.2198432e-41
0.055430971 -0.12023406 -0.0060194433 2.8025969e-45
0.057244085 -0.12023406 -0.0060194433 9.2198432e-41
0.059057198 -0.12023406 -0.0060194433 1.8439406e-40
0.061128855 -0.121251 -0.0099516809 1.8439406e-40
0.06294886 -0.121251 -0.0099516809 9.2198432e-41
0.064768866 -0.121251 -0.0099516809 2.8025969e-45
0.066588871 -0.121251 -0.0099516809 9.2198432e-41
0.068408884 -0.121251 -0.0099516809 9.2198432e-41
0.070452116 -0.12202574 -0.01294741 1.8439406e-40
0.072507188 -0.12280498 -0.015960544 1.8439406e-40
0.074574187 -0.12358873 -0.018991083 9.2198432e-41
0.076410033 -0.12358873 -0.018991083 2.8025969e-45
0.078245886 -0.12358873 -0.018991083 2.8025969e-45
0.080081753 -0.12358873 -0.018991083 2.8025969e-45
0.081917606 -0.12358873 -0.018991083 0
0.084008552 -0.12434883 -0.021930188 0
0.085849561 -0.12434883 -0.021930188 0
0.087425165 -0.12358873 -0.018991083 0
0.089261033 -0.12358873 -0.018991083 9.219563e-41
0.091096886 -0.12358873 -0.018991083 9.219563e-41
0.092932738 -0.12358873 -0.018991083 1.8439126e-40
0.095054604 -0.12434883 -0.021930188 1.8439126e-40
0.097297259 -0.1253974 -0.025984734 9.219563e-41
0.09914539 -0.1253974 -0.025984734 9.219563e-41
0.10099351 -0.1253974 -0.025984734 9.219563e-41
0.10284162 -0.1253974 -0.025984734 9.219563e-41
0.10468974 -0.1253974 -0.025984734 9.219563e-41
0.10685902 -0.12616767 -0.028963178 9.219563e-41
0.10871237 -0.12616767 -0.028963178 9.219563e-41
0.1105657 -0.12616767 -0.028963178 9.219563e-41
0.11275779 -0.12694232 -0.03195855 1.8439406e-40
0.11496233 -0.12772138 -0.034970969 2.8025969e-45
0.11682621 -0.12772138 -0.034970969 2.8025969e-45
0.11869008 -0.12772138 -0.034970969 1.8439406e-40
0.1198324 -0.12616767 -0.028963178 2.8025969e-45
0.12168574 -0.12616767 -0.028963178 5.8083275e-39
0.12390933 -0.12694232 -0.03195855 5.5317406e-39
0.12576793 -0.12694232 -0.03195855 6.3615013e-39
-0.11584904 -0.12880091 -0.03195855 4.0558888e-39
-0.11297942 -0.12618984 -0.021930188 4.1469985e-39
-0.11054704 -0.12463553 -0.015960544 5.9894621e-39
-0.10813177 -0.123071 -0.0099516809 7.7397287e-39
-0.10593601 -0.12204717 -0.0060194433 9.0297431e-39
-0.10327625 -0.11969708 0.0030064881 1.1426827e-38
-0.10147896 -0.11969708 0.0030064881 1.2718291e-38
-0.099139996 -0.11813517 0.009005338 1.1797425e-38
-0.096550159 -0.11577369 0.018075019 9.3088747e-39
-0.094265155 -0.11423124 0.023999006 3.7793076e-39
-0.091990001 -0.11265542 0.030051321 1.7513652e-39
-0.089994468 -0.11188738 0.033001095 3.1346542e-39
-0.087757222 -0.11031438 0.039042503 3.4112383e-39
-0.085623376 -0.10900976 0.044053167 3.6878252e-39
-0.083666883 -0.10823826 0.047016233 3.9644093e-39
-0.081714891 -0.10744675 0.050056249 4.0566049e-39
-0.080000095 -0.10744675 0.050056249 4.6133128e-40
-0.078285299 -0.10744675 0.050056249 3.6913565e-40
-0.076570518 -0.10744675 0.050056249 6.4572113e-40
-0.074855722 -0.10744675 0.050056249 3.6841818e-40
-0.073140927 -0.10744675 0.050056249 3.5873241e-43
-0.071426131 -0.10744675 0.050056249 1.2903731e-39
-0.069711335 -0.10744675 0.050056249 3.6841958e-40
-0.067996554 -0.10744675 0.050056249 9.1835496e-41
-0.066281758 -0.10744675 0.050056249 1.7885233e-38
-0.064745523 -0.10823826 0.047016233 2.1573059e-38
-0.0630254 -0.10823826 0.047016233 2.3509518e-38
-0.061305273 -0.10823826 0.047016233 2.0465972e-38
-0.05958515 -0.10823826 0.047016233 2.0650364e-38
-0.058018286 -0.10900976 0.044053167 2.1480494e-38
-0.05629297 -0.10900976 0.044053167 2.3509527e-38
-0.054567654 -0.10900976 0.044053167 2.2771614e-38
-0.052980844 -0.10978593 0.04107216 2.3417333e-38
-0.051250298 -0.10978593 0.04107216 2.1942577e-38
-0.049519751 -0.10978593 0.04107216 2.2126962e-38
-0.047789205 -0.10978593 0.04107216 2.1943279e-38
-0.046058659 -0.10978593 0.04107216 2.2496801e-38
-0.044328116 -0.10978593 0.04107216 2.304961e-38
-0.04259757 -0.10978593 0.04107216 2.3417673e-38
-0.040936418 -0.11031438 0.039042503 2.1111709e-38
-0.039136481 -0.10978593 0.04107216 2.2862711e-38
-0.037405934 -0.10978593 0.04107216 2.3506295e-38
-0.035821233 -0.11109848 0.036030978 1.9265298e-38
-0.03416419 -0.11188738 0.033001095 1.3827198e-38
-0.032419492 -0.11188738 0.033001095 6.4533452e-39
-0.03074462 -0.11265542 0.030051321 1.6584507e-39
-0.02899475 -0.11265542 0.030051321 4.6098095e-40
-0.027306717 -0.11345388 0.026984721 1.1056287e-39
-0.025551472 -0.11345388 0.026984721 9.219535e-40
-0.023796227 -0.11345388 0.026984721 1.8402972e-40
-0.022085477 -0.11423124 0.023999006 1.1066993e-39
-0.020324998 -0.11423124 0.023999006 4.6061241e-40
-0.018564519 -0.11423124 0.023999006 1.8474719e-40
-0.016804039 -0.11423124 0.023999006 9.1835496e-41
-0.015043559 -0.11423124 0.023999006 0
-0.013283079 -0.11423124 0.023999006 2.7587083e-40
-0.011522599 -0.11423124 0.023999006 4.6098095e-40
-0.0097621204 -0.11423124 0.023999006 6.4429882e-40
-0.0080042733 -0.11501329 0.020995528 5.5282065e-40
-0.0062359674 -0.11577369 0.018075019 2.8025969e-45
-0.0044651004 -0.11577369 0.018075019 0
-0.0026942333 -0.11577369 0.018075019 9.219563e-41
-0.00090471748 -0.11656497 0.015035897 9.219563e-41
0.00087147858 -0.11656497 0.015035897 9.219563e-41
0.0026476737 -0.11656497 0.015035897 9.219563e-41
0.0044238688 -0.11656497 0.015035897 0
0.006200064 -0.11656497 0.015035897 0
0.0080218259 -0.11736105 0.011978418 0
0.0098033817 -0.11736105 0.011978418 0
0.011584939 -0.11736105 0.011978418 1.8439126e-40
0.013366493 -0.11736105 0.011978418 9.219563e-41
0.01514805 -0.11736105 0.011978418 0
0.016929604 -0.11736105 0.011978418 0
0.018786747 -0.11813517 0.009005338 9.219563e-41
0.020573515 -0.11813517 0.009005338 1.8439126e-40
0.022360284 -0.11813517 0.009005338 2.8025969e-45
0.024238817 -0.11891381 0.0060147345 2.8025969e-45
0.026030827 -0.11891381 0.0060147345 2.8025969e-45
0.027925692 -0.11969708 0.0030064881 2.8025969e-45
0.029722981 -0.11969708 0.0030064881 2.8025969e-45
0.031520266 -0.11969708 0.0030064881 2.8025969e-45
0.033317551 -0.11969708 0.0030064881 2.8025969e-45
0.03511484 -0.11969708 0.0030064881 2.8025969e-45
0.036912125 -0.11969708 0.0030064881 9.2198432e-41
0.038709413 -0.11969708 0.0030064881 9.2198432e-41
0.040647294 -0.12048493 -1.9401312e-05 2.8025969e-45
0.042449884 -0.12048493 -1.9401312e-05 9.2198432e-41
0.044252478 -0.12048493 -1.9401312e-05 1.8439406e-40
0.046207063 -0.12125005 -0.0029580295 2.7658969e-40
0.048014808 -0.12125005 -0.0029580295 9.2198432e-41
0.049991637 -0.12204717 -0.0060194433 2.8025969e-45
0.051804747 -0.12204717 -0.0060194433 1.8439406e-40
0.053617861 -0.12204717 -0.0060194433 9.2198432e-41
0.055668831 -0.123071 -0.0099516809 2.8025969e-45
0.057488844 -0.123071 -0.0099516809 9.2198432e-41
0.059308849 -0.123071 -0.0099516809 1.8439406e-40
0.061128855 -0.123071 -0.0099516809 2.7658969e-40
0.06294886 -0.123071 -0.0099516809 1.8439406e-40
0.064768866 -0.123071 -0.0099516809 2.8025969e-45
0.066588871 -0.123071 -0.0099516809 2.8025969e-45
0.068408884 -0.123071 -0.0099516809 2.8025969e-45
0.070452116 -0.12385099 -0.01294741 9.2198432e-41
0.072507188 -0.12463553 -0.015960544 1.8439406e-40
0.074574187 -0.12542458 -0.018991083 1.8439406e-40
0.076410033 -0.12542458 -0.018991083 9.2198432e-41
0.078245886 -0.12542458 -0.018991083 2.8025969e-45
0.080081753 -0.12542458 -0.018991083 2.8025969e-45
0.081917606 -0.12542458 -0.018991083 9.219563e-41
0.084008552 -0.12618984 -0.021930188 9.219563e-41
0.085849561 -0.12618984 -0.021930188 9.219563e-41
0.087425165 -0.12542458 -0.018991083 0
0.089261033 -0.12542458 -0.018991083 0
0.091096886 -0.12542458 -0.018991083 0
0.092932738 -0.12542458 -0.018991083 0
0.095054604 -0.12618984 -0.021930188 0
0.096895613 -0.12618984 -0.021930188 9.219563e-41
0.098736621 -0.12618984 -0.021930188 9.219563e-41
0.10099351 -0.12724553 -0.025984734 9.219563e-41
0.10284162 -0.12724553 -0.025984734 9.219563e-41
0.10468974 -0.12724553 -0.025984734 9.219563e-41
0.10653786 -0.12724553 -0.025984734 9.219563e-41
0.10838597 -0.12724553 -0.025984734 9.219563e-41
0.1105657 -0.12802102 -0.028963178 9.219563e-41
0.11275779 -0.12880091 -0.03195855 2.7658969e-40
0.11496233 -0.12958528 -0.034970969 2.8025969e-45
0.11682621 -0.12958528 -0.034970969 2.8025969e-45
0.11869008 -0.12958528 -0.034970969 9.2198432e-41
0.11898772 -0.12618984 -0.021930188 2.8025969e-45
0.12082873 -0.12618984 -0.021930188 5.9005231e-39
0.12317092 -0.12724553 -0.025984734 5.9005231e-39
0.12539242 -0.12802102 -0.028963178 6.8224794e-39
0.12724577 -0.12802102 -0.028963178 6.9146722e-39
-0.12218564 -0.13250901 -0.03901431 8.9433278e-39
-0.11988578 -0.13144915 -0.034970969 3.8722137e-39
-0.1180219 -0.13144915 -0.034970969 3.8722193e-39
-0.11554181 -0.12987436 -0.028963178 4.7012611e-39
-0.11297942 -0.12803085 -0.021930188 4.2388382e-39
-0.11054704 -0.12646608 -0.015960544 4.6065333e-39
-0.10813177 -0.124891 -0.0099516809 4.4210518e-39
-0.10593601 -0.12386028 -0.0060194433 6.0791284e-39
-0.10327625 -0.12149437 0.0030064881 8.3840192e-39
-0.10120205 -0.12070583 0.0060147345 1.096622e-38
-0.099139996 -0.11992194 0.009005338 1.2073658e-38
-0.096550159 -0.11754455 0.018075019 9.0322879e-39
-0.094265155 -0.11599173 0.023999006 3.5027207e-39
-0.091990001 -0.11440529 0.030051321 2.3967332e-39
-0.090240143 -0.11440529 0.030051321 3.2268498e-39
-0.088002749 -0.11283787 0.036030978 3.3190399e-39
-0.085861199 -0.11151646 0.04107216 3.5956268e-39
-0.083666883 -0.1099584 0.047016233 4.0569608e-39
-0.081714891 -0.10916151 0.050056249 4.3335477e-39
-0.080000095 -0.10916151 0.050056249 5.5352691e-40
-0.078285299 -0.10916151 0.050056249 2.7622395e-40
-0.076570518 -0.10916151 0.050056249 5.5280664e-40
-0.074855722 -0.10916151 0.050056249 5.5280664e-40
-0.073140927 -0.10916151 0.050056249 7.3647763e-40
-0.071426131 -0.10916151 0.050056249 1.6584339e-39
-0.069711335 -0.10916151 0.050056249 4.5953621e-40
-0.067996554 -0.10916151 0.050056249 2.7550649e-40
-0.066281758 -0.10916151 0.050056249 1.7054387e-38
-0.064745523 -0.1099584 0.047016233 2.120319e-38
-0.0630254 -0.1099584 0.047016233 2.3507716e-38
-0.061468925 -0.11073507 0.044053167 2.1201733e-38
-0.059743602 -0.11073507 0.044053167 1.9542209e-38
-0.058172476 -0.11151646 0.04107216 2.3230048e-38
-0.056441929 -0.11151646 0.04107216 2.3509165e-38
-0.05471139 -0.11151646 0.04107216 2.3416615e-38
-0.052980844 -0.11151646 0.04107216 2.3232585e-38
-0.051250298 -0.11151646 0.04107216 2.2773049e-38
-0.049519751 -0.11151646 0.04107216 2.3234379e-38
-0.047789205 -0.11151646 0.04107216 2.3234379e-38
-0.04613873 -0.11204849 0.039042503 2.2774111e-38
-0.044404626 -0.11204849 0.039042503 2.2865581e-38
-0.042670522 -0.11204849 0.039042503 2.350987e-38
-0.040936418 -0.11204849 0.039042503 2.3324041e-38
-0.039136481 -0.11151646 0.04107216 2.3415161e-38
-0.037405934 -0.11151646 0.04107216 2.3505924e-38
-0.035821233 -0.11283787 0.036030978 2.0094691e-38
-0.03416419 -0.11363207 0.033001095 1.8621362e-38
-0.032419492 -0.11363207 0.033001095 6.3607852e-39
-0.030674797 -0.11363207 0.033001095 1.1056315e-39
-0.02899475 -0.11440529 0.030051321 1.1978243e-39
-0.027244885 -0.11440529 0.030051321 3.6841958e-40
-0.025495015 -0.11440529 0.030051321 1.2903731e-39
-0.023796227 -0.11520912 0.026984721 1.6591542e-39
-0.022040982 -0.11520912 0.026984721 4.6061241e-40
-0.020324998 -0.11599173 0.023999006 6.4500227e-40
-0.018564519 -0.11599173 0.023999006 2.7622395e-40
-0.016804039 -0.11599173 0.023999006 9.1835496e-41
-0.015043559 -0.11599173 0.023999006 9.1835496e-41
-0.013283079 -0.11599173 0.023999006 4.6026209e-40
-0.011522599 -0.11599173 0.023999006 8.2904461e-40
-0.0097621204 -0.11599173 0.023999006 8.2869008e-40
-0.0080042733 -0.11677901 0.020995528 6.4465615e-40
-0.0062385267 -0.11677901 0.020995528 9.2198432e-41
-0.0044651004 -0.11754455 0.018075019 9.219563e-41
-0.0026942333 -0.11754455 0.018075019 9.219563e-41
-0.00092336629 -0.11754455 0.018075019 9.219563e-41
0.00084749982 -0.11754455 0.018075019 9.219563e-41
0.0026476737 -0.11834116 0.015035897 9.219563e-41
0.0044238688 -0.11834116 0.015035897 9.219563e-41
0.006200064 -0.11834116 0.015035897 9.219563e-41
0.0080218259 -0.11914261 0.011978418 0
0.0098033817 -0.11914261 0.011978418 0
0.011584939 -0.11914261 0.011978418 0
0.013366493 -0.11914261 0.011978418 0
0.01514805 -0.11914261 0.011978418 0
0.016929604 -0.11914261 0.011978418 0
0.018786747 -0.11992194 0.009005338 0
0.020573515 -0.11992194 0.009005338 0
0.022360284 -0.11992194 0.009005338 2.8025969e-45
0.024238817 -0.12070583 0.0060147345 2.8025969e-45
0.026030827 -0.12070583 0.0060147345 2.8025969e-45
0.027925692 -0.12149437 0.0030064881 2.8025969e-45
0.029614855 -0.12070583 0.0060147345 2.8025969e-45
0.031406865 -0.12070583 0.0060147345 2.8025969e-45
0.033198878 -0.12070583 0.0060147345 2.8025969e-45
0.034990888 -0.12070583 0.0060147345 2.8025969e-45
0.036912125 -0.12149437 0.0030064881 9.2198432e-41
0.038709413 -0.12149437 0.0030064881 9.2198432e-41
0.040506698 -0.12149437 0.0030064881 2.8025969e-45
0.042449884 -0.12228753 -1.9401312e-05 9.2198432e-41
0.044252478 -0.12228753 -1.9401312e-05 1.8439406e-40
0.046055067 -0.12228753 -1.9401312e-05 2.7658969e-40
0.048014808 -0.1230578 -0.0029580295 9.2198432e-41
0.049991637 -0.12386028 -0.0060194433 2.8025969e-45
0.051804747 -0.12386028 -0.0060194433 2.8025969e-45
0.053617861 -0.12386028 -0.0060194433 9.2198432e-41
0.055668831 -0.124891 -0.0099516809 9.2198432e-41
0.057488844 -0.124891 -0.0099516809 9.2198432e-41
0.059308849 -0.124891 -0.0099516809 9.2198432e-41
0.061128855 -0.124891 -0.0099516809 1.8439406e-40
0.06294886 -0.124891 -0.0099516809 1.8439406e-40
0.064768866 -0.124891 -0.0099516809 1.8439406e-40
0.066588871 -0.124891 -0.0099516809 2.8025969e-45
0.068408884 -0.124891 -0.0099516809 2.8025969e-45
0.07022889 -0.124891 -0.0099516809 2.8025969e-45
0.072507188 -0.12646608 -0.015960544 9.2198432e-41
0.074337736 -0.12646608 -0.015960544 9.2198432e-41
0.076168276 -0.12646608 -0.015960544 9.2198432e-41
0.078245886 -0.12726043 -0.018991083 9.2198432e-41
0.080081753 -0.12726043 -0.018991083 9.2198432e-41
0.081917606 -0.12726043 -0.018991083 3.6878252e-40
0.084008552 -0.12803085 -0.021930188 3.6878252e-40
0.085849561 -0.12803085 -0.021930188 2.7658689e-40
0.087425165 -0.12726043 -0.018991083 1.8439126e-40
0.089261033 -0.12726043 -0.018991083 1.8439126e-40
0.091096886 -0.12726043 -0.018991083 9.219563e-41
0.092932738 -0.12726043 -0.018991083 9.219563e-41
0.095054604 -0.12803085 -0.021930188 0
0.096895613 -0.12803085 -0.021930188 9.219563e-41
0.098736621 -0.12803085 -0.021930188 9.219563e-41
0.10099351 -0.12909363 -0.025984734 9.219563e-41
0.10284162 -0.12909363 -0.025984734 9.219563e-41
0.10468974 -0.12909363 -0.025984734 9.219563e-41
0.10653786 -0.12909363 -0.025984734 9.219563e-41
0.10838597 -0.12909363 -0.025984734 9.219563e-41
0.11023409 -0.12909363 -0.025984734 9.219563e-41
