# .PCD v0.7 - Point Cloud Data file format
VERSION 0.7
FIELDS x y z rgb
SIZE 4 4 4 4
TYPE F F F F
COUNT 1 1 1 1
WIDTH 923
HEIGHT 1
VIEWPOINT 0 0 0 1 0 0 0
POINTS 923
DATA ascii
0.045040794 -0.092291236 -0.14604561 2.2958854e-38
0.0018942542 -0.087534383 -0.11504905 2.8740632e-42
0.0037949374 -0.087534383 -0.11504905 1.0512457e-38
0.0056956206 -0.087534383 -0.11504905 2.2497173e-38
0.0075963037 -0.087534383 -0.11504905 2.341805e-38
0.0094969869 -0.087534383 -0.11504905 2.3509886e-38
0.01139767 -0.087534383 -0.11504905 2.2587932e-38
0.013298353 -0.087534383 -0.11504905 2.3509527e-38
0.015249567 -0.088191271 -0.11808269 2.3509527e-38
0.017155569 -0.088191271 -0.11808269 2.3509527e-38
0.019120708 -0.088826358 -0.12101559 2.3509527e-38
0.021119835 -0.089695618 -0.12502997 2.3509883e-38
0.023111153 -0.090364665 -0.12811975 2.350988e-38
0.025034754 -0.090364665 -0.12811975 2.350988e-38
0.027065614 -0.091219291 -0.13206653 2.3509527e-38
0.028996136 -0.091219291 -0.13206653 2.3509168e-38
0.031048633 -0.092080101 -0.13604192 2.3508809e-38
0.032986127 -0.092080101 -0.13604192 2.3509168e-38
0.035027239 -0.092736378 -0.1390727 2.3509527e-38
0.036970042 -0.092736378 -0.1390727 2.350988e-38
0.039064627 -0.093608215 -0.143099 2.3509876e-38
0.041014489 -0.093608215 -0.143099 2.350987e-38
0.042964354 -0.093608215 -0.143099 2.3418035e-38
0.0018942542 -0.089435071 -0.11504905 1.7553071e-39
0.0037949374 -0.089435071 -0.11504905 1.0696848e-38
0.0056645218 -0.088574663 -0.11110751 2.2589368e-38
0.0075582946 -0.088574663 -0.11110751 2.341805e-38
0.0094969869 -0.089435071 -0.11504905 2.3509886e-38
0.011345839 -0.088574663 -0.11110751 2.3509886e-38
0.013239611 -0.088574663 -0.11110751 2.3509527e-38
0.015199037 -0.089435071 -0.11504905 2.3509527e-38
0.017099719 -0.089435071 -0.11504905 2.3509527e-38
0.019061571 -0.090097278 -0.11808269 2.3509527e-38
0.021119835 -0.091613799 -0.12502997 2.3509883e-38
0.023111153 -0.092288271 -0.12811975 2.350988e-38
0.025034754 -0.092288271 -0.12811975 2.350988e-38
0.026958356 -0.092288271 -0.12811975 2.350988e-38
0.028996136 -0.093149811 -0.13206653 2.3509527e-38
0.030926656 -0.093149811 -0.13206653 2.3509527e-38
0.030002158 -0.073936298 -0.044048235 2.3509527e-38
0.03177835 -0.073936298 -0.044048235 2.3509883e-38
0.033554547 -0.073936298 -0.044048235 2.350988e-38
0.035330743 -0.073936298 -0.044048235 2.3509879e-38
0.037227556 -0.074603721 -0.047105715 2.3509879e-38
0.0018942542 -0.091335744 -0.11504905 1.1711356e-38
0.0037949374 -0.091335744 -0.11504905 1.5951636e-38
0.0056645218 -0.090468436 -0.11110751 2.3049624e-38
0.0075582946 -0.090468436 -0.11110751 2.341805e-38
0.0094520664 -0.090468436 -0.11110751 2.304891e-38
0.011345839 -0.090468436 -0.11110751 2.3325497e-38
0.013239611 -0.090468436 -0.11110751 2.3509527e-38
0.015199037 -0.091335744 -0.11504905 2.3509527e-38
0.017099719 -0.091335744 -0.11504905 2.3509527e-38
0.019061571 -0.092003286 -0.11808269 2.3509883e-38
0.021031853 -0.09264864 -0.12101559 2.350988e-38
0.023038018 -0.093531981 -0.12502997 2.3418045e-38
0.022820111 -0.075043753 -0.041009113 2.3418043e-38
0.024590978 -0.075043753 -0.041009113 2.3418043e-38
0.026361845 -0.075043753 -0.041009113 2.350988e-38
0.028132711 -0.075043753 -0.041009113 2.350988e-38
0.030002158 -0.075712487 -0.044048235 2.350988e-38
0.03177835 -0.075712487 -0.044048235 2.350988e-38
0.033554547 -0.075712487 -0.044048235 2.3509883e-38
0.035330743 -0.075712487 -0.044048235 2.3509883e-38
0.037227556 -0.076385275 -0.047105715 2.3509886e-38
0.0018942542 -0.093236431 -0.11504905 1.3370159e-38
0.0037949374 -0.093236431 -0.11504905 1.8809701e-38
0.0056645218 -0.09236221 -0.11110751 2.2773037e-38
0.0075582946 -0.09236221 -0.11110751 2.3418047e-38
0.0094520664 -0.09236221 -0.11110751 2.3509886e-38
0.011345839 -0.09236221 -0.11110751 2.3509527e-38
0.013239611 -0.09236221 -0.11110751 2.3509527e-38
0.015199037 -0.093236431 -0.11504905 2.3509527e-38
0.017099719 -0.093236431 -0.11504905 2.3509886e-38
0.019000404 -0.093236431 -0.11504905 2.3509883e-38
0.019344985 -0.077488691 -0.044048235 2.350988e-38
0.021049244 -0.076814622 -0.041009113 2.3418045e-38
0.022820111 -0.076814622 -0.041009113 2.3418043e-38
0.024590978 -0.076814622 -0.041009113 2.341804e-38
0.026361845 -0.076814622 -0.041009113 2.350987e-38
0.028132711 -0.076814622 -0.041009113 2.350987e-38
0.030002158 -0.077488691 -0.044048235 2.3509876e-38
0.03177835 -0.077488691 -0.044048235 2.350988e-38
0.033554547 -0.077488691 -0.044048235 2.3509527e-38
0.035445999 -0.078166828 -0.047105715 2.3509527e-38
0.037227556 -0.078166828 -0.047105715 2.3509168e-38
0.0018942542 -0.095137119 -0.11504905 1.4199919e-38
0.0037949374 -0.095137119 -0.11504905 2.1851078e-38
0.0056645218 -0.094255984 -0.11110751 2.332621e-38
0.0075582946 -0.094255984 -0.11110751 2.3509883e-38
0.0094520664 -0.094255984 -0.11110751 2.3141103e-38
0.011345839 -0.094255984 -0.11110751 2.3509527e-38
0.013239611 -0.094255984 -0.11110751 2.3509527e-38
0.015133385 -0.094255984 -0.11110751 2.3509527e-38
0.015682878 -0.077932611 -0.038088605 2.3509883e-38
0.017448625 -0.077932611 -0.038088605 2.3509883e-38
0.019214371 -0.077932611 -0.038088605 2.3418047e-38
0.021049244 -0.078585491 -0.041009113 2.3418045e-38
0.022820111 -0.078585491 -0.041009113 2.3418045e-38
0.024590978 -0.078585491 -0.041009113 2.341804e-38
0.026361845 -0.078585491 -0.041009113 2.350987e-38
0.028132711 -0.078585491 -0.041009113 2.350987e-38
0.030002158 -0.079264879 -0.044048235 2.3509876e-38
0.03177835 -0.079264879 -0.044048235 2.350988e-38
0.033554547 -0.079264879 -0.044048235 2.3509527e-38
0.035445999 -0.079948381 -0.047105715 2.3509527e-38
0.037227556 -0.079948381 -0.047105715 2.3509168e-38
0.0037949374 -0.097037792 -0.11504905 2.1205348e-38
0.0056645218 -0.096149758 -0.11110751 2.350988e-38
0.0075582946 -0.096149758 -0.11110751 2.350988e-38
0.0094520664 -0.096149758 -0.11110751 2.31411e-38
0.011345839 -0.096149758 -0.11110751 2.3509883e-38
0.012016425 -0.077658057 -0.029032812 2.3509883e-38
0.013766292 -0.077658057 -0.029032812 2.3509883e-38
0.015572617 -0.078348964 -0.032099411 2.3509886e-38
0.017388064 -0.079021662 -0.035085127 2.3509886e-38
0.019214371 -0.079698354 -0.038088605 2.3509886e-38
0.020980116 -0.079698354 -0.038088605 2.3509883e-38
0.022745863 -0.079698354 -0.038088605 2.3509883e-38
0.024511609 -0.079698354 -0.038088605 2.3418045e-38
0.026277354 -0.079698354 -0.038088605 2.3509879e-38
0.027950944 -0.079021662 -0.035085127 2.3418043e-38
0.029614575 -0.078348964 -0.032099411 2.350988e-38
0.031264976 -0.077658057 -0.029032812 2.3509883e-38
0.033014841 -0.077658057 -0.029032812 2.3509883e-38
0.035216179 -0.080356359 -0.041009113 2.3509886e-38
0.037227556 -0.081729934 -0.047105715 2.3509886e-38
0.0050411476 -0.080104217 -0.032099411 2.350988e-38
0.0067963926 -0.080104217 -0.032099411 2.350988e-38
0.0085516376 -0.080104217 -0.032099411 2.2956709e-38
0.010266557 -0.079407915 -0.029032812 2.2956709e-38
0.012016425 -0.079407915 -0.029032812 2.3509883e-38
0.013766292 -0.079407915 -0.029032812 2.3509883e-38
0.015572617 -0.080104217 -0.032099411 2.3509886e-38
0.017388064 -0.080782145 -0.035085127 2.3509886e-38
0.019148543 -0.080782145 -0.035085127 2.3509886e-38
0.020909024 -0.080782145 -0.035085127 2.3509886e-38
0.022669503 -0.080782145 -0.035085127 2.3509886e-38
0.024429984 -0.080782145 -0.035085127 2.3509886e-38
0.026190463 -0.080782145 -0.035085127 2.3418047e-38
0.027859332 -0.080104217 -0.032099411 2.3418045e-38
0.029419426 -0.078738153 -0.026083037 2.3418047e-38
0.031060532 -0.078050196 -0.023053154 2.3418047e-38
0.032799914 -0.078050196 -0.023053154 2.3509883e-38
0.034425773 -0.077366412 -0.02004163 2.3509883e-38
0.036159877 -0.077366412 -0.02004163 2.3509886e-38
0.039285559 -0.075555921 -0.012067899 2.3509886e-38
0.041005682 -0.075555921 -0.012067899 2.3509886e-38
0.042725805 -0.075555921 -0.012067899 2.3509886e-38
0.0050411476 -0.081859455 -0.032099411 2.3325492e-38
0.0067963926 -0.081859455 -0.032099411 2.3509883e-38
0.0085516376 -0.081859455 -0.032099411 2.3509883e-38
0.010266557 -0.081157789 -0.029032812 2.3509883e-38
0.012016425 -0.081157789 -0.029032812 2.3509886e-38
0.013766292 -0.081157789 -0.029032812 2.3509886e-38
0.015572617 -0.081859455 -0.032099411 2.3509886e-38
0.017388064 -0.082542613 -0.035085127 2.3509886e-38
0.019148543 -0.082542613 -0.035085127 2.3509886e-38
0.020838352 -0.081859455 -0.032099411 2.3509886e-38
0.022593597 -0.081859455 -0.032099411 2.3509886e-38
0.024348842 -0.081859455 -0.032099411 2.3509886e-38
0.026104087 -0.081859455 -0.032099411 2.3509883e-38
0.027765239 -0.081157789 -0.029032812 2.3509883e-38
0.029321145 -0.079789579 -0.023053154 2.3509886e-38
0.030957565 -0.079100519 -0.02004163 2.3509886e-38
0.032691669 -0.079100519 -0.02004163 2.3509886e-38
0.034236889 -0.077954024 -0.015030965 2.3509886e-38
0.035962205 -0.077954024 -0.015030965 2.3509886e-38
0.037687525 -0.077954024 -0.015030965 2.3509886e-38
0.039412841 -0.077954024 -0.015030965 2.3509886e-38
0.041005682 -0.077276051 -0.012067899 2.3509886e-38
0.042725805 -0.077276051 -0.012067899 2.3509886e-38
0.044588797 -0.077954024 -0.015030965 2.3509886e-38
0.046314117 -0.077954024 -0.015030965 2.3509886e-38
0.0067963926 -0.083614707 -0.032099411 2.3509883e-38
0.0085516376 -0.083614707 -0.032099411 2.3509883e-38
0.010306883 -0.083614707 -0.032099411 2.3509883e-38
0.012062128 -0.083614707 -0.032099411 2.3509886e-38
0.013817372 -0.083614707 -0.032099411 2.3509886e-38
0.015572617 -0.083614707 -0.032099411 2.3509886e-38
0.017327862 -0.083614707 -0.032099411 2.3509886e-38
0.019083107 -0.083614707 -0.032099411 2.3509886e-38
0.020765767 -0.082907662 -0.029032812 2.3509886e-38
0.022515634 -0.082907662 -0.029032812 2.3509886e-38
0.024265502 -0.082907662 -0.029032812 2.3509886e-38
0.025930034 -0.082227543 -0.026083037 2.3509886e-38
0.027581763 -0.081528962 -0.023053154 2.3509886e-38
0.029223464 -0.080834627 -0.02004163 2.3509886e-38
0.030888174 -0.080366656 -0.018011972 2.3509886e-38
0.032618716 -0.080366656 -0.018011972 2.3509886e-38
0.034236889 -0.07967934 -0.015030965 2.3509886e-38
0.035845313 -0.078996167 -0.012067899 2.3509886e-38
0.037565436 -0.078996167 -0.012067899 2.3509886e-38
0.039154969 -0.078295261 -0.0090278834 2.3509886e-38
0.040869765 -0.078295261 -0.0090278834 2.3509886e-38
0.042725805 -0.078996167 -0.012067899 2.3509886e-38
0.044445928 -0.078996167 -0.012067899 2.3509886e-38
0.046166051 -0.078996167 -0.012067899 2.3509886e-38
0.0067963926 -0.085369945 -0.032099411 2.3326213e-38
0.0085516376 -0.085369945 -0.032099411 2.3141822e-38
0.010306883 -0.085369945 -0.032099411 2.3049626e-38
0.012062128 -0.085369945 -0.032099411 2.341805e-38
0.013817372 -0.085369945 -0.032099411 2.341805e-38
0.015572617 -0.085369945 -0.032099411 2.341805e-38
0.017327862 -0.085369945 -0.032099411 2.341805e-38
0.019015897 -0.08465752 -0.029032812 2.341805e-38
0.020695945 -0.083972245 -0.026083037 2.341805e-38
0.02244064 -0.083972245 -0.026083037 2.341805e-38
0.024102995 -0.083268344 -0.023053154 2.341805e-38
0.025842378 -0.083268344 -0.023053154 2.3509886e-38
0.027581763 -0.083268344 -0.023053154 2.3509886e-38
0.029157627 -0.082097203 -0.018011972 2.3509886e-38
0.030888174 -0.082097203 -0.018011972 2.3509886e-38
0.032405067 -0.080716297 -0.012067899 2.3509886e-38
0.03412519 -0.080716297 -0.012067899 2.3509886e-38
0.035845313 -0.080716297 -0.012067899 2.3509886e-38
0.037565436 -0.080716297 -0.012067899 2.3509886e-38
0.039154969 -0.080010042 -0.0090278834 2.3509886e-38
0.040869765 -0.080010042 -0.0090278834 2.3509886e-38
0.042725805 -0.080716297 -0.012067899 2.3509886e-38
0.044445928 -0.080716297 -0.012067899 2.3509886e-38
0.046166051 -0.080716297 -0.012067899 2.3509883e-38
0.047886174 -0.080716297 -0.012067899 2.3509883e-38
0.05852003 -0.075608671 0.0099176913 2.3509521e-38
0.060201608 -0.075608671 0.0099176913 2.3509524e-38
0.0067963926 -0.087125197 -0.032099411 2.3234018e-38
0.0085166888 -0.086407393 -0.029032812 2.3326213e-38
0.010266557 -0.086407393 -0.029032812 2.341805e-38
0.012016425 -0.086407393 -0.029032812 2.341805e-38
0.013817372 -0.087125197 -0.032099411 2.341805e-38
0.015572617 -0.087125197 -0.032099411 2.341805e-38
0.017327862 -0.087125197 -0.032099411 2.341805e-38
0.018884843 -0.085007742 -0.023053154 2.341805e-38
0.020624228 -0.085007742 -0.023053154 2.341805e-38
0.022287048 -0.084302828 -0.02004163 2.341805e-38
0.023965992 -0.083827749 -0.018011972 2.341805e-38
0.025610296 -0.083129987 -0.015030965 2.3509886e-38
0.027335616 -0.083129987 -0.015030965 2.3509886e-38
0.029060934 -0.083129987 -0.015030965 2.3509886e-38
0.030684944 -0.082436413 -0.012067899 2.3509886e-38
0.032405067 -0.082436413 -0.012067899 2.3509886e-38
0.034010593 -0.081724837 -0.0090278834 2.3509886e-38
0.035725385 -0.081724837 -0.0090278834 2.3509886e-38
0.037440177 -0.081724837 -0.0090278834 2.3509886e-38
0.039154969 -0.081724837 -0.0090278834 2.3509886e-38
0.040869765 -0.081724837 -0.0090278834 2.3509886e-38
0.042725805 -0.082436413 -0.012067899 2.3509886e-38
0.044445928 -0.082436413 -0.012067899 2.3509886e-38
0.046166051 -0.082436413 -0.012067899 2.3509883e-38
0.047886174 -0.082436413 -0.012067899 2.3509883e-38
0.049606297 -0.082436413 -0.012067899 2.3509883e-38
0.05132642 -0.082436413 -0.012067899 2.350988e-38
0.052873313 -0.081724837 -0.0090278834 2.3509517e-38
0.054588106 -0.081724837 -0.0090278834 2.3509156e-38
0.058328301 -0.076588988 0.012913659 2.3509521e-38
0.059868053 -0.076102808 0.014990702 2.3509883e-38
0.061540738 -0.076102808 0.014990702 2.3509883e-38
-0.0019877627 -0.086747125 -0.023053154 2.3509886e-38
-0.00024837814 -0.086747125 -0.023053154 2.3418047e-38
0.0014910065 -0.086747125 -0.023053154 2.3418047e-38
0.0032303892 -0.086747125 -0.023053154 2.3418047e-38
0.004946012 -0.086036935 -0.02004163 2.341805e-38
0.0067668203 -0.088157266 -0.029032812 2.3326213e-38
0.0085166888 -0.088157266 -0.029032812 2.3326213e-38
0.010266557 -0.088157266 -0.029032812 2.341805e-38
0.012016425 -0.088157266 -0.029032812 2.341805e-38
0.013817372 -0.088880435 -0.032099411 2.341805e-38
0.015572617 -0.088880435 -0.032099411 2.341805e-38
0.017266029 -0.088157266 -0.029032812 2.341805e-38
0.018884843 -0.086747125 -0.023053154 2.341805e-38
0.020624228 -0.086747125 -0.023053154 2.341805e-38
0.022235448 -0.085558295 -0.018011972 2.341805e-38
0.023884978 -0.084855303 -0.015030965 2.341805e-38
0.025610296 -0.084855303 -0.015030965 2.3509886e-38
0.027335616 -0.084855303 -0.015030965 2.3509527e-38
0.029060934 -0.084855303 -0.015030965 2.3509527e-38
0.030684944 -0.084156543 -0.012067899 2.3509527e-38
0.032405067 -0.084156543 -0.012067899 2.3509886e-38
0.034010593 -0.083439633 -0.0090278834 2.3509886e-38
0.035725385 -0.083439633 -0.0090278834 2.3509886e-38
0.037440177 -0.083439633 -0.0090278834 2.3509886e-38
0.039154969 -0.083439633 -0.0090278834 2.3509886e-38
0.040869765 -0.083439633 -0.0090278834 2.3509886e-38
0.042584557 -0.083439633 -0.0090278834 2.3509883e-38
0.044299349 -0.083439633 -0.0090278834 2.3509883e-38
0.046014141 -0.083439633 -0.0090278834 2.3418047e-38
0.047886174 -0.084156543 -0.012067899 2.3418047e-38
0.049606297 -0.084156543 -0.012067899 2.3418047e-38
0.05132642 -0.084156543 -0.012067899 2.350988e-38
0.052873313 -0.083439633 -0.0090278834 2.3509517e-38
0.054588106 -0.083439633 -0.0090278834 2.3509514e-38
0.056302898 -0.083439633 -0.0090278834 2.350952e-38
0.058328301 -0.078265309 0.012913659 2.3509883e-38
0.059473593 -0.076360688 0.020990148 2.341805e-38
0.061003879 -0.075899988 0.02294369 2.3234379e-38
0.062662616 -0.075899988 0.02294369 2.3234379e-38
-0.0019877627 -0.088486508 -0.023053154 2.2957065e-38
-0.00024837814 -0.088486508 -0.023053154 2.3234015e-38
0.001477804 -0.087771028 -0.02004163 2.3418047e-38
0.003211908 -0.087771028 -0.02004163 2.3418047e-38
0.004946012 -0.087771028 -0.02004163 2.3326213e-38
0.0066801161 -0.087771028 -0.02004163 2.341805e-38
0.0085166888 -0.089907125 -0.029032812 2.341805e-38
0.010266557 -0.089907125 -0.029032812 2.3234018e-38
0.012016425 -0.089907125 -0.029032812 2.341805e-38
0.013766292 -0.089907125 -0.029032812 2.341805e-38
0.015516162 -0.089907125 -0.029032812 2.341805e-38
0.017266029 -0.089907125 -0.029032812 2.341805e-38
0.018884843 -0.088486508 -0.023053154 2.341805e-38
0.020552944 -0.087771028 -0.02004163 2.341805e-38
0.022235448 -0.087288842 -0.018011972 2.341805e-38
0.023884978 -0.086580619 -0.015030965 2.3509527e-38
0.025610296 -0.086580619 -0.015030965 2.3509527e-38
0.027335616 -0.086580619 -0.015030965 2.3509527e-38
0.029060934 -0.086580619 -0.015030965 2.3509527e-38
0.030684944 -0.085876659 -0.012067899 2.3509527e-38
0.032405067 -0.085876659 -0.012067899 2.3509886e-38
0.034010593 -0.085154429 -0.0090278834 2.3509886e-38
0.035725385 -0.085154429 -0.0090278834 2.3509886e-38
0.037319575 -0.084459022 -0.0061008185 2.3509886e-38
0.039029233 -0.084459022 -0.0061008185 2.3509886e-38
0.040869765 -0.085154429 -0.0090278834 2.3509886e-38
0.042584557 -0.085154429 -0.0090278834 2.3509883e-38
0.044299349 -0.085154429 -0.0090278834 2.3509883e-38
0.046014141 -0.085154429 -0.0090278834 2.3418047e-38
0.047728933 -0.085154429 -0.0090278834 2.3418047e-38
0.049606297 -0.085876659 -0.012067899 2.3418047e-38
0.05132642 -0.085876659 -0.012067899 2.350988e-38
0.052873313 -0.085154429 -0.0090278834 2.350952e-38
0.054588106 -0.085154429 -0.0090278834 2.3509517e-38
0.056302898 -0.085154429 -0.0090278834 2.3509521e-38
0.05852003 -0.080653399 0.0099176913 2.341805e-38
0.059473593 -0.078022838 0.020990148 2.3234379e-38
0.061003879 -0.077558726 0.02294369 2.3142544e-38
0.062662616 -0.077558726 0.02294369 2.2958873e-38
-0.0019877627 -0.09022589 -0.023053154 2.2864505e-38
-0.00024837814 -0.09022589 -0.023053154 2.3141456e-38
0.001477804 -0.089505136 -0.02004163 2.350988e-38
0.003211908 -0.089505136 -0.02004163 2.350988e-38
0.004946012 -0.089505136 -0.02004163 2.3509883e-38
0.0066801161 -0.089505136 -0.02004163 2.3417687e-38
0.0084142191 -0.089505136 -0.02004163 2.3417687e-38
0.010187925 -0.09022589 -0.023053154 2.3417687e-38
0.011927309 -0.09022589 -0.023053154 2.3509886e-38
0.01371716 -0.090951025 -0.026083037 2.3509886e-38
0.015461856 -0.090951025 -0.026083037 2.3509886e-38
0.01714546 -0.09022589 -0.023053154 2.3509886e-38
0.018884843 -0.09022589 -0.023053154 2.3233299e-38
0.020552944 -0.089505136 -0.02004163 2.3233299e-38
0.022235448 -0.089019388 -0.018011972 2.3417691e-38
0.023884978 -0.088305935 -0.015030965 2.3509886e-38
0.025610296 -0.088305935 -0.015030965 2.3416974e-38
0.027335616 -0.088305935 -0.015030965 2.3508809e-38
0.029060934 -0.088305935 -0.015030965 2.3509527e-38
0.030684944 -0.087596789 -0.012067899 2.3509527e-38
0.032295801 -0.086869225 -0.0090278834 2.3509527e-38
0.034010593 -0.086869225 -0.0090278834 2.3509167e-38
0.035609912 -0.086168692 -0.0061008185 2.3141103e-38
0.037234418 -0.085674062 -0.0040341467 2.3141103e-38
0.038940456 -0.085674062 -0.0040341467 2.3233299e-38
0.040738896 -0.086168692 -0.0061008185 2.3509886e-38
0.042448554 -0.086168692 -0.0061008185 2.341805e-38
0.044299349 -0.086869225 -0.0090278834 2.341805e-38
0.046014141 -0.086869225 -0.0090278834 2.2865232e-38
0.047728933 -0.086869225 -0.0090278834 2.2865232e-38
0.049443729 -0.086869225 -0.0090278834 2.3234376e-38
0.051158521 -0.086869225 -0.0090278834 2.3418047e-38
0.052706521 -0.086168692 -0.0061008185 2.350988e-38
0.05441618 -0.086168692 -0.0061008185 2.350988e-38
0.056125842 -0.086168692 -0.0061008185 2.3509886e-38
-0.0019877627 -0.091965273 -0.023053154 2.3139647e-38
-0.00025629811 -0.091239244 -0.02004163 2.2588282e-38
0.001468908 -0.090749919 -0.018011972 2.2679759e-38
0.0031994525 -0.090749919 -0.018011972 2.2864869e-38
0.004929998 -0.090749919 -0.018011972 2.3417324e-38
0.0066605434 -0.090749919 -0.018011972 2.350988e-38
0.0083910879 -0.090749919 -0.018011972 2.3509883e-38
0.010121633 -0.090749919 -0.018011972 2.3325492e-38
0.011927309 -0.091965273 -0.023053154 2.314074e-38
0.013666691 -0.091965273 -0.023053154 2.31411e-38
0.015406076 -0.091965273 -0.023053154 2.3416971e-38
0.01714546 -0.091965273 -0.023053154 2.3509886e-38
0.018884843 -0.091965273 -0.023053154 2.3509527e-38
0.020552944 -0.091239244 -0.02004163 2.3509886e-38
0.022235448 -0.090749919 -0.018011972 2.3509527e-38
0.023804452 -0.089316905 -0.012067899 2.3509167e-38
0.025524575 -0.089316905 -0.012067899 2.3508451e-38
0.027244698 -0.089316905 -0.012067899 2.3508807e-38
0.028964821 -0.089316905 -0.012067899 2.3324778e-38
0.030581005 -0.088584006 -0.0090278834 2.3416971e-38
0.032295801 -0.088584006 -0.0090278834 2.3509527e-38
0.03390025 -0.087878346 -0.0061008185 2.3509527e-38
0.03552838 -0.087380111 -0.0040341467 2.3509886e-38
0.037111204 -0.086659163 -0.001043722 2.3509886e-38
0.038811997 -0.086659163 -0.001043722 2.3325494e-38
0.040646493 -0.087380111 -0.0040341467 2.3509886e-38
0.042448554 -0.087878346 -0.0061008185 2.3234018e-38
0.044158217 -0.087878346 -0.0061008185 2.2957431e-38
0.045867875 -0.087878346 -0.0061008185 2.341805e-38
0.047577538 -0.087878346 -0.0061008185 2.3418047e-38
0.049443729 -0.088584006 -0.0090278834 2.3234379e-38
0.051158521 -0.088584006 -0.0090278834 2.2036195e-38
0.052706521 -0.087878346 -0.0061008185 2.3234018e-38
0.05441618 -0.087878346 -0.0061008185 2.341805e-38
0.056125842 -0.087878346 -0.0061008185 2.341805e-38
-0.0019877627 -0.093704656 -0.023053154 1.8344753e-38
-0.00025629811 -0.092973351 -0.02004163 1.7608998e-38
0.001468908 -0.092480466 -0.018011972 1.7884865e-38
0.0031994525 -0.092480466 -0.018011972 1.8807541e-38
0.004929998 -0.092480466 -0.018011972 2.0835125e-38
0.0066605434 -0.092480466 -0.018011972 2.2403171e-38
0.0083910879 -0.092480466 -0.018011972 2.3508801e-38
0.010121633 -0.092480466 -0.018011972 2.350988e-38
0.011852178 -0.092480466 -0.018011972 2.3509521e-38
0.013666691 -0.093704656 -0.023053154 2.350988e-38
0.015406076 -0.093704656 -0.023053154 2.3231857e-38
0.01714546 -0.093704656 -0.023053154 2.314074e-38
0.018884843 -0.093704656 -0.023053154 2.3509524e-38
0.020552944 -0.092973351 -0.02004163 2.3509883e-38
0.022084329 -0.091037035 -0.012067899 2.3509524e-38
0.023804452 -0.091037035 -0.012067899 2.3416248e-38
0.025524575 -0.091037035 -0.012067899 2.3509527e-38
0.027151421 -0.090298802 -0.0090278834 2.3509524e-38
0.028866213 -0.090298802 -0.0090278834 2.3509527e-38
0.030581005 -0.090298802 -0.0090278834 2.3509524e-38
0.032190591 -0.089588001 -0.0061008185 2.3509883e-38
0.033822346 -0.089086145 -0.0040341467 2.3417327e-38
0.035410408 -0.088359952 -0.001043722 2.3233299e-38
0.037111204 -0.088359952 -0.001043722 2.3141103e-38
0.038811997 -0.088359952 -0.001043722 2.3509886e-38
0.040512793 -0.088359952 -0.001043722 2.3509886e-38
0.042352531 -0.089086145 -0.0040341467 2.341805e-38
0.044058569 -0.089086145 -0.0040341467 2.304927e-38
0.045764606 -0.089086145 -0.0040341467 2.240498e-38
0.04747064 -0.089086145 -0.0040341467 2.277376e-38
0.049287196 -0.089588001 -0.0061008185 2.3234379e-38
0.051158521 -0.090298802 -0.0090278834 2.3234379e-38
0.052706521 -0.089588001 -0.0061008185 2.3142544e-38
0.05441618 -0.089588001 -0.0061008185 2.3142544e-38
0.056125842 -0.089588001 -0.0061008185 2.3050708e-38
0.057835501 -0.089588001 -0.0061008185 2.2958155e-38
-0.024117377 -0.090060756 -0.001043722 5.0689646e-39
-0.022416584 -0.090060756 -0.001043722 4.1470083e-39
-0.0019904021 -0.094707444 -0.02004163 1.8436946e-38
-0.00025629811 -0.094707444 -0.02004163 1.8069253e-38
0.001468908 -0.094211012 -0.018011972 1.8068534e-38
0.0031994525 -0.094211012 -0.018011972 1.7700471e-38
0.004929998 -0.094211012 -0.018011972 1.7330972e-38
0.0066605434 -0.094211012 -0.018011972 1.6594123e-38
0.0083910879 -0.094211012 -0.018011972 1.6040233e-38
0.010121633 -0.094211012 -0.018011972 1.5579974e-38
0.011852178 -0.094211012 -0.018011972 1.5302668e-38
0.013582723 -0.094211012 -0.018011972 1.8253647e-38
0.015000882 -0.090060756 -0.001043722 2.2217342e-38
0.016701676 -0.090060756 -0.001043722 2.3509521e-38
0.01840247 -0.090060756 -0.001043722 2.3509521e-38
0.020103265 -0.090060756 -0.001043722 2.3139658e-38
0.022007043 -0.092013597 -0.0090278834 2.3509165e-38
0.023721835 -0.092013597 -0.0090278834 2.3509521e-38
0.025436629 -0.092013597 -0.0090278834 2.332405e-38
0.027151421 -0.092013597 -0.0090278834 2.3509161e-38
0.028866213 -0.092013597 -0.0090278834 2.3509521e-38
0.030480929 -0.091297671 -0.0061008185 2.3509524e-38
0.032190591 -0.091297671 -0.0061008185 2.3509523e-38
0.033822346 -0.090792179 -0.0040341467 2.3509883e-38
0.035410408 -0.090060756 -0.001043722 2.3509527e-38
0.036988739 -0.089333788 0.0019284636 2.3509886e-38
0.038684323 -0.089333788 0.0019284636 2.3509886e-38
0.040512793 -0.090060756 -0.001043722 2.2957431e-38
0.042213585 -0.090060756 -0.001043722 2.3141466e-38
0.044058569 -0.090792179 -0.0040341467 2.341805e-38
0.045764606 -0.090792179 -0.0040341467 2.3234379e-38
0.04747064 -0.090792179 -0.0040341467 2.3050349e-38
0.049287196 -0.091297671 -0.0061008185 2.2773765e-38
0.051158521 -0.092013597 -0.0090278834 2.3142544e-38
0.052706521 -0.091297671 -0.0061008185 2.2958873e-38
0.05441618 -0.091297671 -0.0061008185 2.2958873e-38
0.056125842 -0.091297671 -0.0061008185 2.3142544e-38
0.057835501 -0.091297671 -0.0061008185 2.3234379e-38
-0.049485978 -0.091029361 0.0019284636 3.8715004e-39
-0.047790397 -0.091029361 0.0019284636 3.7793076e-39
-0.046094816 -0.091029361 0.0019284636 3.5949163e-39
-0.024117377 -0.091761544 -0.001043722 4.7941756e-39
-0.022416584 -0.091761544 -0.001043722 3.9644149e-39
-0.0019904021 -0.096441552 -0.02004163 1.5301575e-38
-0.00025629811 -0.096441552 -0.02004163 1.6501565e-38
0.0014558416 -0.095207214 -0.015030965 1.8252203e-38
0.0031811595 -0.095207214 -0.015030965 1.8529868e-38
0.0049064774 -0.095207214 -0.015030965 1.7883423e-38
0.0066317962 -0.095207214 -0.015030965 1.6501565e-38
0.0083910879 -0.095941558 -0.018011972 1.5947315e-38
0.010121633 -0.095941558 -0.018011972 1.5579252e-38
0.01658033 -0.090279013 0.0049744397 1.9728059e-38
0.018270573 -0.090279013 0.0049744397 2.3138218e-38
0.019960815 -0.090279013 0.0049744397 2.350952e-38
0.021651056 -0.090279013 0.0049744397 2.3508442e-38
0.023504851 -0.091761544 -0.001043722 2.2770514e-38
0.025292158 -0.092498213 -0.0040341467 2.350952e-38
0.027061608 -0.093007326 -0.0061008185 2.350952e-38
0.028607234 -0.091761544 -0.001043722 2.3509879e-38
0.030308027 -0.091761544 -0.001043722 2.332405e-38
0.032008823 -0.091761544 -0.001043722 2.3047463e-38
0.033709615 -0.091761544 -0.001043722 2.3232933e-38
0.035293158 -0.091029361 0.0019284636 2.3509883e-38
0.036863234 -0.090279013 0.0049744397 2.3509886e-38
0.038553476 -0.090279013 0.0049744397 2.3048907e-38
0.040243719 -0.090279013 0.0049744397 2.3233662e-38
0.042075489 -0.091029361 0.0019284636 2.341805e-38
0.043914378 -0.091761544 -0.001043722 2.3234379e-38
0.045615174 -0.091761544 -0.001043722 2.3050349e-38
0.04747064 -0.092498213 -0.0040341467 2.2957796e-38
0.049287196 -0.093007326 -0.0061008185 2.3142544e-38
0.051158521 -0.093728393 -0.0090278834 2.3142544e-38
0.052706521 -0.093007326 -0.0061008185 2.2867037e-38
0.05441618 -0.093007326 -0.0061008185 2.2681572e-38
0.056125842 -0.093007326 -0.0061008185 2.2681212e-38
0.057835501 -0.093007326 -0.0061008185 2.3141466e-38
0.059732482 -0.093728393 -0.0090278834 2.3508804e-38
-0.05919021 -0.090742856 0.0099176913 4.1491565e-39
-0.049339112 -0.091969252 0.0049744397 3.410525e-39
-0.047648873 -0.091969252 0.0049744397 3.4101677e-39
-0.046094816 -0.092724949 0.0019284636 3.0413852e-39
-0.044399232 -0.092724949 0.0019284636 2.4882114e-39
-0.042703647 -0.092724949 0.0019284636 3.8711459e-39
-0.041008066 -0.092724949 0.0019284636 3.5949163e-39
-0.039424524 -0.093462333 -0.001043722 3.4105222e-39
-0.031007066 -0.094204247 -0.0040341467 4.2413521e-39
-0.029219758 -0.093462333 -0.001043722 4.794886e-39
-0.027443405 -0.092724949 0.0019284636 3.3208377e-39
-0.025747821 -0.092724949 0.0019284636 2.9520552e-39
-0.024052236 -0.092724949 0.0019284636 3.5970687e-39
-0.022356655 -0.092724949 0.0019284636 4.0580497e-39
-0.020661075 -0.092724949 0.0019284636 4.2424409e-39
-0.01896549 -0.092724949 0.0019284636 3.7814628e-39
-0.017269906 -0.092724949 0.0019284636 2.9516993e-39
-0.0019904021 -0.09817566 -0.02004163 8.9400768e-39
-0.00025629811 -0.09817566 -0.02004163 1.023118e-38
0.0014558416 -0.09693253 -0.015030965 1.1890701e-38
0.0031811595 -0.09693253 -0.015030965 1.2720462e-38
0.0049064774 -0.09693253 -0.015030965 1.281266e-38
0.0066317962 -0.09693253 -0.015030965 1.3273639e-38
0.0083910879 -0.097672105 -0.018011972 1.4379986e-38
0.010121633 -0.097672105 -0.018011972 1.5486334e-38
0.014651114 -0.088748798 0.01795508 1.603951e-38
0.016480658 -0.090742856 0.0099176913 1.5486336e-38
0.018162232 -0.090742856 0.0099176913 1.4840967e-38
0.019843807 -0.090742856 0.0099176913 1.5117554e-38
0.021525383 -0.090742856 0.0099176913 1.7237698e-38
0.023288889 -0.091490805 0.0069028884 1.9542944e-38
0.024975751 -0.091490805 0.0069028884 2.2493925e-38
0.026570108 -0.090742856 0.0099176913 2.3508437e-38
0.028251681 -0.090742856 0.0099176913 2.3509876e-38
0.029933255 -0.090742856 0.0099176913 2.3509879e-38
0.03179251 -0.091969252 0.0049744397 2.3509879e-38
0.033410054 -0.091490805 0.0069028884 2.3509521e-38
0.03497798 -0.090742856 0.0099176913 2.3325131e-38
0.036659557 -0.090742856 0.0099176913 2.2864513e-38
0.038470637 -0.091490805 0.0069028884 2.3325497e-38
0.040157497 -0.091490805 0.0069028884 2.341805e-38
0.041844361 -0.091490805 0.0069028884 2.3234379e-38
0.04353122 -0.091490805 0.0069028884 2.2681212e-38
0.045466654 -0.092724949 0.0019284636 2.3049991e-38
0.047315966 -0.093462333 -0.001043722 2.3234379e-38
0.049176678 -0.094204247 -0.0040341467 2.2497543e-38
0.051158521 -0.095443189 -0.0090278834 1.9731318e-38
0.052706521 -0.094716981 -0.0061008185 1.0973812e-38
0.05441618 -0.094716981 -0.0061008185 1.0327364e-38
0.056000829 -0.094204247 -0.0040341467 1.0326278e-38
0.057706866 -0.094204247 -0.0040341467 1.1523735e-38
0.059732482 -0.095443189 -0.0090278834 1.3826459e-38
-0.062741011 -0.093177676 0.0069028884 9.9571252e-39
-0.05919021 -0.092424423 0.0099176913 4.3331918e-39
-0.054145489 -0.092424423 0.0099176913 5.6232202e-39
-0.052463915 -0.092424423 0.0099176913 6.1763939e-39
-0.051029351 -0.09365949 0.0049744397 5.7150585e-39
-0.049339112 -0.09365949 0.0049744397 4.9774934e-39
-0.047648873 -0.09365949 0.0049744397 4.6087137e-39
-0.046094816 -0.094420537 0.0019284636 4.4243224e-39
-0.044399232 -0.094420537 0.0019284636 4.2399284e-39
-0.042703647 -0.094420537 0.0019284636 4.332124e-39
-0.041008066 -0.094420537 0.0019284636 4.0558945e-39
-0.039197661 -0.09365949 0.0049744397 3.8715004e-39
-0.037507419 -0.09365949 0.0049744397 4.0558888e-39
-0.035921317 -0.094420537 0.0019284636 4.0562448e-39
-0.034126934 -0.09365949 0.0049744397 3.8718507e-39
-0.032436691 -0.09365949 0.0049744397 3.9640463e-39
-0.030834567 -0.094420537 0.0019284636 4.1491551e-39
-0.029138986 -0.094420537 0.0019284636 3.7825305e-39
-0.027443405 -0.094420537 0.0019284636 3.0467634e-39
-0.025747821 -0.094420537 0.0019284636 2.4932323e-39
-0.024052236 -0.094420537 0.0019284636 3.0464088e-39
-0.022356655 -0.094420537 0.0019284636 4.2449548e-39
-0.020604994 -0.09365949 0.0049744397 4.4289902e-39
-0.018914755 -0.09365949 0.0049744397 4.0594916e-39
-0.017150842 -0.092424423 0.0099176913 4.2438828e-39
-0.015469264 -0.092424423 0.0099176913 3.7814628e-39
-0.013822049 -0.093177676 0.0069028884 4.4261091e-39
-0.012135189 -0.093177676 0.0069028884 3.6878224e-39
-0.0053506959 -0.089657977 0.020990148 6.4507948e-39
-0.0036885347 -0.089657977 0.020990148 5.7132298e-39
-0.0020263735 -0.089657977 0.020990148 6.9117758e-39
-0.00033509172 -0.092424423 0.0099176913 7.5571452e-39
0.0013464838 -0.092424423 0.0099176913 8.3869058e-39
0.0030280575 -0.092424423 0.0099176913 9.4010578e-39
0.0047096331 -0.092424423 0.0099176913 1.0599244e-38
0.0063623171 -0.091675878 0.012913659 1.1982178e-38
0.0079465937 -0.089657977 0.020990148 1.3641699e-38
0.0096087549 -0.089657977 0.020990148 1.4655851e-38
0.011270916 -0.089657977 0.020990148 1.5116829e-38
0.012933077 -0.089657977 0.020990148 1.5024637e-38
0.014651114 -0.090416282 0.01795508 1.5393419e-38
0.016318597 -0.090416282 0.01795508 1.5762202e-38
0.01798608 -0.090416282 0.01795508 1.5301224e-38
0.01972373 -0.09115693 0.014990702 1.474805e-38
0.02139641 -0.09115693 0.014990702 1.5116835e-38
0.023069089 -0.09115693 0.014990702 1.6039507e-38
0.024656011 -0.090416282 0.01795508 1.9912803e-38
0.026323494 -0.090416282 0.01795508 2.166452e-38
0.027990976 -0.090416282 0.01795508 2.3416237e-38
0.029759809 -0.09115693 0.014990702 2.3509517e-38
0.031432491 -0.09115693 0.014990702 2.3509879e-38
0.033296406 -0.092424423 0.0099176913 2.3509521e-38
0.034859791 -0.091675878 0.012913659 2.3509883e-38
0.036536112 -0.091675878 0.012913659 2.3325492e-38
0.038341131 -0.092424423 0.0099176913 2.3509886e-38
0.040022705 -0.092424423 0.0099176913 2.341805e-38
0.041704282 -0.092424423 0.0099176913 2.2958155e-38
0.043385856 -0.092424423 0.0099176913 2.3234379e-38
0.04521808 -0.093177676 0.0069028884 2.3142544e-38
0.047004689 -0.09365949 0.0049744397 2.22206e-38
0.049176678 -0.095910296 -0.0040341467 1.632008e-38
0.051158521 -0.09715797 -0.0090278834 1.0327364e-38
0.052706521 -0.096426651 -0.0061008185 3.1361046e-39
0.05441618 -0.096426651 -0.0061008185 1.6606115e-39
0.056000829 -0.095910296 -0.0040341467 5.5246052e-40
0.057706866 -0.095910296 -0.0040341467 8.2652087e-40
-0.061054152 -0.094864532 0.0069028884 6.4536913e-39
-0.05919021 -0.094106004 0.0099176913 6.7302782e-39
-0.053985279 -0.093352199 0.012913659 7.0047127e-39
-0.052463915 -0.094106004 0.0099176913 6.6355742e-39
-0.050932985 -0.094864532 0.0069028884 6.8199655e-39
-0.049339112 -0.095349744 0.0049744397 7.3731407e-39
-0.047648873 -0.095349744 0.0049744397 7.5578949e-39
-0.045958627 -0.095349744 0.0049744397 7.7415673e-39
-0.044185545 -0.094864532 0.0069028884 7.5582508e-39
-0.042498685 -0.094864532 0.0069028884 7.0972712e-39
-0.040811826 -0.094864532 0.0069028884 6.8206815e-39
-0.039011315 -0.094106004 0.0099176913 6.7288418e-39
-0.037329741 -0.094106004 0.0099176913 6.9132303e-39
-0.035545733 -0.093352199 0.012913659 6.9132275e-39
-0.033869412 -0.093352199 0.012913659 6.7288362e-39
-0.032285016 -0.094106004 0.0099176913 6.7288362e-39
-0.030603442 -0.094106004 0.0099176913 6.7306327e-39
-0.029056206 -0.095349744 0.0049744397 5.9952257e-39
-0.027365964 -0.095349744 0.0049744397 6.3658061e-39
-0.025675725 -0.095349744 0.0049744397 5.9963061e-39
-0.023985479 -0.095349744 0.0049744397 5.6278865e-39
-0.02229524 -0.095349744 0.0049744397 6.2725398e-39
-0.020604994 -0.095349744 0.0049744397 5.9959557e-39
-0.018882632 -0.094864532 0.0069028884 6.0877954e-39
-0.017150842 -0.094106004 0.0099176913 7.6551212e-39
-0.015469264 -0.094106004 0.0099176913 7.5618465e-39
-0.013753548 -0.093352199 0.012913659 8.0224617e-39
-0.012057196 -0.092829615 0.014990702 7.7451518e-39
-0.010361126 -0.092083767 0.01795508 8.6663864e-39
-0.0086936429 -0.092083767 0.01795508 8.0206527e-39
-0.0070128571 -0.091320127 0.020990148 9.2184728e-39
-0.0053506959 -0.091320127 0.020990148 8.5731006e-39
-0.0036885347 -0.091320127 0.020990148 9.0337158e-39
-0.0020237137 -0.092083767 0.01795508 8.2028789e-39
-0.00035623088 -0.092083767 0.01795508 8.3865513e-39
0.0013333503 -0.093352199 0.012913659 8.9397251e-39
0.0030096732 -0.093352199 0.012913659 9.6772901e-39
0.0046859942 -0.093352199 0.012913659 1.0138268e-38
0.0063623171 -0.093352199 0.012913659 9.6772901e-39
0.0079465937 -0.091320127 0.020990148 8.5709426e-39
0.0096087549 -0.091320127 0.020990148 7.5567906e-39
0.011270916 -0.091320127 0.020990148 9.4007032e-39
0.012933077 -0.091320127 0.020990148 9.8616814e-39
0.014595238 -0.091320127 0.020990148 1.1336814e-38
0.0162574 -0.091320127 0.020990148 1.2996336e-38
0.017919561 -0.091320127 0.020990148 1.3457314e-38
0.01972373 -0.092829615 0.014990702 1.2996336e-38
0.021321045 -0.092083767 0.01795508 1.2996336e-38
0.022988528 -0.092083767 0.01795508 1.3458033e-38
0.024568206 -0.091320127 0.020990148 1.2997054e-38
0.026230367 -0.091320127 0.020990148 1.3643144e-38
0.027990976 -0.092083767 0.01795508 1.373534e-38
0.029554691 -0.091320127 0.020990148 1.2905579e-38
0.031216852 -0.091320127 0.020990148 1.2260931e-38
0.033105172 -0.092829615 0.014990702 1.2629714e-38
0.03477785 -0.092829615 0.014990702 1.2905943e-38
0.036450531 -0.092829615 0.014990702 1.253824e-38
0.038123213 -0.092829615 0.014990702 1.3183972e-38
0.03979589 -0.092829615 0.014990702 1.392154e-38
0.041565079 -0.093352199 0.012913659 1.4382881e-38
0.043385856 -0.094106004 0.0099176913 1.2631167e-38
0.04521808 -0.094864532 0.0069028884 7.2845422e-39
0.047004689 -0.095349744 0.0049744397 1.5684159e-39
0.049924165 -0.1011332 -0.018011972 9.8090893e-45
0.051490072 -0.10038316 -0.015030965 9.8090893e-45
0.053215388 -0.10038316 -0.015030965 1.8620034e-40
0.054588106 -0.098872766 -0.0090278834 7.0064923e-45
0.056302898 -0.098872766 -0.0090278834 9.1841101e-41
-0.066241533 -0.097039983 0.0049744397 1.1986502e-38
-0.064551294 -0.097039983 0.0049744397 6.0859822e-39
-0.062741011 -0.096551389 0.0069028884 2.4899953e-39
-0.061054152 -0.096551389 0.0069028884 2.0290171e-39
-0.05919021 -0.09578757 0.0099176913 3.4119516e-39
-0.053985279 -0.09502852 0.012913659 5.0667954e-39
-0.052308958 -0.09502852 0.012913659 4.4210714e-39
-0.050782334 -0.09578757 0.0099176913 4.8816965e-39
-0.049246129 -0.096551389 0.0069028884 6.2646337e-39
-0.047559272 -0.096551389 0.0069028884 7.3713428e-39
-0.045872401 -0.096551389 0.0069028884 7.9241564e-39
-0.044056039 -0.09578757 0.0099176913 7.7404826e-39
-0.042374466 -0.09578757 0.0099176913 8.5702405e-39
-0.040692888 -0.09578757 0.0099176913 6.5422898e-39
-0.039011315 -0.09578757 0.0099176913 8.4791141e-39
-0.037329741 -0.09578757 0.0099176913 8.2025258e-39
-0.035545733 -0.09502852 0.012913659 9.4932646e-39
-0.033869412 -0.09502852 0.012913659 8.3869184e-39
-0.032193091 -0.09502852 0.012913659 8.1099756e-39
-0.03051677 -0.09502852 0.012913659 7.4656852e-39
-0.028921865 -0.09578757 0.0099176913 7.007221e-39
-0.027240291 -0.09578757 0.0099176913 6.547682e-39
-0.025558714 -0.09578757 0.0099176913 6.7309942e-39
-0.023943216 -0.096551389 0.0069028884 7.746228e-39
-0.022256356 -0.096551389 0.0069028884 7.3763693e-39
-0.020569492 -0.096551389 0.0069028884 6.0863507e-39
-0.018832415 -0.09578757 0.0099176913 6.455136e-39
-0.017150842 -0.09578757 0.0099176913 5.8097638e-39
-0.015429869 -0.09502852 0.012913659 4.7956119e-39
-0.013753548 -0.09502852 0.012913659 7.3763665e-39
-0.012057196 -0.0945023 0.014990702 7.2841708e-39
-0.010361126 -0.093751252 0.01795508 6.4544074e-39
-0.0086936429 -0.093751252 0.01795508 6.9157428e-39
-0.0070128571 -0.092982292 0.020990148 5.9937837e-39
-0.0053506959 -0.092982292 0.020990148 5.5328028e-39
-0.0036885347 -0.092982292 0.020990148 7.3756392e-39
-0.0020263735 -0.092982292 0.020990148 7.4660397e-39
-0.00036421232 -0.092982292 0.020990148 8.2025272e-39
0.0013112538 -0.093751252 0.01795508 7.003984e-39
0.0029787347 -0.093751252 0.01795508 6.8195927e-39
0.0046462175 -0.093751252 0.01795508 8.5713097e-39
0.0063137012 -0.093751252 0.01795508 8.2947228e-39
0.0079465937 -0.092982292 0.020990148 7.3727665e-39
0.0096087549 -0.092982292 0.020990148 8.5713097e-39
0.011270916 -0.092982292 0.020990148 9.2166791e-39
0.012933077 -0.092982292 0.020990148 9.2166791e-39
0.014559275 -0.09248735 0.02294369 9.8620471e-39
0.01621801 -0.09248735 0.02294369 1.106059e-38
0.017919561 -0.092982292 0.020990148 1.1890351e-38
0.019581722 -0.092982292 0.020990148 1.2074742e-38
0.021243883 -0.092982292 0.020990148 1.1890351e-38
0.022906044 -0.092982292 0.020990148 1.1982548e-38
0.024568206 -0.092982292 0.020990148 1.2074388e-38
0.026230367 -0.092982292 0.020990148 1.1429018e-38
0.027892528 -0.092982292 0.020990148 1.0969475e-38
0.029554691 -0.092982292 0.020990148 1.1522649e-38
0.031216852 -0.092982292 0.020990148 1.2075821e-38
0.032879014 -0.092982292 0.020990148 1.2168014e-38
0.034660906 -0.093751252 0.01795508 1.1983623e-38
0.03632839 -0.093751252 0.01795508 1.1707755e-38
0.037995871 -0.093751252 0.01795508 1.1154581e-38
0.039663356 -0.093751252 0.01795508 1.2814825e-38
0.041330837 -0.093751252 0.01795508 1.4566544e-38
0.042998321 -0.093751252 0.01795508 7.74407e-39
0.044665802 -0.093751252 0.01795508 4.7934567e-39
0.048454367 -0.10414095 -0.023053154 7.3685178e-40
0.050193753 -0.10414095 -0.023053154 6.4429882e-40
0.051766809 -0.10337795 -0.02004163 4.6062642e-40
0.053500913 -0.10337795 -0.02004163 5.5461852e-40
0.054588106 -0.10058756 -0.0090278834 1.0155939e-39
0.056302898 -0.10058756 -0.0090278834 1.0145177e-39
-0.067931771 -0.098730221 0.0049744397 1.2170172e-38
-0.066241533 -0.098730221 0.0049744397 1.2263089e-38
-0.064551294 -0.098730221 0.0049744397 6.1781778e-39
-0.062741011 -0.09823826 0.0069028884 1.7527876e-39
-0.061054152 -0.09823826 0.0069028884 1.8546465e-40
-0.05919021 -0.097469151 0.0099176913 8.3083126e-40
-0.053985279 -0.096704841 0.012913659 1.9314181e-39
-0.052308958 -0.096704841 0.012913659 1.6544795e-39
-0.05063263 -0.096704841 0.012913659 1.6541263e-39
-0.048956309 -0.096704841 0.012913659 1.6548522e-39
-0.047419187 -0.097469151 0.0099176913 2.0236361e-39
-0.045737613 -0.097469151 0.0099176913 2.3924172e-39
-0.044056039 -0.097469151 0.0099176913 2.4846101e-39
-0.042251021 -0.096704841 0.012913659 2.024348e-39
-0.0405747 -0.096704841 0.012913659 6.4284847e-40
-0.038898379 -0.096704841 0.012913659 1.6559172e-39
-0.037222054 -0.096704841 0.012913659 1.5647964e-39
-0.035545733 -0.096704841 0.012913659 2.946656e-39
-0.033869412 -0.096704841 0.012913659 2.3020069e-39
-0.032193091 -0.096704841 0.012913659 2.3012908e-39
-0.03051677 -0.096704841 0.012913659 7.3540704e-40
-0.028840445 -0.096704841 0.012913659 4.6097535e-40
-0.027164124 -0.096704841 0.012913659 8.3047673e-40
-0.025487799 -0.096704841 0.012913659 1.5680446e-39
-0.023811478 -0.096704841 0.012913659 2.8587834e-39
-0.022135157 -0.096704841 0.012913659 1.8442755e-39
-0.020458836 -0.096704841 0.012913659 2.7694983e-40
-0.018782515 -0.096704841 0.012913659 3.7022446e-40
-0.01710619 -0.096704841 0.012913659 7.1886611e-43
-0.015429869 -0.096704841 0.012913659 5.5461291e-40
-0.013753548 -0.096704841 0.012913659 2.5832727e-39
-0.012057196 -0.09617497 0.014990702 2.5832727e-39
-0.010361126 -0.095418736 0.01795508 1.7535092e-39
-0.0086936429 -0.095418736 0.01795508 1.6613122e-39
-0.0070128571 -0.094644457 0.020990148 4.6312494e-40
-0.0053506959 -0.094644457 0.020990148 1.8654085e-40
-0.0036885347 -0.094644457 0.020990148 2.398157e-39
-0.0020263735 -0.094644457 0.020990148 3.501992e-39
-0.00036421232 -0.094644457 0.020990148 3.9622541e-39
0.0012979489 -0.094644457 0.020990148 3.224689e-39
0.0029601101 -0.094644457 0.020990148 2.6715153e-39
0.0046222713 -0.094644457 0.020990148 2.3949284e-39
0.0062844325 -0.094644457 0.020990148 1.5651677e-39
0.0079465937 -0.094644457 0.020990148 2.3027299e-39
0.0096087549 -0.094644457 0.020990148 4.9764032e-39
0.011270916 -0.094644457 0.020990148 3.5012731e-39
0.012900539 -0.094146088 0.02294369 2.9480994e-39
0.014559275 -0.094146088 0.02294369 2.1186946e-39
0.01621801 -0.094146088 0.02294369 1.7499121e-39
0.017876746 -0.094146088 0.02294369 2.1186946e-39
0.019464394 -0.093379915 0.02594699 3.0406509e-39
0.021117864 -0.093379915 0.02594699 4.2391941e-39
0.022771334 -0.093379915 0.02594699 4.8842076e-39
0.024511689 -0.094146088 0.02294369 4.0544525e-39
0.026170427 -0.094146088 0.02294369 3.2246918e-39
0.027829163 -0.094146088 0.02294369 2.8562695e-39
0.029487897 -0.094146088 0.02294369 3.501992e-39
0.031146634 -0.094146088 0.02294369 4.4239455e-39
0.032805368 -0.094146088 0.02294369 4.8852782e-39
0.034464106 -0.094146088 0.02294369 4.8852782e-39
0.036122844 -0.094146088 0.02294369 4.7930797e-39
0.037781578 -0.094146088 0.02294369 5.9916257e-39
0.039440315 -0.094146088 0.02294369 6.0849004e-39
0.041099049 -0.094146088 0.02294369 7.374563e-39
0.042757787 -0.094146088 0.02294369 3.503071e-39
0.048298601 -0.10511206 -0.02004163 1.6577291e-39
0.050032705 -0.10511206 -0.02004163 1.8421217e-39
0.051766809 -0.10511206 -0.02004163 2.0272333e-39
0.053500913 -0.10511206 -0.02004163 1.1999851e-39
-0.067931771 -0.10042046 0.0049744397 1.2354566e-38
-0.066241533 -0.10042046 0.0049744397 1.2631872e-38
-0.064551294 -0.10042046 0.0049744397 6.6391559e-39
-0.062861055 -0.10042046 0.0049744397 1.8449832e-39
-0.061054152 -0.099925116 0.0069028884 7.1746481e-43
-0.05919021 -0.099150717 0.0099176913 9.2911693e-41
-0.053985279 -0.098381177 0.012913659 1.8413833e-39
-0.050528843 -0.097847655 0.014990702 1.6562843e-39
-0.048956309 -0.098381177 0.012913659 9.1836617e-40
-0.047279987 -0.098381177 0.012913659 5.5101998e-40
-0.045603666 -0.098381177 0.012913659 5.5101858e-40
-0.043927342 -0.098381177 0.012913659 8.2652647e-40
-0.042251021 -0.098381177 0.012913659 1.1031106e-39
-0.0405747 -0.098381177 0.012913659 5.5101298e-40
-0.038898379 -0.098381177 0.012913659 6.4284847e-40
-0.037222054 -0.098381177 0.012913659 1.1967341e-39
-0.035474718 -0.097847655 0.014990702 2.2098098e-39
-0.033802036 -0.097847655 0.014990702 1.8421077e-39
-0.032129359 -0.097847655 0.014990702 2.3016509e-39
-0.030456681 -0.097847655 0.014990702 2.7550649e-40
-0.028783996 -0.097847655 0.014990702 3.5873241e-43
-0.027111318 -0.097847655 0.014990702 7.1746481e-43
-0.02543864 -0.097847655 0.014990702 1.4405348e-42
-0.023765955 -0.097847655 0.014990702 1.7538778e-39
-0.022093277 -0.097847655 0.014990702 1.8457175e-39
-0.020458836 -0.098381177 0.012913659 9.2376117e-40
-0.018747915 -0.097847655 0.014990702 1.0159568e-39
-0.017075237 -0.097847655 0.014990702 1.084605e-42
-0.015402555 -0.097847655 0.014990702 1.1081524e-39
-0.013729874 -0.097847655 0.014990702 2.5836384e-39
-0.012057196 -0.097847655 0.014990702 2.5836384e-39
-0.010361126 -0.097086221 0.01795508 1.8460706e-39
-0.0086750183 -0.096306622 0.020990148 1.1085028e-39
-0.0070128571 -0.096306622 0.020990148 1.0761972e-42
-0.0053506959 -0.096306622 0.020990148 1.0761972e-42
-0.0036885347 -0.096306622 0.020990148 1.6613136e-39
-0.0020263735 -0.096306622 0.020990148 2.3048879e-39
-0.00036421232 -0.096306622 0.020990148 3.6871063e-39
0.0012979489 -0.096306622 0.020990148 3.4105194e-39
0.0029601101 -0.096306622 0.020990148 1.3822156e-39
0.0046222713 -0.096306622 0.020990148 9.1835496e-41
0.0062844325 -0.096306622 0.020990148 1.8367239e-40
0.0079465937 -0.096306622 0.020990148 1.1981803e-39
0.0096087549 -0.096306622 0.020990148 1.751354e-39
0.011241802 -0.095804825 0.02294369 1.2903759e-39
0.012900539 -0.095804825 0.02294369 1.4747671e-39
0.014559275 -0.095804825 0.02294369 9.2159056e-40
0.01621801 -0.095804825 0.02294369 9.1835496e-41
0.017876746 -0.095804825 0.02294369 9.1835496e-41
0.019464394 -0.095033392 0.02594699 6.4500367e-40
0.021041993 -0.094266817 0.028931335 1.56696e-39
0.022690229 -0.094266817 0.028931335 1.751354e-39
0.024424804 -0.095033392 0.02594699 6.4429882e-40
0.026078274 -0.095033392 0.02594699 9.1842503e-41
0.027634943 -0.094266817 0.028931335 9.1842503e-41
0.029283181 -0.094266817 0.028931335 2.7587083e-40
0.030931417 -0.094266817 0.028931335 1.1056287e-39
0.032579657 -0.094266817 0.028931335 1.6591556e-39
0.034345627 -0.095033392 0.02594699 1.7513512e-39
0.035999097 -0.095033392 0.02594699 1.7513498e-39
0.037652567 -0.095033392 0.02594699 1.4747629e-39
0.039172608 -0.094266817 0.028931335 1.2910919e-39
0.040820844 -0.094266817 0.028931335 2.3967234e-39
0.042469081 -0.094266817 0.028931335 1.9361082e-39
0.052100476 -0.10839801 -0.026083037 2.5811259e-39
0.053845171 -0.10839801 -0.026083037 2.4896449e-39
-0.067931771 -0.1021107 0.0049744397 1.2538957e-38
-0.066241533 -0.1021107 0.0049744397 1.2631872e-38
-0.064551294 -0.1021107 0.0049744397 6.7313516e-39
-0.062861055 -0.1021107 0.0049744397 2.2137657e-39
-0.061054152 -0.10161197 0.0069028884 1.8546465e-40
-0.05919021 -0.1008323 0.0099176913 6.4608267e-40
-0.053985279 -0.1000575 0.012913659 1.935018e-39
-0.050528843 -0.099520341 0.014990702 2.3034516e-39
-0.048856165 -0.099520341 0.014990702 1.3811422e-39
-0.04718348 -0.099520341 0.014990702 6.4357855e-40
-0.045510795 -0.099520341 0.014990702 5.5138152e-40
-0.043838121 -0.099520341 0.014990702 8.2796561e-40
-0.04216544 -0.099520341 0.014990702 1.1971041e-39
