# .PCD v0.7 - Point Cloud Data file format
VERSION 0.7
FIELDS x y z rgb
SIZE 4 4 4 4
TYPE F F F F
COUNT 1 1 1 1
WIDTH 922
HEIGHT 1
VIEWPOINT 0 0 0 1 0 0 0
POINTS 922
DATA ascii
-0.055257875 -0.087758631 -0.09279152 2.3509886e-38
-0.053308014 -0.087758631 -0.09279152 2.3509886e-38
-0.051610604 -0.089242578 -0.099815212 2.3509886e-38
-0.049887326 -0.090718865 -0.10680266 2.3509886e-38
-0.047912896 -0.090718865 -0.10680266 2.3509886e-38
-0.046058305 -0.091544032 -0.11070832 2.3509886e-38
-0.044077024 -0.091544032 -0.11070832 2.350988e-38
-0.04220609 -0.092401877 -0.11476859 2.3509869e-38
-0.0403184 -0.093238786 -0.11872979 2.3509863e-38
-0.091916025 -0.094390273 -0.11476859 2.2956701e-38
-0.089927629 -0.094390273 -0.11476859 2.3509876e-38
-0.087939218 -0.094390273 -0.11476859 2.3509879e-38
-0.085683867 -0.093525305 -0.11070832 2.350988e-38
-0.083702594 -0.093525305 -0.11070832 2.350988e-38
-0.081721306 -0.093525305 -0.11070832 2.3509883e-38
-0.079740033 -0.093525305 -0.11070832 2.3509883e-38
-0.077758759 -0.093525305 -0.11070832 2.3509524e-38
-0.075554922 -0.092693284 -0.10680266 2.3509883e-38
-0.073414505 -0.092053071 -0.1037974 2.3509883e-38
-0.071445346 -0.092053071 -0.1037974 2.3509883e-38
-0.069476187 -0.092053071 -0.1037974 2.3509883e-38
-0.067308031 -0.091204748 -0.099815212 2.3509883e-38
-0.065345854 -0.091204748 -0.099815212 2.3509883e-38
-0.063194238 -0.090336218 -0.095738135 2.3509883e-38
-0.060927454 -0.088850766 -0.088765226 2.3509886e-38
-0.058984648 -0.088850766 -0.088765226 2.3509886e-38
-0.057041842 -0.088850766 -0.088765226 2.3509886e-38
-0.055257875 -0.089708492 -0.09279152 2.3509886e-38
-0.053308014 -0.089708492 -0.09279152 2.3509886e-38
-0.051610604 -0.091204748 -0.099815212 2.3509886e-38
-0.049648423 -0.091204748 -0.099815212 2.3509886e-38
-0.047815412 -0.092053071 -0.1037974 2.3509886e-38
-0.045846254 -0.092053071 -0.1037974 2.3509886e-38
-0.043877091 -0.092053071 -0.1037974 2.3509883e-38
-0.042095747 -0.093525305 -0.11070832 2.3509876e-38
-0.040217694 -0.094390273 -0.11476859 2.3509873e-38
-0.038229298 -0.094390273 -0.11476859 2.3509879e-38
-0.036240898 -0.094390273 -0.11476859 2.3509883e-38
-0.091916025 -0.096378669 -0.11476859 2.3509879e-38
-0.089927629 -0.096378669 -0.11476859 2.350988e-38
-0.087939218 -0.096378669 -0.11476859 2.350988e-38
-0.085683867 -0.095506594 -0.11070832 2.3509883e-38
-0.083702594 -0.095506594 -0.11070832 2.3509527e-38
-0.081478208 -0.094667718 -0.10680266 2.3509527e-38
-0.079503775 -0.094667718 -0.10680266 2.3509886e-38
-0.077352822 -0.094022244 -0.1037974 2.3509527e-38
-0.075156748 -0.093166932 -0.099815212 2.3509886e-38
-0.073194563 -0.093166932 -0.099815212 2.3509886e-38
-0.071232393 -0.093166932 -0.099815212 2.3509883e-38
-0.069270208 -0.093166932 -0.099815212 2.3509883e-38
-0.067104295 -0.092291236 -0.095738135 2.3509883e-38
-0.065007195 -0.091658354 -0.09279152 2.3509886e-38
-0.063057333 -0.091658354 -0.09279152 2.3509886e-38
-0.060791943 -0.090142623 -0.085734449 2.3509886e-38
-0.058854457 -0.090142623 -0.085734449 2.3509886e-38
-0.057041842 -0.09079358 -0.088765226 2.3509886e-38
-0.054979477 -0.090142623 -0.085734449 2.3509886e-38
-0.053041983 -0.090142623 -0.085734449 2.3509886e-38
-0.051358148 -0.091658354 -0.09279152 2.3509886e-38
-0.04950903 -0.092291236 -0.095738135 2.3509886e-38
-0.047686245 -0.093166932 -0.099815212 2.3509886e-38
-0.045724064 -0.093166932 -0.099815212 2.3509886e-38
-0.043761887 -0.093166932 -0.099815212 2.3509886e-38
-0.041989606 -0.094667718 -0.10680266 2.3509527e-38
-0.040114466 -0.095506594 -0.11070832 2.3509527e-38
-0.038229298 -0.096378669 -0.11476859 2.3509168e-38
-0.036240898 -0.096378669 -0.11476859 2.3509168e-38
-0.091916025 -0.098367065 -0.11476859 2.3508798e-38
-0.089927629 -0.098367065 -0.11476859 2.350988e-38
-0.087939218 -0.098367065 -0.11476859 2.3509883e-38
-0.085683867 -0.097487867 -0.11070832 2.3509527e-38
-0.083452642 -0.096642151 -0.10680266 2.3509886e-38
-0.081478208 -0.096642151 -0.10680266 2.3509527e-38
-0.079321995 -0.095991403 -0.1037974 2.3509527e-38
-0.077118933 -0.095129102 -0.099815212 2.3509527e-38
-0.075156748 -0.095129102 -0.099815212 2.3509527e-38
-0.073194563 -0.095129102 -0.099815212 2.3509886e-38
-0.07101436 -0.094246268 -0.095738135 2.3509883e-38
-0.069059327 -0.094246268 -0.095738135 2.3509883e-38
-0.066957057 -0.093608215 -0.09279152 2.3509883e-38
-0.064666927 -0.092080101 -0.085734449 2.3509886e-38
-0.062544726 -0.091219291 -0.081759058 2.3509886e-38
-0.060437743 -0.090364665 -0.077812277 2.3509886e-38
-0.058514152 -0.090364665 -0.077812277 2.3509886e-38
-0.056753162 -0.091219291 -0.081759058 2.3509886e-38
-0.054822642 -0.091219291 -0.081759058 2.3509886e-38
-0.052892126 -0.091219291 -0.081759058 2.3509886e-38
-0.051104493 -0.092080101 -0.085734449 2.3509886e-38
-0.049167003 -0.092080101 -0.085734449 2.3509886e-38
-0.047229514 -0.092080101 -0.085734449 2.3509886e-38
-0.045598969 -0.094246268 -0.095738135 2.3509886e-38
-0.043558691 -0.093608215 -0.09279152 2.3509527e-38
-0.041608829 -0.093608215 -0.09279152 2.3509527e-38
-0.040114466 -0.097487867 -0.11070832 2.3508809e-38
-0.038133189 -0.097487867 -0.11070832 2.3508809e-38
-0.035058089 -0.086680889 -0.060800038 2.3508809e-38
-0.033164315 -0.086680889 -0.060800038 2.3508809e-38
-0.091916025 -0.10035546 -0.11476859 2.3509879e-38
-0.089927629 -0.10035546 -0.11476859 2.350988e-38
-0.087939218 -0.10035546 -0.11476859 2.3509883e-38
-0.085683867 -0.09946914 -0.11070832 2.3509886e-38
-0.083452642 -0.098616585 -0.10680266 2.3509886e-38
-0.081291154 -0.097960562 -0.1037974 2.3509527e-38
-0.079321995 -0.097960562 -0.1037974 2.341805e-38
-0.077118933 -0.097091287 -0.099815212 2.341805e-38
-0.074924424 -0.096201301 -0.095738135 2.341805e-38
-0.072969392 -0.096201301 -0.095738135 2.3509886e-38
-0.07101436 -0.096201301 -0.095738135 2.3509886e-38
-0.068906918 -0.095558092 -0.09279152 2.3509886e-38
-0.066604421 -0.094017595 -0.085734449 2.3509886e-38
-0.064475246 -0.093149811 -0.081759058 2.3509886e-38
-0.062544726 -0.093149811 -0.081759058 2.3509886e-38
-0.060299601 -0.091613799 -0.074722491 2.3509886e-38
-0.05838142 -0.091613799 -0.074722491 2.3509886e-38
-0.056590546 -0.092288271 -0.077812277 2.3509886e-38
-0.05466694 -0.092288271 -0.077812277 2.3509886e-38
-0.052743345 -0.092288271 -0.077812277 2.3509886e-38
-0.050961606 -0.093149811 -0.081759058 2.3509886e-38
-0.049031083 -0.093149811 -0.081759058 2.3509886e-38
-0.047100563 -0.093149811 -0.081759058 2.3509886e-38
-0.045170043 -0.093149811 -0.081759058 2.3509886e-38
-0.043125343 -0.092288271 -0.077812277 2.3509886e-38
-0.041201744 -0.092288271 -0.077812277 2.3509168e-38
-0.039278138 -0.092288271 -0.077812277 2.3509168e-38
-0.037281405 -0.091613799 -0.074722491 2.3508809e-38
-0.035058089 -0.088574663 -0.060800038 2.3508809e-38
-0.033103928 -0.087920904 -0.057805143 2.3508451e-38
-0.031215407 -0.087920904 -0.057805143 2.3508809e-38
-0.029326886 -0.087920904 -0.057805143 2.3509168e-38
-0.091916025 -0.10234386 -0.11476859 2.3509876e-38
-0.089927629 -0.10234386 -0.11476859 2.3509879e-38
-0.087665141 -0.10145043 -0.11070832 2.350988e-38
-0.085683867 -0.10145043 -0.11070832 2.3509883e-38
-0.083260313 -0.09992972 -0.1037974 2.341805e-38
-0.081043288 -0.099053472 -0.099815212 2.341805e-38
-0.079081103 -0.099053472 -0.099815212 2.3234379e-38
-0.077118933 -0.099053472 -0.099815212 2.3234379e-38
-0.074924424 -0.098156333 -0.095738135 2.3234379e-38
-0.072969392 -0.098156333 -0.095738135 2.341805e-38
-0.070856787 -0.097507954 -0.09279152 2.3509886e-38
-0.068906918 -0.097507954 -0.09279152 2.3509886e-38
-0.066604421 -0.095955089 -0.085734449 2.3509886e-38
-0.064284943 -0.094211861 -0.077812277 2.3509886e-38
-0.062361348 -0.094211861 -0.077812277 2.3509886e-38
-0.060120124 -0.09264864 -0.070708118 2.3509886e-38
-0.058208976 -0.09264864 -0.070708118 2.3509886e-38
-0.056463238 -0.093531981 -0.074722491 2.3509886e-38
-0.054545049 -0.093531981 -0.074722491 2.3509886e-38
-0.052626871 -0.093531981 -0.074722491 2.3509886e-38
-0.050819743 -0.094211861 -0.077812277 2.3509886e-38
-0.048896145 -0.094211861 -0.077812277 2.3509886e-38
-0.046972543 -0.094211861 -0.077812277 2.3509883e-38
-0.045048941 -0.094211861 -0.077812277 2.3509883e-38
-0.043125343 -0.094211861 -0.077812277 2.3509886e-38
-0.041201744 -0.094211861 -0.077812277 2.341805e-38
-0.039278138 -0.094211861 -0.077812277 2.3417691e-38
-0.037281405 -0.093531981 -0.074722491 2.3509168e-38
-0.035058089 -0.090468436 -0.060800038 2.3508809e-38
-0.033023167 -0.088928089 -0.05379983 2.3508451e-38
-0.03108516 -0.088252664 -0.05073031 2.3508809e-38
-0.029209044 -0.088252664 -0.05073031 2.3508809e-38
-0.027289119 -0.087605879 -0.047790967 2.3509524e-38
-0.025418159 -0.087605879 -0.047790967 2.2587927e-38
-0.091916025 -0.10433225 -0.11476859 2.3509869e-38
-0.089646429 -0.10343169 -0.11070832 2.3509876e-38
-0.087665141 -0.10343169 -0.11070832 2.3509879e-38
-0.085683867 -0.10343169 -0.11070832 2.350988e-38
-0.083260313 -0.10189888 -0.1037974 2.3418047e-38
-0.081043288 -0.10101564 -0.099815212 2.341805e-38
-0.079081103 -0.10101564 -0.099815212 2.3234379e-38
-0.076879457 -0.10011137 -0.095738135 2.3234379e-38
-0.074756518 -0.099457815 -0.09279152 2.3234379e-38
-0.072806649 -0.099457815 -0.09279152 2.341805e-38
-0.070641473 -0.098564804 -0.088765226 2.3509886e-38
-0.068698667 -0.098564804 -0.088765226 2.3509886e-38
-0.066208541 -0.096135467 -0.077812277 2.3509886e-38
-0.064135969 -0.095450163 -0.074722491 2.3509886e-38
-0.062031265 -0.094559789 -0.070708118 2.3509886e-38
-0.059988994 -0.093909279 -0.067775212 2.3509886e-38
-0.058082987 -0.093909279 -0.067775212 2.3509886e-38
-0.056176987 -0.093909279 -0.067775212 2.3509886e-38
-0.054386687 -0.094559789 -0.070708118 2.3509886e-38
-0.052475542 -0.094559789 -0.070708118 2.3509883e-38
-0.050708689 -0.095450163 -0.074722491 2.3509883e-38
-0.048790503 -0.095450163 -0.074722491 2.3509883e-38
-0.046872322 -0.095450163 -0.074722491 2.3509883e-38
-0.044954136 -0.095450163 -0.074722491 2.3509883e-38
-0.043035954 -0.095450163 -0.074722491 2.3418045e-38
-0.041117769 -0.095450163 -0.074722491 2.3234374e-38
-0.039199587 -0.095450163 -0.074722491 2.3418045e-38
-0.037281405 -0.095450163 -0.074722491 2.3509879e-38
-0.034992453 -0.091697961 -0.057805143 2.350952e-38
-0.032961275 -0.090128779 -0.05073031 2.3509158e-38
-0.031031046 -0.089476839 -0.047790967 2.35088e-38
-0.029160082 -0.089476839 -0.047790967 2.35088e-38
-0.027228858 -0.088580042 -0.043747626 2.3509158e-38
-0.025364988 -0.088580042 -0.043747626 2.350952e-38
-0.091916025 -0.10632066 -0.11476859 2.3509153e-38
-0.089646429 -0.10541297 -0.11070832 2.3509876e-38
-0.087665141 -0.10541297 -0.11070832 2.3509879e-38
-0.085229471 -0.10386805 -0.1037974 2.3418045e-38
-0.083005458 -0.10297783 -0.099815212 2.3418045e-38
-0.080789521 -0.1020664 -0.095738135 2.341805e-38
-0.078834489 -0.1020664 -0.095738135 2.3234379e-38
-0.07670638 -0.10140768 -0.09279152 2.3234379e-38
-0.074527085 -0.1005076 -0.088765226 2.341805e-38
-0.072584279 -0.1005076 -0.088765226 2.3509527e-38
-0.070479393 -0.099830076 -0.085734449 2.3509886e-38
-0.068541907 -0.099830076 -0.085734449 2.3509886e-38
-0.06605415 -0.097368345 -0.074722491 2.3509886e-38
-0.063942403 -0.096470937 -0.070708118 2.3509886e-38
-0.061894987 -0.095815286 -0.067775212 2.3509886e-38
-0.059988994 -0.095815286 -0.067775212 2.3509886e-38
-0.058082987 -0.095815286 -0.067775212 2.3509886e-38
-0.056176987 -0.095815286 -0.067775212 2.3509886e-38
-0.054270986 -0.095815286 -0.067775212 2.3509886e-38
-0.052475542 -0.096470937 -0.070708118 2.3509883e-38
-0.050564397 -0.096470937 -0.070708118 2.3509883e-38
-0.048653252 -0.096470937 -0.070708118 2.3509883e-38
-0.046872322 -0.097368345 -0.074722491 2.3509883e-38
-0.044954136 -0.097368345 -0.074722491 2.3509883e-38
-0.042919818 -0.096470937 -0.070708118 2.3418045e-38
-0.041008674 -0.096470937 -0.070708118 2.3234372e-38
-0.039097529 -0.096470937 -0.070708118 2.3418043e-38
-0.036951859 -0.094255984 -0.060800038 2.3509876e-38
-0.034837391 -0.092004895 -0.05073031 2.3509873e-38
-0.032961275 -0.092004895 -0.05073031 2.3509511e-38
-0.031031046 -0.091347814 -0.047790967 2.3509153e-38
-0.029092733 -0.090443924 -0.043747626 2.3509156e-38
-0.027228858 -0.090443924 -0.043747626 2.3509158e-38
-0.025285985 -0.089100882 -0.037739836 2.3415884e-38
-0.023432646 -0.089100882 -0.037739836 2.3231857e-38
-0.0038424833 -0.066531047 0.063221134 2.3509886e-38
-0.0021661604 -0.066531047 0.063221134 2.3140387e-38
-0.00048983842 -0.066531047 0.063221134 2.3324778e-38
0.0012258803 -0.067200795 0.060225166 2.3509527e-38
0.002907455 -0.067200795 0.060225166 2.3509527e-38
0.0045391275 -0.066531047 0.063221134 2.3509527e-38
0.0062154485 -0.066531047 0.063221134 2.3509527e-38
0.0078917714 -0.066531047 0.063221134 2.341769e-38
0.0095680943 -0.066531047 0.063221134 2.2772323e-38
-0.091627702 -0.10739426 -0.11070832 2.3049256e-38
-0.089646429 -0.10739426 -0.11070832 2.3418043e-38
-0.087401494 -0.10651429 -0.10680266 2.2681196e-38
-0.084967643 -0.10494001 -0.099815212 2.3418045e-38
-0.082744539 -0.10402142 -0.095738135 2.3326208e-38
-0.080606103 -0.10335754 -0.09279152 2.341805e-38
-0.078656241 -0.10335754 -0.09279152 2.3509886e-38
-0.076469883 -0.1024504 -0.088765226 2.2495736e-38
-0.074527085 -0.1024504 -0.088765226 2.3509527e-38
-0.072416887 -0.10176755 -0.085734449 2.3509886e-38
-0.070479393 -0.10176755 -0.085734449 2.3509886e-38
-0.068541907 -0.10176755 -0.085734449 2.3509886e-38
-0.065853551 -0.098382086 -0.070708118 2.3509886e-38
-0.063800991 -0.097721294 -0.067775212 2.3509886e-38
-0.061754037 -0.097037792 -0.064741574 2.3509886e-38
-0.059853356 -0.097037792 -0.064741574 2.3509886e-38
-0.057952676 -0.097037792 -0.064741574 2.3509886e-38
-0.056051988 -0.097037792 -0.064741574 2.3509886e-38
-0.054270986 -0.097721294 -0.067775212 2.3509886e-38
-0.052364983 -0.097721294 -0.067775212 2.3509886e-38
-0.050564397 -0.098382086 -0.070708118 2.3509886e-38
-0.048653252 -0.098382086 -0.070708118 2.3509886e-38
-0.046742108 -0.098382086 -0.070708118 2.3509886e-38
-0.044830963 -0.098382086 -0.070708118 2.3509886e-38
-0.042834971 -0.097721294 -0.067775212 2.3509886e-38
-0.040928967 -0.097721294 -0.067775212 2.341805e-38
-0.039022963 -0.097721294 -0.067775212 2.3509886e-38
-0.036713511 -0.093881011 -0.05073031 2.3509883e-38
-0.034772974 -0.093218774 -0.047790967 2.3509879e-38
-0.032820482 -0.092307791 -0.043747626 2.3509876e-38
-0.030956607 -0.092307791 -0.043747626 2.3509876e-38
-0.029042557 -0.091629088 -0.040735207 2.3509879e-38
-0.027183965 -0.091629088 -0.040735207 2.3509524e-38
-0.025246818 -0.090283155 -0.034761392 2.3509527e-38
-0.023398701 -0.090283155 -0.034761392 2.332478e-38
-0.021550581 -0.090283155 -0.034761392 2.3509168e-38
-0.0038424833 -0.068207368 0.063221134 2.3509167e-38
-0.0021661604 -0.068207368 0.063221134 2.3509527e-38
-0.00048983842 -0.068207368 0.063221134 2.3509168e-38
0.0011864835 -0.068207368 0.063221134 2.3509168e-38
0.002907455 -0.068882376 0.060225166 2.3509168e-38
0.0045391275 -0.068207368 0.063221134 2.3508809e-38
0.0062154485 -0.068207368 0.063221134 2.3508809e-38
0.0078917714 -0.068207368 0.063221134 2.3509527e-38
0.0095680943 -0.068207368 0.063221134 2.3509527e-38
0.011195253 -0.067739412 0.065298177 2.3417691e-38
0.012867932 -0.067739412 0.065298177 2.3325856e-38
-0.091627702 -0.10937552 -0.11070832 2.341804e-38
-0.089375928 -0.10848872 -0.10680266 2.341804e-38
-0.08719863 -0.10780637 -0.1037974 2.3234369e-38
-0.084967643 -0.1069022 -0.099815212 2.3418043e-38
-0.082744539 -0.10597645 -0.095738135 2.3234012e-38
-0.080355495 -0.1043932 -0.088765226 2.3048907e-38
-0.078412697 -0.1043932 -0.088765226 2.3509886e-38
-0.076291874 -0.10370506 -0.085734449 2.2955996e-38
-0.07435438 -0.10370506 -0.085734449 2.3509527e-38
-0.072416887 -0.10370506 -0.085734449 2.3509886e-38
-0.070266806 -0.10280241 -0.081759058 2.3509886e-38
-0.067764699 -0.10029322 -0.070708118 2.3509886e-38
-0.065555401 -0.09893848 -0.064741574 2.3509886e-38
-0.063320264 -0.097363517 -0.057805143 2.3509886e-38
-0.061431754 -0.097363517 -0.057805143 2.3509886e-38
-0.059543226 -0.097363517 -0.057805143 2.3509886e-38
-0.057654712 -0.097363517 -0.057805143 2.3509886e-38
-0.055766184 -0.097363517 -0.057805143 2.3509886e-38
-0.053995814 -0.098043531 -0.060800038 2.3509886e-38
-0.052250624 -0.09893848 -0.064741574 2.3509886e-38
-0.050458979 -0.099627286 -0.067775212 2.3509886e-38
-0.048552975 -0.099627286 -0.067775212 2.3509886e-38
-0.046742108 -0.10029322 -0.070708118 2.3509886e-38
-0.044740971 -0.099627286 -0.067775212 2.3509886e-38
-0.042747207 -0.09893848 -0.064741574 2.3509886e-38
-0.040385861 -0.095089734 -0.047790967 2.3509527e-38
-0.038514901 -0.095089734 -0.047790967 2.3509527e-38
-0.036548231 -0.094171658 -0.043747626 2.3509886e-38
-0.034684356 -0.094171658 -0.043747626 2.3509883e-38
-0.032759741 -0.09348768 -0.040735207 2.350988e-38
-0.030846003 -0.092807561 -0.037739836 2.3509879e-38
-0.028875519 -0.091210663 -0.030706845 2.3509883e-38
-0.02703451 -0.091210663 -0.030706845 2.3509886e-38
-0.025193501 -0.091210663 -0.030706845 2.2863803e-38
-0.023352493 -0.091210663 -0.030706845 2.3417333e-38
-0.02151148 -0.091210663 -0.030706845 2.3509168e-38
-0.0021661604 -0.069883689 0.063221134 2.3508446e-38
-0.00048983842 -0.069883689 0.063221134 2.3509168e-38
0.0011864835 -0.069883689 0.063221134 2.3415532e-38
0.002907455 -0.070563957 0.060225166 2.3509168e-38
0.0045391275 -0.069883689 0.063221134 2.3509168e-38
0.0062154485 -0.069883689 0.063221134 2.3509168e-38
0.0078917714 -0.069883689 0.063221134 2.3509527e-38
0.0095680943 -0.069883689 0.063221134 2.3509527e-38
0.011195253 -0.069412082 0.065298177 2.3509886e-38
0.012867932 -0.069412082 0.065298177 2.3325856e-38
-0.091627702 -0.11135681 -0.11070832 2.3509873e-38
-0.089167789 -0.10977553 -0.1037974 2.3509873e-38
-0.08719863 -0.10977553 -0.1037974 2.3325843e-38
-0.084967643 -0.10886435 -0.099815212 2.3509879e-38
-0.082555965 -0.10725726 -0.09279152 2.3418043e-38
-0.080355495 -0.10633601 -0.088765226 2.2680125e-38
-0.078229368 -0.10564254 -0.085734449 2.3509886e-38
-0.076291874 -0.10564254 -0.085734449 2.3417333e-38
-0.07435438 -0.10564254 -0.085734449 2.3417333e-38
-0.072416887 -0.10564254 -0.085734449 2.3509886e-38
-0.070266806 -0.10473295 -0.081759058 2.3509886e-38
-0.067456082 -0.10083917 -0.064741574 2.3509886e-38
-0.065208793 -0.099252045 -0.057805143 2.3509886e-38
-0.063127145 -0.098335579 -0.05379983 2.3509886e-38
-0.061245654 -0.098335579 -0.05379983 2.3509886e-38
-0.059364151 -0.098335579 -0.05379983 2.3509886e-38
-0.057350796 -0.097633243 -0.05073031 2.3509886e-38
-0.05547468 -0.097633243 -0.05073031 2.3509886e-38
-0.053323094 -0.09603554 -0.043747626 2.3509886e-38
-0.051459219 -0.09603554 -0.043747626 2.3509886e-38
-0.05034994 -0.10083917 -0.064741574 2.3509886e-38
-0.048552975 -0.10153329 -0.067775212 2.3509886e-38
-0.046742108 -0.10220437 -0.070708118 2.3509886e-38
-0.044740971 -0.10153329 -0.067775212 2.3509886e-38
-0.042256825 -0.096960694 -0.047790967 2.3509886e-38
-0.040385861 -0.096960694 -0.047790967 2.3509527e-38
-0.038335521 -0.095346272 -0.040735207 2.3509527e-38
-0.036026932 -0.090996325 -0.021724068 2.3509886e-38
-0.03420167 -0.090996325 -0.021724068 2.3509883e-38
-0.032639291 -0.093979403 -0.034761392 2.3418045e-38
-0.030716527 -0.093051672 -0.030706845 2.3418043e-38
-0.028776083 -0.091685757 -0.024737202 2.3418047e-38
-0.026945543 -0.091685757 -0.024737202 2.341805e-38
-0.025115002 -0.091685757 -0.024737202 2.3509527e-38
-0.023318995 -0.092379183 -0.02776774 2.341805e-38
-0.02151148 -0.093051672 -0.030706845 2.3509527e-38
-0.019670472 -0.093051672 -0.030706845 2.295636e-38
-0.0021661604 -0.071560025 0.063221134 2.3509524e-38
-0.00048983842 -0.071560025 0.063221134 2.3509165e-38
0.0011864835 -0.071560025 0.063221134 2.3415529e-38
0.002907455 -0.072245523 0.060225166 2.3508808e-38
0.0045391275 -0.071560025 0.063221134 2.3509168e-38
0.0062154485 -0.071560025 0.063221134 2.3509527e-38
0.0078917714 -0.071560025 0.063221134 2.3509527e-38
0.0095680943 -0.071560025 0.063221134 2.3509527e-38
0.011195253 -0.071084768 0.065298177 2.3509886e-38
0.012867932 -0.071084768 0.065298177 2.3325856e-38
0.014540612 -0.071084768 0.065298177 2.3325856e-38
-0.091136962 -0.11174469 -0.1037974 2.3509869e-38
-0.089167789 -0.11174469 -0.1037974 2.3509869e-38
-0.086929828 -0.11082654 -0.099815212 2.314001e-38
-0.084699571 -0.10988651 -0.095738135 2.3509876e-38
-0.082555965 -0.10920714 -0.09279152 2.350988e-38
-0.080355495 -0.10827883 -0.088765226 2.3325494e-38
-0.078229368 -0.10758002 -0.085734449 2.3509527e-38
-0.076291874 -0.10758002 -0.085734449 2.341805e-38
-0.07435438 -0.10758002 -0.085734449 2.3141467e-38
-0.072197333 -0.10666345 -0.081759058 2.3509886e-38
-0.070055746 -0.10575347 -0.077812277 2.3509886e-38
-0.067456082 -0.10273984 -0.064741574 2.3509886e-38
-0.065208793 -0.10114056 -0.057805143 2.3509886e-38
-0.063127145 -0.10021709 -0.05379983 2.3509886e-38
-0.061103035 -0.099509358 -0.05073031 2.3509886e-38
-0.059095491 -0.098831654 -0.047790967 2.3509886e-38
-0.057224531 -0.098831654 -0.047790967 2.3509886e-38
-0.055186968 -0.097899407 -0.043747626 2.3509886e-38
-0.053204253 -0.097204864 -0.040735207 2.3509886e-38
-0.051232748 -0.09651424 -0.037739836 2.3509886e-38
-0.049379408 -0.09651424 -0.037739836 2.3509886e-38
-0.047285609 -0.094892681 -0.030706845 2.3509886e-38
-0.0454446 -0.094892681 -0.030706845 2.3509886e-38
-0.043727998 -0.09582752 -0.034761392 2.3509886e-38
-0.041879881 -0.09582752 -0.034761392 2.3509886e-38
-0.040031765 -0.09582752 -0.034761392 2.3509527e-38
-0.03800584 -0.094215035 -0.02776774 2.3509527e-38
-0.036026932 -0.092821583 -0.021724068 2.3509886e-38
-0.03420167 -0.092821583 -0.021724068 2.3509883e-38
-0.032498274 -0.094215035 -0.02776774 2.3418045e-38
-0.030606624 -0.093516305 -0.024737202 2.3418045e-38
-0.028725896 -0.092821583 -0.021724068 2.3418047e-38
-0.026900638 -0.092821583 -0.021724068 2.341805e-38
-0.025075376 -0.092821583 -0.021724068 2.3141467e-38
-0.023250118 -0.092821583 -0.021724068 2.2681212e-38
-0.02142486 -0.092821583 -0.021724068 2.3049991e-38
-0.019599598 -0.092821583 -0.021724068 2.3234379e-38
-0.01777434 -0.092821583 -0.021724068 2.3234379e-38
-0.00045569427 -0.073927104 0.060225166 2.3509521e-38
0.0012258803 -0.073927104 0.060225166 2.3509521e-38
0.002907455 -0.073927104 0.060225166 2.3508801e-38
0.0045890296 -0.073927104 0.060225166 2.3509521e-38
0.0062154485 -0.073236346 0.063221134 2.3509524e-38
0.0078917714 -0.073236346 0.063221134 2.3509883e-38
0.0095680943 -0.073236346 0.063221134 2.3509883e-38
0.011244415 -0.073236346 0.063221134 2.3509883e-38
0.012867932 -0.072757453 0.065298177 2.3418047e-38
0.014540612 -0.072757453 0.065298177 2.341805e-38
-0.091136962 -0.11371385 -0.1037974 2.3509863e-38
-0.089167789 -0.11371385 -0.1037974 2.3509866e-38
-0.086929828 -0.11278872 -0.099815212 2.3509509e-38
-0.084699571 -0.11184154 -0.095738135 2.3416237e-38
-0.082298309 -0.11022164 -0.088765226 2.3509879e-38
-0.080166847 -0.10951753 -0.085734449 2.3509527e-38
-0.077988893 -0.10859399 -0.081759058 2.341805e-38
-0.076058373 -0.10859399 -0.081759058 2.3234379e-38
-0.074127853 -0.10859399 -0.081759058 2.3049991e-38
-0.072197333 -0.10859399 -0.081759058 2.341805e-38
-0.070055746 -0.10767709 -0.077812277 2.3509886e-38
-0.066579342 -0.10070263 -0.047790967 2.3509886e-38
-0.064708382 -0.10070263 -0.047790967 2.3509886e-38
-0.062642463 -0.099763289 -0.043747626 2.3509886e-38
-0.060778592 -0.099763289 -0.043747626 2.3509886e-38
-0.058914717 -0.099763289 -0.043747626 2.3509886e-38
-0.057050843 -0.099763289 -0.043747626 2.3509886e-38
-0.055062849 -0.099063456 -0.040735207 2.3509886e-38
-0.053086087 -0.098367572 -0.037739836 2.3509886e-38
-0.051120471 -0.097675636 -0.034761392 2.3509886e-38
-0.049272351 -0.097675636 -0.034761392 2.3509886e-38
-0.047285609 -0.096733689 -0.030706845 2.3509886e-38
-0.0454446 -0.096733689 -0.030706845 2.3509886e-38
-0.043603592 -0.096733689 -0.030706845 2.3509886e-38
-0.041762579 -0.096733689 -0.030706845 2.3509886e-38
-0.039921571 -0.096733689 -0.030706845 2.341805e-38
-0.03800584 -0.096050888 -0.02776774 2.341805e-38
-0.036098253 -0.095346853 -0.024737202 2.341805e-38
-0.034267712 -0.095346853 -0.024737202 2.3418047e-38
-0.032437168 -0.095346853 -0.024737202 2.3418045e-38
-0.030606624 -0.095346853 -0.024737202 2.3418045e-38
-0.028725896 -0.094646841 -0.021724068 2.3234376e-38
-0.026900638 -0.094646841 -0.021724068 2.3234379e-38
-0.025035981 -0.093950883 -0.018728338 2.3234379e-38
-0.023215976 -0.093950883 -0.018728338 2.3142544e-38
-0.02142486 -0.094646841 -0.021724068 2.2774125e-38
-0.019575961 -0.093950883 -0.018728338 2.3050708e-38
-0.017755955 -0.093950883 -0.018728338 2.2958873e-38
-0.01593595 -0.093950883 -0.018728338 2.2958873e-38
-0.014123821 -0.094646841 -0.021724068 2.2775196e-38
0.0012258803 -0.075608671 0.060225166 2.3415884e-38
0.002907455 -0.075608671 0.060225166 2.35088e-38
0.0045890296 -0.075608671 0.060225166 2.350952e-38
0.0062154485 -0.074912667 0.063221134 2.3509521e-38
0.0078917714 -0.074912667 0.063221134 2.350988e-38
0.0095680943 -0.074912667 0.063221134 2.350952e-38
0.011244415 -0.074912667 0.063221134 2.350988e-38
0.012996905 -0.075608671 0.060225166 2.3326208e-38
0.053063795 -0.08676134 0.01221887 2.3048879e-39
0.054829538 -0.08676134 0.01221887 2.3048879e-39
0.056595288 -0.08676134 0.01221887 2.3978024e-39
0.058153026 -0.086063579 0.015222348 1.6602374e-39
0.059913501 -0.086063579 0.015222348 1.5680446e-39
0.061673984 -0.086063579 0.015222348 1.6602402e-39
-0.089167789 -0.115683 -0.1037974 2.3508421e-38
-0.086929828 -0.11475091 -0.099815212 2.3509863e-38
-0.084241107 -0.11216442 -0.088765226 2.3509149e-38
-0.08210434 -0.11145501 -0.085734449 2.3508797e-38
-0.079919413 -0.11052449 -0.081759058 2.3509883e-38
-0.077988893 -0.11052449 -0.081759058 2.3325856e-38
-0.075826541 -0.10960068 -0.077812277 2.3234379e-38
-0.07390295 -0.10960068 -0.077812277 2.3234379e-38
-0.072197333 -0.11052449 -0.081759058 2.341805e-38
-0.068450302 -0.10257359 -0.047790967 2.3509886e-38
-0.066370204 -0.10162716 -0.043747626 2.3509886e-38
-0.064506337 -0.10162716 -0.043747626 2.3509886e-38
-0.062642463 -0.10162716 -0.043747626 2.3509886e-38
-0.060638625 -0.10092205 -0.040735207 2.3509886e-38
-0.058780033 -0.10092205 -0.040735207 2.3509886e-38
-0.056921441 -0.10092205 -0.040735207 2.3509886e-38
-0.054816712 -0.099523753 -0.034761392 2.3509886e-38
-0.052808635 -0.098574698 -0.030706845 2.3509886e-38
-0.050967626 -0.098574698 -0.030706845 2.3509886e-38
-0.049126618 -0.098574698 -0.030706845 2.3509886e-38
-0.047185119 -0.097886756 -0.02776774 2.3509886e-38
-0.045349266 -0.097886756 -0.02776774 2.3509886e-38
-0.043420423 -0.097177386 -0.024737202 2.3509886e-38
-0.041589882 -0.097177386 -0.024737202 2.3509886e-38
-0.039759338 -0.097177386 -0.024737202 2.341805e-38
-0.037852194 -0.096472099 -0.021724068 2.341805e-38
-0.036026932 -0.096472099 -0.021724068 2.341805e-38
-0.03420167 -0.096472099 -0.021724068 2.3418047e-38
-0.032376412 -0.096472099 -0.021724068 2.3418045e-38
-0.030551154 -0.096472099 -0.021724068 2.3234374e-38
-0.028675996 -0.095770895 -0.018728338 2.3234376e-38
-0.02685599 -0.095770895 -0.018728338 2.3142544e-38
-0.025035981 -0.095770895 -0.018728338 2.2497539e-38
-0.023215976 -0.095770895 -0.018728338 2.2958873e-38
-0.02139597 -0.095770895 -0.018728338 2.2958873e-38
-0.019575961 -0.095770895 -0.018728338 2.2867037e-38
-0.017731823 -0.094850481 -0.014796101 2.2683366e-38
-0.015918713 -0.094850481 -0.014796101 2.2775202e-38
-0.014115942 -0.095770895 -0.018728338 1.9365033e-38
0.002907455 -0.077290252 0.060225166 1.806889e-38
0.0045890296 -0.077290252 0.060225166 1.8437317e-38
0.0062706051 -0.077290252 0.060225166 1.834584e-38
0.0079521807 -0.077290252 0.060225166 1.7609354e-38
0.0096337544 -0.077290252 0.060225166 1.7332767e-38
0.01131533 -0.077290252 0.060225166 1.7240932e-38
0.012996905 -0.077290252 0.060225166 1.6780672e-38
0.051298052 -0.088527083 0.01221887 3.1342885e-39
0.053063795 -0.088527083 0.01221887 1.0141491e-39
0.054829538 -0.088527083 0.01221887 9.219535e-40
0.056595288 -0.088527083 0.01221887 2.0290199e-39
0.058153026 -0.087824062 0.015222348 2.0290199e-39
0.059913501 -0.087824062 0.015222348 1.1070664e-39
0.061673984 -0.087824062 0.015222348 1.2914577e-39
0.063658275 -0.088527083 0.01221887 2.0283039e-39
0.065194942 -0.087824062 0.015222348 2.6736733e-39
0.066955425 -0.087824062 0.015222348 2.76515e-39
0.0687159 -0.087824062 0.015222348 2.3963675e-39
-0.085979328 -0.11339252 -0.085734449 2.3509143e-38
-0.084041834 -0.11339252 -0.085734449 2.3509507e-38
-0.08210434 -0.11339252 -0.085734449 2.3508432e-38
-0.079919413 -0.11245503 -0.081759058 2.350988e-38
-0.077988893 -0.11245503 -0.081759058 2.3141466e-38
-0.074827299 -0.1075124 -0.060800038 2.3050708e-38
-0.072534636 -0.10586159 -0.05379983 2.3142544e-38
-0.07048361 -0.10513772 -0.05073031 2.341805e-38
-0.068234086 -0.10349102 -0.043747626 2.3509886e-38
-0.066370204 -0.10349102 -0.043747626 2.3509886e-38
-0.064506337 -0.10349102 -0.043747626 2.3509886e-38
-0.062642463 -0.10349102 -0.043747626 2.3509886e-38
-0.060638625 -0.10278064 -0.040735207 2.3509886e-38
-0.058646109 -0.10207425 -0.037739836 2.3509886e-38
-0.05679277 -0.10207425 -0.037739836 2.3509886e-38
-0.054816712 -0.10137187 -0.034761392 2.3509886e-38
-0.052808635 -0.10041572 -0.030706845 2.3509886e-38
-0.050967626 -0.10041572 -0.030706845 2.3509886e-38
-0.049020976 -0.099722609 -0.02776774 2.3509886e-38
-0.047081508 -0.099007934 -0.024737202 2.3509886e-38
-0.04515323 -0.098297372 -0.021724068 2.3509886e-38
-0.043327969 -0.098297372 -0.021724068 2.3509886e-38
-0.04150271 -0.098297372 -0.021724068 2.3509886e-38
-0.039677452 -0.098297372 -0.021724068 2.3509527e-38
-0.037852194 -0.098297372 -0.021724068 2.3509527e-38
-0.035956021 -0.097590908 -0.018728338 2.341805e-38
-0.034136016 -0.097590908 -0.018728338 2.3418047e-38
-0.03231601 -0.097590908 -0.018728338 2.3234374e-38
-0.030423611 -0.096663594 -0.014796101 2.3234372e-38
-0.028610498 -0.096663594 -0.014796101 2.3234374e-38
-0.026797388 -0.096663594 -0.014796101 2.3142541e-38
-0.024984274 -0.096663594 -0.014796101 2.3142544e-38
-0.02317116 -0.096663594 -0.014796101 2.2958873e-38
-0.02135805 -0.096663594 -0.014796101 2.2314947e-38
-0.019544937 -0.096663594 -0.014796101 2.2775202e-38
-0.017731823 -0.096663594 -0.014796101 2.2407857e-38
-0.015918713 -0.096663594 -0.014796101 2.0841605e-38
-0.014097548 -0.095941633 -0.011734687 1.6046707e-38
-0.012287228 -0.09524864 -0.0087960586 1.2635106e-38
-0.010484635 -0.09524864 -0.0087960586 1.4845638e-38
0.0045890296 -0.078971818 0.060225166 1.6870347e-38
0.0062706051 -0.078971818 0.060225166 1.6778512e-38
0.0080129681 -0.079682782 0.057210363 1.594983e-38
0.0096998299 -0.079682782 0.057210363 1.5673243e-38
0.01138669 -0.079682782 0.057210363 1.5673962e-38
0.042469319 -0.090292826 0.01221887 3.0431929e-39
0.044235066 -0.090292826 0.01221887 2.305981e-39
0.046000812 -0.090292826 0.01221887 1.9361082e-39
0.047590144 -0.089584544 0.015222348 1.8435455e-39
0.049350623 -0.089584544 0.015222348 3.5030682e-39
0.051298052 -0.090292826 0.01221887 3.780374e-39
0.05344519 -0.091698244 0.0062592402 2.028657e-39
0.055021562 -0.090981558 0.0092983618 2.1208526e-39
0.056792431 -0.090981558 0.0092983618 3.2268442e-39
0.058361031 -0.090292826 0.01221887 2.7658661e-39
0.060126781 -0.090292826 0.01221887 1.751717e-39
0.061673984 -0.089584544 0.015222348 1.8439126e-39
0.063434459 -0.089584544 0.015222348 2.1205023e-39
0.065194942 -0.089584544 0.015222348 2.6736761e-39
0.066955425 -0.089584544 0.015222348 2.950263e-39
0.0687159 -0.089584544 0.015222348 3.0424586e-39
0.070721254 -0.090292826 0.01221887 3.5027207e-39
0.072487012 -0.090292826 0.01221887 3.963696e-39
0.074759543 -0.091698244 0.0062592402 6.0834724e-39
0.076535732 -0.091698244 0.0062592402 5.9912768e-39
-0.084041834 -0.11533 -0.085734449 2.3509504e-38
-0.08210434 -0.11533 -0.085734449 2.3508071e-38
-0.079919413 -0.11438553 -0.081759058 2.3509879e-38
-0.077563241 -0.1127138 -0.074722491 2.3417687e-38
-0.074827299 -0.10940616 -0.060800038 2.3234379e-38
-0.072534636 -0.10774307 -0.05379983 2.3234379e-38
-0.070321269 -0.10631551 -0.047790967 2.341805e-38
-0.068234086 -0.10535492 -0.043747626 2.3509886e-38
-0.066370204 -0.10535492 -0.043747626 2.3509886e-38
-0.064355806 -0.10463922 -0.040735207 2.3509886e-38
-0.062497217 -0.10463922 -0.040735207 2.3509886e-38
-0.060638625 -0.10463922 -0.040735207 2.3509886e-38
-0.058646109 -0.1039276 -0.037739836 2.3509886e-38
-0.05679277 -0.1039276 -0.037739836 2.3509886e-38
-0.054816712 -0.10322 -0.034761392 2.3509886e-38
-0.052692689 -0.10155846 -0.02776774 2.3509886e-38
-0.050742593 -0.10083848 -0.024737202 2.3509886e-38
-0.048912048 -0.10083848 -0.024737202 2.3509886e-38
-0.046978489 -0.10012263 -0.021724068 2.3509886e-38
-0.045056056 -0.099410906 -0.018728338 2.3509886e-38
-0.043236051 -0.099410906 -0.018728338 2.3509886e-38
-0.041416045 -0.099410906 -0.018728338 2.3509886e-38
-0.039596036 -0.099410906 -0.018728338 2.3509527e-38
-0.037676062 -0.098476708 -0.014796101 2.3509527e-38
-0.035862949 -0.098476708 -0.014796101 2.3509886e-38
-0.034049835 -0.098476708 -0.014796101 2.3418047e-38
-0.032174993 -0.097749382 -0.011734687 2.3418045e-38
-0.030367251 -0.097749382 -0.011734687 2.3234372e-38
-0.028559506 -0.097749382 -0.011734687 2.3234372e-38
-0.02675176 -0.097749382 -0.011734687 2.3142538e-38
-0.024944019 -0.097749382 -0.011734687 2.2866677e-38
-0.023136273 -0.097749382 -0.011734687 1.7151271e-38
-0.021328527 -0.097749382 -0.011734687 1.1435861e-38
-0.019520782 -0.097749382 -0.011734687 1.1436577e-38
-0.017713036 -0.097749382 -0.011734687 1.0422422e-38
-0.015905295 -0.097749382 -0.011734687 1.0239463e-38
-0.01408982 -0.097051233 -0.0087960586 1.0147263e-38
-0.012281938 -0.095617667 -0.0027619228 1.2635103e-38
-0.010489925 -0.095617667 -0.0027619228 1.4016234e-38
0.0064176871 -0.08255145 0.052235939 1.7516433e-38
0.0081132697 -0.08255145 0.052235939 1.6779588e-38
0.0098088523 -0.08255145 0.052235939 1.6687392e-38
0.035683241 -0.093474448 0.0062592402 4.1488061e-39
0.037312899 -0.092752427 0.0092983618 4.2406472e-39
0.038937826 -0.092058569 0.01221887 3.1346626e-39
0.040703572 -0.092058569 0.01221887 2.8591575e-39
0.042469319 -0.092058569 0.01221887 4.1502593e-39
0.044235066 -0.092058569 0.01221887 5.4406324e-39
0.045829665 -0.091345012 0.015222348 5.1629553e-39
0.047590144 -0.091345012 0.015222348 4.5179376e-39
0.049350623 -0.091345012 0.015222348 6.5462428e-39
0.051111102 -0.091345012 0.015222348 8.3901554e-39
0.053063795 -0.092058569 0.01221887 8.0213729e-39
0.054829538 -0.092058569 0.01221887 8.4823511e-39
0.056595288 -0.092058569 0.01221887 8.6663864e-39
0.058361031 -0.092058569 0.01221887 6.7302782e-39
0.059913501 -0.091345012 0.015222348 8.8507805e-39
0.061673984 -0.091345012 0.015222348 8.4819979e-39
0.063434459 -0.091345012 0.015222348 8.1132182e-39
0.065194942 -0.091345012 0.015222348 8.0210226e-39
0.066955425 -0.091345012 0.015222348 7.8362754e-39
0.0687159 -0.091345012 0.015222348 7.7440798e-39
0.070721254 -0.092058569 0.01221887 8.0206667e-39
0.072487012 -0.092058569 0.01221887 8.6656759e-39
0.074759543 -0.093474448 0.0062592402 6.0831165e-39
0.076535732 -0.093474448 0.0062592402 6.2678637e-39
0.078311935 -0.093474448 0.0062592402 5.8068855e-39
0.080364197 -0.094200835 0.0032017604 5.1615161e-39
0.082145765 -0.094200835 0.0032017604 5.1615161e-39
0.083927318 -0.094200835 0.0032017604 5.438103e-39
0.085708871 -0.094200835 0.0032017604 4.6090626e-39
0.087490425 -0.094200835 0.0032017604 3.5027151e-39
-0.085710973 -0.11631607 -0.081759058 2.2766536e-38
-0.083780453 -0.11631607 -0.081759058 2.3508786e-38
-0.081597343 -0.11537148 -0.077812277 2.3507349e-38
-0.079481438 -0.114632 -0.074722491 2.3509873e-38
-0.076959506 -0.11224325 -0.064741574 2.2864149e-38
-0.07465139 -0.11058317 -0.057805143 2.3418047e-38
-0.072534636 -0.10962458 -0.05379983 2.3049626e-38
-0.070321269 -0.10818647 -0.047790967 2.3509886e-38
-0.068234086 -0.10721879 -0.043747626 2.3509886e-38
-0.066370204 -0.10721879 -0.043747626 2.3509886e-38
-0.064355806 -0.10649781 -0.040735207 2.3509886e-38
-0.062497217 -0.10649781 -0.040735207 2.3509886e-38
-0.060499448 -0.10578094 -0.037739836 2.3509886e-38
-0.058512945 -0.1050681 -0.034761392 2.3509886e-38
-0.056664828 -0.1050681 -0.034761392 2.3509886e-38
-0.05464964 -0.10409774 -0.030706845 2.3509886e-38
-0.052692689 -0.10339431 -0.02776774 2.3509886e-38
-0.050742593 -0.10266902 -0.024737202 2.3509886e-38
-0.048803747 -0.10194789 -0.021724068 2.3509886e-38
-0.046876065 -0.10123092 -0.018728338 2.3509886e-38
-0.04492851 -0.10028981 -0.014796101 2.3509886e-38
-0.043115396 -0.10028981 -0.014796101 2.3509886e-38
-0.041302282 -0.10028981 -0.014796101 2.3509886e-38
-0.039405975 -0.099557132 -0.011734687 2.3509527e-38
-0.037523519 -0.098853827 -0.0087960586 2.3325138e-38
-0.035720926 -0.098853827 -0.0087960586 2.3048907e-38
-0.033918332 -0.098853827 -0.0087960586 2.3418045e-38
-0.032115743 -0.098853827 -0.0087960586 2.3418043e-38
-0.030313153 -0.098853827 -0.0087960586 2.3050696e-38
-0.028510559 -0.098853827 -0.0087960586 2.3234369e-38
-0.026707966 -0.098853827 -0.0087960586 2.3142537e-38
-0.024905372 -0.098853827 -0.0087960586 1.3739307e-38
-0.023102783 -0.098853827 -0.0087960586 9.9603678e-39
-0.021300189 -0.098853827 -0.0087960586 6.2729028e-39
-0.019497596 -0.098853827 -0.0087960586 7.1955751e-39
-0.017695006 -0.098853827 -0.0087960586 6.6427573e-39
-0.015892413 -0.098853827 -0.0087960586 7.4725137e-39
-0.01408982 -0.098853827 -0.0087960586 8.3948232e-39
-0.012281938 -0.09740968 -0.0027619228 1.1529112e-38
-0.010489925 -0.09740968 -0.0027619228 1.3094278e-38
0.0065274583 -0.085674062 0.046273328 1.6594476e-38
0.008233496 -0.085674062 0.046273328 1.5765436e-38
0.010115606 -0.087596789 0.038239576 1.567324e-38
0.011835729 -0.087596789 0.038239576 1.6227133e-38
0.03364059 -0.093824327 0.01221887 5.1622364e-39
0.035406336 -0.093824327 0.01221887 5.0707624e-39
0.037172083 -0.093824327 0.01221887 4.056256e-39
0.038787745 -0.093105495 0.015222348 3.042467e-39
0.040548224 -0.093105495 0.015222348 4.4264832e-39
0.042308703 -0.093105495 0.015222348 7.2849107e-39
0.044069182 -0.093105495 0.015222348 7.9299144e-39
0.045829665 -0.093105495 0.015222348 9.7734556e-39
0.047414772 -0.092390925 0.018208064 8.6667423e-39
0.049170017 -0.092390925 0.018208064 1.0049677e-38
0.050925262 -0.092390925 0.018208064 8.758938e-39
0.052871585 -0.093105495 0.015222348 9.4039514e-39
0.054829538 -0.093824327 0.01221887 8.8507777e-39
0.056392543 -0.093105495 0.015222348 7.7444329e-39
0.058153026 -0.093105495 0.015222348 7.8366285e-39
0.059913501 -0.093105495 0.015222348 1.0049326e-38
0.061673984 -0.093105495 0.015222348 9.3117614e-39
0.063434459 -0.093105495 0.015222348 8.6660361e-39
0.065194942 -0.093105495 0.015222348 8.5738405e-39
0.066955425 -0.093105495 0.015222348 8.5738405e-39
0.0687159 -0.093105495 0.015222348 8.1128623e-39
0.070721254 -0.093824327 0.01221887 7.5596899e-39
0.072730228 -0.094523281 0.0092983618 7.190906e-39
0.074759543 -0.095250636 0.0062592402 3.3183266e-39
0.076535732 -0.095250636 0.0062592402 2.7644298e-39
0.078311935 -0.095250636 0.0062592402 1.8424735e-39
0.080364197 -0.095982388 0.0032017604 1.9346691e-39
0.082145765 -0.095982388 0.0032017604 2.3034516e-39
0.083927318 -0.095982388 0.0032017604 1.4736909e-39
0.085708871 -0.095982388 0.0032017604 6.4465054e-40
0.087490425 -0.095982388 0.0032017604 1.29002e-39
0.089271978 -0.095982388 0.0032017604 1.1978243e-39
-0.083780453 -0.11824657 -0.081759058 2.3506622e-38
-0.08139962 -0.11655019 -0.074722491 2.3509504e-38
-0.07923156 -0.11558239 -0.070708118 2.3509869e-38
-0.076959506 -0.11414395 -0.064741574 2.350987e-38
-0.07465139 -0.11247168 -0.057805143 2.3509873e-38
-0.072534636 -0.11150609 -0.05379983 2.3509879e-38
-0.070321269 -0.11005743 -0.047790967 2.3509883e-38
-0.068234086 -0.10908265 -0.043747626 2.3509886e-38
-0.066370204 -0.10908265 -0.043747626 2.3509886e-38
-0.064355806 -0.1083564 -0.040735207 2.3509886e-38
-0.062352788 -0.10763429 -0.037739836 2.3509886e-38
-0.060361061 -0.10691623 -0.034761392 2.3509886e-38
-0.058512945 -0.10691623 -0.034761392 2.3509886e-38
-0.056490656 -0.10593875 -0.030706845 2.3509886e-38
-0.054528546 -0.10523017 -0.02776774 2.3509886e-38
-0.052573133 -0.10449956 -0.024737202 2.3509886e-38
-0.050629005 -0.10377313 -0.021724068 2.3509886e-38
-0.048803747 -0.10377313 -0.021724068 2.3509886e-38
-0.046876065 -0.10305093 -0.018728338 2.3509886e-38
-0.04492851 -0.10210292 -0.014796101 2.3509886e-38
-0.043021463 -0.10136487 -0.011734687 2.3509886e-38
-0.041213717 -0.10136487 -0.011734687 2.3509886e-38
-0.039326113 -0.10065642 -0.0087960586 2.3509527e-38
-0.037446592 -0.099926919 -0.0057701692 2.3509527e-38
-0.035649303 -0.099926919 -0.0057701692 2.3509883e-38
-0.033852015 -0.099926919 -0.0057701692 2.350988e-38
-0.03205473 -0.099926919 -0.0057701692 2.2588278e-38
-0.030202061 -0.099201679 -0.0027619228 7.8376935e-39
-0.028360236 -0.098480701 0.00022868067 3.227912e-39
-0.026573468 -0.098480701 0.00022868067 2.1226463e-39
-0.024905372 -0.10065642 -0.0087960586 4.6115738e-39
-0.023102783 -0.10065642 -0.0087960586 4.5197411e-39
-0.021300189 -0.10065642 -0.0087960586 4.9817982e-39
-0.019497596 -0.10065642 -0.0087960586 3.2304372e-39
-0.017695006 -0.10065642 -0.0087960586 3.4155459e-39
-0.015892413 -0.10065642 -0.0087960586 2.493584e-39
-0.01408982 -0.10065642 -0.0087960586 3.6002875e-39
0.0066753598 -0.089316905 0.038239576 1.6133498e-38
0.0083954828 -0.089316905 0.038239576 1.5581045e-38
0.010115606 -0.089316905 0.038239576 1.5396653e-38
0.011835729 -0.089316905 0.038239576 1.5397372e-38
0.029489588 -0.091965273 0.027254321 8.8493385e-39
0.031228971 -0.091965273 0.027254321 9.8642135e-39
0.032968353 -0.091965273 0.027254321 8.6656703e-39
0.03470774 -0.091965273 0.027254321 9.5879924e-39
0.036883302 -0.094146177 0.018208064 1.0510668e-38
0.038638547 -0.094146177 0.018208064 1.0511389e-38
0.040393792 -0.094146177 0.018208064 1.0419196e-38
0.042149037 -0.094146177 0.018208064 8.760038e-39
0.043904282 -0.094146177 0.018208064 7.746242e-39
0.045659527 -0.094146177 0.018208064 8.2990458e-39
0.047414772 -0.094146177 0.018208064 6.1778205e-39
0.049170017 -0.094146177 0.018208064 5.9927131e-39
0.050925262 -0.094146177 0.018208064 3.3190399e-39
0.052680507 -0.094146177 0.018208064 2.7658661e-39
0.05463206 -0.094865978 0.015222348 1.8439098e-39
0.056392543 -0.094865978 0.015222348 2.0283039e-39
0.058153026 -0.094865978 0.015222348 3.4112383e-39
0.059913501 -0.094865978 0.015222348 1.8439154e-39
0.061673984 -0.094865978 0.015222348 8.2976347e-40
0.063434459 -0.094865978 0.015222348 5.6051939e-45
0.065194942 -0.094865978 0.015222348 5.6051939e-45
0.066955425 -0.094865978 0.015222348 9.1842503e-41
0.0687159 -0.094865978 0.015222348 9.2561369e-41
0.070721254 -0.09559007 0.01221887 9.256277e-41
0.072730228 -0.09629415 0.0092983618 2.7623376e-40
0.074759543 -0.09702684 0.0062592402 7.3684898e-40
0.076535732 -0.09702684 0.0062592402 7.3612591e-40
0.078311935 -0.09702684 0.0062592402 2.7550649e-40
0.080364197 -0.097763941 0.0032017604 4.5953902e-40
0.082145765 -0.097763941 0.0032017604 1.1971041e-39
0.083927318 -0.097763941 0.0032017604 1.0127128e-39
0.085708871 -0.097763941 0.0032017604 7.3684617e-40
0.087490425 -0.097763941 0.0032017604 1.6588025e-39
0.089271978 -0.097763941 0.0032017604 9.2123743e-40
-0.10260431 -0.13670443 -0.14981851 1.0787238e-38
-0.10024588 -0.13572191 -0.14577255 9.6794481e-39
-0.097903728 -0.13474621 -0.1417546 5.0682247e-39
-0.095868006 -0.13474621 -0.1417546 4.3295793e-39
-0.093548939 -0.13377722 -0.1377643 3.9600737e-39
-0.09124577 -0.13281487 -0.13380131 2.8530044e-39
-0.089223996 -0.13281487 -0.13380131 5.8036205e-39
-0.087202236 -0.13281487 -0.13380131 1.7605021e-38
-0.08139962 -0.11846836 -0.074722491 2.2861251e-38
-0.079049006 -0.11678131 -0.067775212 2.35095e-38
-0.076721072 -0.11508749 -0.060800038 2.3509863e-38
-0.07465139 -0.1143602 -0.057805143 2.332439e-38
-0.072534636 -0.11338757 -0.05379983 2.2496074e-38
-0.070321269 -0.11192839 -0.047790967 2.350988e-38
-0.068234086 -0.11094652 -0.043747626 2.3509886e-38
-0.066214398 -0.11021499 -0.040735207 2.3509886e-38
-0.064355806 -0.11021499 -0.040735207 2.3509886e-38
-0.062352788 -0.10948761 -0.037739836 2.3509886e-38
-0.060361061 -0.10876434 -0.034761392 2.3509886e-38
-0.058512945 -0.10876434 -0.034761392 2.3509886e-38
-0.056490656 -0.10777976 -0.030706845 2.3509886e-38
-0.054528546 -0.10706602 -0.02776774 2.3509886e-38
-0.052573133 -0.10633011 -0.024737202 2.3509886e-38
-0.050629005 -0.10559841 -0.021724068 2.3509886e-38
-0.048696071 -0.10487093 -0.018728338 2.3509886e-38
-0.04674162 -0.10391603 -0.014796101 2.3509886e-38
-0.04492851 -0.10391603 -0.014796101 2.3509886e-38
-0.042931296 -0.10245901 -0.0087960586 2.3509886e-38
-0.041128702 -0.10245901 -0.0087960586 2.3509886e-38
-0.039326113 -0.10245901 -0.0087960586 2.3509167e-38
-0.037370112 -0.10099369 -0.0027619228 2.3508446e-38
-0.035578098 -0.10099369 -0.0027619228 2.3508441e-38
-0.033720542 -0.10026747 0.00022868067 2.3509879e-38
-0.031933773 -0.10026747 0.00022868067 2.3509873e-38
-0.030092273 -0.099545494 0.0032017604 3.9651141e-39
-0.028259788 -0.098803028 0.0062592402 2.1212015e-39
-0.026483592 -0.098803028 0.0062592402 3.9654771e-39
-0.024707396 -0.098803028 0.0062592402 5.9015909e-39
-0.022795025 -0.095901415 0.018208064 7.0075811e-39
-0.02103978 -0.095901415 0.018208064 8.0228121e-39
-0.019213159 -0.093704656 0.027254321 5.6257243e-39
-0.017473776 -0.093704656 0.027254321 5.1658209e-39
0.0066753598 -0.091037035 0.038239576 1.5948751e-38
0.0083954828 -0.091037035 0.038239576 1.594983e-38
0.010115606 -0.091037035 0.038239576 1.5581047e-38
0.011835729 -0.091037035 0.038239576 1.5212984e-38
0.013555852 -0.091037035 0.038239576 1.5213344e-38
0.015275975 -0.091037035 0.038239576 1.5397738e-38
0.017081819 -0.091756567 0.03527651 1.456798e-38
0.018807139 -0.091756567 0.03527651 1.3922611e-38
0.027750202 -0.093704656 0.027254321 1.13397e-38
0.029489588 -0.093704656 0.027254321 1.0602134e-38
0.031228971 -0.093704656 0.027254321 1.2353496e-38
0.032968353 -0.093704656 0.027254321 1.0232996e-38
0.03470774 -0.093704656 0.027254321 9.680188e-39
0.036735442 -0.095156729 0.021274664 8.2057768e-39
0.038638547 -0.095901415 0.018208064 7.7455203e-39
0.040393792 -0.095901415 0.018208064 8.1143056e-39
0.042149037 -0.095901415 0.018208064 4.7037862e-39
0.043904282 -0.095901415 0.018208064 2.0301101e-39
0.045659527 -0.095901415 0.018208064 1.1077895e-39
0.047234651 -0.095156729 0.021274664 2.0300989e-39
0.04898452 -0.095156729 0.021274664 3.5963484e-39
0.050734386 -0.095156729 0.021274664 9.2267516e-40
0.052680507 -0.095901415 0.018208064 5.5317378e-40
0.054435752 -0.095901415 0.018208064 2.7658689e-40
0.056190997 -0.095901415 0.018208064 9.1835496e-41
0.057946242 -0.095901415 0.018208064 9.1835496e-41
0.059701487 -0.095901415 0.018208064 1.2900228e-39
0.061456732 -0.095901415 0.018208064 4.6026209e-40
0.063434459 -0.096626461 0.015222348 2.8025969e-45
0.065424018 -0.097355813 0.01221887 2.8025969e-45
0.067189761 -0.097355813 0.01221887 3.629363e-43
0.068955511 -0.097355813 0.01221887 1.847542e-40
0.070721254 -0.097355813 0.01221887 2.7695263e-40
0.072730228 -0.098065019 0.0092983618 4.6134389e-40
0.074759543 -0.098803028 0.0062592402 9.1838299e-41
0.076535732 -0.098803028 0.0062592402 6.4393028e-40
0.078311935 -0.098803028 0.0062592402 2.7550649e-40
0.080088124 -0.098803028 0.0062592402 2.7550649e-40
0.082145765 -0.099545494 0.0032017604 5.5173465e-40
0.083927318 -0.099545494 0.0032017604 7.3612591e-40
0.085708871 -0.099545494 0.0032017604 8.290418e-40
0.087490425 -0.099545494 0.0032017604 1.8431937e-39
0.089271978 -0.099545494 0.0032017604 1.5666068e-39
-0.10228863 -0.13776468 -0.14577255 1.1524805e-38
-0.099939436 -0.13678192 -0.1417546 1.0140429e-38
-0.097606376 -0.13580595 -0.1377643 4.8849152e-39
-0.095577657 -0.13580595 -0.1377643 4.0540728e-39
-0.09326753 -0.13483663 -0.13380131 3.7771243e-39
-0.090964124 -0.13384195 -0.12973461 4.3288562e-39
-0.088685662 -0.13288604 -0.12582633 1.4708029e-39
-0.086677879 -0.13288604 -0.12582633 8.1088714e-39
