# .PCD v0.7 - Point Cloud Data file format
VERSION 0.7
FIELDS x y z rgb
SIZE 4 4 4 4
TYPE F F F F
COUNT 1 1 1 1
WIDTH 919
HEIGHT 1
VIEWPOINT 0 0 0 1 0 0 0
POINTS 919
DATA ascii
0.058872081 -0.086285278 -0.067430042 2.304927e-38
0.060778081 -0.086285278 -0.067430042 2.3142544e-38
-0.039392237 -0.078219518 -0.021378897 1.6321866e-38
-0.03745158 -0.076719359 -0.01445093 2.1207156e-38
-0.03563847 -0.076719359 -0.01445093 2.3142544e-38
-0.022930901 -0.075420126 -0.0084508881 2.2220234e-38
-0.02112831 -0.075420126 -0.0084508881 2.1299e-38
-0.019325716 -0.075420126 -0.0084508881 1.5583239e-38
-0.017523125 -0.075420126 -0.0084508881 5.5346371e-39
-0.015733795 -0.074764907 -0.0054249987 3.321942e-39
0.005100565 -0.084500432 -0.05038514 2.3509168e-38
0.0069766808 -0.084500432 -0.05038514 2.3508809e-38
0.0088527985 -0.084500432 -0.05038514 2.3047838e-38
0.010817716 -0.085165098 -0.05345466 2.3509168e-38
0.012699215 -0.085165098 -0.05345466 2.3417333e-38
0.014580714 -0.085165098 -0.05345466 2.3417691e-38
0.016462212 -0.085165098 -0.05345466 2.3417691e-38
0.018487675 -0.086032391 -0.057459973 2.3508809e-38
0.020376196 -0.086032391 -0.057459973 2.3140387e-38
0.022264717 -0.086032391 -0.057459973 2.3509523e-38
0.024153238 -0.086032391 -0.057459973 2.3417324e-38
0.026041763 -0.086032391 -0.057459973 2.3509879e-38
0.027930284 -0.086032391 -0.057459973 2.3509879e-38
0.029957956 -0.086680889 -0.060454868 2.3509879e-38
0.031851728 -0.086680889 -0.060454868 2.3509879e-38
0.033745501 -0.086680889 -0.060454868 2.3509879e-38
0.035639271 -0.086680889 -0.060454868 2.3418043e-38
0.037743825 -0.087534383 -0.064396404 2.3418045e-38
0.03964451 -0.087534383 -0.064396404 2.3418043e-38
0.04154519 -0.087534383 -0.064396404 2.3418038e-38
0.043445878 -0.087534383 -0.064396404 2.3509873e-38
0.045346558 -0.087534383 -0.064396404 2.3509876e-38
0.047247238 -0.087534383 -0.064396404 2.3509527e-38
0.049147926 -0.087534383 -0.064396404 2.3508451e-38
0.051048607 -0.087534383 -0.064396404 2.3508092e-38
0.052949294 -0.087534383 -0.064396404 2.3508809e-38
0.054849975 -0.087534383 -0.064396404 2.3509527e-38
0.056750655 -0.087534383 -0.064396404 2.3509883e-38
0.058651343 -0.087534383 -0.064396404 2.3418047e-38
0.060552023 -0.087534383 -0.064396404 2.1851809e-38
0.062452711 -0.087534383 -0.064396404 2.286632e-38
0.064353392 -0.087534383 -0.064396404 2.2958873e-38
-0.042977098 -0.079390839 -0.018383168 8.669629e-39
-0.041157093 -0.079390839 -0.018383168 8.9451369e-39
-0.039337087 -0.079390839 -0.018383168 2.0838373e-38
-0.03745158 -0.078532472 -0.01445093 2.3142544e-38
-0.035592843 -0.077864185 -0.011389516 2.2958514e-38
-0.033746455 -0.07722272 -0.0084508881 2.3234379e-38
-0.031943865 -0.07722272 -0.0084508881 2.3234379e-38
-0.03011209 -0.076562196 -0.0054249987 2.3049273e-38
-0.028314805 -0.076562196 -0.0054249987 2.2588295e-38
-0.026517516 -0.076562196 -0.0054249987 2.2772688e-38
-0.024707044 -0.075905532 -0.0024167523 2.3325856e-38
-0.022915032 -0.075905532 -0.0024167523 2.341805e-38
-0.021125657 -0.076562196 -0.0054249987 2.3234379e-38
-0.019328369 -0.076562196 -0.0054249987 2.2867037e-38
-0.017531084 -0.076562196 -0.0054249987 2.2775202e-38
-0.015733795 -0.076562196 -0.0054249987 1.5676511e-38
-0.013936509 -0.076562196 -0.0054249987 6.4569451e-39
0.0032244471 -0.086376548 -0.05038514 2.3509527e-38
0.005100565 -0.086376548 -0.05038514 2.3323702e-38
0.0069766808 -0.086376548 -0.05038514 2.3508451e-38
0.0088527985 -0.086376548 -0.05038514 2.3509168e-38
0.010817716 -0.087046593 -0.05345466 2.3417691e-38
0.012699215 -0.087046593 -0.05345466 2.2773408e-38
0.014580714 -0.087046593 -0.05345466 2.2864883e-38
0.016599154 -0.087920904 -0.057459973 2.2864883e-38
0.018487675 -0.087920904 -0.057459973 2.2863803e-38
0.020376196 -0.087920904 -0.057459973 2.3509168e-38
0.022264717 -0.087920904 -0.057459973 2.3509527e-38
0.024153238 -0.087920904 -0.057459973 2.3509524e-38
0.026041763 -0.087920904 -0.057459973 2.3509524e-38
0.027930284 -0.087920904 -0.057459973 2.3509521e-38
0.029818805 -0.087920904 -0.057459973 2.350988e-38
0.031707324 -0.087920904 -0.057459973 2.350988e-38
0.033595845 -0.087920904 -0.057459973 2.350988e-38
0.035484366 -0.087920904 -0.057459973 2.3418045e-38
0.037533045 -0.088574663 -0.060454868 2.3234374e-38
0.039426818 -0.088574663 -0.060454868 2.3418043e-38
0.041320588 -0.088574663 -0.060454868 2.341804e-38
0.043214358 -0.088574663 -0.060454868 2.3509879e-38
0.045108132 -0.088574663 -0.060454868 2.3509886e-38
0.047001906 -0.088574663 -0.060454868 2.3509527e-38
0.049147926 -0.089435071 -0.064396404 2.3509527e-38
0.050789453 -0.088574663 -0.060454868 2.3509527e-38
0.052683227 -0.088574663 -0.060454868 2.3509527e-38
0.054577 -0.088574663 -0.060454868 2.3509886e-38
0.056470767 -0.088574663 -0.060454868 2.3509886e-38
0.05836454 -0.088574663 -0.060454868 2.3509883e-38
0.060258314 -0.088574663 -0.060454868 2.3141816e-38
0.062152088 -0.088574663 -0.060454868 2.341805e-38
0.064045861 -0.088574663 -0.060454868 2.2772332e-38
0.065939635 -0.088574663 -0.060454868 2.323402e-38
-0.046693277 -0.081870034 -0.021378897 2.0101887e-38
-0.044797104 -0.081210837 -0.018383168 1.1527694e-38
-0.042977098 -0.081210837 -0.018383168 5.2583907e-39
-0.041157093 -0.081210837 -0.018383168 1.0420267e-38
-0.039337087 -0.081210837 -0.018383168 2.2036916e-38
-0.037351642 -0.079025313 -0.0084508881 2.3142544e-38
-0.035549048 -0.079025313 -0.0084508881 2.1944365e-38
-0.033706665 -0.078359485 -0.0054249987 2.3050349e-38
-0.03190938 -0.078359485 -0.0054249987 2.3234379e-38
-0.03011209 -0.078359485 -0.0054249987 2.341805e-38
-0.028291067 -0.077697545 -0.0024167523 2.341805e-38
-0.026499057 -0.077697545 -0.0024167523 2.341805e-38
-0.024707044 -0.077697545 -0.0024167523 2.341805e-38
-0.022915032 -0.077697545 -0.0024167523 2.3233662e-38
-0.021125657 -0.078359485 -0.0054249987 2.2589017e-38
-0.019328369 -0.078359485 -0.0054249987 2.2222395e-38
-0.017538995 -0.077697545 -0.0024167523 2.2407501e-38
-0.015746983 -0.077697545 -0.0024167523 2.2683366e-38
-0.013936509 -0.078359485 -0.0054249987 2.2867037e-38
-0.012139223 -0.078359485 -0.0054249987 2.2958873e-38
0.0032917203 -0.088928089 -0.05345466 2.2862721e-38
0.005100565 -0.088252664 -0.05038514 2.3509168e-38
0.0069766808 -0.088252664 -0.05038514 2.3047115e-38
0.0088527985 -0.088252664 -0.05038514 2.2771607e-38
0.010817716 -0.088928089 -0.05345466 2.341805e-38
0.012699215 -0.088928089 -0.05345466 2.3142542e-38
0.014580714 -0.088928089 -0.05345466 2.341805e-38
0.016462212 -0.088928089 -0.05345466 2.341805e-38
0.018487675 -0.089809433 -0.057459973 2.3509527e-38
0.020376196 -0.089809433 -0.057459973 2.3509527e-38
0.022106709 -0.088928089 -0.05345466 2.3509527e-38
0.023988208 -0.088928089 -0.05345466 2.323186e-38
0.025869707 -0.088928089 -0.05345466 2.3509527e-38
0.027930284 -0.089809433 -0.057459973 2.3509527e-38
0.029632704 -0.088928089 -0.05345466 2.3509527e-38
0.031514201 -0.088928089 -0.05345466 2.3509883e-38
0.033595845 -0.089809433 -0.057459973 2.3509883e-38
0.035484366 -0.089809433 -0.057459973 2.3418047e-38
0.037533045 -0.090468436 -0.060454868 2.3234376e-38
0.039426818 -0.090468436 -0.060454868 2.3418047e-38
0.041320588 -0.090468436 -0.060454868 2.3509883e-38
0.043214358 -0.090468436 -0.060454868 2.3509886e-38
0.045108132 -0.090468436 -0.060454868 2.3509527e-38
0.047001906 -0.090468436 -0.060454868 2.3509886e-38
0.049147926 -0.091335744 -0.064396404 2.3509876e-38
0.050789453 -0.090468436 -0.060454868 2.3509873e-38
0.052683227 -0.090468436 -0.060454868 2.3509879e-38
0.054577 -0.090468436 -0.060454868 2.3509883e-38
0.056470767 -0.090468436 -0.060454868 2.3509886e-38
0.05836454 -0.090468436 -0.060454868 2.2495734e-38
0.060035147 -0.089809433 -0.057459973 2.3509883e-38
0.061923668 -0.089809433 -0.057459973 2.3509527e-38
0.064045861 -0.090468436 -0.060454868 2.3047838e-38
0.065939635 -0.090468436 -0.060454868 2.3508809e-38
0.067833409 -0.090468436 -0.060454868 2.2771256e-38
-0.046693277 -0.083695292 -0.021378897 2.2590813e-38
-0.044797104 -0.08303085 -0.018383168 1.8440931e-38
-0.042890918 -0.082158685 -0.01445093 1.5490671e-38
-0.041077804 -0.082158685 -0.01445093 2.1391191e-38
-0.039264694 -0.082158685 -0.01445093 2.3142544e-38
-0.037351642 -0.080827907 -0.0084508881 2.3234379e-38
-0.035549048 -0.080827907 -0.0084508881 2.3234379e-38
-0.033706665 -0.080156773 -0.0054249987 2.3233662e-38
-0.03190938 -0.080156773 -0.0054249987 2.341805e-38
-0.030083081 -0.079489544 -0.0024167523 2.3325856e-38
-0.028291067 -0.079489544 -0.0024167523 2.2957078e-38
-0.026499057 -0.079489544 -0.0024167523 2.3048556e-38
-0.024707044 -0.079489544 -0.0024167523 2.3509527e-38
-0.022907166 -0.078826249 0.00057385117 2.3509527e-38
-0.021120397 -0.078826249 0.00057385117 2.3234379e-38
-0.019333629 -0.078826249 0.00057385117 2.2867037e-38
-0.017546861 -0.078826249 0.00057385117 2.2775202e-38
-0.015760092 -0.078826249 0.00057385117 2.2775202e-38
-0.013973323 -0.078826249 0.00057385117 2.2775202e-38
-0.012210011 -0.078166828 0.0035469308 2.2407138e-38
-0.010428456 -0.078166828 0.0035469308 2.2314577e-38
-0.0085789328 -0.079489544 -0.0024167523 2.2958867e-38
-0.0067869211 -0.079489544 -0.0024167523 2.2867027e-38
-0.0049949083 -0.079489544 -0.0024167523 2.2865229e-38
-0.0032028968 -0.079489544 -0.0024167523 2.2588643e-38
-0.001355503 -0.080156773 -0.0054249987 2.3509883e-38
0.0014102214 -0.090809584 -0.05345466 2.3509883e-38
0.0032917203 -0.090809584 -0.05345466 2.3047468e-38
0.0051732194 -0.090809584 -0.05345466 2.3509527e-38
0.0070547182 -0.090809584 -0.05345466 2.3323699e-38
0.0089362171 -0.090809584 -0.05345466 2.3509527e-38
0.010817716 -0.090809584 -0.05345466 2.3418043e-38
0.012699215 -0.090809584 -0.05345466 2.3234369e-38
0.014580714 -0.090809584 -0.05345466 2.3418043e-38
0.016462212 -0.090809584 -0.05345466 2.3418045e-38
0.018343711 -0.090809584 -0.05345466 2.314074e-38
0.02022521 -0.090809584 -0.05345466 2.3048189e-38
0.022106709 -0.090809584 -0.05345466 2.3509527e-38
0.023988208 -0.090809584 -0.05345466 2.3509168e-38
0.025869707 -0.090809584 -0.05345466 2.3509168e-38
0.027613966 -0.090128779 -0.05038514 2.3509168e-38
0.029165646 -0.088580042 -0.043402456 2.3509527e-38
0.031029521 -0.088580042 -0.043402456 2.3509886e-38
0.033095438 -0.089476839 -0.047445796 2.3509886e-38
0.034966398 -0.089476839 -0.047445796 2.341805e-38
0.037158698 -0.090809584 -0.05345466 2.3234379e-38
0.039261408 -0.091697961 -0.057459973 2.341805e-38
0.041149929 -0.091697961 -0.057459973 2.3509527e-38
0.04303845 -0.091697961 -0.057459973 2.3509168e-38
0.044926971 -0.091697961 -0.057459973 2.3509886e-38
0.046815492 -0.091697961 -0.057459973 2.3509879e-38
0.048895679 -0.09236221 -0.060454868 2.350987e-38
0.050789453 -0.09236221 -0.060454868 2.3418031e-38
0.052481055 -0.091697961 -0.057459973 2.3418033e-38
0.054369584 -0.091697961 -0.057459973 2.3418038e-38
0.056258105 -0.091697961 -0.057459973 2.2956709e-38
0.058146626 -0.091697961 -0.057459973 2.3509886e-38
0.060035147 -0.091697961 -0.057459973 2.240247e-38
0.061923668 -0.091697961 -0.057459973 2.3046761e-38
0.064045861 -0.09236221 -0.060454868 2.3508451e-38
0.06570071 -0.091697961 -0.057459973 2.3415179e-38
0.067589238 -0.091697961 -0.057459973 2.3509168e-38
0.069477752 -0.091697961 -0.057459973 2.3417691e-38
-0.044562008 -0.0826305 -0.0084508881 2.3142544e-38
-0.042759415 -0.0826305 -0.0084508881 2.3142544e-38
-0.041016076 -0.083287418 -0.011389516 2.3234379e-38
-0.039154235 -0.0826305 -0.0084508881 2.2865961e-38
-0.037351642 -0.0826305 -0.0084508881 2.2404983e-38
-0.035503954 -0.081954062 -0.0054249987 2.341805e-38
-0.033706665 -0.081954062 -0.0054249987 2.3233662e-38
-0.03190938 -0.081954062 -0.0054249987 2.341805e-38
-0.030083081 -0.081281558 -0.0024167523 2.341805e-38
-0.028267473 -0.080613017 0.00057385117 2.3509886e-38
-0.026480703 -0.080613017 0.00057385117 2.3232944e-38
-0.024707044 -0.081281558 -0.0024167523 2.3325138e-38
-0.022907166 -0.080613017 0.00057385117 2.3325138e-38
-0.021120397 -0.080613017 0.00057385117 2.3049273e-38
-0.019333629 -0.080613017 0.00057385117 2.3142544e-38
-0.017546861 -0.080613017 0.00057385117 2.2314945e-38
-0.015760092 -0.080613017 0.00057385117 2.2499334e-38
-0.013973323 -0.080613017 0.00057385117 2.2867037e-38
-0.012210011 -0.079948381 0.0035469308 2.2958873e-38
-0.010428456 -0.079948381 0.0035469308 2.295887e-38
-0.0085789328 -0.081281558 -0.0024167523 2.3142538e-38
-0.0067869211 -0.081281558 -0.0024167523 2.2958504e-38
-0.0049949083 -0.081281558 -0.0024167523 2.3418045e-38
-0.0032028968 -0.081281558 -0.0024167523 2.3418045e-38
-0.001355503 -0.081954062 -0.0054249987 2.2864513e-38
0.001551369 -0.094255984 -0.060454868 2.3509883e-38
0.0033795049 -0.093586475 -0.057459973 2.3509883e-38
0.0051732194 -0.092691094 -0.05345466 2.3140384e-38
0.0070547182 -0.092691094 -0.05345466 2.3509527e-38
0.0089362171 -0.092691094 -0.05345466 2.323258e-38
0.010817716 -0.092691094 -0.05345466 2.3418043e-38
0.012699215 -0.092691094 -0.05345466 2.3049975e-38
0.014580714 -0.092691094 -0.05345466 2.3234369e-38
0.016462212 -0.092691094 -0.05345466 2.350988e-38
0.018343711 -0.092691094 -0.05345466 2.3509883e-38
0.02022521 -0.092691094 -0.05345466 2.3509527e-38
0.021985615 -0.092004895 -0.05038514 2.3509527e-38
0.023861734 -0.092004895 -0.05038514 2.3140387e-38
0.025437897 -0.090443924 -0.043402456 2.3509168e-38
0.027167087 -0.089770496 -0.040390037 2.3509527e-38
0.028748116 -0.088435039 -0.034416221 2.3509527e-38
0.030596232 -0.088435039 -0.034416221 2.3509886e-38
0.03244435 -0.088435039 -0.034416221 2.3509886e-38
0.034292467 -0.088435039 -0.034416221 2.341805e-38
0.036140583 -0.088435039 -0.034416221 2.341805e-38
0.037988704 -0.088435039 -0.034416221 2.341805e-38
0.040579289 -0.091347814 -0.047445796 2.3509168e-38
0.042450249 -0.091347814 -0.047445796 2.3509168e-38
0.044684693 -0.092691094 -0.05345466 2.3509883e-38
0.046566188 -0.092691094 -0.05345466 2.3509876e-38
0.048704013 -0.093586475 -0.057459973 2.3418035e-38
0.050592534 -0.093586475 -0.057459973 2.3418033e-38
0.052481055 -0.093586475 -0.057459973 2.3418033e-38
0.054369584 -0.093586475 -0.057459973 2.3418038e-38
0.056258105 -0.093586475 -0.057459973 2.350988e-38
0.058146626 -0.093586475 -0.057459973 2.2956715e-38
0.060035147 -0.093586475 -0.057459973 2.3509168e-38
0.061923668 -0.093586475 -0.057459973 2.3138956e-38
0.063812196 -0.093586475 -0.057459973 2.3508809e-38
0.06570071 -0.093586475 -0.057459973 2.3509168e-38
0.067589238 -0.093586475 -0.057459973 2.2492494e-38
0.069144174 -0.092691094 -0.05345466 2.3509527e-38
0.071025684 -0.092691094 -0.05345466 2.1762859e-38
-0.049361821 -0.079698354 0.012564041 2.3509886e-38
-0.047596078 -0.079698354 0.012564041 2.341805e-38
-0.045830332 -0.079698354 0.012564041 2.3234379e-38
-0.044562008 -0.084433094 -0.0084508881 2.3234379e-38
-0.042759415 -0.084433094 -0.0084508881 2.3234379e-38
-0.040956825 -0.084433094 -0.0084508881 2.341805e-38
-0.039098527 -0.083751351 -0.0054249987 2.341805e-38
-0.037301239 -0.083751351 -0.0054249987 2.341805e-38
-0.035503954 -0.083751351 -0.0054249987 2.3509886e-38
-0.033667106 -0.083073571 -0.0024167523 2.3509886e-38
-0.031875096 -0.083073571 -0.0024167523 2.3509886e-38
-0.030054241 -0.082399786 0.00057385117 2.3509886e-38
-0.028267473 -0.082399786 0.00057385117 2.3509527e-38
-0.026480703 -0.082399786 0.00057385117 2.3509527e-38
-0.024693934 -0.082399786 0.00057385117 2.3509527e-38
-0.022907166 -0.082399786 0.00057385117 2.3509883e-38
-0.021120397 -0.082399786 0.00057385117 2.3509527e-38
-0.019333629 -0.082399786 0.00057385117 2.341805e-38
-0.017546861 -0.082399786 0.00057385117 2.3234379e-38
-0.015760092 -0.082399786 0.00057385117 2.3234379e-38
-0.013973323 -0.082399786 0.00057385117 2.3234379e-38
-0.012210011 -0.081729934 0.0035469308 2.3234379e-38
-0.010428456 -0.081729934 0.0035469308 2.3234379e-38
-0.0085789328 -0.083073571 -0.0024167523 2.3234379e-38
-0.0067869211 -0.083073571 -0.0024167523 2.341805e-38
-0.0049949083 -0.083073571 -0.0024167523 2.341805e-38
-0.0032028968 -0.083073571 -0.0024167523 2.341805e-38
-0.001410885 -0.083073571 -0.0024167523 2.341805e-38
0.00038112863 -0.083073571 -0.0024167523 2.341805e-38
0.0033795049 -0.095475003 -0.057459973 2.3509886e-38
0.0051732194 -0.094572589 -0.05345466 2.3509886e-38
0.0070547182 -0.094572589 -0.05345466 2.3509886e-38
0.0088527985 -0.093881011 -0.05038514 2.3509886e-38
0.010728914 -0.093881011 -0.05038514 2.3509883e-38
0.012605032 -0.093881011 -0.05038514 2.3509883e-38
0.014481148 -0.093881011 -0.05038514 2.3509883e-38
0.016357267 -0.093881011 -0.05038514 2.3509883e-38
0.01683175 -0.085095167 -0.011389516 2.3509886e-38
0.018639496 -0.085095167 -0.011389516 2.3509886e-38
0.021591308 -0.091629088 -0.040390037 2.3509886e-38
0.023326481 -0.090954214 -0.037394665 2.3509886e-38
0.025051879 -0.090283155 -0.034416221 2.3509527e-38
0.026718719 -0.089369655 -0.030361675 2.3509886e-38
0.028559728 -0.089369655 -0.030361675 2.3509886e-38
0.030400736 -0.089369655 -0.030361675 2.3509886e-38
0.032241743 -0.089369655 -0.030361675 2.3509886e-38
0.034292467 -0.090283155 -0.034416221 2.3509886e-38
0.03592376 -0.089369655 -0.030361675 2.3509886e-38
0.037764769 -0.089369655 -0.030361675 2.3509886e-38
0.039605778 -0.089369655 -0.030361675 2.3509527e-38
0.041274156 -0.088707477 -0.02742257 2.3509886e-38
0.042926691 -0.088024676 -0.024392031 2.3509886e-38
0.044569686 -0.087345809 -0.021378897 2.3509883e-38
0.046394944 -0.087345809 -0.021378897 2.350988e-38
0.04822021 -0.087345809 -0.021378897 2.350988e-38
0.050045468 -0.087345809 -0.021378897 2.350988e-38
0.052079402 -0.088024676 -0.024392031 2.350988e-38
0.05390995 -0.088024676 -0.024392031 2.3509883e-38
0.057631835 -0.093881011 -0.05038514 2.3509886e-38
0.059507951 -0.093881011 -0.05038514 2.3509527e-38
0.061618179 -0.094572589 -0.05345466 2.3509527e-38
0.063812196 -0.095475003 -0.057459973 2.3509527e-38
0.06570071 -0.095475003 -0.057459973 2.3509527e-38
0.067262679 -0.094572589 -0.05345466 2.3509527e-38
0.068888545 -0.093881011 -0.05038514 2.3509886e-38
0.070764661 -0.093881011 -0.05038514 2.2589017e-38
0.072034746 -0.092307791 -0.043402456 2.3142544e-38
0.073898613 -0.092307791 -0.043402456 2.2589378e-38
0.097460091 -0.090954214 -0.037394665 1.9371788e-39
0.099313438 -0.090954214 -0.037394665 9.2267236e-40
0.10116677 -0.090954214 -0.037394665 8.3047953e-40
0.10336937 -0.091629088 -0.040390037 1.1063504e-39
-0.050943803 -0.080104217 0.018553235 2.314075e-38
-0.049188558 -0.080104217 0.018553235 2.3509527e-38
-0.047514454 -0.080782145 0.015567519 2.341805e-38
-0.045753974 -0.080782145 0.015567519 2.341805e-38
-0.044490386 -0.085548624 -0.0054249987 2.341805e-38
-0.042693097 -0.085548624 -0.0054249987 2.341805e-38
-0.040895812 -0.085548624 -0.0054249987 2.341805e-38
-0.039043143 -0.084865585 -0.0024167523 2.341805e-38
-0.037251133 -0.084865585 -0.0024167523 2.3509886e-38
-0.03545912 -0.084865585 -0.0024167523 2.3509886e-38
-0.033627782 -0.084186554 0.00057385117 2.3509886e-38
-0.031841014 -0.084186554 0.00057385117 2.3509886e-38
-0.03002557 -0.083511502 0.0035469308 2.3509883e-38
-0.028219892 -0.082817271 0.0066044107 2.3509883e-38
-0.026443696 -0.082817271 0.0066044107 2.3509883e-38
-0.024680903 -0.083511502 0.0035469308 2.3509883e-38
-0.022899346 -0.083511502 0.0035469308 2.3509883e-38
-0.021117792 -0.083511502 0.0035469308 2.3509883e-38
-0.019336235 -0.083511502 0.0035469308 2.3509886e-38
-0.01755468 -0.083511502 0.0035469308 2.341805e-38
-0.015773123 -0.083511502 0.0035469308 2.341805e-38
-0.013973323 -0.084186554 0.00057385117 2.341805e-38
-0.012162958 -0.084865585 -0.0024167523 2.341805e-38
-0.010370946 -0.084865585 -0.0024167523 2.341805e-38
-0.0085789328 -0.084865585 -0.0024167523 2.341805e-38
-0.0067869211 -0.084865585 -0.0024167523 2.341805e-38
-0.0049949083 -0.084865585 -0.0024167523 2.341805e-38
-0.0032028968 -0.084865585 -0.0024167523 2.341805e-38
-0.001410885 -0.084865585 -0.0024167523 2.341805e-38
0.00032082736 -0.084186554 0.00057385117 2.341805e-38
0.0020424367 -0.083511502 0.0035469308 2.341805e-38
0.0038239916 -0.083511502 0.0035469308 2.341805e-38
0.0070547182 -0.096454084 -0.05345466 2.341805e-38
0.0088527985 -0.095757127 -0.05038514 2.341805e-38
0.010643879 -0.095089734 -0.047445796 2.3509886e-38
0.011133203 -0.084865585 -0.0024167523 2.3509886e-38
0.012925213 -0.084865585 -0.0024167523 2.3509886e-38
0.014717227 -0.084865585 -0.0024167523 2.3509886e-38
0.01650924 -0.084865585 -0.0024167523 2.3509886e-38
0.018528717 -0.086235672 -0.0084508881 2.3509886e-38
0.02033131 -0.086235672 -0.0084508881 2.3509886e-38
0.022254983 -0.086902916 -0.011389516 2.3509886e-38
0.024062729 -0.086902916 -0.011389516 2.3509886e-38
0.026007349 -0.087598026 -0.01445093 2.3509886e-38
0.028003165 -0.088490874 -0.018383168 2.3509886e-38
0.029967615 -0.089171067 -0.021378897 2.3509886e-38
0.03194344 -0.089855224 -0.024392031 2.3509886e-38
0.033773981 -0.089855224 -0.024392031 2.3509886e-38
0.035604525 -0.089855224 -0.024392031 2.3509886e-38
0.037435066 -0.089855224 -0.024392031 2.3509886e-38
0.03926561 -0.089855224 -0.024392031 2.3509886e-38
0.041096151 -0.089855224 -0.024392031 2.3509886e-38
0.042744428 -0.089171067 -0.021378897 2.3509886e-38
0.044569686 -0.089171067 -0.021378897 2.3509886e-38
0.046394944 -0.089171067 -0.021378897 2.3509886e-38
0.04822021 -0.089171067 -0.021378897 2.3509886e-38
0.050045468 -0.089171067 -0.021378897 2.3509886e-38
0.051870726 -0.089171067 -0.021378897 2.3509886e-38
0.053695984 -0.089171067 -0.021378897 2.3509886e-38
0.055521242 -0.089171067 -0.021378897 2.3509886e-38
0.059288919 -0.095089734 -0.047445796 2.3509886e-38
0.061618179 -0.096454084 -0.05345466 2.3509886e-38
0.063260183 -0.095757127 -0.05038514 2.3509886e-38
0.064901814 -0.095089734 -0.047445796 2.3509886e-38
0.066772774 -0.095089734 -0.047445796 2.3509886e-38
0.066723749 -0.089855224 -0.024392031 2.3509886e-38
0.068554282 -0.089855224 -0.024392031 2.3509527e-38
0.071513325 -0.092807561 -0.037394665 2.3416971e-38
0.072743952 -0.091210663 -0.030361675 2.3509527e-38
0.074584961 -0.091210663 -0.030361675 2.3233303e-38
0.092537358 -0.094171658 -0.043402456 1.8583039e-40
0.094401225 -0.094171658 -0.043402456 1.7535078e-39
0.096265107 -0.094171658 -0.043402456 2.490347e-39
0.097460091 -0.092807561 -0.037394665 2.3981542e-39
0.099313438 -0.092807561 -0.037394665 2.3056068e-39
0.10116677 -0.092807561 -0.037394665 2.213414e-39
0.10336937 -0.09348768 -0.040390037 2.4892848e-39
0.10522795 -0.09348768 -0.040390037 2.6736761e-39
-0.050943803 -0.081859455 0.018553235 2.3509886e-38
-0.049188558 -0.081859455 0.018553235 2.3141106e-38
-0.047514454 -0.082542613 0.015567519 2.341805e-38
-0.045753974 -0.082542613 0.015567519 2.341805e-38
-0.044419181 -0.086657599 -0.0024167523 2.341805e-38
-0.042627167 -0.086657599 -0.0024167523 2.341805e-38
-0.040895812 -0.087345913 -0.0054249987 2.341805e-38
-0.039043143 -0.086657599 -0.0024167523 2.341805e-38
-0.037251133 -0.086657599 -0.0024167523 2.341805e-38
-0.03545912 -0.086657599 -0.0024167523 2.341805e-38
-0.033627782 -0.085973322 0.00057385117 2.3509886e-38
-0.031807128 -0.085293055 0.0035469308 2.3509886e-38
-0.029996088 -0.084593475 0.0066044107 2.3509886e-38
-0.028219892 -0.084593475 0.0066044107 2.3509886e-38
-0.026443696 -0.084593475 0.0066044107 2.3509886e-38
-0.024667501 -0.084593475 0.0066044107 2.3509886e-38
-0.022891305 -0.084593475 0.0066044107 2.3509886e-38
-0.021115111 -0.084593475 0.0066044107 2.3509886e-38
-0.019338915 -0.084593475 0.0066044107 2.341805e-38
-0.01755468 -0.085293055 0.0035469308 2.341805e-38
-0.015773123 -0.085293055 0.0035469308 2.341805e-38
-0.013973323 -0.085973322 0.00057385117 2.341805e-38
-0.012186553 -0.085973322 0.00057385117 2.341805e-38
-0.010370946 -0.086657599 -0.0024167523 2.341805e-38
-0.0085789328 -0.086657599 -0.0024167523 2.341805e-38
-0.0067869211 -0.086657599 -0.0024167523 2.341805e-38
-0.0049949083 -0.086657599 -0.0024167523 2.341805e-38
-0.0032028968 -0.086657599 -0.0024167523 2.341805e-38
-0.001410885 -0.086657599 -0.0024167523 2.341805e-38
0.00032082736 -0.085973322 0.00057385117 2.341805e-38
0.0020424367 -0.085293055 0.0035469308 2.341805e-38
0.0038239916 -0.085293055 0.0035469308 2.341805e-38
0.0056055486 -0.085293055 0.0035469308 2.341805e-38
0.0073871035 -0.085293055 0.0035469308 2.341805e-38
0.0091686603 -0.085293055 0.0035469308 2.3509886e-38
0.011133203 -0.086657599 -0.0024167523 2.3509886e-38
0.01282821 -0.085973322 0.00057385117 2.3509886e-38
0.014614979 -0.085973322 0.00057385117 2.3509886e-38
0.01650924 -0.086657599 -0.0024167523 2.3509886e-38
0.018414652 -0.087345913 -0.0054249987 2.3509886e-38
0.02033131 -0.088038266 -0.0084508881 2.3509886e-38
0.022133904 -0.088038266 -0.0084508881 2.3509886e-38
0.023936493 -0.088038266 -0.0084508881 2.3509886e-38
0.026007349 -0.089411139 -0.01445093 2.3509886e-38
0.027820462 -0.089411139 -0.01445093 2.3509886e-38
0.029823171 -0.090310872 -0.018383168 2.3509886e-38
0.031643178 -0.090310872 -0.018383168 2.3509886e-38
0.033618134 -0.090996325 -0.021378897 2.3509886e-38
0.035443392 -0.090996325 -0.021378897 2.3509886e-38
0.037103198 -0.090310872 -0.018383168 2.3509886e-38
0.038923204 -0.090310872 -0.018383168 2.3509886e-38
0.040743209 -0.090310872 -0.018383168 2.3509886e-38
0.042563215 -0.090310872 -0.018383168 2.3509886e-38
0.044383228 -0.090310872 -0.018383168 2.3509886e-38
0.046203233 -0.090310872 -0.018383168 2.3509886e-38
0.048023239 -0.090310872 -0.018383168 2.3509886e-38
0.049843244 -0.090310872 -0.018383168 2.3509886e-38
0.051870726 -0.090996325 -0.021378897 2.3509886e-38
0.053483255 -0.090310872 -0.018383168 2.3509886e-38
0.055303268 -0.090310872 -0.018383168 2.3509886e-38
0.057123274 -0.090310872 -0.018383168 2.3509886e-38
0.058943279 -0.090310872 -0.018383168 2.3509886e-38
0.06123212 -0.091685757 -0.024392031 2.3509886e-38
0.063062668 -0.091685757 -0.024392031 2.3509886e-38
0.064893201 -0.091685757 -0.024392031 2.3509886e-38
0.066723749 -0.091685757 -0.024392031 2.3509886e-38
0.068554282 -0.091685757 -0.024392031 2.2864153e-38
0.070902944 -0.093051672 -0.030361675 2.3509527e-38
0.072743952 -0.093051672 -0.030361675 2.3509527e-38
0.074319556 -0.092379183 -0.02742257 2.341805e-38
0.076155424 -0.092379183 -0.02742257 2.2864526e-38
0.077707008 -0.091685757 -0.024392031 2.3050349e-38
0.079537541 -0.091685757 -0.024392031 2.3142185e-38
0.090046734 -0.094660893 -0.037394665 2.8598708e-39
0.091900066 -0.094660893 -0.037394665 1.3843736e-39
0.093753412 -0.094660893 -0.037394665 1.7535092e-39
0.096265107 -0.09603554 -0.043402456 3.5045017e-39
0.097128481 -0.093979403 -0.034416221 3.4123089e-39
0.098976597 -0.093979403 -0.034416221 3.2275631e-39
0.10116677 -0.094660893 -0.037394665 3.0431747e-39
0.10336937 -0.095346272 -0.040390037 3.1346542e-39
0.10522795 -0.095346272 -0.040390037 3.1346542e-39
0.10708654 -0.095346272 -0.040390037 3.2250548e-39
0.10894513 -0.095346272 -0.040390037 2.7640766e-39
0.11228681 -0.094660893 -0.037394665 2.5789679e-39
0.11414015 -0.094660893 -0.037394665 3.0399461e-39
-0.052699044 -0.083614707 0.018553235 2.3509886e-38
-0.05084971 -0.082907662 0.021619834 2.3509886e-38
-0.04909984 -0.082907662 0.021619834 2.3233302e-38
-0.047433313 -0.083614707 0.018553235 2.341805e-38
-0.045678068 -0.083614707 0.018553235 2.341805e-38
-0.043922823 -0.083614707 0.018553235 2.341805e-38
-0.042167578 -0.083614707 0.018553235 2.341805e-38
-0.040895812 -0.089143202 -0.0054249987 2.341805e-38
-0.039043143 -0.088449612 -0.0024167523 2.341805e-38
-0.037251133 -0.088449612 -0.0024167523 2.341805e-38
-0.03545912 -0.088449612 -0.0024167523 2.341805e-38
-0.033627782 -0.087760091 0.00057385117 2.3509886e-38
-0.031807128 -0.087074608 0.0035469308 2.3509886e-38
-0.029966779 -0.085668951 0.0096435323 2.3509886e-38
-0.028125616 -0.083614707 0.018553235 2.341805e-38
-0.026370371 -0.083614707 0.018553235 2.3509886e-38
-0.024628213 -0.084303096 0.015567519 2.341805e-38
-0.022867734 -0.084303096 0.015567519 2.3509886e-38
-0.021107253 -0.084303096 0.015567519 2.341805e-38
-0.01934414 -0.084995598 0.012564041 2.341805e-38
-0.017562721 -0.086369663 0.0066044107 2.341805e-38
-0.015786525 -0.086369663 0.0066044107 2.341805e-38
-0.013991567 -0.087074608 0.0035469308 2.341805e-38
-0.012210011 -0.087074608 0.0035469308 2.341805e-38
-0.010399785 -0.087760091 0.00057385117 2.341805e-38
-0.0085789328 -0.088449612 -0.0024167523 2.341805e-38
-0.0067869211 -0.088449612 -0.0024167523 2.341805e-38
-0.0049949083 -0.088449612 -0.0024167523 2.341805e-38
-0.0032527095 -0.087760091 0.00057385117 2.341805e-38
-0.0014659411 -0.087760091 0.00057385117 2.341805e-38
0.00032082736 -0.087760091 0.00057385117 2.341805e-38
0.0020424367 -0.087074608 0.0035469308 2.341805e-38
0.0038239916 -0.087074608 0.0035469308 2.341805e-38
0.0056055486 -0.087074608 0.0035469308 2.341805e-38
0.0073871035 -0.087074608 0.0035469308 2.341805e-38
0.0091686603 -0.087074608 0.0035469308 2.3509886e-38
0.011041442 -0.087760091 0.00057385117 2.3509886e-38
0.01282821 -0.087760091 0.00057385117 2.3509886e-38
0.014614979 -0.087760091 0.00057385117 2.3509886e-38
0.016401747 -0.087760091 0.00057385117 2.3509886e-38
0.01830125 -0.088449612 -0.0024167523 2.3509886e-38
0.020211937 -0.089143202 -0.0054249987 2.3509886e-38
0.022009226 -0.089143202 -0.0054249987 2.3509886e-38
0.02380651 -0.089143202 -0.0054249987 2.3509886e-38
0.025739087 -0.089840859 -0.0084508881 2.3509886e-38
0.027678216 -0.0905184 -0.011389516 2.3509886e-38
0.029485961 -0.0905184 -0.011389516 2.3509886e-38
0.031293705 -0.0905184 -0.011389516 2.3509886e-38
0.033259794 -0.091224253 -0.01445093 2.3509886e-38
0.035283189 -0.092130885 -0.018383168 2.3509886e-38
0.037103198 -0.092130885 -0.018383168 2.3509886e-38
0.038923204 -0.092130885 -0.018383168 2.3509886e-38
0.040743209 -0.092130885 -0.018383168 2.3509886e-38
0.042563215 -0.092130885 -0.018383168 2.3509886e-38
0.044383228 -0.092130885 -0.018383168 2.3509886e-38
0.046203233 -0.092130885 -0.018383168 2.3509886e-38
0.048023239 -0.092130885 -0.018383168 2.3509886e-38
0.049843244 -0.092130885 -0.018383168 2.3509886e-38
0.05166325 -0.092130885 -0.018383168 2.3509886e-38
0.05320403 -0.091224253 -0.01445093 2.3509886e-38
0.055017143 -0.091224253 -0.01445093 2.3509886e-38
0.056830257 -0.091224253 -0.01445093 2.3509886e-38
0.058643363 -0.091224253 -0.01445093 2.3509886e-38
0.060763285 -0.092130885 -0.018383168 2.3509886e-38
0.062822282 -0.092821583 -0.021378897 2.3509886e-38
0.06464754 -0.092821583 -0.021378897 2.3509886e-38
0.066472799 -0.092821583 -0.021378897 2.3509886e-38
0.068554282 -0.093516305 -0.024392031 2.3417327e-38
0.07038483 -0.093516305 -0.024392031 2.3509883e-38
0.072215378 -0.093516305 -0.024392031 2.2311345e-38
0.074045911 -0.093516305 -0.024392031 2.2310989e-38
0.075876459 -0.093516305 -0.024392031 2.3417691e-38
0.077707008 -0.093516305 -0.024392031 2.2865243e-38
0.079537541 -0.093516305 -0.024392031 2.194366e-38
0.081368089 -0.093516305 -0.024392031 2.2774484e-38
0.083790004 -0.094892681 -0.030361675 2.111498e-38
0.085631013 -0.094892681 -0.030361675 4.6119591e-39
0.087887898 -0.09582752 -0.034416221 1.2611686e-44
0.090046734 -0.09651424 -0.037394665 3.5052402e-39
0.091900066 -0.09651424 -0.037394665 3.0438977e-39
0.093753412 -0.09651424 -0.037394665 1.9379033e-39
0.096265107 -0.097899407 -0.043402456 3.5963428e-39
0.097128481 -0.09582752 -0.034416221 3.5963428e-39
0.098976597 -0.09582752 -0.034416221 2.3056068e-39
0.10116677 -0.09651424 -0.037394665 2.1212184e-39
0.10336937 -0.097204864 -0.040390037 2.0283067e-39
0.10522795 -0.097204864 -0.040390037 2.0283067e-39
0.1067268 -0.09651424 -0.037394665 2.1187072e-39
0.10858013 -0.09651424 -0.037394665 1.7499247e-39
0.11043347 -0.09651424 -0.037394665 1.4726204e-39
0.11228681 -0.09651424 -0.037394665 1.1960335e-39
0.11414015 -0.09651424 -0.037394665 1.6570116e-39
0.11599348 -0.09651424 -0.037394665 1.7492072e-39
0.11784683 -0.09651424 -0.037394665 1.6577291e-39
-0.12180814 -0.099763289 -0.043402456 6.4533284e-39
-0.11994426 -0.099763289 -0.043402456 5.9008734e-39
-0.11808039 -0.099763289 -0.043402456 7.0994152e-39
-0.1159445 -0.099063456 -0.040390037 7.5603934e-39
-0.11408591 -0.099063456 -0.040390037 7.2838037e-39
-0.071449682 -0.09094049 -0.0054249987 2.304854e-38
-0.052599575 -0.08465752 0.021619834 2.3049626e-38
-0.05084971 -0.08465752 0.021619834 2.341805e-38
-0.04909984 -0.08465752 0.021619834 2.341805e-38
-0.047433313 -0.085369945 0.018553235 2.3509886e-38
-0.045678068 -0.085369945 0.018553235 2.3509886e-38
-0.043922823 -0.085369945 0.018553235 2.3509886e-38
-0.042167578 -0.085369945 0.018553235 2.3509886e-38
-0.040472534 -0.086063579 0.015567519 2.341805e-38
-0.038712054 -0.086063579 0.015567519 2.341805e-38
-0.036801629 -0.083972245 0.024569608 2.341805e-38
-0.03501178 -0.083268344 0.027599491 2.341805e-38
-0.033272393 -0.083268344 0.027599491 2.341805e-38
-0.03153301 -0.083268344 0.027599491 2.341805e-38
-0.029793624 -0.083268344 0.027599491 2.341805e-38
-0.028078146 -0.083972245 0.024569608 2.3234379e-38
-0.026351551 -0.08465752 0.021619834 2.341805e-38
-0.024601683 -0.08465752 0.021619834 2.3234379e-38
-0.022859881 -0.085369945 0.018553235 2.341805e-38
-0.021104636 -0.085369945 0.018553235 2.341805e-38
-0.019346774 -0.086063579 0.015567519 2.341805e-38
-0.017586293 -0.086063579 0.015567519 2.341805e-38
-0.015786525 -0.088145852 0.0066044107 2.341805e-38
-0.014010331 -0.088145852 0.0066044107 2.341805e-38
-0.012234135 -0.088145852 0.0066044107 2.341805e-38
-0.010399785 -0.089546859 0.00057385117 2.341805e-38
-0.0086130165 -0.089546859 0.00057385117 2.341805e-38
-0.0068262471 -0.089546859 0.00057385117 2.341805e-38
-0.0050394787 -0.089546859 0.00057385117 2.341805e-38
-0.0032527095 -0.089546859 0.00057385117 2.341805e-38
-0.0014659411 -0.089546859 0.00057385117 2.341805e-38
0.00026087998 -0.088856161 0.0035469308 2.341805e-38
0.0019754262 -0.088145852 0.0066044107 2.341805e-38
0.0037516223 -0.088145852 0.0066044107 2.341805e-38
0.0055278167 -0.088145852 0.0066044107 2.341805e-38
0.0073040128 -0.088145852 0.0066044107 2.341805e-38
0.009080207 -0.088145852 0.0066044107 2.3509886e-38
0.010856403 -0.088145852 0.0066044107 2.3509886e-38
0.012731774 -0.088856161 0.0035469308 2.3509886e-38
0.014513327 -0.088856161 0.0035469308 2.3509886e-38
0.016401747 -0.089546859 0.00057385117 2.3509886e-38
0.018188516 -0.089546859 0.00057385117 2.3509886e-38
0.019975284 -0.089546859 0.00057385117 2.3509886e-38
0.021885274 -0.090241626 -0.0024167523 2.3509886e-38
0.023677288 -0.090241626 -0.0024167523 2.3509886e-38
0.025603799 -0.09094049 -0.0054249987 2.3509886e-38
0.02754168 -0.091643453 -0.0084508881 2.3509886e-38
0.02934427 -0.091643453 -0.0084508881 2.3509886e-38
0.031146863 -0.091643453 -0.0084508881 2.3509886e-38
0.033101447 -0.092326149 -0.011389516 2.3509886e-38
0.035072908 -0.093037367 -0.01445093 2.3509886e-38
0.036886021 -0.093037367 -0.01445093 2.3509886e-38
0.038699131 -0.093037367 -0.01445093 2.3509886e-38
0.040743209 -0.093950883 -0.018383168 2.3509886e-38
0.042563215 -0.093950883 -0.018383168 2.3509886e-38
0.044383228 -0.093950883 -0.018383168 2.3509886e-38
0.046203233 -0.093950883 -0.018383168 2.3509886e-38
0.048023239 -0.093950883 -0.018383168 2.3509886e-38
0.049843244 -0.093950883 -0.018383168 2.3509886e-38
0.05166325 -0.093950883 -0.018383168 2.3509886e-38
0.05320403 -0.093037367 -0.01445093 2.3509886e-38
0.055017143 -0.093037367 -0.01445093 2.3509886e-38
0.056830257 -0.093037367 -0.01445093 2.3509886e-38
0.058643363 -0.093037367 -0.01445093 2.3509886e-38
0.060763285 -0.093950883 -0.018383168 2.3509886e-38
0.06258329 -0.093950883 -0.018383168 2.3509886e-38
0.06464754 -0.094646841 -0.021378897 2.3509886e-38
0.066472799 -0.094646841 -0.021378897 2.3509883e-38
0.068298057 -0.094646841 -0.021378897 2.3140737e-38
0.070123315 -0.094646841 -0.021378897 2.350988e-38
0.071948588 -0.094646841 -0.021378897 2.3509886e-38
0.073773846 -0.094646841 -0.021378897 2.3509886e-38
0.075599104 -0.094646841 -0.021378897 2.3417691e-38
0.077707008 -0.095346853 -0.024392031 2.2957796e-38
0.079537541 -0.095346853 -0.024392031 2.3142544e-38
0.081368089 -0.095346853 -0.024392031 2.3142544e-38
0.083790004 -0.096733689 -0.030361675 2.3142544e-38
0.085631013 -0.096733689 -0.030361675 6.7317383e-39
0.087887898 -0.097675636 -0.034416221 1.2611686e-44
0.089736015 -0.097675636 -0.034416221 2.4910911e-39
0.091900066 -0.098367572 -0.037394665 3.1360962e-39
0.093753412 -0.098367572 -0.037394665 2.3063299e-39
0.095606759 -0.098367572 -0.037394665 3.3208377e-39
0.097460091 -0.098367572 -0.037394665 2.2144902e-39
0.099313438 -0.098367572 -0.037394665 8.3047953e-40
0.10151078 -0.099063456 -0.040390037 9.2267516e-40
0.10336937 -0.099063456 -0.040390037 1.1063504e-39
0.10522795 -0.099063456 -0.040390037 1.198546e-39
0.1067268 -0.098367572 -0.037394665 1.5655334e-39
0.10858013 -0.098367572 -0.037394665 1.5655334e-39
0.11043347 -0.098367572 -0.037394665 1.3804247e-39
0.11228681 -0.098367572 -0.037394665 1.1038378e-39
0.11452091 -0.099063456 -0.040390037 9.1944657e-40
0.11599348 -0.098367572 -0.037394665 7.3505531e-40
0.11784683 -0.098367572 -0.037394665 5.5138152e-40
0.11970018 -0.098367572 -0.037394665 3.6806926e-40
0.12235934 -0.099763289 -0.043402456 4.6026209e-40
-0.1243515 -0.1032616 -0.05038514 9.4957841e-39
-0.12180814 -0.10162716 -0.043402456 5.3469808e-39
-0.11994426 -0.10162716 -0.043402456 3.4115914e-39
-0.11808039 -0.10162716 -0.043402456 4.517939e-39
-0.1159445 -0.10092205 -0.040390037 5.7164822e-39
-0.11408591 -0.10092205 -0.040390037 7.0994152e-39
-0.11135696 -0.098574698 -0.030361675 7.9291759e-39
-0.10900831 -0.097177386 -0.024392031 7.0075811e-39
-0.10717776 -0.097177386 -0.024392031 6.270742e-39
-0.10534723 -0.097177386 -0.024392031 5.7182899e-39
-0.069652393 -0.092737779 -0.0054249987 2.3509883e-38
-0.067855105 -0.092737779 -0.0054249987 2.3509883e-38
-0.066057824 -0.092737779 -0.0054249987 2.3325131e-38
-0.056209534 -0.087125197 0.018553235 2.3509886e-38
-0.054349445 -0.086407393 0.021619834 2.341805e-38
-0.052503895 -0.085716933 0.024569608 2.2865235e-38
-0.0507592 -0.085716933 0.024569608 2.2957431e-38
-0.04909984 -0.086407393 0.021619834 2.2680844e-38
-0.047349971 -0.086407393 0.021619834 2.3509886e-38
-0.045600105 -0.086407393 0.021619834 2.3509886e-38
-0.043780413 -0.085716933 0.024569608 2.3509886e-38
-0.042035718 -0.085716933 0.024569608 2.3509886e-38
-0.040169206 -0.084302828 0.030611016 2.341805e-38
-0.038435105 -0.084302828 0.030611016 2.341805e-38
-0.036700998 -0.084302828 0.030611016 2.341805e-38
-0.034966897 -0.084302828 0.030611016 2.341805e-38
-0.033232793 -0.084302828 0.030611016 2.341805e-38
-0.031498689 -0.084302828 0.030611016 2.341805e-38
-0.029793624 -0.085007742 0.027599491 2.3234379e-38
-0.028078146 -0.085716933 0.024569608 2.3234379e-38
-0.026333449 -0.085716933 0.024569608 2.3234379e-38
-0.024588754 -0.085716933 0.024569608 2.3234379e-38
-0.022851815 -0.086407393 0.021619834 2.3234379e-38
-0.021101948 -0.086407393 0.021619834 2.3234379e-38
-0.019346774 -0.087824062 0.015567519 2.341805e-38
-0.017586293 -0.087824062 0.015567519 2.341805e-38
-0.015825814 -0.087824062 0.015567519 2.341805e-38
-0.014065334 -0.087824062 0.015567519 2.341805e-38
-0.012281156 -0.088527083 0.012564041 2.341805e-38
-0.010428456 -0.090637714 0.0035469308 2.341805e-38
-0.0086468998 -0.090637714 0.0035469308 2.341805e-38
-0.0068653431 -0.090637714 0.0035469308 2.341805e-38
-0.0050394787 -0.091333628 0.00057385117 2.341805e-38
-0.0033022317 -0.090637714 0.0035469308 2.341805e-38
-0.0015206749 -0.090637714 0.0035469308 2.341805e-38
0.00026087998 -0.090637714 0.0035469308 2.341805e-38
0.0019754262 -0.089922056 0.0066044107 2.341805e-38
0.0037516223 -0.089922056 0.0066044107 2.341805e-38
0.0055278167 -0.089922056 0.0066044107 2.341805e-38
0.0073040128 -0.089922056 0.0066044107 2.341805e-38
0.009080207 -0.089922056 0.0066044107 2.3509886e-38
0.010856403 -0.089922056 0.0066044107 2.3509886e-38
0.012731774 -0.090637714 0.0035469308 2.3509886e-38
0.014513327 -0.090637714 0.0035469308 2.3509886e-38
0.016294884 -0.090637714 0.0035469308 2.3509886e-38
0.018188516 -0.091333628 0.00057385117 2.3509886e-38
0.019975284 -0.091333628 0.00057385117 2.3509886e-38
0.021762053 -0.091333628 0.00057385117 2.3509886e-38
0.023677288 -0.09203364 -0.0024167523 2.3509886e-38
0.025469301 -0.09203364 -0.0024167523 2.3509886e-38
0.027261311 -0.09203364 -0.0024167523 2.3509886e-38
0.029053325 -0.09203364 -0.0024167523 2.3509886e-38
0.030845338 -0.09203364 -0.0024167523 2.3509886e-38
0.032949451 -0.093446046 -0.0084508881 2.3509886e-38
0.034909192 -0.094133899 -0.011389516 2.3509886e-38
0.036716938 -0.094133899 -0.011389516 2.3509886e-38
0.038524684 -0.094133899 -0.011389516 2.3509886e-38
0.040332425 -0.094133899 -0.011389516 2.3509886e-38
0.042325355 -0.094850481 -0.01445093 2.3509886e-38
0.044138469 -0.094850481 -0.01445093 2.3509886e-38
0.045951582 -0.094850481 -0.01445093 2.3509886e-38
0.047764696 -0.094850481 -0.01445093 2.3509886e-38
0.049843244 -0.095770895 -0.018383168 2.3509886e-38
0.05166325 -0.095770895 -0.018383168 2.3509886e-38
0.052986637 -0.094133899 -0.011389516 2.3509886e-38
0.054794386 -0.094133899 -0.011389516 2.3509886e-38
0.056602128 -0.094133899 -0.011389516 2.3509886e-38
0.05840987 -0.094133899 -0.011389516 2.3509886e-38
0.060456477 -0.094850481 -0.01445093 2.3509886e-38
0.06258329 -0.095770895 -0.018383168 2.3509886e-38
0.064403296 -0.095770895 -0.018383168 2.3509886e-38
0.066223308 -0.095770895 -0.018383168 2.3509883e-38
0.068043321 -0.095770895 -0.018383168 2.350988e-38
0.069863319 -0.095770895 -0.018383168 2.2495367e-38
0.071683332 -0.095770895 -0.018383168 2.2403535e-38
0.073773846 -0.096472099 -0.021378897 2.3509886e-38
0.075599104 -0.096472099 -0.021378897 2.2588295e-38
0.077424362 -0.096472099 -0.021378897 2.3048914e-38
0.07924962 -0.096472099 -0.021378897 2.3234379e-38
0.081074879 -0.096472099 -0.021378897 2.3142544e-38
0.082900137 -0.096472099 -0.021378897 2.3050349e-38
0.084725395 -0.096472099 -0.021378897 8.8522364e-39
0.087170556 -0.097886756 -0.02742257 1.4531465e-42
0.08931303 -0.098574698 -0.030361675 1.8090763e-42
0.091584131 -0.099523753 -0.034416221 2.2137825e-39
0.093432248 -0.099523753 -0.034416221 1.7531617e-39
0.095606759 -0.10022092 -0.037394665 2.0297458e-39
0.097460091 -0.10022092 -0.037394665 1.292178e-39
0.099313438 -0.10022092 -0.037394665 1.0148708e-39
0.10116677 -0.10022092 -0.037394665 1.2914577e-39
0.10302012 -0.10022092 -0.037394665 1.4751329e-39
0.10487345 -0.10022092 -0.037394665 1.3829373e-39
0.1067268 -0.10022092 -0.037394665 1.5655334e-39
0.10858013 -0.10022092 -0.037394665 1.4733378e-39
0.11043347 -0.10022092 -0.037394665 1.2882291e-39
0.11228681 -0.10022092 -0.037394665 9.1944657e-40
0.11414015 -0.10022092 -0.037394665 1.4726204e-39
0.1163795 -0.10092205 -0.040390037 1.1960335e-39
0.11823809 -0.10092205 -0.040390037 9.2016404e-40
0.12049547 -0.10162716 -0.043402456 8.2904741e-40
0.12235934 -0.10162716 -0.043402456 1.0134359e-39
0.12422322 -0.10162716 -0.043402456 9.219591e-40
-0.12997985 -0.10513772 -0.05038514 1.0601407e-38
-0.12406547 -0.10444455 -0.047445796 1.1247501e-38
-0.12219451 -0.10444455 -0.047445796 5.8079589e-39
-0.11994426 -0.10349102 -0.043402456 2.9506133e-39
-0.11808039 -0.10349102 -0.043402456 3.4115914e-39
-0.1159445 -0.10278064 -0.040390037 3.9647652e-39
-0.11382069 -0.10207425 -0.037394665 5.7164822e-39
-0.11135696 -0.10041572 -0.030361675 7.744786e-39
-0.10900831 -0.099007934 -0.024392031 7.8366257e-39
-0.10692683 -0.098297372 -0.021378897 8.0217387e-39
-0.10453673 -0.096663594 -0.01445093 7.468209e-39
-0.10200356 -0.094535068 -0.0054249987 6.1774729e-39
-0.10020627 -0.094535068 -0.0054249987 4.701624e-39
-0.098408982 -0.094535068 -0.0054249987 3.9636988e-39
-0.096611694 -0.094535068 -0.0054249987 3.9626198e-39
-0.094814405 -0.094535068 -0.0054249987 3.7785817e-39
-0.093017131 -0.094535068 -0.0054249987 3.5938233e-39
-0.075347856 -0.088157266 0.021619834 2.3509886e-38
-0.072006732 -0.088880435 0.018553235 2.3509886e-38
-0.070848569 -0.091698244 0.0066044107 2.3233299e-38
-0.069072381 -0.091698244 0.0066044107 2.2956712e-38
-0.067296185 -0.091698244 0.0066044107 2.3233299e-38
-0.065519989 -0.091698244 0.0066044107 2.3141103e-38
-0.057510242 -0.086036935 0.030611016 2.2864516e-38
-0.055776138 -0.086036935 0.030611016 2.2680125e-38
-0.054042034 -0.086036935 0.030611016 2.3509886e-38
-0.052242097 -0.085558295 0.032640673 2.3325494e-38
-0.05051155 -0.085558295 0.032640673 2.341805e-38
-0.048926849 -0.086747125 0.027599491 2.341805e-38
-0.047187466 -0.086747125 0.027599491 2.3509886e-38
-0.04544808 -0.086747125 0.027599491 2.3509886e-38
-0.043589372 -0.085558295 0.032640673 2.3509886e-38
-0.041858826 -0.085558295 0.032640673 2.3509886e-38
-0.040169206 -0.086036935 0.030611016 2.3509886e-38
-0.038435105 -0.086036935 0.030611016 2.3509886e-38
-0.036700998 -0.086036935 0.030611016 2.341805e-38
-0.034966897 -0.086036935 0.030611016 2.341805e-38
-0.033232793 -0.086036935 0.030611016 2.3234379e-38
-0.031498689 -0.086036935 0.030611016 2.3234379e-38
-0.029764583 -0.086036935 0.030611016 2.3234379e-38
-0.028054239 -0.086747125 0.027599491 2.3234379e-38
-0.026333449 -0.087461635 0.024569608 2.3234379e-38
-0.024588754 -0.087461635 0.024569608 2.3234379e-38
-0.022844058 -0.087461635 0.024569608 2.3142544e-38
-0.021099361 -0.087461635 0.024569608 2.3234379e-38
-0.019349391 -0.088880435 0.018553235 2.341805e-38
-0.017594146 -0.088880435 0.018553235 2.3509886e-38
-0.015838901 -0.088880435 0.018553235 2.3509886e-38
-0.014083656 -0.088880435 0.018553235 2.3509886e-38
-0.012304854 -0.089584544 0.015567519 2.3509886e-38
-0.010487247 -0.090981558 0.0096435323 2.3509886e-38
-0.0086468998 -0.092419267 0.0035469308 2.3509886e-38
-0.0068653431 -0.092419267 0.0035469308 2.3509886e-38
-0.0050837873 -0.092419267 0.0035469308 2.3509886e-38
-0.0033531582 -0.091698244 0.0066044107 2.3509886e-38
-0.001576964 -0.091698244 0.0066044107 2.3509886e-38
0.00019923202 -0.091698244 0.0066044107 2.3509886e-38
0.0019754262 -0.091698244 0.0066044107 2.3509886e-38
0.0037516223 -0.091698244 0.0066044107 2.3509886e-38
0.0055278167 -0.091698244 0.0066044107 2.3509886e-38
0.0073040128 -0.091698244 0.0066044107 2.3509886e-38
0.009080207 -0.091698244 0.0066044107 2.3509886e-38
0.010856403 -0.091698244 0.0066044107 2.3509886e-38
0.012632599 -0.091698244 0.0066044107 2.3509886e-38
0.014408791 -0.091698244 0.0066044107 2.3509886e-38
0.016294884 -0.092419267 0.0035469308 2.3509886e-38
0.018188516 -0.093120396 0.00057385117 2.3509886e-38
0.019975284 -0.093120396 0.00057385117 2.3509886e-38
0.021762053 -0.093120396 0.00057385117 2.3509886e-38
0.023548821 -0.093120396 0.00057385117 2.3509886e-38
0.025335589 -0.093120396 0.00057385117 2.3509886e-38
0.027261311 -0.093825653 -0.0024167523 2.3509886e-38
0.029053325 -0.093825653 -0.0024167523 2.3509886e-38
0.030845338 -0.093825653 -0.0024167523 2.3509886e-38
0.032792944 -0.094535068 -0.0054249987 2.3509886e-38
0.034752045 -0.09524864 -0.0084508881 2.3509886e-38
0.036554638 -0.09524864 -0.0084508881 2.3509886e-38
0.038357228 -0.09524864 -0.0084508881 2.3509886e-38
0.040332425 -0.095941633 -0.011389516 2.3509886e-38
0.042140171 -0.095941633 -0.011389516 2.3509886e-38
0.044138469 -0.096663594 -0.01445093 2.3509886e-38
0.045951582 -0.096663594 -0.01445093 2.3509886e-38
0.047764696 -0.096663594 -0.01445093 2.3509886e-38
0.049371153 -0.095941633 -0.011389516 2.3509886e-38
0.051178895 -0.095941633 -0.011389516 2.3509886e-38
0.052986637 -0.095941633 -0.011389516 2.3509886e-38
0.054580562 -0.09524864 -0.0084508881 2.3509886e-38
0.056383148 -0.09524864 -0.0084508881 2.3509886e-38
0.05840987 -0.095941633 -0.011389516 2.3509886e-38
0.060456477 -0.096663594 -0.01445093 2.3509886e-38
0.062269591 -0.096663594 -0.01445093 2.3509886e-38
0.064403296 -0.097590908 -0.018383168 2.3509886e-38
0.066223308 -0.097590908 -0.018383168 2.3509883e-38
0.067708924 -0.096663594 -0.01445093 2.2495367e-38
0.069522038 -0.096663594 -0.01445093 2.3509879e-38
0.071683332 -0.097590908 -0.018383168 2.350988e-38
0.07350333 -0.097590908 -0.018383168 2.3509883e-38
0.074961379 -0.096663594 -0.01445093 2.2864879e-38
0.076774493 -0.096663594 -0.01445093 2.341805e-38
0.078587607 -0.096663594 -0.01445093 2.2772332e-38
0.080783367 -0.097590908 -0.018383168 2.2681214e-38
