# .PCD v0.7 - Point Cloud Data file format
VERSION 0.7
FIELDS x y z rgb
SIZE 4 4 4 4
TYPE F F F F
COUNT 1 1 1 1
WIDTH 928
HEIGHT 1
VIEWPOINT 0 0 0 1 0 0 0
POINTS 928
DATA ascii
0.022269562 -0.089922056 0.013283204 6.2674966e-39
0.026229277 -0.10092205 -0.033711243 6.3596922e-39
0.028087869 -0.10092205 -0.033711243 6.7284747e-39
0.029946461 -0.10092205 -0.033711243 7.7426238e-39
0.031805053 -0.10092205 -0.033711243 9.5865364e-39
0.033663645 -0.10092205 -0.033711243 1.1707036e-38
0.032926735 -0.089922056 0.013283204 1.3182166e-38
0.034702927 -0.089922056 0.013283204 1.5762567e-38
0.039653849 -0.10257359 -0.040767003 1.5393786e-38
0.041524816 -0.10257359 -0.040767003 1.5117199e-38
0.043395776 -0.10257359 -0.040767003 1.5026083e-38
0.042994577 -0.087824062 0.022246312 1.5671452e-38
0.049696442 -0.098574698 -0.023682881 1.5579257e-38
0.057060476 -0.098574698 -0.023682881 1.465766e-38
0.058901485 -0.098574698 -0.023682881 1.4196682e-38
0.061303563 -0.10022092 -0.030715872 1.3828979e-38
0.06315691 -0.10022092 -0.030715872 1.3460196e-38
0.065259717 -0.10092205 -0.033711243 1.2907377e-38
0.067118309 -0.10092205 -0.033711243 1.281553e-38
0.063861214 -0.087125197 0.025232028 1.3368701e-38
0.065616451 -0.087125197 0.025232028 1.429066e-38
0.067371704 -0.087125197 0.025232028 1.4382859e-38
0.069401778 -0.087824062 0.022246312 1.4106636e-38
-0.11573414 -0.099722609 -0.020743776 1.1617717e-38
-0.11389828 -0.099722609 -0.020743776 9.1284379e-39
-0.11206242 -0.099722609 -0.020743776 3.2286379e-39
-0.11022656 -0.099722609 -0.020743776 3.1364437e-39
-0.10814364 -0.099007934 -0.017713238 3.5974246e-39
-0.10631309 -0.099007934 -0.017713238 4.3346337e-39
-0.10448255 -0.099007934 -0.017713238 4.6105004e-39
-0.10265201 -0.099007934 -0.017713238 4.7941756e-39
-0.10082146 -0.099007934 -0.017713238 5.7161319e-39
-0.099211432 -0.099722609 -0.020743776 5.8998071e-39
-0.097375579 -0.099722609 -0.020743776 4.5168726e-39
-0.095539726 -0.099722609 -0.020743776 3.9636988e-39
-0.093499295 -0.099007934 -0.017713238 4.2402829e-39
-0.091668747 -0.099007934 -0.017713238 4.7934539e-39
-0.089838214 -0.099007934 -0.017713238 5.254788e-39
-0.088007666 -0.099007934 -0.017713238 5.3469808e-39
-0.085994862 -0.098297372 -0.014700104 5.2547838e-39
-0.083993636 -0.097590908 -0.011704374 5.5320895e-39
-0.082173638 -0.097590908 -0.011704374 5.9930677e-39
-0.080353625 -0.097590908 -0.011704374 8.2050453e-39
-0.07853362 -0.097590908 -0.011704374 8.9415342e-39
-0.076713614 -0.097590908 -0.011704374 9.5869064e-39
-0.074893609 -0.097590908 -0.011704374 1.0047529e-38
-0.072884001 -0.096663594 -0.0077721365 1.0231923e-38
-0.071070887 -0.096663594 -0.0077721365 1.0231924e-38
-0.069257773 -0.096663594 -0.0077721365 1.0415959e-38
-0.067613579 -0.097590908 -0.011704374 1.0600707e-38
-0.065631554 -0.096663594 -0.0077721365 1.1614138e-38
-0.06381844 -0.096663594 -0.0077721365 1.0508147e-38
-0.062005326 -0.096663594 -0.0077721365 9.0330109e-39
-0.041839544 -0.093825653 0.0042620413 1.1983623e-38
-0.040047534 -0.093825653 0.0042620413 1.1799234e-38
-0.03825552 -0.093825653 0.0042620413 1.1707039e-38
-0.036463507 -0.093825653 0.0042620413 1.2536799e-38
-0.034671497 -0.093825653 0.0042620413 1.2905582e-38
-0.032879483 -0.093825653 0.0042620413 1.2444605e-38
-0.031087469 -0.093825653 0.0042620413 1.2997779e-38
-0.029313918 -0.094535068 0.0012537949 1.2721192e-38
-0.027516633 -0.094535068 0.0012537949 1.1891431e-38
-0.025719345 -0.094535068 0.0012537949 1.2444605e-38
-0.02392206 -0.094535068 0.0012537949 1.235277e-38
-0.022124771 -0.094535068 0.0012537949 1.1892869e-38
-0.020319529 -0.09524864 -0.0017720945 1.1524805e-38
-0.018516935 -0.09524864 -0.0017720945 1.1248219e-38
-0.016714344 -0.09524864 -0.0017720945 1.124822e-38
-0.0059491927 -0.094535068 0.0012537949 1.1985065e-38
-0.004262344 -0.093120396 0.0072526447 1.2721907e-38
-0.0024755755 -0.093120396 0.0072526447 1.2721907e-38
-0.00068880711 -0.093120396 0.0072526447 1.2445317e-38
0.0011687493 -0.093825653 0.0042620413 1.2169086e-38
0.0030372413 -0.094535068 0.0012537949 1.1800302e-38
0.0048345281 -0.094535068 0.0012537949 1.1338969e-38
0.0067193536 -0.09524864 -0.0017720945 1.0509939e-38
0.0087060472 -0.096663594 -0.0077721365 8.666392e-39
0.010519161 -0.096663594 -0.0077721365 7.4678488e-39
0.012466717 -0.097590908 -0.011704374 8.1124966e-39
0.014286722 -0.097590908 -0.011704374 7.006149e-39
0.016106728 -0.097590908 -0.011704374 5.8079617e-39
0.017926738 -0.097590908 -0.011704374 5.6224915e-39
0.027598146 -0.091698244 0.013283204 6.4511647e-39
0.029374342 -0.091698244 0.013283204 8.2028817e-39
0.031150538 -0.091698244 0.013283204 1.0046794e-38
0.032926735 -0.091698244 0.013283204 1.1153142e-38
0.034529749 -0.090981558 0.016322326 1.2903784e-38
0.036300614 -0.090981558 0.016322326 1.318109e-38
0.038071483 -0.090981558 0.016322326 1.3734264e-38
0.039473619 -0.089584544 0.022246312 1.4103046e-38
0.041234102 -0.089584544 0.022246312 1.4195242e-38
0.052238416 -0.090981558 0.016322326 1.6040233e-38
0.057318028 -0.090292826 0.019242834 1.4842409e-38
0.0588389 -0.089584544 0.022246312 1.4565822e-38
0.060599379 -0.089584544 0.022246312 1.4012646e-38
0.062105961 -0.088880435 0.025232028 1.438178e-38
0.063861214 -0.088880435 0.025232028 1.4381777e-38
0.065616451 -0.088880435 0.025232028 1.438178e-38
0.067371704 -0.088880435 0.025232028 1.419811e-38
0.069401778 -0.089584544 0.022246312 1.4013722e-38
0.071162261 -0.089584544 0.022246312 1.3276522e-38
0.072922744 -0.089584544 0.022246312 1.253824e-38
-0.11756999 -0.10155846 -0.020743776 9.9574769e-39
-0.1154658 -0.10083848 -0.017713238 9.3128264e-39
-0.11337375 -0.10012263 -0.014700104 6.1788981e-39
-0.11154849 -0.10012263 -0.014700104 2.7837775e-40
-0.10997417 -0.10083848 -0.017713238 1.4349296e-42
-0.10814364 -0.10083848 -0.017713238 1.0761972e-42
-0.10631309 -0.10083848 -0.017713238 7.393601e-40
-0.10448255 -0.10083848 -0.017713238 2.5821965e-39
-0.10265201 -0.10083848 -0.017713238 2.0283067e-39
-0.10082146 -0.10083848 -0.017713238 7.3756784e-40
-0.099211432 -0.10155846 -0.020743776 8.2904741e-40
-0.097375579 -0.10155846 -0.020743776 1.3822212e-39
-0.095539726 -0.10155846 -0.020743776 2.1197862e-39
-0.093703859 -0.10155846 -0.020743776 1.7510037e-39
-0.091868006 -0.10155846 -0.020743776 1.7510009e-39
-0.089838214 -0.10083848 -0.017713238 2.1197806e-39
-0.088007666 -0.10083848 -0.017713238 2.2123322e-39
-0.085994862 -0.10012263 -0.014700104 2.1208526e-39
-0.083993636 -0.099410906 -0.011704374 3.0428089e-39
-0.082173638 -0.099410906 -0.011704374 4.2413521e-39
-0.080353625 -0.099410906 -0.011704374 3.7796579e-39
-0.07853362 -0.099410906 -0.011704374 3.9629701e-39
-0.076713614 -0.099410906 -0.011704374 4.0551686e-39
-0.074893609 -0.099410906 -0.011704374 4.3313995e-39
-0.072884001 -0.098476708 -0.0077721365 4.7923805e-39
-0.071070887 -0.098476708 -0.0077721365 5.3455557e-39
-0.069257773 -0.098476708 -0.0077721365 5.7139823e-39
-0.067613579 -0.099410906 -0.011704374 5.8983735e-39
-0.065631554 -0.098476708 -0.0077721365 5.3455557e-39
-0.06381844 -0.098476708 -0.0077721365 7.0050756e-39
-0.061889924 -0.097749382 -0.0047107227 8.2954487e-39
-0.060082179 -0.097749382 -0.0047107227 8.480556e-39
-0.058274433 -0.097749382 -0.0047107227 8.2958004e-39
-0.056466687 -0.097749382 -0.0047107227 7.3745574e-39
-0.054658946 -0.097749382 -0.0047107227 8.0195638e-39
-0.0528512 -0.097749382 -0.0047107227 9.6790852e-39
-0.051126655 -0.098476708 -0.0077721365 9.7712836e-39
-0.043692213 -0.096332356 0.0012537949 7.8348195e-39
-0.041839544 -0.095617667 0.0042620413 6.6362763e-39
-0.040047534 -0.095617667 0.0042620413 6.6362791e-39
-0.03825552 -0.095617667 0.0042620413 7.4660397e-39
-0.036463507 -0.095617667 0.0042620413 6.912866e-39
-0.034671497 -0.095617667 0.0042620413 7.3738441e-39
-0.032879483 -0.095617667 0.0042620413 7.005063e-39
-0.031087469 -0.095617667 0.0042620413 7.5582368e-39
-0.029295459 -0.095617667 0.0042620413 7.2816499e-39
-0.027516633 -0.096332356 0.0012537949 6.4518892e-39
-0.025719345 -0.096332356 0.0012537949 7.3738455e-39
-0.02392206 -0.096332356 0.0012537949 7.3742057e-39
-0.022124771 -0.096332356 0.0012537949 6.545524e-39
-0.020319529 -0.097051233 -0.0017720945 6.6384385e-39
-0.018530197 -0.096332356 0.0012537949 6.7306341e-39
-0.016732913 -0.096332356 0.0012537949 6.7306341e-39
-0.014935626 -0.096332356 0.0012537949 7.0068651e-39
-0.013138339 -0.096332356 0.0012537949 7.4678432e-39
-0.011341052 -0.096332356 0.0012537949 7.5596787e-39
-0.0095437653 -0.096332356 0.0012537949 7.1908962e-39
-0.0077464785 -0.096332356 0.0012537949 7.74407e-39
-0.0059491927 -0.096332356 0.0012537949 8.2050453e-39
-0.004262344 -0.094907165 0.0072526447 8.7574974e-39
-0.0024755755 -0.094907165 0.0072526447 8.8496903e-39
-0.00068880711 -0.094907165 0.0072526447 8.9418831e-39
0.0011687493 -0.095617667 0.0042620413 9.1266303e-39
0.0030372413 -0.096332356 0.0012537949 9.1266303e-39
0.0048345281 -0.096332356 0.0012537949 8.7585708e-39
0.0066318149 -0.096332356 0.0012537949 8.758582e-39
0.008612114 -0.097749382 -0.0047107227 7.8366313e-39
0.010519161 -0.098476708 -0.0077721365 7.8366313e-39
0.012466717 -0.099410906 -0.011704374 1.1155674e-38
0.014145385 -0.098476708 -0.0077721365 1.078617e-38
0.015958495 -0.098476708 -0.0077721365 9.4032354e-39
0.017771609 -0.098476708 -0.0077721365 7.4664069e-39
0.020108342 -0.091345012 0.022246312 6.6366434e-39
0.022269562 -0.093474448 0.013283204 6.4522494e-39
0.024045758 -0.093474448 0.013283204 6.6362805e-39
0.025821954 -0.093474448 0.013283204 7.3738441e-39
0.027598146 -0.093474448 0.013283204 8.2947214e-39
0.029374342 -0.093474448 0.013283204 8.2950773e-39
0.031150538 -0.093474448 0.013283204 7.3727651e-39
0.032926735 -0.093474448 0.013283204 6.3586132e-39
0.034529749 -0.092752427 0.016322326 7.187655e-39
0.035952661 -0.091345012 0.022246312 8.2018069e-39
0.03771314 -0.091345012 0.022246312 9.1244821e-39
0.039473619 -0.091345012 0.022246312 9.3088733e-39
0.041234102 -0.091345012 0.022246312 8.7556996e-39
0.042994577 -0.091345012 0.022246312 8.2947214e-39
0.057318028 -0.092058569 0.019242834 1.3828257e-38
0.0588389 -0.091345012 0.022246312 1.419704e-38
0.060599379 -0.091345012 0.022246312 1.4012646e-38
0.062105961 -0.090635687 0.025232028 1.3275078e-38
0.063861214 -0.090635687 0.025232028 1.2906651e-38
0.065616451 -0.090635687 0.025232028 1.2445317e-38
0.067371704 -0.090635687 0.025232028 1.2721907e-38
0.069401778 -0.091345012 0.022246312 1.2630434e-38
0.071162261 -0.091345012 0.022246312 1.0509936e-38
0.072922744 -0.091345012 0.022246312 7.9284612e-39
0.074683212 -0.091345012 0.022246312 7.006149e-39
0.090527542 -0.091345012 0.022246312 5.2537062e-39
0.09228801 -0.091345012 0.022246312 5.1618679e-39
0.094398685 -0.092058569 0.019242834 5.6224887e-39
0.096164443 -0.092058569 0.019242834 5.6224887e-39
-0.1212417 -0.10339431 -0.020743776 1.1063462e-38
-0.11940584 -0.10339431 -0.020743776 1.0695398e-38
-0.11756999 -0.10339431 -0.020743776 1.1248216e-38
-0.1154658 -0.10266902 -0.017713238 9.4972205e-39
-0.11337375 -0.10194789 -0.014700104 7.1008558e-39
-0.11154849 -0.10194789 -0.014700104 7.1746481e-43
-0.10997417 -0.10266902 -0.017713238 1.0761972e-42
-0.10789797 -0.10194789 -0.014700104 2.7909802e-40
-0.10607272 -0.10194789 -0.014700104 1.0761972e-42
-0.10424746 -0.10194789 -0.014700104 9.2911693e-41
-0.1024222 -0.10194789 -0.014700104 1.1985432e-39
-0.10082146 -0.10266902 -0.017713238 7.3756504e-40
-0.098990925 -0.10266902 -0.017713238 7.3684898e-40
-0.097160377 -0.10266902 -0.017713238 5.5137872e-40
-0.095329829 -0.10266902 -0.017713238 1.1045553e-39
-0.093499295 -0.10266902 -0.017713238 1.1967509e-39
-0.091470636 -0.10194789 -0.014700104 1.2900228e-39
-0.089645378 -0.10194789 -0.014700104 9.1835496e-41
-0.08782012 -0.10194789 -0.014700104 0
-0.085813649 -0.10123092 -0.011704374 5.5317098e-40
-0.083993636 -0.10123092 -0.011704374 1.1063448e-39
-0.082173638 -0.10123092 -0.011704374 1.9361054e-39
-0.080353625 -0.10123092 -0.011704374 1.0134331e-39
-0.07853362 -0.10123092 -0.011704374 1.1056287e-39
-0.076713614 -0.10123092 -0.011704374 9.1838299e-41
-0.074893609 -0.10123092 -0.011704374 9.1838299e-41
-0.072884001 -0.10028981 -0.0077721365 6.4465615e-40
-0.071070887 -0.10028981 -0.0077721365 2.3960158e-39
-0.069257773 -0.10028981 -0.0077721365 1.3818667e-39
-0.06744466 -0.10028981 -0.0077721365 1.5662579e-39
-0.065631554 -0.10028981 -0.0077721365 9.1842503e-41
-0.063697666 -0.099557132 -0.0047107227 1.1056343e-39
-0.061889924 -0.099557132 -0.0047107227 2.6718782e-39
-0.060082179 -0.099557132 -0.0047107227 2.9495413e-39
-0.058274433 -0.099557132 -0.0047107227 1.9346635e-39
-0.056466687 -0.099557132 -0.0047107227 2.0279367e-39
-0.054658946 -0.099557132 -0.0047107227 3.1335612e-39
-0.0528512 -0.099557132 -0.0047107227 1.750624e-39
-0.051043458 -0.099557132 -0.0047107227 3.0406467e-39
-0.049235709 -0.099557132 -0.0047107227 3.7782146e-39
-0.045555815 -0.098853827 -0.0017720945 4.2391927e-39
-0.043692213 -0.098129645 0.0012537949 3.5938233e-39
-0.041839544 -0.09740968 0.0042620413 3.2250408e-39
-0.040047534 -0.09740968 0.0042620413 3.6860203e-39
-0.03825552 -0.09740968 0.0042620413 4.2391941e-39
-0.036463507 -0.09740968 0.0042620413 5.1611504e-39
-0.034671497 -0.09740968 0.0042620413 5.3455417e-39
-0.032879483 -0.09740968 0.0042620413 5.3451857e-39
-0.031087469 -0.09740968 0.0042620413 5.1607945e-39
-0.029295459 -0.09740968 0.0042620413 5.4373814e-39
-0.027516633 -0.098129645 0.0012537949 6.0827508e-39
-0.025719345 -0.098129645 0.0012537949 6.5437289e-39
-0.02392206 -0.098129645 0.0012537949 6.4522522e-39
-0.022124771 -0.098129645 0.0012537949 6.1774603e-39
-0.020327486 -0.098129645 0.0012537949 6.1778205e-39
-0.018530197 -0.098129645 0.0012537949 6.3614957e-39
-0.016732913 -0.098129645 0.0012537949 6.7302782e-39
-0.014935626 -0.098129645 0.0012537949 7.467846e-39
-0.013138339 -0.098129645 0.0012537949 7.9288242e-39
-0.011341052 -0.098129645 0.0012537949 7.467846e-39
-0.0095833242 -0.09740968 0.0042620413 6.4536913e-39
-0.0077913115 -0.09740968 0.0042620413 5.1625923e-39
-0.0059992997 -0.09740968 0.0042620413 5.9923502e-39
-0.0042072879 -0.09740968 0.0042620413 6.6377182e-39
-0.0024152743 -0.09740968 0.0042620413 6.5458785e-39
-0.00062326249 -0.09740968 0.0042620413 6.5447967e-39
0.0011687493 -0.09740968 0.0042620413 6.5451526e-39
0.0029607611 -0.09740968 0.0042620413 6.3607614e-39
0.0047527747 -0.09740968 0.0042620413 5.9005091e-39
0.0065447865 -0.09740968 0.0042620413 4.9785612e-39
0.0083368002 -0.09740968 0.0042620413 5.9008832e-39
0.010519161 -0.10028981 -0.0077721365 7.1912619e-39
0.012466717 -0.10123092 -0.011704374 7.6522401e-39
0.013388584 -0.095250636 0.013283204 7.2834576e-39
0.01516478 -0.095250636 0.013283204 6.4536941e-39
0.01658738 -0.093105495 0.022246312 5.8998014e-39
0.018347863 -0.093105495 0.022246312 5.6235705e-39
0.022269562 -0.095250636 0.013283204 5.253709e-39
0.024045758 -0.095250636 0.013283204 5.4373814e-39
0.025821954 -0.095250636 0.013283204 6.1753023e-39
0.027598146 -0.095250636 0.013283204 6.9128674e-39
0.029374342 -0.095250636 0.013283204 7.1894529e-39
0.031150538 -0.095250636 0.013283204 6.8195927e-39
0.032926735 -0.095250636 0.013283204 6.2664176e-39
0.034529749 -0.094523281 0.016322326 6.2656987e-39
0.035952661 -0.093105495 0.022246312 7.187655e-39
0.03771314 -0.093105495 0.022246312 7.9259389e-39
0.039473619 -0.093105495 0.022246312 8.1103302e-39
0.041234102 -0.093105495 0.022246312 8.0181345e-39
0.042994577 -0.093105495 0.022246312 7.7415476e-39
0.055552278 -0.093824327 0.019242834 1.1892149e-38
0.057318028 -0.093824327 0.019242834 1.3367279e-38
0.059083771 -0.093824327 0.019242834 1.4381431e-38
0.060599379 -0.093105495 0.022246312 1.3828257e-38
0.062105961 -0.092390925 0.025232028 1.2446043e-38
0.063861214 -0.092390925 0.025232028 1.253824e-38
0.065616451 -0.092390925 0.025232028 1.2444965e-38
0.067371704 -0.092390925 0.025232028 1.2444968e-38
0.069401778 -0.093105495 0.022246312 1.2444968e-38
0.071162261 -0.093105495 0.022246312 1.0601055e-38
0.072922744 -0.093105495 0.022246312 8.4805588e-39
0.074683212 -0.093105495 0.022246312 7.6507981e-39
0.085569955 -0.093824327 0.019242834 6.7291936e-39
0.087006576 -0.093105495 0.022246312 6.2692916e-39
0.088767059 -0.093105495 0.022246312 6.8224654e-39
0.090527542 -0.093105495 0.022246312 6.6369951e-39
0.09228801 -0.093105495 0.022246312 7.5589514e-39
0.094048493 -0.093105495 0.022246312 7.1901717e-39
0.095808975 -0.093105495 0.022246312 7.3742057e-39
0.097569458 -0.093105495 0.022246312 6.728839e-39
0.10042215 -0.095250636 0.013283204 7.3742085e-39
0.10219834 -0.095250636 0.013283204 8.9422572e-39
0.10435783 -0.095982388 0.010225724 6.5451709e-39
0.10613938 -0.095982388 0.010225724 5.715413e-39
0.10830409 -0.096693933 0.0072526447 5.4388261e-39
-0.11857376 -0.10305093 -0.011704374 1.0049673e-38
-0.11675376 -0.10305093 -0.011704374 1.014259e-38
-0.11493375 -0.10305093 -0.011704374 8.3915932e-39
-0.11311375 -0.10305093 -0.011704374 6.547682e-39
-0.11129374 -0.10305093 -0.011704374 7.1746481e-43
-0.10972323 -0.10377313 -0.014700104 1.0761972e-42
-0.10789797 -0.10377313 -0.014700104 5.5496604e-40
-0.10607272 -0.10377313 -0.014700104 8.3047673e-40
-0.10424746 -0.10377313 -0.014700104 7.3756224e-40
-0.1024222 -0.10377313 -0.014700104 2.7658689e-40
-0.10059693 -0.10377313 -0.014700104 9.1835496e-41
-0.098990925 -0.10449956 -0.017713238 2.7550929e-40
-0.096946411 -0.10377313 -0.014700104 5.5137872e-40
-0.095121153 -0.10377313 -0.014700104 1.4733378e-39
-0.093295895 -0.10377313 -0.014700104 9.2016404e-40
-0.091470636 -0.10377313 -0.014700104 9.1838299e-41
-0.089645378 -0.10377313 -0.014700104 2.8025969e-45
-0.08782012 -0.10377313 -0.014700104 1.8439406e-40
-0.085813649 -0.10305093 -0.011704374 5.5389265e-40
-0.083993636 -0.10305093 -0.011704374 9.2231923e-40
-0.082173638 -0.10305093 -0.011704374 6.4608828e-40
-0.080353625 -0.10305093 -0.011704374 1.4751301e-39
-0.078323342 -0.10210292 -0.0077721365 1.1063476e-39
-0.076510228 -0.10210292 -0.0077721365 6.4465335e-40
-0.074697115 -0.10210292 -0.0077721365 9.2198432e-41
-0.072884001 -0.10210292 -0.0077721365 8.2869008e-40
-0.071070887 -0.10210292 -0.0077721365 5.5210319e-40
-0.069257773 -0.10210292 -0.0077721365 4.5991036e-40
-0.06744466 -0.10210292 -0.0077721365 6.4430162e-40
-0.065631554 -0.10210292 -0.0077721365 5.5210319e-40
-0.063697666 -0.10136487 -0.0047107227 9.1842503e-41
-0.061889924 -0.10136487 -0.0047107227 9.1841101e-41
-0.060082179 -0.10136487 -0.0047107227 1.1056315e-39
-0.058173962 -0.10065642 -0.0017720945 1.013789e-39
-0.056371368 -0.10065642 -0.0017720945 6.4500367e-40
-0.054568779 -0.10065642 -0.0017720945 1.1059804e-39
-0.0528512 -0.10136487 -0.0047107227 9.2158916e-40
-0.051043458 -0.10136487 -0.0047107227 8.2867326e-40
-0.049235709 -0.10136487 -0.0047107227 1.1967369e-39
-0.047427967 -0.10136487 -0.0047107227 1.3811282e-39
-0.045555815 -0.10065642 -0.0017720945 1.1967369e-39
-0.043753225 -0.10065642 -0.0017720945 7.3576017e-40
-0.041894928 -0.099926919 0.0012537949 6.4356594e-40
-0.040097639 -0.099926919 0.0012537949 1.0123471e-39
-0.038300354 -0.099926919 0.0012537949 1.3811296e-39
-0.036503065 -0.099926919 0.0012537949 1.9343034e-39
-0.03470578 -0.099926919 0.0012537949 2.2108902e-39
-0.032908492 -0.099926919 0.0012537949 1.7495562e-39
-0.031111207 -0.099926919 0.0012537949 8.2759987e-40
-0.029313918 -0.099926919 0.0012537949 9.197955e-40
-0.027516633 -0.099926919 0.0012537949 1.8417518e-39
-0.025719345 -0.099926919 0.0012537949 2.4871212e-39
-0.02392206 -0.099926919 0.0012537949 2.2112532e-39
-0.022124771 -0.099926919 0.0012537949 1.1988963e-39
-0.020327486 -0.099926919 0.0012537949 7.382783e-40
-0.018530197 -0.099926919 0.0012537949 3.6877972e-40
-0.016732913 -0.099926919 0.0012537949 2.7658409e-40
-0.014935626 -0.099926919 0.0012537949 9.219563e-40
-0.013138339 -0.099926919 0.0012537949 1.6595213e-39
-0.011341052 -0.099926919 0.0012537949 1.5673257e-39
-0.0095833242 -0.099201679 0.0042620413 1.0141519e-39
-0.0077913115 -0.099201679 0.0042620413 2.7586802e-40
-0.0059992997 -0.099201679 0.0042620413 4.6061521e-40
-0.0042072879 -0.099201679 0.0042620413 1.2903731e-39
-0.0024152743 -0.099201679 0.0042620413 2.3045236e-39
-0.00062326249 -0.099201679 0.0042620413 2.5803874e-39
0.0011687493 -0.099201679 0.0042620413 1.6584283e-39
0.0029607611 -0.099201679 0.0042620413 8.2867186e-40
0.0047527747 -0.099201679 0.0042620413 3.6877691e-40
0.0064582685 -0.098480701 0.0072526447 0
0.0082450388 -0.098480701 0.0072526447 1.6598843e-39
0.010031807 -0.098480701 0.0072526447 3.3190455e-39
0.011716924 -0.097763941 0.010225724 3.0424586e-39
0.013388584 -0.09702684 0.013283204 1.3829373e-39
0.01516478 -0.09702684 0.013283204 1.8439406e-40
0.01658738 -0.094865978 0.022246312 5.5245491e-40
0.018347863 -0.094865978 0.022246312 1.4744112e-39
0.020362817 -0.09629415 0.016322326 2.4878429e-39
0.022269562 -0.09702684 0.013283204 2.3034488e-39
0.024045758 -0.09702684 0.013283204 1.8417546e-39
0.025821954 -0.09702684 0.013283204 1.0119911e-39
0.027598146 -0.09702684 0.013283204 6.4320861e-40
0.029374342 -0.09702684 0.013283204 1.288578e-39
0.031150538 -0.09702684 0.013283204 2.5793168e-39
0.032926735 -0.09702684 0.013283204 3.8693326e-39
0.034529749 -0.09629415 0.016322326 2.8551807e-39
0.035952661 -0.094865978 0.022246312 2.4863967e-39
0.03771314 -0.094865978 0.022246312 1.7488317e-39
0.039473619 -0.094865978 0.022246312 1.2878535e-39
0.041234102 -0.094865978 0.022246312 1.7488317e-39
0.043192055 -0.09559007 0.019242834 2.7629836e-39
0.050467547 -0.09629415 0.016322326 1.2889325e-39
0.052238416 -0.09629415 0.016322326 1.1967369e-39
0.054241072 -0.09702684 0.013283204 1.381847e-39
0.055780146 -0.09629415 0.016322326 2.395999e-39
0.057318028 -0.09559007 0.019242834 4.0555203e-39
0.059083771 -0.09559007 0.019242834 4.0555203e-39
0.060849525 -0.09559007 0.019242834 2.0279381e-39
0.062359862 -0.094865978 0.022246312 2.0279409e-39
0.064120345 -0.094865978 0.022246312 2.3041719e-39
0.065880813 -0.094865978 0.022246312 2.5796826e-39
0.067641295 -0.094865978 0.022246312 3.4094432e-39
0.069401778 -0.094865978 0.022246312 4.5157908e-39
0.071162261 -0.094865978 0.022246312 4.2392039e-39
0.072922744 -0.094865978 0.022246312 3.5019948e-39
0.074683212 -0.094865978 0.022246312 3.5941904e-39
0.076443695 -0.094865978 0.022246312 5.7146871e-39
0.078204177 -0.094865978 0.022246312 5.0693149e-39
0.081093736 -0.093406871 0.028298628 6.3604083e-39
0.082843609 -0.093406871 0.028298628 6.4526011e-39
0.085246094 -0.094865978 0.022246312 5.531721e-39
0.086679392 -0.094146177 0.025232028 5.3473297e-39
0.088434644 -0.094146177 0.025232028 5.8083079e-39
0.090189882 -0.094146177 0.025232028 5.438452e-39
0.09228801 -0.094865978 0.022246312 6.176017e-39
0.094048493 -0.094865978 0.022246312 5.7150416e-39
0.095455609 -0.094146177 0.025232028 5.5302931e-39
0.097210862 -0.094146177 0.025232028 4.7927308e-39
0.099695928 -0.09559007 0.019242834 5.8068827e-39
0.10182268 -0.09629415 0.016322326 7.9281053e-39
0.10359354 -0.09629415 0.016322326 6.6373665e-39
0.10613938 -0.097763941 0.010225724 5.3466305e-39
0.10830409 -0.098480701 0.0072526447 6.6373665e-39
-0.11857376 -0.10487093 -0.011704374 9.9574798e-39
-0.11675376 -0.10487093 -0.011704374 1.0603568e-38
-0.11493375 -0.10487093 -0.011704374 9.036964e-39
-0.11311375 -0.10487093 -0.011704374 7.1008586e-39
-0.11129374 -0.10487093 -0.011704374 7.1746481e-43
-0.10972323 -0.10559841 -0.014700104 7.1746481e-43
-0.10789797 -0.10559841 -0.014700104 4.6277041e-40
-0.10607272 -0.10559841 -0.014700104 1.1992593e-39
-0.10424746 -0.10559841 -0.014700104 1.1985404e-39
-0.1024222 -0.10559841 -0.014700104 6.4465054e-40
-0.10059693 -0.10559841 -0.014700104 1.0127128e-39
-0.098771669 -0.10559841 -0.014700104 1.1045525e-39
-0.096946411 -0.10559841 -0.014700104 1.5651705e-39
-0.095121153 -0.10559841 -0.014700104 3.6734479e-40
-0.093295895 -0.10559841 -0.014700104 8.2796561e-40
-0.091470636 -0.10559841 -0.014700104 9.1841101e-41
-0.08945366 -0.10487093 -0.011704374 1.0137988e-39
-0.087633662 -0.10487093 -0.011704374 3.6914826e-40
-0.085813649 -0.10487093 -0.011704374 3.61535e-43
-0.083993636 -0.10487093 -0.011704374 6.4717428e-40
-0.082173638 -0.10487093 -0.011704374 1.200704e-39
-0.080136456 -0.10391603 -0.0077721365 1.2914577e-39
-0.078323342 -0.10391603 -0.0077721365 1.1070664e-39
-0.076510228 -0.10391603 -0.0077721365 1.8439154e-39
-0.074697115 -0.10391603 -0.0077721365 2.7694983e-40
-0.072884001 -0.10391603 -0.0077721365 1.6591696e-39
-0.071070887 -0.10391603 -0.0077721365 1.0138002e-39
-0.069257773 -0.10391603 -0.0077721365 1.751368e-39
-0.06744466 -0.10391603 -0.0077721365 9.2160738e-40
-0.065505408 -0.10317262 -0.0047107227 7.3721612e-40
-0.063697666 -0.10317262 -0.0047107227 7.0064923e-45
-0.061889924 -0.10317262 -0.0047107227 7.0064923e-45
-0.060082179 -0.10317262 -0.0047107227 9.2160317e-40
-0.058173962 -0.10245901 -0.0017720945 1.4751329e-39
-0.056371368 -0.10245901 -0.0017720945 1.2907388e-39
-0.054568779 -0.10245901 -0.0017720945 1.290736e-39
-0.052766185 -0.10245901 -0.0017720945 1.9357453e-39
-0.050963596 -0.10245901 -0.0017720945 1.2892941e-39
-0.049161002 -0.10245901 -0.0017720945 1.1049028e-39
-0.047358409 -0.10245901 -0.0017720945 8.2831593e-40
-0.045555815 -0.10245901 -0.0017720945 5.5173044e-40
-0.043753225 -0.10245901 -0.0017720945 5.5173044e-40
-0.041950636 -0.10245901 -0.0017720945 6.4392467e-40
-0.040148042 -0.10245901 -0.0017720945 9.2051436e-40
-0.038345449 -0.10245901 -0.0017720945 1.1049056e-39
-0.036503065 -0.10172421 0.0012537949 1.1049056e-39
-0.03470578 -0.10172421 0.0012537949 1.5658838e-39
-0.032908492 -0.10172421 0.0012537949 1.2892969e-39
-0.031111207 -0.10172421 0.0012537949 3.6734198e-40
-0.029313918 -0.10172421 0.0012537949 2.7550649e-40
-0.027516633 -0.10172421 0.0012537949 8.2832154e-40
-0.025719345 -0.10172421 0.0012537949 1.1049084e-39
-0.02392206 -0.10172421 0.0012537949 5.5281084e-40
-0.022124771 -0.10172421 0.0012537949 7.3791817e-40
-0.020327486 -0.10172421 0.0012537949 2.7730015e-40
-0.018530197 -0.10172421 0.0012537949 3.5873241e-43
-0.016732913 -0.10172421 0.0012537949 3.5873241e-43
-0.014935626 -0.10172421 0.0012537949 3.5873241e-43
-0.013167349 -0.10099369 0.0042620413 5.5389265e-40
-0.011375336 -0.10099369 0.0042620413 7.3756784e-40
-0.0095833242 -0.10099369 0.0042620413 5.5317378e-40
-0.0077913115 -0.10099369 0.0042620413 0
-0.0060491124 -0.10026747 0.0072526447 0
-0.004262344 -0.10026747 0.0072526447 9.1835496e-41
-0.0024755755 -0.10026747 0.0072526447 1.2903731e-39
-0.00068880711 -0.10026747 0.0072526447 1.6591542e-39
0.0011687493 -0.10099369 0.0042620413 4.6097114e-40
0.0028091455 -0.099545494 0.010225724 9.2194229e-41
0.0045907004 -0.099545494 0.010225724 9.1835496e-41
0.0063722571 -0.099545494 0.010225724 0
0.0081538139 -0.099545494 0.010225724 1.4751301e-39
0.0099353706 -0.099545494 0.010225724 2.5814776e-39
0.011612388 -0.098803028 0.013283204 2.0283039e-39
0.013388584 -0.098803028 0.013283204 4.6025928e-40
0.01516478 -0.098803028 0.013283204 9.1835496e-41
0.016821083 -0.098065019 0.016322326 2.7586802e-40
0.018591948 -0.098065019 0.016322326 1.3822156e-39
0.020362817 -0.098065019 0.016322326 1.4744112e-39
0.022269562 -0.098803028 0.013283204 1.3822156e-39
0.024045758 -0.098803028 0.013283204 1.1967481e-39
0.025821954 -0.098803028 0.013283204 5.5173465e-40
0.027598146 -0.098803028 0.013283204 2.7550649e-40
0.029374342 -0.098803028 0.013283204 2.7550649e-40
0.031150538 -0.098803028 0.013283204 1.1049084e-39
0.032758884 -0.098065019 0.016322326 2.0261459e-39
0.034529749 -0.098065019 0.016322326 1.8410287e-39
0.036300614 -0.098065019 0.016322326 1.1956593e-39
0.037894819 -0.097355813 0.019242834 5.5101298e-40
0.039660569 -0.097355813 0.019242834 3.6734198e-40
0.041426312 -0.097355813 0.019242834 3.6734198e-40
0.043192055 -0.097355813 0.019242834 1.1967383e-39
0.044957805 -0.097355813 0.019242834 1.6577165e-39
0.046723548 -0.097355813 0.019242834 1.5655208e-39
0.048696678 -0.098065019 0.016322326 1.0123471e-39
0.050467547 -0.098065019 0.016322326 7.361203e-40
0.052238416 -0.098065019 0.016322326 6.4392467e-40
0.054009285 -0.098065019 0.016322326 2.7550649e-40
0.055780146 -0.098065019 0.016322326 3.6734198e-40
0.057318028 -0.097355813 0.019242834 1.4747643e-39
0.059083771 -0.097355813 0.019242834 1.7513512e-39
0.060849525 -0.097355813 0.019242834 5.5281084e-40
0.062359862 -0.096626461 0.022246312 9.1838299e-41
0.064120345 -0.096626461 0.022246312 5.6051939e-45
0.065880813 -0.096626461 0.022246312 9.1841101e-41
0.067641295 -0.096626461 0.022246312 2.7587363e-40
0.069126941 -0.095901415 0.025232028 1.5655334e-39
0.070882194 -0.095901415 0.025232028 1.5655334e-39
0.072637431 -0.095901415 0.025232028 1.2885836e-39
0.074392684 -0.095901415 0.025232028 1.749559e-39
0.076147921 -0.095901415 0.025232028 8.2759987e-40
0.077903174 -0.095901415 0.025232028 1.1045427e-39
0.079658411 -0.095901415 0.025232028 1.6584339e-39
0.081093736 -0.095156729 0.028298628 2.0272136e-39
0.082843609 -0.095156729 0.028298628 1.5673089e-39
0.084924154 -0.095901415 0.025232028 9.2230102e-40
0.086679392 -0.095901415 0.025232028 7.3791256e-40
0.088434644 -0.095901415 0.025232028 1.0144952e-39
0.090189882 -0.095901415 0.025232028 1.8428224e-39
0.091945119 -0.095901415 0.025232028 2.5796714e-39
0.093700372 -0.095901415 0.025232028 2.3030859e-39
0.095092691 -0.095156729 0.028298628 1.7499121e-39
0.09684255 -0.095156729 0.028298628 7.361231e-40
0.098592423 -0.095156729 0.028298628 1.3814925e-39
0.10182268 -0.098065019 0.016322326 3.3183238e-39
0.10359354 -0.098065019 0.016322326 2.9495413e-39
-0.11857376 -0.10669093 -0.011704374 1.0511015e-38
-0.11675376 -0.10669093 -0.011704374 1.2078341e-38
-0.11493375 -0.10669093 -0.011704374 1.0788684e-38
-0.11311375 -0.10669093 -0.011704374 8.023175e-39
-0.11129374 -0.10669093 -0.011704374 1.0761972e-42
-0.10972323 -0.10742365 -0.014700104 2.7837915e-40
-0.10789797 -0.10742365 -0.014700104 1.0148652e-39
-0.10607272 -0.10742365 -0.014700104 9.219535e-40
-0.10424746 -0.10742365 -0.014700104 1.8402972e-40
-0.1024222 -0.10742365 -0.014700104 4.5953902e-40
-0.10059693 -0.10742365 -0.014700104 3.6856672e-39
-0.098771669 -0.10742365 -0.014700104 3.4090831e-39
-0.096733682 -0.10669093 -0.011704374 2.2105399e-39
-0.094913684 -0.10669093 -0.011704374 3.0403006e-39
-0.093093671 -0.10669093 -0.011704374 7.7426378e-39
-0.091273673 -0.10669093 -0.011704374 1.0140806e-38
-0.08945366 -0.10669093 -0.011704374 1.1617015e-38
-0.087633662 -0.10669093 -0.011704374 6.6395301e-39
-0.085813649 -0.10669093 -0.011704374 3.657389e-43
-0.083762676 -0.10572915 -0.0077721365 1.084605e-42
-0.081949562 -0.10572915 -0.0077721365 2.1636048e-42
-0.080136456 -0.10572915 -0.0077721365 3.61535e-43
-0.078323342 -0.10572915 -0.0077721365 3.5873241e-43
-0.076510228 -0.10572915 -0.0077721365 3.6914546e-40
-0.074697115 -0.10572915 -0.0077721365 5.6051939e-45
-0.072884001 -0.10572915 -0.0077721365 3.6914966e-40
-0.071070887 -0.10572915 -0.0077721365 4.6134529e-40
-0.069257773 -0.10572915 -0.0077721365 7.3757625e-40
-0.067313157 -0.10498036 -0.0047107227 9.8090893e-45
-0.065505408 -0.10498036 -0.0047107227 9.8090893e-45
-0.063697666 -0.10498036 -0.0047107227 9.1846707e-41
-0.061889924 -0.10498036 -0.0047107227 1.013803e-39
-0.060082179 -0.10498036 -0.0047107227 8.2940894e-40
-0.058173962 -0.10426159 -0.0017720945 1.0137988e-39
-0.056371368 -0.10426159 -0.0017720945 1.6595241e-39
-0.054568779 -0.10426159 -0.0017720945 1.2907416e-39
-0.052766185 -0.10426159 -0.0017720945 1.6595213e-39
-0.050963596 -0.10426159 -0.0017720945 1.3825715e-39
-0.049161002 -0.10426159 -0.0017720945 1.1049028e-39
-0.047358409 -0.10426159 -0.0017720945 7.361203e-40
-0.045555815 -0.10426159 -0.0017720945 6.4392467e-40
-0.043753225 -0.10426159 -0.0017720945 9.2051156e-40
-0.041950636 -0.10426159 -0.0017720945 1.1970984e-39
-0.040148042 -0.10426159 -0.0017720945 1.1971013e-39
-0.038345449 -0.10426159 -0.0017720945 1.1049056e-39
-0.036542855 -0.10426159 -0.0017720945 5.5173184e-40
-0.034740265 -0.10426159 -0.0017720945 9.2051436e-40
-0.032937672 -0.10426159 -0.0017720945 1.3814925e-39
-0.031135082 -0.10426159 -0.0017720945 1.6580794e-39
-0.029313918 -0.10352151 0.0012537949 1.3814953e-39
-0.027516633 -0.10352151 0.0012537949 9.2051717e-40
-0.025719345 -0.10352151 0.0012537949 5.5173465e-40
-0.02392206 -0.10352151 0.0012537949 2.7586802e-40
-0.022124771 -0.10352151 0.0012537949 2.7694142e-40
-0.020327486 -0.10352151 0.0012537949 4.6169141e-40
-0.018530197 -0.10352151 0.0012537949 7.382811e-40
-0.016732913 -0.10352151 0.0012537949 7.382811e-40
-0.014935626 -0.10352151 0.0012537949 6.4608828e-40
-0.013167349 -0.10278571 0.0042620413 6.4608828e-40
-0.011375336 -0.10278571 0.0042620413 8.2976347e-40
-0.0095833242 -0.10278571 0.0042620413 8.2976347e-40
-0.0077913115 -0.10278571 0.0042620413 1.751717e-39
-0.0060491124 -0.10205424 0.0072526447 8.2976067e-40
-0.004262344 -0.10205424 0.0072526447 6.4465054e-40
-0.0024755755 -0.10205424 0.0072526447 1.1059846e-39
-0.00068880711 -0.10205424 0.0072526447 1.2903731e-39
0.0010979613 -0.10205424 0.0072526447 8.2939353e-40
0.0028091455 -0.10132705 0.010225724 9.2158916e-40
0.0045907004 -0.10132705 0.010225724 1.4747629e-39
0.0063722571 -0.10132705 0.010225724 7.372021e-40
0.0081538139 -0.10132705 0.010225724 5.5317378e-40
0.0099353706 -0.10132705 0.010225724 4.6025928e-40
0.011612388 -0.10057923 0.013283204 3.6806365e-40
0.013388584 -0.10057923 0.013283204 3.6806365e-40
0.01516478 -0.10057923 0.013283204 4.6025928e-40
0.016821083 -0.099835888 0.016322326 5.5245491e-40
0.018591948 -0.099835888 0.016322326 6.4465054e-40
0.020362817 -0.099835888 0.016322326 1.474414e-39
0.022133682 -0.099835888 0.016322326 1.0134359e-39
0.024045758 -0.10057923 0.013283204 8.2904461e-40
0.025821954 -0.10057923 0.013283204 1.1056315e-39
0.027598146 -0.10057923 0.013283204 1.7499247e-39
0.029374342 -0.10057923 0.013283204 1.5666124e-39
0.031150538 -0.10057923 0.013283204 1.1045553e-39
0.032758884 -0.099835888 0.016322326 3.6734619e-40
0.034529749 -0.099835888 0.016322326 1.1041868e-39
0.036300614 -0.099835888 0.016322326 1.0123471e-39
0.037894819 -0.099121556 0.019242834 1.0123471e-39
0.039660569 -0.099121556 0.019242834 1.1045427e-39
0.041426312 -0.099121556 0.019242834 1.2889339e-39
0.043192055 -0.099121556 0.019242834 1.3811296e-39
0.044957805 -0.099121556 0.019242834 1.1045427e-39
0.046723548 -0.099121556 0.019242834 6.4392467e-40
0.048489299 -0.099121556 0.019242834 4.5953621e-40
0.050255042 -0.099121556 0.019242834 9.2051156e-40
0.052020792 -0.099121556 0.019242834 1.2892941e-39
0.053786535 -0.099121556 0.019242834 5.5280804e-40
0.055552278 -0.099121556 0.019242834 9.1835496e-41
0.057318028 -0.099121556 0.019242834 1.0137862e-39
0.059083771 -0.099121556 0.019242834 1.7513512e-39
0.060849525 -0.099121556 0.019242834 9.219535e-40
0.062359862 -0.098386943 0.022246312 1.0141547e-39
0.064120345 -0.098386943 0.022246312 1.2903857e-39
0.065880813 -0.098386943 0.022246312 1.1059944e-39
0.067641295 -0.098386943 0.022246312 1.3822212e-39
0.069126941 -0.097656667 0.025232028 1.934316e-39
0.070882194 -0.097656667 0.025232028 1.2889466e-39
0.072637431 -0.097656667 0.025232028 6.4285828e-40
0.074392684 -0.097656667 0.025232028 1.0119967e-39
0.076147921 -0.097656667 0.025232028 7.3540704e-40
0.077903174 -0.097656667 0.025232028 1.1049056e-39
0.079343878 -0.096906602 0.028298628 1.2896514e-39
0.081093736 -0.096906602 0.028298628 8.2974946e-40
0.082843609 -0.096906602 0.028298628 4.6097114e-40
0.084924154 -0.097656667 0.025232028 2.7730015e-40
0.086679392 -0.097656667 0.025232028 2.7730015e-40
0.088434644 -0.097656667 0.025232028 9.2911693e-41
0.090189882 -0.097656667 0.025232028 6.442834e-40
0.091592945 -0.096906602 0.028298628 1.1967383e-39
0.093342818 -0.096906602 0.028298628 1.1967383e-39
0.095092691 -0.096906602 0.028298628 7.3576017e-40
0.09684255 -0.096906602 0.028298628 2.7550649e-40
0.098592423 -0.096906602 0.028298628 2.7550649e-40
0.1003423 -0.096906602 0.028298628 2.7586802e-40
0.10247659 -0.097656667 0.025232028 3.6806365e-40
-0.11675376 -0.10851096 -0.011704374 1.2815909e-38
-0.11493375 -0.10851096 -0.011704374 1.0880523e-38
-0.11311375 -0.10851096 -0.011704374 7.8387865e-39
-0.11129374 -0.10851096 -0.011704374 3.5873241e-43
-0.10947374 -0.10851096 -0.011704374 3.5873241e-43
-0.10789797 -0.10924892 -0.014700104 9.2230943e-40
-0.10607272 -0.10924892 -0.014700104 8.2939493e-40
-0.10424746 -0.10924892 -0.014700104 2.7550649e-40
-0.1024222 -0.10924892 -0.014700104 1.288578e-39
-0.10059693 -0.10924892 -0.014700104 9.769497e-39
-0.098771669 -0.10924892 -0.014700104 1.1889999e-38
-0.096733682 -0.10851096 -0.011704374 1.124463e-38
-0.094913684 -0.10851096 -0.011704374 9.401799e-39
-0.093093671 -0.10851096 -0.011704374 1.3735354e-38
-0.091273673 -0.10851096 -0.011704374 1.5396317e-38
-0.08945366 -0.10851096 -0.011704374 1.576654e-38
-0.087633662 -0.10851096 -0.011704374 9.2213693e-39
-0.085575782 -0.10754226 -0.0077721365 2.798351e-40
-0.083762676 -0.10754226 -0.0077721365 2.1664074e-42
-0.081949562 -0.10754226 -0.0077721365 3.2440059e-42
-0.080136456 -0.10754226 -0.0077721365 7.2447131e-43
-0.078323342 -0.10754226 -0.0077721365 7.2026741e-43
-0.076510228 -0.10754226 -0.0077721365 9.3640369e-41
-0.074697115 -0.10754226 -0.0077721365 2.3063355e-39
-0.072884001 -0.10754226 -0.0077721365 8.3084808e-40
-0.071070887 -0.10754226 -0.0077721365 9.3283037e-41
-0.069257773 -0.10754226 -0.0077721365 1.0902102e-42
-0.067313157 -0.10678811 -0.0047107227 1.1063588e-39
-0.065505408 -0.10678811 -0.0047107227 2.2127091e-39
-0.063697666 -0.10678811 -0.0047107227 6.4538062e-40
-0.061889924 -0.10678811 -0.0047107227 1.1981943e-39
-0.060082179 -0.10678811 -0.0047107227 1.1059958e-39
-0.058173962 -0.10606419 -0.0017720945 1.1059958e-39
-0.056371368 -0.10606419 -0.0017720945 1.474777e-39
-0.054568779 -0.10606419 -0.0017720945 5.5282065e-40
-0.052766185 -0.10606419 -0.0017720945 8.2976347e-40
-0.050963596 -0.10606419 -0.0017720945 7.372021e-40
-0.049161002 -0.10606419 -0.0017720945 4.6061241e-40
-0.047358409 -0.10606419 -0.0017720945 3.6841818e-40
-0.045555815 -0.10606419 -0.0017720945 4.6061241e-40
-0.043753225 -0.10606419 -0.0017720945 8.2939773e-40
-0.041950636 -0.10606419 -0.0017720945 9.2159336e-40
-0.040148042 -0.10606419 -0.0017720945 7.372021e-40
-0.038345449 -0.10606419 -0.0017720945 5.5281084e-40
-0.036542855 -0.10606419 -0.0017720945 9.1835496e-41
-0.034740265 -0.10606419 -0.0017720945 9.1835496e-41
-0.032937672 -0.10606419 -0.0017720945 3.6806365e-40
-0.031135082 -0.10606419 -0.0017720945 1.7509981e-39
-0.029313918 -0.1053188 0.0012537949 1.6588025e-39
-0.027516633 -0.1053188 0.0012537949 2.7586802e-40
-0.025719345 -0.1053188 0.0012537949 9.1838299e-41
-0.02392206 -0.1053188 0.0012537949 6.4465054e-40
-0.022124771 -0.1053188 0.0012537949 3.5873241e-43
-0.020327486 -0.1053188 0.0012537949 4.6204874e-40
-0.018530197 -0.1053188 0.0012537949 1.1070608e-39
-0.016732913 -0.1053188 0.0012537949 1.1070636e-39
-0.014959361 -0.10457774 0.0042620413 5.5389265e-40
-0.013167349 -0.10457774 0.0042620413 7.1886611e-43
-0.011375336 -0.10457774 0.0042620413 1.8439406e-40
-0.0096226502 -0.10384102 0.0072526447 6.4537221e-40
-0.0078358818 -0.10384102 0.0072526447 1.4751329e-39
-0.0060491124 -0.10384102 0.0072526447 1.2907416e-39
-0.004262344 -0.10384102 0.0072526447 8.2904461e-40
-0.0024755755 -0.10384102 0.0072526447 1.8367239e-40
-0.00068880711 -0.10384102 0.0072526447 9.1835496e-41
0.0010275887 -0.1031086 0.010225724 4.6061521e-40
0.0028091455 -0.1031086 0.010225724 1.2903759e-39
0.0045907004 -0.1031086 0.010225724 1.7513512e-39
0.0063722571 -0.1031086 0.010225724 2.1201366e-39
0.0081538139 -0.1031086 0.010225724 1.1981803e-39
0.0099353706 -0.1031086 0.010225724 5.5173184e-40
0.011612388 -0.10235542 0.013283204 5.5281084e-40
0.013388584 -0.10235542 0.013283204 1.4744112e-39
0.01516478 -0.10235542 0.013283204 2.027585e-39
0.016821083 -0.10160676 0.016322326 1.7510009e-39
0.018591948 -0.10160676 0.016322326 1.1056315e-39
0.020362817 -0.10160676 0.016322326 1.2900256e-39
0.022133682 -0.10160676 0.016322326 4.6026489e-40
0.024045758 -0.10235542 0.013283204 9.1841101e-41
0.025821954 -0.10235542 0.013283204 2.7623376e-40
0.027598146 -0.10235542 0.013283204 1.3818639e-39
0.029374342 -0.10235542 0.013283204 1.6591696e-39
0.031150538 -0.10235542 0.013283204 1.105277e-39
0.032758884 -0.10160676 0.016322326 1.83678e-40
0.034529749 -0.10160676 0.016322326 3.6734339e-40
0.036300614 -0.10160676 0.016322326 5.5173184e-40
0.037894819 -0.1008873 0.019242834 8.2831873e-40
0.039660569 -0.1008873 0.019242834 1.01271e-39
0.041426312 -0.1008873 0.019242834 8.2831873e-40
0.043192055 -0.1008873 0.019242834 8.2831873e-40
0.044957805 -0.1008873 0.019242834 1.01271e-39
0.046723548 -0.1008873 0.019242834 1.013789e-39
0.048489299 -0.1008873 0.019242834 1.1059846e-39
0.050255042 -0.1008873 0.019242834 1.013789e-39
0.052020792 -0.1008873 0.019242834 1.1059846e-39
0.053786535 -0.1008873 0.019242834 8.2975787e-40
0.055552278 -0.1008873 0.019242834 9.219535e-40
0.057318028 -0.1008873 0.019242834 1.9361054e-39
0.059083771 -0.1008873 0.019242834 1.9361054e-39
0.060849525 -0.1008873 0.019242834 4.6097535e-40
0.062359862 -0.10014741 0.022246312 2.7730576e-40
0.064120345 -0.10014741 0.022246312 5.5353672e-40
0.065880813 -0.10014741 0.022246312 4.6098095e-40
0.067641295 -0.10014741 0.022246312 5.5317658e-40
0.069126941 -0.099411905 0.025232028 1.1056315e-39
0.070882194 -0.099411905 0.025232028 7.3685178e-40
0.072637431 -0.099411905 0.025232028 6.4357715e-40
0.074392684 -0.099411905 0.025232028 1.3811394e-39
0.076147921 -0.099411905 0.025232028 1.0123569e-39
0.077903174 -0.099411905 0.025232028 9.2051717e-40
0.079343878 -0.098656476 0.028298628 4.5953621e-40
0.081093736 -0.098656476 0.028298628 9.1835496e-41
0.082843609 -0.098656476 0.028298628 9.1835496e-41
0.084924154 -0.099411905 0.025232028 3.6913565e-40
0.086679392 -0.099411905 0.025232028 4.6204734e-40
0.088434644 -0.099411905 0.025232028 2.7694142e-40
0.090189882 -0.099411905 0.025232028 1.2892941e-39
0.091592945 -0.098656476 0.028298628 1.5640859e-39
0.093342818 -0.098656476 0.028298628 1.3807736e-39
0.095092691 -0.098656476 0.028298628 1.1041868e-39
0.09684255 -0.098656476 0.028298628 7.3612591e-40
0.098592423 -0.098656476 0.028298628 3.6734339e-40
0.1003423 -0.098656476 0.028298628 1.8367239e-40
0.10209215 -0.098656476 0.028298628 9.2123743e-40
-0.11675376 -0.11033095 -0.011704374 1.2723716e-38
-0.11493375 -0.11033095 -0.011704374 1.0050766e-38
-0.11311375 -0.11033095 -0.011704374 7.3778112e-39
-0.11129374 -0.11033095 -0.011704374 1.0818024e-42
-0.10947374 -0.11033095 -0.011704374 0
-0.10789797 -0.11107419 -0.014700104 7.371993e-40
-0.10607272 -0.11107419 -0.014700104 1.3814897e-39
-0.10424746 -0.11107419 -0.014700104 3.6734198e-40
-0.1024222 -0.11107419 -0.014700104 1.8406728e-39
-0.10059693 -0.11107419 -0.014700104 1.4194887e-38
-0.098771669 -0.11107419 -0.014700104 1.9911019e-38
-0.096733682 -0.11033095 -0.011704374 2.1847127e-38
-0.094913684 -0.11033095 -0.011704374 2.1295035e-38
-0.093093671 -0.11033095 -0.011704374 2.12032e-38
-0.091015123 -0.10935538 -0.0077721365 1.9360731e-38
-0.089202009 -0.10935538 -0.0077721365 1.8624605e-38
-0.087388895 -0.10935538 -0.0077721365 1.4661634e-38
-0.085575782 -0.10935538 -0.0077721365 9.500117e-39
-0.083762676 -0.10935538 -0.0077721365 9.2242531e-39
-0.081949562 -0.10935538 -0.0077721365 9.7777828e-39
-0.080136456 -0.10935538 -0.0077721365 5.1658391e-39
-0.078323342 -0.10935538 -0.0077721365 3.8743773e-39
-0.076510228 -0.10935538 -0.0077721365 5.7179339e-39
-0.074697115 -0.10935538 -0.0077721365 1.0788694e-38
-0.072884001 -0.10935538 -0.0077721365 8.4830854e-39
-0.071070887 -0.10935538 -0.0077721365 6.6391728e-39
-0.069257773 -0.10935538 -0.0077721365 7.0079581e-39
-0.06744466 -0.10935538 -0.0077721365 1.0142609e-38
-0.065631554 -0.10935538 -0.0077721365 8.8507945e-39
-0.063697666 -0.10859586 -0.0047107227 1.5673397e-39
-0.061889924 -0.10859586 -0.0047107227 4.6062923e-40
-0.060082179 -0.10859586 -0.0047107227 1.751368e-39
-0.058173962 -0.10786678 -0.0017720945 1.9357593e-39
-0.056273222 -0.10711606 0.0012537949 1.3825827e-39
-0.054475933 -0.10711606 0.0012537949 7.0064923e-45
-0.052678645 -0.10711606 0.0012537949 6.4501628e-40
-0.050963596 -0.10786678 -0.0017720945 4.6025928e-40
-0.049161002 -0.10786678 -0.0017720945 6.4500367e-40
-0.047358409 -0.10786678 -0.0017720945 8.2939493e-40
-0.045555815 -0.10786678 -0.0017720945 1.0137862e-39
-0.043753225 -0.10786678 -0.0017720945 1.013789e-39
-0.041950636 -0.10786678 -0.0017720945 9.2159336e-40
-0.040148042 -0.10786678 -0.0017720945 7.372021e-40
-0.038345449 -0.10786678 -0.0017720945 6.4500647e-40
-0.036542855 -0.10786678 -0.0017720945 5.5245491e-40
-0.034740265 -0.10786678 -0.0017720945 9.1835496e-41
-0.032937672 -0.10786678 -0.0017720945 4.6025928e-40
-0.031135082 -0.10786678 -0.0017720945 1.6588025e-39
-0.029313918 -0.10711606 0.0012537949 1.4744112e-39
-0.027516633 -0.10711606 0.0012537949 3.6806365e-40
-0.025719345 -0.10711606 0.0012537949 5.5245772e-40
-0.02392206 -0.10711606 0.0012537949 1.751717e-39
-0.022124771 -0.10711606 0.0012537949 1.1070608e-39
-0.020327486 -0.10711606 0.0012537949 1.2918094e-39
-0.018530197 -0.10711606 0.0012537949 1.4758433e-39
-0.016751373 -0.10636975 0.0042620413 1.2914521e-39
-0.014959361 -0.10636975 0.0042620413 6.4608547e-40
-0.013167349 -0.10636975 0.0042620413 1.8511013e-40
-0.01140942 -0.10562779 0.0072526447 5.5317658e-40
-0.0096226502 -0.10562779 0.0072526447 1.1063504e-39
-0.0078358818 -0.10562779 0.0072526447 8.2976347e-40
-0.0060491124 -0.10562779 0.0072526447 1.3829373e-39
-0.0043170778 -0.10489015 0.010225724 1.3822184e-39
-0.0025355229 -0.10489015 0.010225724 6.4465335e-40
-0.00075396616 -0.10489015 0.010225724 2.7587083e-40
0.0010275887 -0.10489015 0.010225724 8.290418e-40
0.0028091455 -0.10489015 0.010225724 1.3822156e-39
0.0045907004 -0.10489015 0.010225724 1.4747671e-39
0.0063722571 -0.10489015 0.010225724 1.1049056e-39
0.0081538139 -0.10489015 0.010225724 8.2831873e-40
0.0099353706 -0.10489015 0.010225724 5.5173184e-40
0.011612388 -0.10413162 0.013283204 4.5953621e-40
0.013388584 -0.10413162 0.013283204 4.6025928e-40
0.01516478 -0.10413162 0.013283204 5.5245491e-40
0.016821083 -0.10337763 0.016322326 4.6026209e-40
0.018591948 -0.10337763 0.016322326 3.6806646e-40
0.020362817 -0.10337763 0.016322326 3.6806926e-40
0.022133682 -0.10337763 0.016322326 3.6842939e-40
0.024045758 -0.10413162 0.013283204 5.5282205e-40
0.025821954 -0.10413162 0.013283204 9.2160457e-40
0.027598146 -0.10413162 0.013283204 1.1981915e-39
0.02921715 -0.10337763 0.016322326 1.2903899e-39
0.030988015 -0.10337763 0.016322326 1.1059986e-39
0.032758884 -0.10337763 0.016322326 9.2160457e-40
0.034529749 -0.10337763 0.016322326 3.6806646e-40
0.036300614 -0.10337763 0.016322326 9.2051436e-40
0.037894819 -0.10265306 0.019242834 1.3814925e-39
0.039660569 -0.10265306 0.019242834 1.5658838e-39
0.041426312 -0.10265306 0.019242834 1.1049056e-39
0.043192055 -0.10265306 0.019242834 4.6061521e-40
0.044957805 -0.10265306 0.019242834 5.5281084e-40
0.046723548 -0.10265306 0.019242834 9.2159336e-40
0.048489299 -0.10265306 0.019242834 4.6061521e-40
0.050255042 -0.10265306 0.019242834 9.219535e-40
0.052020792 -0.10265306 0.019242834 1.4751273e-39
0.053786535 -0.10265306 0.019242834 9.219535e-40
0.055552278 -0.10265306 0.019242834 1.8438846e-40
0.057318028 -0.10265306 0.019242834 7.3756224e-40
0.059083771 -0.10265306 0.019242834 8.2975787e-40
0.060849525 -0.10265306 0.019242834 3.5873241e-43
0.062615268 -0.10265306 0.019242834 5.5496884e-40
0.064120345 -0.10190789 0.022246312 6.4716447e-40
0.065880813 -0.10190789 0.022246312 2.7730295e-40
0.067641295 -0.10190789 0.022246312 1.8438846e-40
0.069126941 -0.10116716 0.025232028 6.4465054e-40
0.070882194 -0.10116716 0.025232028 7.3684898e-40
0.072637431 -0.10116716 0.025232028 1.473335e-39
0.074392684 -0.10116716 0.025232028 2.7640766e-39
0.076147921 -0.10116716 0.025232028 2.2109029e-39
0.077903174 -0.10116716 0.025232028 1.473335e-39
0.079658411 -0.10116716 0.025232028 4.6026209e-40
0.081413664 -0.10116716 0.025232028 1.8367239e-40
0.083168902 -0.10116716 0.025232028 7.3756504e-40
