# .PCD v0.7 - Point Cloud Data file format
VERSION 0.7
FIELDS x y z rgb
SIZE 4 4 4 4
TYPE F F F F
COUNT 1 1 1 1
WIDTH 974
HEIGHT 1
VIEWPOINT 0 0 0 1 0 0 0
POINTS 974
DATA ascii
-0.093881667 -0.12765543 0.015402861 1.107435e-39
-0.092147559 -0.12765543 0.015402861 6.4825468e-40
-0.090294242 -0.12709136 0.017432518 5.5642199e-40
-0.088563696 -0.12709136 0.017432518 8.3264594e-40
-0.086668514 -0.12626295 0.020413525 8.2904461e-40
-0.084784739 -0.12543948 0.023376592 2.948821e-39
-0.082649082 -0.1232069 0.031410344 1.7517198e-39
-0.080793619 -0.12237583 0.034400769 1.5676886e-39
-0.078949511 -0.12154986 0.037372954 1.8619613e-40
-0.077112406 -0.12070335 0.04041893 7.3937131e-40
-0.075335935 -0.12016745 0.042347379 5.5426119e-40
-0.073519573 -0.11932962 0.045362182 1.3825827e-39
-0.071714558 -0.11849703 0.04835815 1.1974726e-39
-0.069956295 -0.11791982 0.050435193 1.5648146e-39
-0.068171866 -0.11709599 0.05339957 1.1949531e-39
-0.063007608 -0.11570965 0.058388181 3.1342885e-39
-0.06134887 -0.11570965 0.058388181 6.4608267e-40
-0.059690133 -0.11570965 0.058388181 1.8618632e-40
-0.058084488 -0.11625256 0.056434639 8.3012641e-40
-0.056422323 -0.11625256 0.056434639 5.6051939e-45
-0.054832004 -0.11709599 0.05339957 9.1838299e-41
-0.053164519 -0.11709599 0.05339957 1.01271e-39
-0.051556811 -0.11791982 0.050435193 3.6734198e-40
-0.049884129 -0.11791982 0.050435193 1.1960138e-39
-0.048211448 -0.11791982 0.050435193 4.7909189e-39
-0.04653877 -0.11791982 0.050435193 8.847884e-39
-0.044893403 -0.11849703 0.04835815 8.9400796e-39
-0.043193407 -0.11791982 0.050435193 9.1248324e-39
-0.04152073 -0.11791982 0.050435193 9.2177539e-39
-0.039848048 -0.11791982 0.050435193 9.034806e-39
-0.038188115 -0.11849703 0.04835815 8.0210198e-39
-0.036511794 -0.11849703 0.04835815 4.9800088e-39
-0.034835473 -0.11849703 0.04835815 1.8457217e-39
-0.033161774 -0.11932962 0.045362182 4.6278723e-40
-0.031480201 -0.11932962 0.045362182 7.0064923e-45
-0.029798627 -0.11932962 0.045362182 5.6051939e-45
-0.028117049 -0.11932962 0.045362182 1.0137988e-39
-0.026435476 -0.11932962 0.045362182 7.3721191e-40
-0.024714898 -0.12070335 0.04041893 2.8025969e-45
-0.023024656 -0.12070335 0.04041893 4.6098095e-40
-0.021299701 -0.12154986 0.037372954 2.7658969e-40
-0.019604117 -0.12154986 0.037372954 2.8025969e-45
-0.017864238 -0.12237583 0.034400769 2.8025969e-45
-0.016163446 -0.12237583 0.034400769 2.8025969e-45
-0.014462653 -0.12237583 0.034400769 2.8025969e-45
-0.012701561 -0.1232069 0.031410344 9.2198432e-41
-0.010950229 -0.12378122 0.029343672 5.6051939e-45
-0.0092405686 -0.12378122 0.029343672 5.6051939e-45
-0.0074564917 -0.12459467 0.026416607 4.6062502e-40
-0.0057416996 -0.12459467 0.026416607 9.1842503e-41
-0.0040269056 -0.12459467 0.026416607 2.8025969e-45
-0.0023121135 -0.12459467 0.026416607 1.8439406e-40
-0.00049871299 -0.12543948 0.023376592 2.7658969e-40
0.00122141 -0.12543948 0.023376592 4.6098095e-40
0.002941533 -0.12543948 0.023376592 3.6878532e-40
0.004661656 -0.12543948 0.023376592 2.7658969e-40
0.0064986711 -0.12626295 0.020413525 9.2198432e-41
0.0082239909 -0.12626295 0.020413525 2.8025969e-45
0.010077364 -0.12709136 0.017432518 9.2198432e-41
0.011807906 -0.12709136 0.017432518 9.2198432e-41
0.013538453 -0.12709136 0.017432518 9.2198432e-41
0.015366863 -0.12765543 0.015402861 9.2198432e-41
0.017251451 -0.12849234 0.012391336 9.2198432e-41
0.018990833 -0.12849234 0.012391336 9.2198432e-41
0.02073022 -0.12849234 0.012391336 9.2198432e-41
0.022636943 -0.12933435 0.0093614534 9.2198432e-41
0.024381638 -0.12933435 0.0093614534 1.83678e-40
0.026299596 -0.13015409 0.0064116791 1.83678e-40
0.028049465 -0.13015409 0.0064116791 1.836752e-40
0.029990207 -0.13100632 0.0033450797 1.8367239e-40
0.031745452 -0.13100632 0.0033450797 1.8367239e-40
0.033500697 -0.13100632 0.0033450797 1.8402972e-40
0.035255942 -0.13100632 0.0033450797 1.8402972e-40
0.037011188 -0.13100632 0.0033450797 1.8402972e-40
0.038766433 -0.13100632 0.0033450797 1.8402972e-40
0.040521678 -0.13100632 0.0033450797 1.8402972e-40
0.042276923 -0.13100632 0.0033450797 1.8402972e-40
0.044488963 -0.13267075 -0.0026441142 1.8402972e-40
0.046482574 -0.13348235 -0.0055646226 1.836752e-40
0.048495892 -0.13432692 -0.0086037442 1.836752e-40
0.050272088 -0.13432692 -0.0086037442 1.83678e-40
0.052048281 -0.13432692 -0.0086037442 1.83678e-40
0.05408448 -0.13517661 -0.011661224 9.2198432e-41
0.055866033 -0.13517661 -0.011661224 9.2198432e-41
0.057647586 -0.13517661 -0.011661224 9.2198432e-41
0.059697598 -0.13600285 -0.014634304 9.2198432e-41
0.061759651 -0.13683395 -0.017624907 9.2198432e-41
0.063833848 -0.13766994 -0.020633154 9.2198432e-41
0.065920278 -0.13851084 -0.023659043 9.2198432e-41
0.067722872 -0.13851084 -0.023659043 9.2198432e-41
0.069525465 -0.13851084 -0.023659043 2.8025969e-45
0.071328059 -0.13851084 -0.023659043 2.8025969e-45
0.073432073 -0.13932751 -0.026597671 2.8025969e-45
0.075239807 -0.13932751 -0.026597671 2.8025969e-45
0.077047557 -0.13932751 -0.026597671 2.8025969e-45
0.078855306 -0.13932751 -0.026597671 2.8025969e-45
0.080998525 -0.14017828 -0.029659085 2.8025969e-45
0.083249435 -0.14127107 -0.033591323 2.8025969e-45
0.085069448 -0.14127107 -0.033591323 3.5873241e-43
0.086889461 -0.14127107 -0.033591323 3.5873241e-43
0.089058757 -0.1421036 -0.036587052 3.5873241e-43
0.091240615 -0.14294095 -0.039600186 3.5873241e-43
0.093071148 -0.14294095 -0.039600186 3.5873241e-43
0.094901696 -0.14294095 -0.039600186 3.5873241e-43
0.096732244 -0.14294095 -0.039600186 3.5873241e-43
0.098562777 -0.14294095 -0.039600186 3.5873241e-43
0.10039333 -0.14294095 -0.039600186 3.5873241e-43
0.10261442 -0.14378314 -0.042630725 3.5873241e-43
0.10445027 -0.14378314 -0.042630725 3.5873241e-43
0.10628612 -0.14378314 -0.042630725 3.5873241e-43
0.1085162 -0.14459993 -0.04556983 3.5873241e-43
0.11035721 -0.14459993 -0.04556983 3.5873241e-43
0.11219822 -0.14459993 -0.04556983 3.5873241e-43
0.1146044 -0.1457267 -0.049624376 3.5873241e-43
0.11687289 -0.14655443 -0.05260282 0
0.11915426 -0.14738683 -0.055598192 1.8474719e-40
0.12101285 -0.14738683 -0.055598192 3.5873241e-43
0.12331247 -0.14822401 -0.058610611 3.5873241e-43
0.12517636 -0.14822401 -0.058610611 1.7520687e-39
0.12764636 -0.14934768 -0.062653951 5.163307e-39
-0.12128668 -0.13946722 -0.020633154 1.364459e-38
-0.1194894 -0.13946722 -0.020633154 1.2353851e-38
-0.11769211 -0.13946722 -0.020633154 7.7451518e-39
-0.11589482 -0.13946722 -0.020633154 1.7524358e-39
-0.11409754 -0.13946722 -0.020633154 1.4747671e-39
-0.11206554 -0.13862596 -0.017624907 3.1332095e-39
-0.11004543 -0.13778962 -0.014634304 2.1183387e-39
-0.10780928 -0.13610314 -0.0086037442 2.0250641e-39
-0.10581195 -0.13525321 -0.0055646226 2.3005719e-39
-0.10404108 -0.13525321 -0.0055646226 2.2083763e-39
-0.10206795 -0.13443647 -0.0026441142 2.8537485e-39
-0.10009946 -0.13359652 0.00035936385 2.3938494e-39
-0.097941041 -0.13190396 0.0064116791 2.0261487e-39
-0.095808491 -0.13023172 0.012391336 1.6588081e-39
-0.093881667 -0.12938951 0.015402861 1.291106e-39
-0.092147559 -0.12938951 0.015402861 8.3156694e-40
-0.090294242 -0.12882192 0.017432518 7.4081325e-40
-0.088563696 -0.12882192 0.017432518 1.4769364e-39
-0.086668514 -0.12798826 0.020413525 1.6577263e-39
-0.084784739 -0.12715961 0.023376592 2.7637109e-39
-0.082649082 -0.12491293 0.031410344 1.1049084e-39
-0.080793619 -0.12407662 0.034400769 1.4751329e-39
-0.078949511 -0.12324543 0.037372954 6.4573515e-40
-0.077112406 -0.12239362 0.04041893 9.2304371e-40
-0.075335935 -0.12185432 0.042347379 6.4573655e-40
-0.073519573 -0.12101121 0.045362182 1.2903871e-39
-0.071714558 -0.12017335 0.04835815 1.2896682e-39
-0.069956295 -0.1195925 0.050435193 1.6577291e-39
-0.068057455 -0.11791472 0.056434639 1.0119967e-39
-0.06134887 -0.11736839 0.058388181 5.5388704e-40
-0.059690133 -0.11736839 0.058388181 4.6169421e-40
-0.058031395 -0.11736839 0.058388181 5.6051939e-45
-0.056422323 -0.11791472 0.056434639 5.6051939e-45
-0.054832004 -0.11876349 0.05339957 2.8025969e-45
-0.053164519 -0.11876349 0.05339957 7.3684617e-40
-0.051497038 -0.11876349 0.05339957 2.7550649e-40
-0.049884129 -0.1195925 0.050435193 1.2889325e-39
-0.048211448 -0.1195925 0.050435193 7.350427e-40
-0.04653877 -0.1195925 0.050435193 2.947728e-39
-0.044893403 -0.12017335 0.04835815 2.0257745e-39
-0.043193407 -0.1195925 0.050435193 1.1045385e-39
-0.04152073 -0.1195925 0.050435193 2.7550649e-40
-0.039848048 -0.1195925 0.050435193 3.6841958e-40
-0.038175371 -0.1195925 0.050435193 5.5317658e-40
-0.036511794 -0.12017335 0.04835815 5.6051939e-45
-0.034835473 -0.12017335 0.04835815 9.8090893e-45
-0.033161774 -0.12101121 0.045362182 4.6206836e-40
-0.031480201 -0.12101121 0.045362182 1.847584e-40
-0.029798627 -0.12101121 0.045362182 7.3721191e-40
-0.028117049 -0.12101121 0.045362182 5.5282065e-40
-0.026435476 -0.12101121 0.045362182 1.8403813e-40
-0.024714898 -0.12239362 0.04041893 5.6051939e-45
-0.023024656 -0.12239362 0.04041893 2.8025969e-45
-0.021299701 -0.12324543 0.037372954 5.6051939e-45
-0.019604117 -0.12324543 0.037372954 7.3756784e-40
-0.017864238 -0.12407662 0.034400769 3.6842939e-40
-0.016163446 -0.12407662 0.034400769 2.7658969e-40
-0.014462653 -0.12407662 0.034400769 5.6051939e-45
-0.012701561 -0.12491293 0.031410344 3.6842939e-40
-0.010995523 -0.12491293 0.031410344 2.7623376e-40
-0.0092405686 -0.12549089 0.029343672 5.6051939e-45
-0.0075309081 -0.12549089 0.029343672 9.1842503e-41
-0.0057416996 -0.12630944 0.026416607 3.6842939e-40
-0.0040269056 -0.12630944 0.026416607 2.8025969e-45
-0.0023121135 -0.12630944 0.026416607 2.8025969e-45
-0.00049871299 -0.12715961 0.023376592 2.8025969e-45
0.00122141 -0.12715961 0.023376592 2.8025969e-45
0.002941533 -0.12715961 0.023376592 2.8025969e-45
0.004661656 -0.12715961 0.023376592 2.8025969e-45
0.006381779 -0.12715961 0.023376592 9.2198432e-41
0.0082239909 -0.12798826 0.020413525 9.2198432e-41
0.009949307 -0.12798826 0.020413525 9.2198432e-41
0.011674627 -0.12798826 0.020413525 9.2198432e-41
0.013538453 -0.12882192 0.017432518 9.2198432e-41
0.015366863 -0.12938951 0.015402861 9.2198432e-41
0.017251451 -0.13023172 0.012391336 9.2198432e-41
0.018990833 -0.13023172 0.012391336 9.2198432e-41
0.02073022 -0.13023172 0.012391336 9.2198432e-41
0.022636943 -0.13107903 0.0093614534 9.2198432e-41
0.024381638 -0.13107903 0.0093614534 1.836752e-40
0.026299596 -0.13190396 0.0064116791 1.836752e-40
0.028049465 -0.13190396 0.0064116791 1.836752e-40
0.029799331 -0.13190396 0.0064116791 1.8367239e-40
0.031549197 -0.13190396 0.0064116791 1.8402972e-40
0.033500697 -0.13276155 0.0033450797 1.8402972e-40
0.035255942 -0.13276155 0.0033450797 1.8402972e-40
0.037011188 -0.13276155 0.0033450797 1.8402972e-40
0.038766433 -0.13276155 0.0033450797 1.8402972e-40
0.040521678 -0.13276155 0.0033450797 1.8402972e-40
0.042276923 -0.13276155 0.0033450797 1.8402972e-40
0.044488963 -0.13443647 -0.0026441142 1.8402972e-40
0.046482574 -0.13525321 -0.0055646226 1.8367239e-40
0.048495892 -0.13610314 -0.0086037442 1.8367239e-40
0.050272088 -0.13610314 -0.0086037442 1.836752e-40
0.052048281 -0.13610314 -0.0086037442 1.836752e-40
0.05408448 -0.13695817 -0.011661224 9.219563e-41
0.055866033 -0.13695817 -0.011661224 9.219563e-41
0.057647586 -0.13695817 -0.011661224 9.219563e-41
0.059697598 -0.13778962 -0.014634304 9.219563e-41
0.061759651 -0.13862596 -0.017624907 9.219563e-41
0.063833848 -0.13946722 -0.020633154 9.2198432e-41
0.065920278 -0.14031343 -0.023659043 9.2198432e-41
0.067722872 -0.14031343 -0.023659043 9.2198432e-41
0.069525465 -0.14031343 -0.023659043 2.8025969e-45
0.071328059 -0.14031343 -0.023659043 2.8025969e-45
0.073432073 -0.14113526 -0.026597671 2.8025969e-45
0.075239807 -0.14113526 -0.026597671 5.6051939e-45
0.077047557 -0.14113526 -0.026597671 5.6051939e-45
0.078855306 -0.14113526 -0.026597671 5.6051939e-45
0.080998525 -0.14199139 -0.029659085 5.6051939e-45
0.083249435 -0.14309107 -0.033591323 2.8025969e-45
0.085069448 -0.14309107 -0.033591323 2.8025969e-45
0.087233499 -0.14392884 -0.036587052 3.5873241e-43
0.089058757 -0.14392884 -0.036587052 2.8025969e-45
0.091240615 -0.1447715 -0.039600186 3.5873241e-43
0.093071148 -0.1447715 -0.039600186 2.8025969e-45
0.094901696 -0.1447715 -0.039600186 3.5873241e-43
0.096732244 -0.1447715 -0.039600186 2.8025969e-45
0.098562777 -0.1447715 -0.039600186 3.5873241e-43
0.10039333 -0.1447715 -0.039600186 2.8025969e-45
0.10261442 -0.14561899 -0.042630725 3.5873241e-43
0.10445027 -0.14561899 -0.042630725 2.8025969e-45
0.10628612 -0.14561899 -0.042630725 3.5873241e-43
0.1085162 -0.14644094 -0.04556983 2.8025969e-45
0.11035721 -0.14644094 -0.04556983 3.5873241e-43
0.11219822 -0.14644094 -0.04556983 2.8025969e-45
0.1146044 -0.14757483 -0.049624376 0
0.11687289 -0.14840777 -0.05260282 0
0.11872624 -0.14840777 -0.05260282 1.8474719e-40
0.12101285 -0.14924543 -0.055598192 3.5873241e-43
0.12287144 -0.14924543 -0.055598192 3.5873241e-43
0.12473004 -0.14924543 -0.055598192 1.5676774e-39
0.12658863 -0.14924543 -0.055598192 5.3476983e-39
-0.12128668 -0.14126451 -0.020633154 1.2998139e-38
-0.1194894 -0.14126451 -0.020633154 1.2538603e-38
-0.11769211 -0.14126451 -0.020633154 9.1288065e-39
-0.11589482 -0.14126451 -0.020633154 8.3192147e-40
-0.11409754 -0.14126451 -0.020633154 7.3972584e-40
-0.11206554 -0.14041798 -0.017624907 1.5687676e-39
-0.11004543 -0.13957639 -0.014634304 1.6598843e-39
-0.10803711 -0.13873972 -0.011661224 7.3756784e-40
-0.10603309 -0.13787933 -0.0086037442 1.1045525e-39
-0.10404108 -0.13702409 -0.0055646226 1.7499219e-39
-0.10206795 -0.13620223 -0.0026441142 2.0265088e-39
-0.10009946 -0.13535701 0.00035936385 1.7499219e-39
-0.097941041 -0.13365383 0.0064116791 1.3822184e-39
-0.095808491 -0.13197111 0.012391336 1.2907416e-39
-0.093881667 -0.13112362 0.015402861 1.1981901e-39
-0.092147559 -0.13112362 0.015402861 9.2232204e-40
-0.090294242 -0.13055246 0.017432518 9.2340104e-40
-0.08839383 -0.12971358 0.020413525 1.5676886e-39
-0.086504862 -0.12887974 0.023376592 1.6573605e-39
-0.084622175 -0.12802424 0.026416607 3.6845854e-39
-0.082649082 -0.12661897 0.031410344 4.0544469e-39
-0.080793619 -0.12577744 0.034400769 2.3034516e-39
-0.078949511 -0.12494104 0.037372954 8.2904461e-40
-0.077112406 -0.12408386 0.04041893 9.2160317e-40
-0.075335935 -0.12354116 0.042347379 1.1981901e-39
-0.073519573 -0.12269278 0.045362182 8.2940754e-40
-0.071714558 -0.12184967 0.04835815 8.2940754e-40
-0.069956295 -0.12126519 0.050435193 6.4465615e-40
-0.068057455 -0.11957689 0.056434639 1.3822184e-39
-0.06134887 -0.11902712 0.058388181 1.01271e-39
-0.059690133 -0.11902712 0.058388181 5.5173184e-40
-0.058031395 -0.11902712 0.058388181 0
-0.056422323 -0.11957689 0.056434639 2.8025969e-45
-0.054832004 -0.12043096 0.05339957 0
-0.053164519 -0.12043096 0.05339957 9.219563e-41
-0.051497038 -0.12043096 0.05339957 2.7586802e-40
-0.049884129 -0.12126519 0.050435193 2.7622395e-40
-0.048211448 -0.12126519 0.050435193 9.1835496e-41
-0.04653877 -0.12126519 0.050435193 9.1835496e-41
-0.044866089 -0.12126519 0.050435193 1.8402972e-40
-0.043193407 -0.12126519 0.050435193 1.8402972e-40
-0.04152073 -0.12126519 0.050435193 1.8402972e-40
-0.039848048 -0.12126519 0.050435193 9.219563e-41
-0.038175371 -0.12126519 0.050435193 9.219563e-41
-0.036511794 -0.12184967 0.04835815 9.2198432e-41
-0.034835473 -0.12184967 0.04835815 3.629363e-43
-0.033161774 -0.12269278 0.045362182 3.629363e-43
-0.031480201 -0.12269278 0.045362182 9.2198432e-41
-0.029790696 -0.12354116 0.042347379 9.2198432e-41
-0.028103836 -0.12354116 0.042347379 9.2198432e-41
-0.026416976 -0.12354116 0.042347379 9.2198432e-41
-0.024714898 -0.12408386 0.04041893 9.2198432e-41
-0.023024656 -0.12408386 0.04041893 9.219563e-41
-0.021299701 -0.12494104 0.037372954 9.2198432e-41
-0.019604117 -0.12494104 0.037372954 9.219563e-41
-0.017864238 -0.12577744 0.034400769 7.3756784e-40
-0.016163446 -0.12577744 0.034400769 2.7658689e-40
-0.014462653 -0.12577744 0.034400769 2.8025969e-45
-0.012701561 -0.12661897 0.031410344 2.8025969e-45
-0.010995523 -0.12661897 0.031410344 2.8025969e-45
-0.0092405686 -0.12720053 0.029343672 1.8439406e-40
-0.0075309081 -0.12720053 0.029343672 1.8439406e-40
-0.0057416996 -0.12802424 0.026416607 9.2198432e-41
-0.0040269056 -0.12802424 0.026416607 9.219563e-41
-0.0023121135 -0.12802424 0.026416607 9.219563e-41
-0.00049871299 -0.12887974 0.023376592 9.219563e-41
0.00122141 -0.12887974 0.023376592 9.219563e-41
0.002941533 -0.12887974 0.023376592 9.219563e-41
0.004661656 -0.12887974 0.023376592 9.219563e-41
0.006381779 -0.12887974 0.023376592 9.219563e-41
0.0082239909 -0.12971358 0.020413525 9.219563e-41
0.009949307 -0.12971358 0.020413525 0
0.011674627 -0.12971358 0.020413525 0
0.013538453 -0.13055246 0.017432518 0
0.015366863 -0.13112362 0.015402861 0
0.017251451 -0.13197111 0.012391336 0
0.018990833 -0.13197111 0.012391336 0
0.02073022 -0.13197111 0.012391336 0
0.022636943 -0.13282375 0.0093614534 0
0.024381638 -0.13282375 0.0093614534 0
0.026299596 -0.13365383 0.0064116791 0
0.028049465 -0.13365383 0.0064116791 0
0.029799331 -0.13365383 0.0064116791 0
0.031549197 -0.13365383 0.0064116791 3.5873241e-43
0.033500697 -0.13451682 0.0033450797 3.5873241e-43
0.035255942 -0.13451682 0.0033450797 3.5873241e-43
0.037011188 -0.13451682 0.0033450797 3.5873241e-43
0.038766433 -0.13451682 0.0033450797 9.2552961e-41
0.040738929 -0.13535701 0.00035936385 9.2552961e-41
0.042499404 -0.13535701 0.00035936385 9.2552961e-41
0.044488963 -0.13620223 -0.0026441142 9.2552961e-41
0.046482574 -0.13702409 -0.0055646226 9.2194229e-41
0.048495892 -0.13787933 -0.0086037442 9.2194229e-41
0.050272088 -0.13787933 -0.0086037442 9.2194229e-41
0.052048281 -0.13787933 -0.0086037442 9.2194229e-41
0.05408448 -0.13873972 -0.011661224 9.2552961e-41
0.055866033 -0.13873972 -0.011661224 9.2552961e-41
0.057647586 -0.13873972 -0.011661224 9.2194229e-41
0.059697598 -0.13957639 -0.014634304 9.2194229e-41
0.061759651 -0.14041798 -0.017624907 9.2194229e-41
0.063833848 -0.14126451 -0.020633154 9.219563e-41
0.065631136 -0.14126451 -0.020633154 9.219563e-41
0.067722872 -0.14211603 -0.023659043 9.219563e-41
0.069525465 -0.14211603 -0.023659043 2.8025969e-45
0.071328059 -0.14211603 -0.023659043 2.8025969e-45
0.073130652 -0.14211603 -0.023659043 5.6051939e-45
0.075239807 -0.14294298 -0.026597671 7.0064923e-45
0.077047557 -0.14294298 -0.026597671 7.0064923e-45
0.078855306 -0.14294298 -0.026597671 7.0064923e-45
0.080998525 -0.14380451 -0.029659085 7.0064923e-45
0.083249435 -0.14491107 -0.033591323 7.0064923e-45
0.085408241 -0.14575411 -0.036587052 5.6051939e-45
0.087233499 -0.14575411 -0.036587052 2.8025969e-45
0.089058757 -0.14575411 -0.036587052 5.6051939e-45
0.091240615 -0.14660202 -0.039600186 2.8025969e-45
0.093071148 -0.14660202 -0.039600186 5.6051939e-45
0.094901696 -0.14660202 -0.039600186 2.8025969e-45
0.096732244 -0.14660202 -0.039600186 5.6051939e-45
0.098562777 -0.14660202 -0.039600186 2.8025969e-45
0.10039333 -0.14660202 -0.039600186 5.6051939e-45
0.10261442 -0.14745484 -0.042630725 2.8025969e-45
0.10445027 -0.14745484 -0.042630725 5.6051939e-45
0.10628612 -0.14745484 -0.042630725 2.8025969e-45
0.1085162 -0.14828195 -0.04556983 5.6051939e-45
0.11035721 -0.14828195 -0.04556983 2.8025969e-45
0.11219822 -0.14828195 -0.04556983 5.6051939e-45
0.1146044 -0.14942293 -0.049624376 2.8025969e-45
-0.1194894 -0.1430618 -0.020633154 9.4043074e-39
-0.11769211 -0.1430618 -0.020633154 8.7607456e-39
-0.11589482 -0.1430618 -0.020633154 8.3336341e-40
-0.11385755 -0.14220999 -0.017624907 6.4825328e-40
-0.11206554 -0.14220999 -0.017624907 9.2376117e-40
-0.11004543 -0.14136316 -0.014634304 1.1077923e-39
-0.10803711 -0.14052127 -0.011661224 1.1067133e-39
-0.10603309 -0.13965552 -0.0086037442 1.3825813e-39
-0.10404108 -0.13879494 -0.0055646226 1.2907416e-39
-0.10227022 -0.13879494 -0.0055646226 1.935395e-39
-0.10009946 -0.13711749 0.00035936385 1.6588053e-39
-0.097941041 -0.13540371 0.0064116791 1.4751329e-39
-0.0960024 -0.13456844 0.0093614534 1.5673285e-39
-0.093881667 -0.13285773 0.015402861 1.4751329e-39
-0.092147559 -0.13285773 0.015402861 1.3829344e-39
-0.090294242 -0.13228302 0.017432518 1.5676886e-39
-0.08839383 -0.1314389 0.020413525 2.1204995e-39
-0.086504862 -0.13059987 0.023376592 2.6715125e-39
-0.084622175 -0.12973903 0.026416607 4.3303107e-39
-0.082649082 -0.128325 0.031410344 4.9753242e-39
-0.080793619 -0.12747823 0.034400769 3.77786e-39
-0.078949511 -0.12663661 0.037372954 2.5800385e-39
-0.077112406 -0.1257741 0.04041893 2.2119791e-39
-0.075335935 -0.12522803 0.042347379 2.0279507e-39
-0.073519573 -0.12437434 0.045362182 1.6591682e-39
-0.071714558 -0.12352599 0.04835815 9.2160317e-40
-0.069956295 -0.12293784 0.050435193 7.3721191e-40
-0.068283617 -0.12293784 0.050435193 1.3822184e-39
-0.06134887 -0.12068586 0.058388181 1.1041868e-39
-0.059690133 -0.12068586 0.058388181 3.6734198e-40
-0.058031395 -0.12068586 0.058388181 1.8367239e-40
-0.056422323 -0.12123902 0.056434639 0
-0.054832004 -0.12209846 0.05339957 0
-0.053164519 -0.12209846 0.05339957 0
-0.051497038 -0.12209846 0.05339957 1.8439126e-40
-0.049884129 -0.12293784 0.050435193 1.8439126e-40
-0.048211448 -0.12293784 0.050435193 9.219563e-41
-0.04653877 -0.12293784 0.050435193 0
-0.044866089 -0.12293784 0.050435193 9.219563e-41
-0.043193407 -0.12293784 0.050435193 9.219563e-41
-0.04152073 -0.12293784 0.050435193 9.219563e-41
-0.039864436 -0.12352599 0.04835815 9.219563e-41
-0.038188115 -0.12352599 0.04835815 9.219563e-41
-0.036511794 -0.12352599 0.04835815 9.219563e-41
-0.034835473 -0.12352599 0.04835815 9.219563e-41
-0.033161774 -0.12437434 0.045362182 9.219563e-41
-0.031480201 -0.12437434 0.045362182 9.219563e-41
-0.029790696 -0.12522803 0.042347379 9.219563e-41
-0.028103836 -0.12522803 0.042347379 9.219563e-41
-0.026416976 -0.12522803 0.042347379 9.219563e-41
-0.024714898 -0.1257741 0.04041893 9.219563e-41
-0.023024656 -0.1257741 0.04041893 9.219563e-41
-0.021299701 -0.12663661 0.037372954 9.219563e-41
-0.019604117 -0.12663661 0.037372954 9.219563e-41
-0.017864238 -0.12747823 0.034400769 3.6878252e-40
-0.016163446 -0.12747823 0.034400769 9.219563e-41
-0.014462653 -0.12747823 0.034400769 0
-0.012701561 -0.128325 0.031410344 0
-0.010995523 -0.128325 0.031410344 2.7658689e-40
-0.0092405686 -0.1289102 0.029343672 3.6878252e-40
-0.0075309081 -0.1289102 0.029343672 9.219563e-41
-0.0057416996 -0.12973903 0.026416607 0
-0.0040269056 -0.12973903 0.026416607 9.219563e-41
-0.0023121135 -0.12973903 0.026416607 9.219563e-41
-0.00049871299 -0.13059987 0.023376592 9.219563e-41
0.00122141 -0.13059987 0.023376592 9.219563e-41
0.002941533 -0.13059987 0.023376592 9.219563e-41
0.004661656 -0.13059987 0.023376592 9.219563e-41
0.006381779 -0.13059987 0.023376592 9.219563e-41
0.0082239909 -0.1314389 0.020413525 9.219563e-41
0.009949307 -0.1314389 0.020413525 0
0.011674627 -0.1314389 0.020413525 0
0.013538453 -0.13228302 0.017432518 0
0.015366863 -0.13285773 0.015402861 0
0.017251451 -0.13371049 0.012391336 0
0.018990833 -0.13371049 0.012391336 0
0.020892248 -0.13456844 0.0093614534 0
0.022636943 -0.13456844 0.0093614534 0
0.024381638 -0.13456844 0.0093614534 0
0.026299596 -0.13540371 0.0064116791 0
0.028049465 -0.13540371 0.0064116791 0
0.029799331 -0.13540371 0.0064116791 0
0.031745452 -0.13627206 0.0033450797 0
0.033500697 -0.13627206 0.0033450797 0
0.035255942 -0.13627206 0.0033450797 0
0.037011188 -0.13627206 0.0033450797 0
0.038766433 -0.13627206 0.0033450797 9.2194229e-41
0.040738929 -0.13711749 0.00035936385 9.2194229e-41
0.042499404 -0.13711749 0.00035936385 9.2194229e-41
0.044711713 -0.13879494 -0.0055646226 9.2552961e-41
0.046719696 -0.13965552 -0.0086037442 9.2194229e-41
0.04873981 -0.14052127 -0.011661224 9.2552961e-41
0.050521363 -0.14052127 -0.011661224 9.2194229e-41
0.052302927 -0.14052127 -0.011661224 9.2552961e-41
0.05408448 -0.14052127 -0.011661224 9.2552961e-41
0.055866033 -0.14052127 -0.011661224 9.2552961e-41
0.057647586 -0.14052127 -0.011661224 9.2194229e-41
0.059697598 -0.14136316 -0.014634304 9.2194229e-41
0.061759651 -0.14220999 -0.017624907 9.2194229e-41
0.063833848 -0.1430618 -0.020633154 9.219563e-41
0.065631136 -0.1430618 -0.020633154 9.219563e-41
0.067722872 -0.14391862 -0.023659043 9.219563e-41
0.069525465 -0.14391862 -0.023659043 0
0.071328059 -0.14391862 -0.023659043 2.8025969e-45
0.073130652 -0.14391862 -0.023659043 5.6051939e-45
0.075239807 -0.14475073 -0.026597671 5.6051939e-45
0.077047557 -0.14475073 -0.026597671 5.6051939e-45
0.078855306 -0.14475073 -0.026597671 5.6051939e-45
0.080998525 -0.14561762 -0.029659085 7.0064923e-45
0.083249435 -0.14673109 -0.033591323 5.6051939e-45
0.085408241 -0.14757936 -0.036587052 5.6051939e-45
0.087233499 -0.14757936 -0.036587052 2.8025969e-45
0.089058757 -0.14757936 -0.036587052 2.8025969e-45
0.090884015 -0.14757936 -0.036587052 2.8025969e-45
0.092709273 -0.14757936 -0.036587052 2.8025969e-45
0.094534531 -0.14757936 -0.036587052 2.8025969e-45
0.096732244 -0.14843257 -0.039600186 2.8025969e-45
0.098562777 -0.14843257 -0.039600186 2.8025969e-45
0.10039333 -0.14843257 -0.039600186 2.8025969e-45
0.10222387 -0.14843257 -0.039600186 2.8025969e-45
0.10445027 -0.14929073 -0.042630725 2.8025969e-45
0.10628612 -0.14929073 -0.042630725 2.8025969e-45
-0.1194894 -0.14485909 -0.020633154 9.496503e-39
-0.11769211 -0.14485909 -0.020633154 8.7607428e-39
-0.11564957 -0.14400201 -0.017624907 1.2939786e-39
-0.11385755 -0.14400201 -0.017624907 1.1085084e-39
-0.11206554 -0.14400201 -0.017624907 6.4753021e-40
-0.11004543 -0.14314993 -0.014634304 1.0155939e-39
-0.10803711 -0.14230286 -0.011661224 1.7520799e-39
-0.10603309 -0.1414317 -0.0086037442 2.0283067e-39
-0.10404108 -0.14056583 -0.0055646226 1.4744112e-39
-0.10227022 -0.14056583 -0.0055646226 1.9353922e-39
-0.099897921 -0.1380273 0.0033450797 1.6588025e-39
-0.097941041 -0.13715358 0.0064116791 1.5666068e-39
-0.095808491 -0.13544987 0.012391336 1.5666068e-39
-0.094069108 -0.13544987 0.012391336 1.3829344e-39
-0.092147559 -0.13459183 0.015402861 1.1985404e-39
-0.090294242 -0.13401355 0.017432518 1.2914577e-39
-0.08839383 -0.13316421 0.020413525 1.8439098e-39
-0.086504862 -0.13231997 0.023376592 2.4874771e-39
-0.084465638 -0.13061987 0.029343672 3.5927457e-39
-0.082649082 -0.13003103 0.031410344 4.2377592e-39
-0.080793619 -0.12917902 0.034400769 3.8700557e-39
-0.078949511 -0.12833218 0.037372954 3.2254079e-39
-0.077112406 -0.12746434 0.04041893 2.6729544e-39
-0.075335935 -0.1269149 0.042347379 2.3048935e-39
-0.073519573 -0.12605591 0.045362182 2.2126979e-39
-0.071714558 -0.12520231 0.04835815 1.7517198e-39
-0.069956295 -0.12461053 0.050435193 1.5673285e-39
-0.068283617 -0.12461053 0.050435193 1.9353922e-39
-0.066504382 -0.12376593 0.05339957 1.1978271e-39
-0.063007608 -0.1223446 0.058388181 3.0410138e-39
-0.06140881 -0.12290119 0.056434639 1.4729693e-39
-0.059690133 -0.1223446 0.058388181 2.7550649e-40
-0.058031395 -0.1223446 0.058388181 2.7586802e-40
-0.056422323 -0.12290119 0.056434639 9.219563e-41
-0.054832004 -0.12376593 0.05339957 0
-0.053164519 -0.12376593 0.05339957 0
-0.051556811 -0.12461053 0.050435193 9.219563e-41
-0.049884129 -0.12461053 0.050435193 1.8439126e-40
-0.048211448 -0.12461053 0.050435193 9.219563e-41
-0.04653877 -0.12461053 0.050435193 0
-0.044893403 -0.12520231 0.04835815 9.219563e-41
-0.043217082 -0.12520231 0.04835815 9.219563e-41
-0.041540761 -0.12520231 0.04835815 9.219563e-41
-0.039864436 -0.12520231 0.04835815 9.219563e-41
-0.038188115 -0.12520231 0.04835815 9.219563e-41
-0.036511794 -0.12520231 0.04835815 9.219563e-41
-0.034843352 -0.12605591 0.045362182 9.219563e-41
-0.033161774 -0.12605591 0.045362182 9.219563e-41
-0.031480201 -0.12605591 0.045362182 9.219563e-41
-0.029790696 -0.1269149 0.042347379 9.219563e-41
-0.028103836 -0.1269149 0.042347379 9.219563e-41
-0.026416976 -0.1269149 0.042347379 9.219563e-41
-0.024714898 -0.12746434 0.04041893 9.219563e-41
-0.022995284 -0.12833218 0.037372954 9.219563e-41
-0.021299701 -0.12833218 0.037372954 9.219563e-41
-0.019565035 -0.12917902 0.034400769 9.219563e-41
-0.017864238 -0.12917902 0.034400769 0
-0.016113635 -0.13003103 0.031410344 0
-0.014407598 -0.13003103 0.031410344 0
-0.012701561 -0.13003103 0.031410344 1.8439126e-40
-0.010950229 -0.13061987 0.029343672 4.6097815e-40
-0.0092405686 -0.13061987 0.029343672 3.6878252e-40
-0.0075309081 -0.13061987 0.029343672 9.219563e-41
-0.0057416996 -0.13145383 0.026416607 0
-0.0040269056 -0.13145383 0.026416607 9.219563e-41
-0.0023121135 -0.13145383 0.026416607 9.219563e-41
-0.00059732143 -0.13145383 0.026416607 9.219563e-41
0.0011174707 -0.13145383 0.026416607 9.219563e-41
0.0028322665 -0.13145383 0.026416607 9.219563e-41
0.004661656 -0.13231997 0.023376592 9.219563e-41
0.006381779 -0.13231997 0.023376592 9.219563e-41
0.0082239909 -0.13316421 0.020413525 9.219563e-41
0.009949307 -0.13316421 0.020413525 0
0.011674627 -0.13316421 0.020413525 0
0.013538453 -0.13401355 0.017432518 0
0.015366863 -0.13459183 0.015402861 0
0.017251451 -0.13544987 0.012391336 0
0.018990833 -0.13544987 0.012391336 0
0.020892248 -0.13631313 0.0093614534 0
0.022636943 -0.13631313 0.0093614534 0
0.024549726 -0.13715358 0.0064116791 2.8025969e-45
0.026299596 -0.13715358 0.0064116791 2.8025969e-45
0.028049465 -0.13715358 0.0064116791 2.8025969e-45
0.029799331 -0.13715358 0.0064116791 2.8025969e-45
0.031745452 -0.1380273 0.0033450797 2.8025969e-45
0.033500697 -0.1380273 0.0033450797 2.8025969e-45
0.035255942 -0.1380273 0.0033450797 0
0.037011188 -0.1380273 0.0033450797 0
0.038978446 -0.13887797 0.00035936385 9.219563e-41
0.040738929 -0.13887797 0.00035936385 9.219563e-41
0.04272322 -0.13973372 -0.0026441142 9.219563e-41
0.044711713 -0.14056583 -0.0055646226 9.2194229e-41
0.046719696 -0.1414317 -0.0086037442 9.219563e-41
0.04873981 -0.14230286 -0.011661224 9.2194229e-41
0.050521363 -0.14230286 -0.011661224 9.219563e-41
0.052302927 -0.14230286 -0.011661224 9.219563e-41
0.05408448 -0.14230286 -0.011661224 9.219563e-41
0.055866033 -0.14230286 -0.011661224 9.219563e-41
0.057647586 -0.14230286 -0.011661224 9.219563e-41
0.059697598 -0.14314993 -0.014634304 9.219563e-41
0.061484367 -0.14314993 -0.014634304 9.219563e-41
0.063551664 -0.14400201 -0.017624907 9.219563e-41
0.065343678 -0.14400201 -0.017624907 9.219563e-41
0.067428425 -0.14485909 -0.020633154 9.219563e-41
0.069525465 -0.14572121 -0.023659043 0
0.071328059 -0.14572121 -0.023659043 0
0.073130652 -0.14572121 -0.023659043 0
0.075239807 -0.14655848 -0.026597671 0
0.077047557 -0.14655848 -0.026597671 0
0.079185411 -0.14743073 -0.029659085 0
0.080998525 -0.14743073 -0.029659085 0
0.083249435 -0.14855109 -0.033591323 0
0.085069448 -0.14855109 -0.033591323 0
0.087233499 -0.14940463 -0.036587052 0
0.089058757 -0.14940463 -0.036587052 0
0.090884015 -0.14940463 -0.036587052 0
0.092709273 -0.14940463 -0.036587052 0
0.094534531 -0.14940463 -0.036587052 0
-0.1194894 -0.14665638 -0.020633154 1.1247501e-38
-0.11769211 -0.14665638 -0.020633154 9.4053934e-39
-0.11564957 -0.14579402 -0.017624907 1.6616793e-39
-0.11385755 -0.14579402 -0.017624907 1.1085084e-39
-0.11206554 -0.14579402 -0.017624907 1.0155911e-39
-0.11004543 -0.1449367 -0.014634304 1.5676886e-39
-0.10803711 -0.14408441 -0.011661224 1.9361082e-39
-0.10603309 -0.14320792 -0.0086037442 2.2119763e-39
-0.10404108 -0.14233668 -0.0055646226 1.751354e-39
-0.10206795 -0.14149947 -0.0026441142 1.8431937e-39
-0.099897921 -0.13978253 0.0033450797 1.5669628e-39
-0.097941041 -0.13890342 0.0064116791 1.3825715e-39
-0.095808491 -0.13718925 0.012391336 1.2903759e-39
-0.094069108 -0.13718925 0.012391336 1.013789e-39
-0.092147559 -0.13632594 0.015402861 6.4572254e-40
-0.090294242 -0.13574408 0.017432518 6.4536661e-40
-0.08839383 -0.13488953 0.020413525 1.0145051e-39
-0.086504862 -0.1340401 0.023376592 1.7499121e-39
-0.084465638 -0.13232954 0.029343672 1.8421077e-39
-0.082649082 -0.13173707 0.031410344 2.2105343e-39
-0.080793619 -0.1308798 0.034400769 2.4878401e-39
-0.078949511 -0.13002776 0.037372954 2.3963675e-39
-0.077112406 -0.12915458 0.04041893 2.1197806e-39
-0.075335935 -0.12860174 0.042347379 2.2126979e-39
-0.073519573 -0.12773751 0.045362182 2.4892848e-39
-0.071837999 -0.12773751 0.045362182 2.950263e-39
-0.070038237 -0.12687863 0.04835815 2.3048935e-39
-0.068283617 -0.12628321 0.050435193 2.6729572e-39
-0.066610932 -0.12628321 0.050435193 2.3963675e-39
-0.063007608 -0.12400334 0.058388181 3.041011e-39
-0.06140881 -0.12456335 0.056434639 1.6577165e-39
-0.059746645 -0.12456335 0.056434639 1.0127072e-39
-0.058084488 -0.12456335 0.056434639 4.6061521e-40
-0.056422323 -0.12456335 0.056434639 1.8439126e-40
-0.054760166 -0.12456335 0.056434639 0
-0.053098001 -0.12456335 0.056434639 0
-0.051497038 -0.12543343 0.05339957 0
-0.049829558 -0.12543343 0.05339957 9.219563e-41
-0.048211448 -0.12628321 0.050435193 9.219563e-41
-0.04653877 -0.12628321 0.050435193 9.219563e-41
-0.044893403 -0.12687863 0.04835815 9.219563e-41
-0.043217082 -0.12687863 0.04835815 9.219563e-41
-0.041540761 -0.12687863 0.04835815 9.219563e-41
-0.039864436 -0.12687863 0.04835815 9.219563e-41
-0.038188115 -0.12687863 0.04835815 9.219563e-41
-0.036511794 -0.12687863 0.04835815 9.219563e-41
-0.034843352 -0.12773751 0.045362182 9.219563e-41
-0.033164419 -0.12860174 0.042347379 9.219563e-41
-0.031477559 -0.12860174 0.042347379 9.219563e-41
-0.029785626 -0.12915458 0.04041893 9.219563e-41
-0.028095383 -0.12915458 0.04041893 9.219563e-41
-0.026405141 -0.12915458 0.04041893 9.219563e-41
-0.024714898 -0.12915458 0.04041893 9.219563e-41
-0.022995284 -0.13002776 0.037372954 9.219563e-41
-0.021265827 -0.1308798 0.034400769 9.219563e-41
-0.019565035 -0.1308798 0.034400769 9.219563e-41
-0.017864238 -0.1308798 0.034400769 0
-0.016113635 -0.13173707 0.031410344 0
-0.014407598 -0.13173707 0.031410344 0
-0.012701561 -0.13173707 0.031410344 1.8439126e-40
-0.010995523 -0.13173707 0.031410344 3.6878252e-40
-0.0092894873 -0.13173707 0.031410344 3.6878252e-40
-0.0075309081 -0.13232954 0.029343672 9.219563e-41
-0.0058212476 -0.13232954 0.029343672 0
-0.0040269056 -0.13316862 0.026416607 9.219563e-41
-0.0023121135 -0.13316862 0.026416607 9.219563e-41
-0.00059732143 -0.13316862 0.026416607 9.219563e-41
0.0011174707 -0.13316862 0.026416607 9.219563e-41
0.0028322665 -0.13316862 0.026416607 9.219563e-41
0.004661656 -0.1340401 0.023376592 9.219563e-41
0.0064986711 -0.13488953 0.020413525 9.219563e-41
0.0082239909 -0.13488953 0.020413525 9.219563e-41
0.009949307 -0.13488953 0.020413525 0
0.011807906 -0.13574408 0.017432518 0
0.013632759 -0.13632594 0.015402861 0
0.015512067 -0.13718925 0.012391336 0
0.017251451 -0.13718925 0.012391336 0
0.018990833 -0.13718925 0.012391336 0
0.020892248 -0.13805781 0.0093614534 0
0.022636943 -0.13805781 0.0093614534 2.8025969e-45
0.024381638 -0.13805781 0.0093614534 5.6051939e-45
0.026299596 -0.13890342 0.0064116791 7.0064923e-45
0.028234962 -0.13978253 0.0033450797 7.0064923e-45
0.029990207 -0.13978253 0.0033450797 7.0064923e-45
0.031745452 -0.13978253 0.0033450797 7.0064923e-45
0.033500697 -0.13978253 0.0033450797 5.6051939e-45
0.035255942 -0.13978253 0.0033450797 5.6051939e-45
0.037011188 -0.13978253 0.0033450797 2.8025969e-45
0.038978446 -0.14063846 0.00035936385 9.1842503e-41
0.040738929 -0.14063846 0.00035936385 9.2198432e-41
0.04272322 -0.14149947 -0.0026441142 9.2198432e-41
0.044711713 -0.14233668 -0.0055646226 9.219563e-41
0.046719696 -0.14320792 -0.0086037442 9.219563e-41
0.04873981 -0.14408441 -0.011661224 9.219563e-41
0.050521363 -0.14408441 -0.011661224 9.219563e-41
0.052302927 -0.14408441 -0.011661224 9.2198432e-41
0.05408448 -0.14408441 -0.011661224 9.2198432e-41
0.055866033 -0.14408441 -0.011661224 9.1842503e-41
0.057647586 -0.14408441 -0.011661224 9.1842503e-41
0.059429139 -0.14408441 -0.011661224 9.2198432e-41
0.061484367 -0.1449367 -0.014634304 9.2198432e-41
0.063271135 -0.1449367 -0.014634304 9.2198432e-41
0.065343678 -0.14579402 -0.017624907 9.219563e-41
0.067428425 -0.14665638 -0.020633154 9.219563e-41
0.069525465 -0.14752381 -0.023659043 0
0.071328059 -0.14752381 -0.023659043 0
0.073130652 -0.14752381 -0.023659043 3.5873241e-43
0.075239807 -0.14836623 -0.026597671 3.5873241e-43
0.077047557 -0.14836623 -0.026597671 3.5873241e-43
0.079185411 -0.14924385 -0.029659085 3.5873241e-43
0.080998525 -0.14924385 -0.029659085 3.5873241e-43
-0.11769211 -0.14845367 -0.020633154 9.9578441e-39
-0.11564957 -0.14758603 -0.017624907 1.4769251e-39
-0.11385755 -0.14758603 -0.017624907 1.0155911e-39
-0.11206554 -0.14758603 -0.017624907 1.752433e-39
-0.11027353 -0.14758603 -0.017624907 2.0283039e-39
-0.10825866 -0.14672346 -0.014634304 1.4747671e-39
-0.10603309 -0.14498411 -0.0086037442 1.5669628e-39
-0.10404108 -0.14410757 -0.0055646226 2.0268591e-39
-0.10206795 -0.1432652 -0.0026441142 1.9346663e-39
-0.099897921 -0.14153777 0.0033450797 1.6580766e-39
-0.097941041 -0.1406533 0.0064116791 1.565881e-39
-0.0960024 -0.13980253 0.0093614534 1.3825687e-39
-0.094069108 -0.13892864 0.012391336 1.1059818e-39
-0.092147559 -0.13806005 0.015402861 6.4572113e-40
-0.090294242 -0.13747464 0.017432518 6.4572254e-40
-0.08839383 -0.13661484 0.020413525 1.1059804e-39
-0.086504862 -0.13576023 0.023376592 1.9350208e-39
-0.084465638 -0.13403918 0.029343672 1.5655194e-39
-0.082649082 -0.1334431 0.031410344 1.3811296e-39
-0.080793619 -0.13258059 0.034400769 1.6580766e-39
-0.078949511 -0.13172336 0.037372954 1.6591584e-39
-0.077112406 -0.13084482 0.04041893 1.8435497e-39
-0.075335935 -0.13028862 0.042347379 2.2126951e-39
-0.073519573 -0.12941907 0.045362182 2.9502602e-39
-0.071837999 -0.12941907 0.045362182 3.1346514e-39
-0.070038237 -0.12855496 0.04835815 2.0283039e-39
-0.068283617 -0.1279559 0.050435193 2.5807588e-39
-0.066504382 -0.1271009 0.05339957 2.8577016e-39
-0.063007608 -0.12566207 0.058388181 2.3956416e-39
-0.06140881 -0.12622552 0.056434639 1.0123471e-39
-0.059746645 -0.12622552 0.056434639 1.2892941e-39
-0.058084488 -0.12622552 0.056434639 5.5281084e-40
-0.056422323 -0.12622552 0.056434639 2.7658689e-40
-0.054760166 -0.12622552 0.056434639 0
-0.053098001 -0.12622552 0.056434639 0
-0.051497038 -0.1271009 0.05339957 9.219563e-41
-0.049829558 -0.1271009 0.05339957 9.219563e-41
-0.048211448 -0.1279559 0.050435193 9.219563e-41
-0.04653877 -0.1279559 0.050435193 9.219563e-41
-0.044893403 -0.12855496 0.04835815 9.219563e-41
-0.043217082 -0.12855496 0.04835815 9.219563e-41
-0.041540761 -0.12855496 0.04835815 9.219563e-41
-0.039864436 -0.12855496 0.04835815 9.219563e-41
-0.038206499 -0.12941907 0.045362182 9.219563e-41
-0.036524925 -0.12941907 0.045362182 9.219563e-41
-0.034851279 -0.13028862 0.042347379 9.219563e-41
-0.033164419 -0.13028862 0.042347379 9.219563e-41
-0.031475868 -0.13084482 0.04041893 9.219563e-41
-0.029785626 -0.13084482 0.04041893 9.219563e-41
-0.028082032 -0.13172336 0.037372954 9.219563e-41
-0.026386449 -0.13172336 0.037372954 9.219563e-41
-0.024690866 -0.13172336 0.037372954 9.219563e-41
-0.022966621 -0.13258059 0.034400769 9.219563e-41
-0.021265827 -0.13258059 0.034400769 9.219563e-41
-0.019565035 -0.13258059 0.034400769 9.219563e-41
-0.017864238 -0.13258059 0.034400769 0
-0.016113635 -0.1334431 0.031410344 0
-0.014407598 -0.1334431 0.031410344 0
-0.012701561 -0.1334431 0.031410344 0
-0.010995523 -0.1334431 0.031410344 9.219563e-41
-0.0092894873 -0.1334431 0.031410344 1.8439126e-40
-0.0075309081 -0.13403918 0.029343672 9.219563e-41
-0.0058212476 -0.13403918 0.029343672 9.219563e-41
-0.0040269056 -0.13488342 0.026416607 9.219563e-41
-0.0023121135 -0.13488342 0.026416607 9.219563e-41
-0.00059732143 -0.13488342 0.026416607 9.219563e-41
0.0011174707 -0.13488342 0.026416607 9.219563e-41
0.002941533 -0.13576023 0.023376592 9.219563e-41
0.0047733551 -0.13661484 0.020413525 9.219563e-41
0.0064986711 -0.13661484 0.020413525 9.219563e-41
0.0083468175 -0.13747464 0.017432518 9.219563e-41
0.010077364 -0.13747464 0.017432518 0
0.011807906 -0.13747464 0.017432518 0
0.013632759 -0.13806005 0.015402861 0
0.015366863 -0.13806005 0.015402861 0
0.017251451 -0.13892864 0.012391336 0
0.018990833 -0.13892864 0.012391336 0
0.02073022 -0.13892864 0.012391336 0
0.022636943 -0.13980253 0.0093614534 2.8025969e-45
0.024381638 -0.13980253 0.0093614534 7.0064923e-45
0.026299596 -0.1406533 0.0064116791 9.8090893e-45
0.028049465 -0.1406533 0.0064116791 9.8090893e-45
0.029799331 -0.1406533 0.0064116791 9.8090893e-45
0.031549197 -0.1406533 0.0064116791 9.8090893e-45
0.03329907 -0.1406533 0.0064116791 7.0064923e-45
0.035255942 -0.14153777 0.0033450797 7.0064923e-45
0.037011188 -0.14153777 0.0033450797 5.6051939e-45
0.038766433 -0.14153777 0.0033450797 9.1843904e-41
0.040738929 -0.14239894 0.00035936385 9.1842503e-41
0.04272322 -0.1432652 -0.0026441142 9.1842503e-41
0.044711713 -0.14410757 -0.0055646226 9.2198432e-41
0.046958257 -0.14586596 -0.011661224 9.2198432e-41
0.04873981 -0.14586596 -0.011661224 9.2198432e-41
0.050521363 -0.14586596 -0.011661224 9.2198432e-41
0.052302927 -0.14586596 -0.011661224 9.2198432e-41
0.05408448 -0.14586596 -0.011661224 9.1843904e-41
0.055866033 -0.14586596 -0.011661224 9.1843904e-41
0.057647586 -0.14586596 -0.011661224 9.1843904e-41
0.059429139 -0.14586596 -0.011661224 9.1842503e-41
0.061484367 -0.14672346 -0.014634304 9.1842503e-41
0.063271135 -0.14672346 -0.014634304 9.2198432e-41
0.065343678 -0.14758603 -0.017624907 9.219563e-41
0.067428425 -0.14845367 -0.020633154 9.219563e-41
0.069525465 -0.1493264 -0.023659043 0
0.071328059 -0.1493264 -0.023659043 3.5873241e-43
0.073130652 -0.1493264 -0.023659043 3.5873241e-43
-0.11206554 -0.14937802 -0.017624907 2.1204967e-39
-0.11027353 -0.14937802 -0.017624907 2.1201366e-39
-0.10825866 -0.14851023 -0.014634304 1.013789e-39
-0.10625556 -0.14764751 -0.011661224 1.1970984e-39
-0.1042569 -0.1467603 -0.0086037442 1.8424679e-39
-0.10227022 -0.14587842 -0.0055646226 1.7502722e-39
-0.099897921 -0.14329304 0.0033450797 1.5662383e-39
-0.097941041 -0.14240317 0.0064116791 1.6584339e-39
-0.0960024 -0.14154722 0.0093614534 1.8428252e-39
-0.094069108 -0.14066802 0.012391336 1.5669586e-39
-0.092147559 -0.13979416 0.015402861 1.2907276e-39
-0.090413459 -0.13979416 0.015402861 1.3832862e-39
-0.088563696 -0.13920517 0.017432518 1.8435455e-39
-0.086336963 -0.13659821 0.026416607 2.4881946e-39
-0.084465638 -0.13574885 0.029343672 1.9350208e-39
-0.082494408 -0.13428138 0.034400769 1.4736853e-39
-0.080793619 -0.13428138 0.034400769 1.1059818e-39
-0.078949511 -0.13341893 0.037372954 1.1981803e-39
-0.077112406 -0.13253506 0.04041893 1.5669628e-39
-0.075335935 -0.13197549 0.042347379 2.0283039e-39
-0.073519573 -0.13110064 0.045362182 2.5814776e-39
-0.071837999 -0.13110064 0.045362182 2.2126951e-39
-0.070038237 -0.13023128 0.04835815 1.1063476e-39
-0.068283617 -0.12962858 0.050435193 1.8435497e-39
-0.066504382 -0.1287684 0.05339957 2.304525e-39
-0.063007608 -0.12732081 0.058388181 2.0272164e-39
-0.06140881 -0.12788768 0.056434639 6.4356594e-40
-0.059746645 -0.12788768 0.056434639 8.2831593e-40
-0.058084488 -0.12788768 0.056434639 5.5281084e-40
-0.056422323 -0.12788768 0.056434639 2.7658689e-40
-0.054760166 -0.12788768 0.056434639 9.219563e-41
-0.053098001 -0.12788768 0.056434639 9.219563e-41
-0.051435843 -0.12788768 0.056434639 1.8439126e-40
-0.049829558 -0.1287684 0.05339957 1.8439126e-40
-0.048162073 -0.1287684 0.05339957 9.219563e-41
-0.04653877 -0.12962858 0.050435193 0
-0.044893403 -0.13023128 0.04835815 9.219563e-41
-0.043217082 -0.13023128 0.04835815 9.219563e-41
-0.04156965 -0.13110064 0.045362182 9.219563e-41
-0.039888076 -0.13110064 0.045362182 9.219563e-41
-0.038206499 -0.13110064 0.045362182 9.219563e-41
-0.036524925 -0.13110064 0.045362182 9.219563e-41
-0.034851279 -0.13197549 0.042347379 9.219563e-41
-0.033164419 -0.13197549 0.042347379 9.219563e-41
-0.031475868 -0.13253506 0.04041893 9.219563e-41
-0.029785626 -0.13253506 0.04041893 9.219563e-41
-0.028082032 -0.13341893 0.037372954 9.219563e-41
-0.026386449 -0.13341893 0.037372954 9.219563e-41
-0.024667416 -0.13428138 0.034400769 9.219563e-41
-0.022966621 -0.13428138 0.034400769 9.219563e-41
-0.021265827 -0.13428138 0.034400769 9.219563e-41
-0.019565035 -0.13428138 0.034400769 9.219563e-41
-0.017864238 -0.13428138 0.034400769 9.219563e-41
-0.016113635 -0.13514914 0.031410344 0
-0.014407598 -0.13514914 0.031410344 0
-0.012701561 -0.13514914 0.031410344 0
-0.010995523 -0.13514914 0.031410344 0
-0.0092894873 -0.13514914 0.031410344 0
-0.0075309081 -0.13574885 0.029343672 9.219563e-41
-0.0058212476 -0.13574885 0.029343672 1.8439126e-40
-0.0040269056 -0.13659821 0.026416607 9.219563e-41
-0.0023121135 -0.13659821 0.026416607 9.219563e-41
-0.00059732143 -0.13659821 0.026416607 9.219563e-41
0.0011174707 -0.13659821 0.026416607 9.219563e-41
0.002941533 -0.13748036 0.023376592 9.219563e-41
0.0047733551 -0.13834016 0.020413525 9.219563e-41
0.0066162711 -0.13920517 0.017432518 9.219563e-41
0.0083468175 -0.13920517 0.017432518 9.219563e-41
0.010077364 -0.13920517 0.017432518 0
0.011898655 -0.13979416 0.015402861 0
0.013632759 -0.13979416 0.015402861 0
0.015366863 -0.13979416 0.015402861 0
0.017100964 -0.13979416 0.015402861 0
0.018835068 -0.13979416 0.015402861 0
0.02073022 -0.14066802 0.012391336 0
0.022636943 -0.14154722 0.0093614534 2.8025969e-45
0.024381638 -0.14154722 0.0093614534 7.0064923e-45
0.026299596 -0.14240317 0.0064116791 9.8090893e-45
0.028049465 -0.14240317 0.0064116791 1.2611686e-44
0.029799331 -0.14240317 0.0064116791 9.8090893e-45
0.031549197 -0.14240317 0.0064116791 9.8090893e-45
0.03329907 -0.14240317 0.0064116791 7.0064923e-45
0.035048936 -0.14240317 0.0064116791 7.0064923e-45
0.037011188 -0.14329304 0.0033450797 7.0064923e-45
0.038766433 -0.14329304 0.0033450797 9.1843904e-41
0.040738929 -0.14415942 0.00035936385 9.1842503e-41
0.04272322 -0.14503096 -0.0026441142 9.1842503e-41
0.044711713 -0.14587842 -0.0055646226 9.2198432e-41
0.046719696 -0.1467603 -0.0086037442 9.2198432e-41
0.04873981 -0.14764751 -0.011661224 9.2198432e-41
0.050521363 -0.14764751 -0.011661224 9.2198432e-41
0.052302927 -0.14764751 -0.011661224 9.2198432e-41
0.05408448 -0.14764751 -0.011661224 9.1843904e-41
0.055866033 -0.14764751 -0.011661224 9.1843904e-41
0.057647586 -0.14764751 -0.011661224 9.1843904e-41
0.059697598 -0.14851023 -0.014634304 9.1842503e-41
0.061484367 -0.14851023 -0.014634304 9.1842503e-41
0.063271135 -0.14851023 -0.014634304 9.2198432e-41
-0.10625556 -0.14942907 -0.011661224 1.4736853e-39
-0.1042569 -0.14853649 -0.0086037442 1.8421077e-39
-0.10227022 -0.14764927 -0.0055646226 1.6577151e-39
-0.099897921 -0.14504828 0.0033450797 1.5655194e-39
-0.097747102 -0.14329191 0.0093614534 1.5662383e-39
-0.0960024 -0.14329191 0.0093614534 1.8428224e-39
-0.094069108 -0.1424074 0.012391336 1.6595101e-39
-0.092147559 -0.14152823 0.015402861 1.4751161e-39
-0.090294242 -0.14093573 0.017432518 1.5676746e-39
-0.08839383 -0.14006548 0.020413525 1.9364572e-39
-0.086336963 -0.13831301 0.026416607 1.7513498e-39
-0.084355116 -0.13685517 0.031410344 1.8435455e-39
-0.082494408 -0.1359822 0.034400769 1.56696e-39
-0.080645099 -0.13511451 0.037372954 1.1059818e-39
-0.078949511 -0.13511451 0.037372954 1.013789e-39
-0.077112406 -0.13422529 0.04041893 1.1985404e-39
-0.075335935 -0.13366233 0.042347379 1.5666068e-39
-0.073649079 -0.13366233 0.042347379 1.6588025e-39
-0.071837999 -0.13278224 0.045362182 1.5666068e-39
-0.070038237 -0.1319076 0.04835815 1.1056287e-39
-0.068283617 -0.13130127 0.050435193 1.6591584e-39
-0.066504382 -0.13043587 0.05339957 1.6591556e-39
-0.063007608 -0.12897955 0.058388181 3.4101509e-39
-0.06140881 -0.12954985 0.056434639 1.5662383e-39
-0.059746645 -0.12954985 0.056434639 5.5208917e-40
-0.058084488 -0.12954985 0.056434639 4.6061521e-40
-0.056422323 -0.12954985 0.056434639 2.7658689e-40
-0.054760166 -0.12954985 0.056434639 1.8439126e-40
-0.053098001 -0.12954985 0.056434639 1.8439126e-40
-0.051435843 -0.12954985 0.056434639 2.7658689e-40
-0.049829558 -0.13043587 0.05339957 1.8439126e-40
-0.048162073 -0.13043587 0.05339957 9.219563e-41
-0.046494588 -0.13043587 0.05339957 0
-0.044827107 -0.13043587 0.05339957 9.219563e-41
-0.043217082 -0.1319076 0.04835815 9.219563e-41
-0.041540761 -0.1319076 0.04835815 9.219563e-41
-0.039888076 -0.13278224 0.045362182 9.219563e-41
-0.038206499 -0.13278224 0.045362182 9.219563e-41
-0.036524925 -0.13278224 0.045362182 9.219563e-41
