# .PCD v0.7 - Point Cloud Data file format
VERSION 0.7
FIELDS x y z rgb
SIZE 4 4 4 4
TYPE F F F F
COUNT 1 1 1 1
WIDTH 942
HEIGHT 1
VIEWPOINT 0 0 0 1 0 0 0
POINTS 942
DATA ascii
0.094795652 -0.11962132 -0.11045916 2.5807616e-39
0.09676481 -0.11962132 -0.11045916 2.1197834e-39
0.098733969 -0.11962132 -0.11045916 1.9353922e-39
0.10070314 -0.11962132 -0.11045916 1.8431965e-39
0.03409617 -0.096693933 -0.0064330846 4.8849292e-39
0.035882939 -0.096693933 -0.0064330846 3.962973e-39
0.037669707 -0.096693933 -0.0064330846 3.6871119e-39
0.039632134 -0.09740968 -0.0094236881 3.410525e-39
0.041424144 -0.09740968 -0.0094236881 3.1339382e-39
0.043403402 -0.098129645 -0.012431934 3.0417425e-39
0.045200691 -0.098129645 -0.012431934 3.0424586e-39
0.047196925 -0.098853827 -0.015457824 2.950263e-39
0.048999518 -0.098853827 -0.015457824 2.7658717e-39
0.051217653 -0.10028981 -0.021457866 2.5814776e-39
0.053736687 -0.10266902 -0.031398967 2.6736733e-39
0.055787735 -0.10339431 -0.034429505 2.6736705e-39
0.057842605 -0.10409774 -0.037368611 2.9509762e-39
0.059683613 -0.10409774 -0.037368611 2.8587778e-39
0.061840974 -0.1050681 -0.041423157 2.3977996e-39
0.064728551 -0.10818647 -0.054452732 2.9509734e-39
0.066839166 -0.10888995 -0.057392076 3.4123089e-39
0.068970911 -0.10962458 -0.060461596 2.8584177e-39
0.071193017 -0.11058317 -0.064466909 2.76515e-39
0.073341466 -0.11129995 -0.067461804 2.6729544e-39
0.075852834 -0.11296929 -0.074436978 2.5807616e-39
0.07802368 -0.11367123 -0.077369884 2.4885659e-39
0.080304347 -0.114632 -0.081384256 2.2119791e-39
0.082512356 -0.11537148 -0.084474042 2.0275878e-39
0.085192971 -0.11726747 -0.092396215 2.2109001e-39
0.087425388 -0.11799283 -0.095426992 2.3952913e-39
0.089368187 -0.11799283 -0.095426992 2.3030957e-39
0.091716923 -0.11895646 -0.099453285 2.0265088e-39
0.094387196 -0.12063743 -0.10647698 1.8421175e-39
0.09676481 -0.12159048 -0.11045916 2.3952913e-39
0.098733969 -0.12159048 -0.11045916 2.6718782e-39
0.10188616 -0.12421621 -0.12143035 1.5655306e-39
-0.084270455 -0.093406871 0.014612898 7.8384194e-39
-0.082148395 -0.091965273 0.020592555 7.0086601e-39
-0.080409013 -0.091965273 0.020592555 1.0881595e-38
-0.07866963 -0.091965273 0.020592555 1.0974514e-38
-0.076930247 -0.091965273 0.020592555 1.2540764e-38
-0.075190865 -0.091965273 0.020592555 1.272336e-38
-0.073451482 -0.091965273 0.020592555 1.3275455e-38
-0.038258616 -0.086659163 0.042601988 1.3459472e-38
-0.03655782 -0.086659163 0.042601988 1.4657296e-38
0.033937179 -0.097763941 -0.0034600049 3.9626198e-39
0.035718735 -0.097763941 -0.0034600049 2.8573485e-39
0.037500292 -0.097763941 -0.0034600049 2.9495469e-39
0.039456476 -0.098480701 -0.0064330846 2.7651528e-39
0.041243244 -0.098480701 -0.0064330846 2.5807644e-39
0.043216161 -0.099201679 -0.0094236881 2.5807616e-39
0.045200691 -0.099926919 -0.012431934 2.5814804e-39
0.047196925 -0.10065642 -0.015457824 2.5814804e-39
0.04919789 -0.10136487 -0.018396452 2.489282e-39
0.051489986 -0.10305093 -0.025390103 2.3970864e-39
0.053736687 -0.10449956 -0.031398967 2.1204967e-39
0.055567227 -0.10449956 -0.031398967 2.0283011e-39
0.057842605 -0.10593875 -0.037368611 2.2134084e-39
0.059992857 -0.10691623 -0.041423157 2.0290171e-39
0.062307067 -0.1083564 -0.047396973 1.6602346e-39
0.064728551 -0.11005743 -0.054452732 2.305604e-39
0.067089416 -0.11150609 -0.060461596 2.8587778e-39
0.069304489 -0.11247168 -0.064466909 2.3977996e-39
0.071193017 -0.11247168 -0.064466909 2.3970836e-39
0.073683552 -0.11414395 -0.07140334 2.4885631e-39
0.075852834 -0.1148753 -0.074436978 2.3963703e-39
0.07802368 -0.11558239 -0.077369884 2.3041747e-39
0.080304347 -0.11655019 -0.081384256 2.1197834e-39
0.082512356 -0.11729507 -0.084474042 1.9353922e-39
0.084813096 -0.11824657 -0.088420823 2.0275878e-39
0.087425388 -0.11993565 -0.095426992 2.3030957e-39
0.089368187 -0.11993565 -0.095426992 2.5796826e-39
0.091716923 -0.12090631 -0.099453285 2.4874869e-39
0.094387196 -0.12259962 -0.10647698 2.2109001e-39
0.096349381 -0.12259962 -0.10647698 2.5796826e-39
0.099052764 -0.12428416 -0.11346443 2.5796826e-39
0.10188616 -0.12620462 -0.12143035 1.5655306e-39
0.10387456 -0.12620462 -0.12143035 1.1967481e-39
-0.088578634 -0.098065019 0.0026365966 7.1916081e-39
-0.086418264 -0.096626461 0.008560583 7.2838065e-39
-0.084270455 -0.095156729 0.014612898 6.8242675e-39
-0.082148395 -0.093704656 0.020592555 6.3632907e-39
-0.080409013 -0.093704656 0.020592555 1.0051835e-38
-0.07866963 -0.093704656 0.020592555 1.1158905e-38
-0.076930247 -0.093704656 0.020592555 1.2816632e-38
-0.075190865 -0.093704656 0.020592555 1.3088545e-38
-0.073451482 -0.093704656 0.020592555 1.4837748e-38
-0.071712099 -0.093704656 0.020592555 1.5574953e-38
-0.069972716 -0.093704656 0.020592555 1.5481679e-38
-0.068233334 -0.093704656 0.020592555 1.4651199e-38
-0.066493951 -0.093704656 0.020592555 1.2808007e-38
-0.064619921 -0.092973351 0.02360408 1.1149924e-38
-0.062885813 -0.092973351 0.02360408 1.0874777e-38
-0.061275799 -0.093704656 0.020592555 9.770227e-39
-0.059536412 -0.093704656 0.020592555 7.7437196e-39
-0.05779703 -0.093704656 0.020592555 5.4399051e-39
-0.055949401 -0.092973351 0.02360408 4.0584028e-39
-0.054145906 -0.092480466 0.025633737 2.8587806e-39
-0.05241536 -0.092480466 0.025633737 1.1067007e-39
-0.050684813 -0.092480466 0.025633737 2.1194121e-39
-0.048954267 -0.092480466 0.025633737 4.9774738e-39
-0.047142711 -0.091756567 0.028614745 7.0068567e-39
-0.045342062 -0.091037035 0.031577811 8.1135644e-39
-0.043621939 -0.091037035 0.031577811 8.666378e-39
-0.041835189 -0.090298802 0.034617826 9.0351605e-39
-0.040120397 -0.090298802 0.034617826 1.0325543e-38
-0.038258616 -0.088359952 0.042601988 1.1616282e-38
-0.03655782 -0.088359952 0.042601988 1.2998496e-38
-0.034857027 -0.088359952 0.042601988 1.4381428e-38
0.033937179 -0.099545494 -0.0034600049 2.7647983e-39
0.035718735 -0.099545494 -0.0034600049 2.2119819e-39
0.037500292 -0.099545494 -0.0034600049 2.6729572e-39
0.039281845 -0.099545494 -0.0034600049 2.5807588e-39
0.041243244 -0.10026747 -0.0064330846 2.3970892e-39
0.043030016 -0.10026747 -0.0064330846 2.3970864e-39
0.045008168 -0.10099369 -0.0094236881 2.489282e-39
0.046997972 -0.10172421 -0.012431934 2.6736733e-39
0.04919789 -0.10317262 -0.018396452 2.5814776e-39
0.051697463 -0.10559841 -0.028385833 2.5814776e-39
0.053736687 -0.10633011 -0.031398967 2.3056068e-39
0.055567227 -0.10633011 -0.031398967 1.9368243e-39
0.057842605 -0.10777976 -0.037368611 1.9368243e-39
0.059992857 -0.10876434 -0.041423157 1.752433e-39
0.062307067 -0.11021499 -0.047396973 1.2003383e-39
0.064963035 -0.11264218 -0.057392076 1.7535092e-39
0.067089416 -0.11338757 -0.060461596 2.306683e-39
0.069304489 -0.1143602 -0.064466909 2.1212127e-39
0.071193017 -0.1143602 -0.064466909 2.1204967e-39
0.073341466 -0.11508749 -0.067461804 2.2126951e-39
0.075852834 -0.11678131 -0.074436978 2.1204995e-39
0.07802368 -0.11749353 -0.077369884 1.9361082e-39
0.080304347 -0.11846836 -0.081384256 1.751717e-39
0.082512356 -0.11921866 -0.084474042 1.751717e-39
0.084813096 -0.12017711 -0.088420823 1.7517198e-39
0.087130465 -0.12114246 -0.092396215 1.9353922e-39
0.089368187 -0.12187846 -0.095426992 1.474414e-39
0.091716923 -0.12285618 -0.099453285 1.474414e-39
0.094387196 -0.1245618 -0.10647698 1.2900228e-39
0.096349381 -0.1245618 -0.10647698 1.2900228e-39
0.099052764 -0.1262586 -0.11346443 1.2889466e-39
0.10300163 -0.1262586 -0.11346443 4.5918589e-40
-0.088578634 -0.099835888 0.0026365966 3.6913565e-40
-0.086418264 -0.098386943 0.008560583 3.5873241e-43
-0.084466718 -0.097656667 0.011546299 1.8457035e-39
-0.082336985 -0.096185118 0.017562672 1.2925311e-39
-0.080592297 -0.096185118 0.017562672 1.9386194e-39
-0.078847595 -0.096185118 0.017562672 1.5705599e-39
-0.0771029 -0.096185118 0.017562672 2.6754683e-39
-0.075358205 -0.096185118 0.017562672 5.8987252e-39
-0.073451482 -0.095444039 0.020592555 7.3716973e-39
-0.071712099 -0.095444039 0.020592555 7.8319566e-39
-0.069972716 -0.095444039 0.020592555 8.1078232e-39
-0.068233334 -0.095444039 0.020592555 9.0279845e-39
-0.066493951 -0.095444039 0.020592555 9.5818799e-39
-0.064619921 -0.094707444 0.02360408 1.0781142e-38
-0.062885813 -0.094707444 0.02360408 1.2349907e-38
-0.061151713 -0.094707444 0.02360408 1.24439e-38
-0.059417609 -0.094707444 0.02360408 1.2168753e-38
-0.057683505 -0.094707444 0.02360408 1.2723363e-38
-0.055949401 -0.094707444 0.02360408 1.3921903e-38
-0.054145906 -0.094211012 0.025633737 1.3737149e-38
-0.052318666 -0.093481898 0.028614745 1.1800678e-38
-0.05059335 -0.093481898 0.028614745 1.0876924e-38
-0.048868027 -0.093481898 0.028614745 1.1154226e-38
-0.047062185 -0.092757151 0.031577811 1.0695045e-38
-0.045342062 -0.092757151 0.031577811 1.1432607e-38
-0.043621939 -0.092757151 0.031577811 1.1248216e-38
-0.041835189 -0.092013597 0.034617826 1.0879436e-38
-0.040120397 -0.092013597 0.034617826 1.1340414e-38
-0.038313668 -0.090792179 0.039611563 1.207726e-38
-0.03655782 -0.090060756 0.042601988 1.3275804e-38
-0.034857027 -0.090060756 0.042601988 1.50268e-38
0.019897355 -0.092013597 0.034617826 4.2402941e-39
0.021612147 -0.092013597 0.034617826 4.2402941e-39
0.033773676 -0.10057923 -0.00040252507 2.1208666e-39
0.035549872 -0.10057923 -0.00040252507 2.3967332e-39
0.037326064 -0.10057923 -0.00040252507 2.5814776e-39
0.03910226 -0.10057923 -0.00040252507 2.5811147e-39
0.041063402 -0.10132705 -0.0034600049 2.489282e-39
0.042844959 -0.10132705 -0.0034600049 2.4892792e-39
0.045008168 -0.10278571 -0.0094236881 2.489282e-39
0.046997972 -0.10352151 -0.012431934 2.5814776e-39
0.048999518 -0.10426159 -0.015457824 2.6736733e-39
0.051697463 -0.10742365 -0.028385833 2.6736733e-39
0.053736687 -0.10816063 -0.031398967 2.5821937e-39
0.055567227 -0.10816063 -0.031398967 2.0290199e-39
0.058144741 -0.11061247 -0.041423157 2.1212156e-39
0.060220018 -0.11134095 -0.044401601 2.0290199e-39
0.062542111 -0.11281042 -0.050409392 1.2925339e-39
0.064963035 -0.1145183 -0.057392076 1.5691208e-39
0.067089416 -0.11526908 -0.060461596 1.9379033e-39
0.069304489 -0.11624874 -0.064466909 1.4769251e-39
0.071193017 -0.11624874 -0.064466909 1.8446287e-39
0.073341466 -0.11698125 -0.067461804 2.0290227e-39
0.075852834 -0.11868732 -0.074436978 2.0283039e-39
0.07802368 -0.11940466 -0.077369884 1.5680446e-39
0.080304347 -0.12038656 -0.081384256 1.4751301e-39
0.082512356 -0.12114228 -0.084474042 1.4751301e-39
0.084813096 -0.12210761 -0.088420823 1.4751329e-39
0.087130465 -0.12307997 -0.092396215 1.3829373e-39
0.089067958 -0.12307997 -0.092396215 1.2900228e-39
0.091716923 -0.12480606 -0.099453285 1.474414e-39
0.094387196 -0.12652399 -0.10647698 1.2900228e-39
0.096349381 -0.12652399 -0.10647698 1.1978271e-39
-0.089939229 -0.10014741 0.008560583 9.4961387e-39
-0.088178746 -0.10014741 0.008560583 3.5873241e-43
-0.086418264 -0.10014741 0.008560583 3.5873241e-43
-0.084466718 -0.099411905 0.011546299 1.0159428e-39
-0.082520597 -0.098656476 0.014612898 3.7057478e-40
-0.080770724 -0.098656476 0.014612898 2.5111268e-42
-0.079020858 -0.098656476 0.014612898 1.793662e-42
-0.0771029 -0.09792982 0.017562672 2.8740632e-42
-0.075358205 -0.09792982 0.017562672 1.1103006e-39
-0.07361351 -0.09792982 0.017562672 1.5705599e-39
-0.071712099 -0.097183421 0.020592555 1.3843736e-39
-0.069972716 -0.097183421 0.020592555 1.1063476e-39
-0.068233334 -0.097183421 0.020592555 1.7499219e-39
-0.066354021 -0.096441552 0.02360408 2.2105399e-39
-0.064619921 -0.096441552 0.02360408 3.2232569e-39
-0.062885813 -0.096441552 0.02360408 4.6061928e-39
-0.061151713 -0.096441552 0.02360408 5.3448368e-39
-0.059417609 -0.096441552 0.02360408 5.4370324e-39
-0.057683505 -0.096441552 0.02360408 6.451183e-39
-0.055876449 -0.095941558 0.025633737 8.663155e-39
-0.054145906 -0.095941558 0.025633737 1.1150999e-38
-0.052318666 -0.095207214 0.028614745 1.382251e-38
-0.05059335 -0.095207214 0.028614745 1.5388398e-38
-0.048868027 -0.095207214 0.028614745 1.5483108e-38
-0.047062185 -0.094477281 0.031577811 1.5211192e-38
-0.045342062 -0.094477281 0.031577811 1.5028958e-38
-0.043621939 -0.094477281 0.031577811 1.4014806e-38
-0.041835189 -0.093728393 0.034617826 1.2447123e-38
-0.040120397 -0.093728393 0.034617826 1.124858e-38
-0.038351718 -0.093007326 0.037544891 1.0234068e-38
-0.036607631 -0.092498213 0.039611563 9.9574812e-39
-0.034901593 -0.092498213 0.039611563 1.0878717e-38
-0.033261225 -0.093728393 0.034617826 1.2353127e-38
-0.031489518 -0.092498213 0.039611563 1.2168733e-38
-0.029783482 -0.092498213 0.039611563 1.3182166e-38
-0.028077444 -0.092498213 0.039611563 1.5210826e-38
0.007662823 -0.091761544 0.042601988 5.7136193e-39
0.0093636168 -0.091761544 0.042601988 6.174966e-39
0.010968004 -0.091029361 0.045574173 5.8980218e-39
0.012663585 -0.091029361 0.045574173 5.3459256e-39
0.014466 -0.091761544 0.042601988 5.3459256e-39
0.016166793 -0.091761544 0.042601988 4.7009121e-39
0.018182563 -0.093728393 0.034617826 4.0555427e-39
0.019897355 -0.093728393 0.034617826 4.2406501e-39
0.021612147 -0.093728393 0.034617826 3.7796719e-39
0.023326943 -0.093728393 0.034617826 2.5818448e-39
0.025320658 -0.095207214 0.028614745 1.7520841e-39
0.027045975 -0.095207214 0.028614745 1.936474e-39
0.029172162 -0.097183421 0.020592555 2.1208652e-39
0.031220833 -0.098656476 0.014612898 1.7531617e-39
0.033611152 -0.10160676 0.0026365966 2.0297486e-39
0.035382021 -0.10160676 0.0026365966 2.4907239e-39
0.037326064 -0.10235542 -0.00040252507 2.3970836e-39
0.03910226 -0.10235542 -0.00040252507 2.3974395e-39
0.040878456 -0.10235542 -0.00040252507 2.3970836e-39
0.042844959 -0.1031086 -0.0034600049 2.3052439e-39
0.044626512 -0.1031086 -0.0034600049 2.2126923e-39
0.046603553 -0.10384102 -0.0064330846 2.1204967e-39
0.048999518 -0.10606419 -0.015457824 2.1212156e-39
0.051906139 -0.10999118 -0.031398967 2.1212156e-39
0.053951882 -0.11073773 -0.034429505 2.2134112e-39
0.055787735 -0.11073773 -0.034429505 1.5680418e-39
0.058144741 -0.11246057 -0.041423157 1.5687648e-39
0.059992857 -0.11246057 -0.041423157 1.8453517e-39
0.062307067 -0.11393218 -0.047396973 1.4765692e-39
0.064728551 -0.11567034 -0.054452732 1.4765692e-39
0.066839166 -0.11639442 -0.057392076 1.5687648e-39
0.068970911 -0.11715056 -0.060461596 1.015947e-39
0.071193017 -0.11813726 -0.064466909 1.4769251e-39
0.073341466 -0.11887501 -0.067461804 1.753512e-39
0.075584225 -0.119846 -0.07140334 1.8446287e-39
0.07802368 -0.12131582 -0.077369884 1.1081426e-39
0.080304347 -0.12230472 -0.081384256 9.2267516e-40
0.082512356 -0.12306587 -0.084474042 1.0148708e-39
0.084813096 -0.12403814 -0.088420823 1.0145149e-39
0.086743616 -0.12403814 -0.088420823 7.3792798e-40
0.089067958 -0.12501745 -0.092396215 5.5317658e-40
0.091716923 -0.12675591 -0.099453285 8.2976347e-40
0.094387196 -0.12848614 -0.10647698 7.3721191e-40
0.096349381 -0.12848614 -0.10647698 6.4501628e-40
0.099052764 -0.13020746 -0.11346443 4.6026489e-40
-0.089939229 -0.10190789 0.008560583 7.8366173e-39
-0.088178746 -0.10190789 0.008560583 4.6132988e-40
-0.086418264 -0.10190789 0.008560583 7.3791676e-40
-0.084466718 -0.10116716 0.011546299 6.4716027e-40
-0.082520597 -0.10040633 0.014612898 1.793662e-42
-0.080770724 -0.10040633 0.014612898 2.7909802e-40
-0.079020858 -0.10040633 0.014612898 3.7201672e-40
-0.0771029 -0.099674508 0.017562672 3.229993e-42
-0.075190865 -0.098922804 0.020592555 4.6677252e-42
-0.073451482 -0.098922804 0.020592555 9.6863355e-41
-0.071712099 -0.098922804 0.020592555 1.793662e-42
-0.069822229 -0.09817566 0.02360408 3.5873241e-43
-0.068088122 -0.09817566 0.02360408 2.7622395e-40
-0.066354021 -0.09817566 0.02360408 6.4393028e-40
-0.064529173 -0.097672105 0.025633737 9.198011e-40
-0.062798627 -0.097672105 0.025633737 1.6570102e-39
-0.061068084 -0.097672105 0.025633737 1.1038364e-39
-0.059337538 -0.097672105 0.025633737 5.5138152e-40
-0.057606995 -0.097672105 0.025633737 8.2724954e-40
-0.055876449 -0.097672105 0.025633737 1.3793443e-39
-0.054145906 -0.097672105 0.025633737 2.1151073e-39
-0.05241536 -0.097672105 0.025633737 3.219657e-39
-0.05059335 -0.09693253 0.028614745 3.2185752e-39
-0.048782308 -0.096197397 0.031577811 1.5612062e-39
-0.047062185 -0.096197397 0.031577811 8.2939493e-40
-0.045342062 -0.096197397 0.031577811 1.2925297e-39
-0.043621939 -0.096197397 0.031577811 1.6613136e-39
-0.041835189 -0.095443189 0.034617826 1.9368215e-39
-0.040120397 -0.095443189 0.034617826 2.0290171e-39
-0.038405601 -0.095443189 0.034617826 1.3836477e-39
-0.036607631 -0.094204247 0.039611563 1.2910919e-39
-0.034901593 -0.094204247 0.039611563 2.028657e-39
-0.033222735 -0.094716981 0.037544891 4.4250245e-39
-0.031489518 -0.094204247 0.039611563 6.0838242e-39
-0.029783482 -0.094204247 0.039611563 6.5440834e-39
-0.028077444 -0.094204247 0.039611563 6.5440806e-39
-0.026353056 -0.093462333 0.042601988 7.6507841e-39
-0.024652261 -0.093462333 0.042601988 8.8493245e-39
-0.022951467 -0.093462333 0.042601988 9.7705591e-39
0.0074887178 -0.091969252 0.048620149 5.9891258e-39
0.0091789598 -0.091969252 0.048620149 5.8976575e-39
0.010869202 -0.091969252 0.048620149 5.3444837e-39
0.012559445 -0.091969252 0.048620149 5.1608113e-39
0.01435917 -0.092724949 0.045574173 5.5295938e-39
0.016166793 -0.093462333 0.042601988 4.4243224e-39
0.018182563 -0.095443189 0.034617826 2.7648011e-39
0.019897355 -0.095443189 0.034617826 1.9357565e-39
0.021612147 -0.095443189 0.034617826 2.8577128e-39
0.023326943 -0.095443189 0.034617826 2.2130609e-39
0.025182983 -0.096197397 0.031577811 1.936474e-39
0.027045975 -0.09693253 0.028614745 2.0297458e-39
0.029021675 -0.09817566 0.02360408 2.2141371e-39
0.03106826 -0.099674508 0.017562672 2.0304647e-39
0.033134691 -0.10116716 0.011546299 2.0304619e-39
0.03522072 -0.10265306 0.0055571049 2.1219386e-39
0.037326064 -0.10413162 -0.00040252507 2.305604e-39
0.03910226 -0.10413162 -0.00040252507 2.4896351e-39
0.040878456 -0.10413162 -0.00040252507 2.3974395e-39
0.042844959 -0.10489015 -0.0034600049 2.2130482e-39
0.044626512 -0.10489015 -0.0034600049 2.028657e-39
0.046603553 -0.10562779 -0.0064330846 1.9364614e-39
0.049872205 -0.11107419 -0.028385833 1.9368243e-39
0.051697463 -0.11107419 -0.028385833 2.0290199e-39
0.053951882 -0.11257361 -0.034429505 1.8446287e-39
0.055787735 -0.11257361 -0.034429505 1.1070636e-39
0.057842605 -0.11330278 -0.037368611 1.292178e-39
0.059992857 -0.1143087 -0.041423157 1.8453517e-39
0.062307067 -0.11579077 -0.047396973 1.5687648e-39
0.064728551 -0.1175413 -0.054452732 1.5687648e-39
0.066839166 -0.11827053 -0.057392076 1.4765692e-39
0.068970911 -0.11903207 -0.060461596 1.0155911e-39
0.071193017 -0.12002577 -0.064466909 9.2375136e-40
0.073341466 -0.1207688 -0.067461804 1.3847295e-39
0.075584225 -0.12174667 -0.07140334 1.2003383e-39
0.07802368 -0.12322696 -0.077369884 5.5496884e-40
0.080304347 -0.12422292 -0.081384256 2.7802602e-40
0.082512356 -0.12498946 -0.084474042 4.6241728e-40
0.084435962 -0.12498946 -0.084474042 6.4573235e-40
0.086743616 -0.12596865 -0.088420823 2.7694983e-40
0.089067958 -0.12695493 -0.092396215 2.8025969e-45
0.092013977 -0.12943684 -0.1023999 2.8025969e-45
0.094795652 -0.1314363 -0.11045916 5.6051939e-45
0.09676481 -0.1314363 -0.11045916 5.6051939e-45
0.099052764 -0.1321819 -0.11346443 9.1841101e-41
-0.089939229 -0.10366838 0.008560583 7.3756392e-39
-0.088178746 -0.10366838 0.008560583 9.2230522e-40
-0.086418264 -0.10366838 0.008560583 1.2910905e-39
-0.084466718 -0.10292239 0.011546299 4.6276901e-40
-0.082520597 -0.10215621 0.014612898 2.7837915e-40
-0.080770724 -0.10215621 0.014612898 3.7129365e-40
-0.079020858 -0.10215621 0.014612898 2.7982109e-40
-0.0771029 -0.10141921 0.017562672 1.793662e-42
-0.075190865 -0.10066219 0.020592555 7.3970903e-40
-0.073451482 -0.10066219 0.020592555 1.1070496e-39
-0.071712099 -0.10066219 0.020592555 8.2867186e-40
-0.069822229 -0.099909768 0.02360408 7.3576017e-40
-0.068088122 -0.099909768 0.02360408 1.7481128e-39
-0.066354021 -0.099909768 0.02360408 2.0247011e-39
-0.064529173 -0.099402651 0.025633737 2.1168996e-39
-0.062798627 -0.099402651 0.025633737 2.5782406e-39
-0.061068084 -0.099402651 0.025633737 1.7499219e-39
-0.059337538 -0.099402651 0.025633737 2.7658969e-40
-0.057494622 -0.098657846 0.028614745 3.6914546e-40
-0.055769302 -0.098657846 0.028614745 8.2976347e-40
-0.054043982 -0.098657846 0.028614745 4.6026209e-40
-0.052318666 -0.098657846 0.028614745 1.0119967e-39
-0.050502431 -0.097917527 0.031577811 1.4711742e-39
-0.048782308 -0.097917527 0.031577811 3.6734198e-40
-0.047062185 -0.097917527 0.031577811 3.5873241e-43
-0.045264777 -0.09715797 0.034617826 1.0761972e-42
-0.043549981 -0.09715797 0.034617826 1.7950633e-42
-0.041835189 -0.09715797 0.034617826 3.7057758e-40
-0.040120397 -0.09715797 0.034617826 6.4716447e-40
-0.038351718 -0.096426651 0.037544891 9.2911693e-41
-0.036642056 -0.096426651 0.037544891 0
-0.034932394 -0.096426651 0.037544891 1.8474719e-40
-0.033222735 -0.096426651 0.037544891 4.6061241e-40
-0.031489518 -0.095910296 0.039611563 2.0279367e-39
-0.029783482 -0.095910296 0.039611563 1.6584339e-39
-0.028053848 -0.095163137 0.042601988 2.7550649e-40
-0.026353056 -0.095163137 0.042601988 1.0127016e-39
-0.024639232 -0.094420537 0.045574173 2.5800217e-39
-0.022943651 -0.094420537 0.045574173 4.0551504e-39
-0.021245398 -0.09365949 0.048620149 5.4384407e-39
-0.019556846 -0.093177676 0.050548598 4.9774598e-39
-0.017877914 -0.092424423 0.053563401 5.8994161e-39
-0.016196338 -0.092424423 0.053563401 6.8217353e-39
-0.014514766 -0.092424423 0.053563401 7.1915996e-39
-0.012809403 -0.093177676 0.050548598 7.5600276e-39
-0.011151616 -0.092424423 0.053563401 7.5603934e-39
-0.00947004 -0.092424423 0.053563401 7.1916123e-39
-0.0077884649 -0.092424423 0.053563401 6.7302782e-39
-0.0061068903 -0.092424423 0.053563401 6.1771044e-39
0.0056641339 -0.092424423 0.053563401 9.7694858e-39
0.0073457095 -0.092424423 0.053563401 7.92559e-39
0.0090272846 -0.092424423 0.053563401 6.4501082e-39
0.010806649 -0.093177676 0.050548598 4.2374131e-39
0.012559445 -0.09365949 0.048620149 3.4087286e-39
0.01435917 -0.094420537 0.045574173 4.4235994e-39
0.016166793 -0.095163137 0.042601988 4.3314023e-39
0.01806709 -0.096426651 0.037544891 2.5807644e-39
0.019776752 -0.096426651 0.037544891 1.3829373e-39
0.021612147 -0.09715797 0.034617826 2.1205023e-39
0.02346286 -0.097917527 0.031577811 2.213414e-39
0.025182983 -0.097917527 0.031577811 2.029743e-39
0.027045975 -0.098657846 0.028614745 1.9375474e-39
0.028920254 -0.099402651 0.025633737 1.9382634e-39
0.030911544 -0.10066219 0.020592555 1.8471468e-39
0.033134691 -0.10292239 0.011546299 1.5705599e-39
0.034889936 -0.10292239 0.011546299 1.2932499e-39
0.036986466 -0.1044188 0.0055571049 2.0290171e-39
0.038923752 -0.10514848 0.0026365966 2.2130468e-39
0.040878456 -0.10590781 -0.00040252507 2.2130468e-39
0.042844959 -0.10667174 -0.0034600049 2.1208512e-39
0.044626512 -0.10667174 -0.0034600049 1.7524302e-39
0.046603553 -0.10741456 -0.0064330846 1.6602346e-39
0.049872205 -0.11289944 -0.028385833 1.7524302e-39
0.051697463 -0.11289944 -0.028385833 1.9368215e-39
0.053951882 -0.11440946 -0.034429505 1.9368243e-39
0.055787735 -0.11440946 -0.034429505 1.014868e-39
0.057842605 -0.11514379 -0.037368611 9.2339543e-40
0.059992857 -0.1161568 -0.041423157 1.3843736e-39
0.062307067 -0.11764936 -0.047396973 1.1999851e-39
0.064728551 -0.11941226 -0.054452732 1.0155939e-39
0.067089416 -0.12091358 -0.060461596 1.0155939e-39
0.069304489 -0.12191428 -0.064466909 5.5461291e-40
0.071193017 -0.12191428 -0.064466909 9.4350827e-41
0.073341466 -0.12266256 -0.067461804 6.4752461e-40
0.075584225 -0.12364738 -0.07140334 5.5532898e-40
0.07802368 -0.12513812 -0.077369884 1.4349296e-42
0.080304347 -0.12614109 -0.081384256 7.1746481e-43
0.082512356 -0.12691309 -0.084474042 2.1579996e-42
0.084435962 -0.12691309 -0.084474042 1.8583039e-40
0.086743616 -0.12789918 -0.088420823 3.5873241e-43
0.089067958 -0.12889244 -0.092396215 9.2558566e-41
0.092425026 -0.13241051 -0.10647698 1.847542e-40
0.094795652 -0.13340546 -0.11045916 9.2561369e-41
0.09676481 -0.13340546 -0.11045916 1.84757e-40
0.099052764 -0.13415633 -0.11346443 3.6842939e-40
-0.089939229 -0.10542886 0.008560583 9.7716494e-39
-0.088178746 -0.10542886 0.008560583 1.4747629e-39
-0.086221956 -0.10467763 0.011546299 2.7694142e-40
-0.084270455 -0.10390608 0.014612898 3.5873241e-43
-0.082520597 -0.10390608 0.014612898 4.6277041e-40
-0.080770724 -0.10390608 0.014612898 2.5111268e-42
-0.079020858 -0.10390608 0.014612898 9.4350827e-41
-0.0771029 -0.10316391 0.017562672 4.6277041e-40
-0.075358205 -0.10316391 0.017562672 9.2194229e-41
-0.07361351 -0.10316391 0.017562672 9.2050736e-40
-0.071712099 -0.10240157 0.020592555 1.1960138e-39
-0.069822229 -0.10164386 0.02360408 1.5647964e-39
-0.068088122 -0.10164386 0.02360408 2.4856779e-39
-0.066354021 -0.10164386 0.02360408 2.4856793e-39
-0.064529173 -0.1011332 0.025633737 2.1168996e-39
-0.062798627 -0.1011332 0.025633737 2.0261459e-39
-0.061068084 -0.1011332 0.025633737 2.1190604e-39
-0.059337538 -0.1011332 0.025633737 1.836752e-40
-0.057494622 -0.10038316 0.028614745 2.7658969e-40
-0.055769302 -0.10038316 0.028614745 9.2231923e-40
-0.054043982 -0.10038316 0.028614745 1.847542e-40
-0.052222554 -0.099637643 0.031577811 1.847542e-40
-0.050502431 -0.099637643 0.031577811 1.3829344e-39
-0.048782308 -0.099637643 0.031577811 1.6595213e-39
-0.047062185 -0.099637643 0.031577811 2.3056068e-39
-0.045264777 -0.098872766 0.034617826 2.3066858e-39
-0.043549981 -0.098872766 0.034617826 1.8457077e-39
-0.041835189 -0.098872766 0.034617826 1.753512e-39
-0.040120397 -0.098872766 0.034617826 1.8457049e-39
-0.038351718 -0.098136306 0.037544891 1.2914521e-39
-0.036642056 -0.098136306 0.037544891 8.3047393e-40
-0.034932394 -0.098136306 0.037544891 1.6598745e-39
-0.033195559 -0.09761633 0.039611563 1.1063448e-39
-0.031489518 -0.09761633 0.039611563 2.2130482e-39
-0.029754644 -0.096863925 0.042601988 1.751354e-39
-0.028053848 -0.096863925 0.042601988 8.2939493e-40
-0.026334817 -0.096116111 0.045574173 7.3647763e-40
-0.024639232 -0.096116111 0.045574173 2.7550649e-40
-0.02293564 -0.095349744 0.048620149 2.7550649e-40
-0.021245398 -0.095349744 0.048620149 1.9353697e-39
-0.019556846 -0.094864532 0.050548598 6.4464214e-40
-0.017877914 -0.094106004 0.053563401 2.7622395e-40
-0.016196338 -0.094106004 0.053563401 9.2552961e-41
-0.014514766 -0.094106004 0.053563401 2.7694142e-40
-0.01283319 -0.094106004 0.053563401 1.5680306e-39
-0.011151616 -0.094106004 0.053563401 2.3974353e-39
-0.00947004 -0.094106004 0.053563401 1.6598745e-39
-0.0077884649 -0.094106004 0.053563401 2.7658409e-40
-0.0061068903 -0.094106004 0.053563401 0
-0.0044253157 -0.094106004 0.053563401 7.371993e-40
-0.0027437401 -0.094106004 0.053563401 4.5953621e-40
0.0023009847 -0.094106004 0.053563401 1.1960138e-39
0.003906393 -0.093352199 0.056559369 3.4079845e-39
0.005582714 -0.093352199 0.056559369 8.5709454e-39
0.0073457095 -0.094106004 0.053563401 9.4007144e-39
0.0090272846 -0.094106004 0.053563401 7.4656908e-39
0.010806649 -0.094864532 0.050548598 4.5139957e-39
0.012559445 -0.095349744 0.048620149 2.210184e-39
0.014249687 -0.095349744 0.048620149 2.0257941e-39
0.016166793 -0.096863925 0.042601988 2.1187086e-39
0.01806709 -0.098136306 0.037544891 2.0272333e-39
0.019776752 -0.098136306 0.037544891 2.4889303e-39
0.021612147 -0.098872766 0.034617826 1.8442797e-39
0.02346286 -0.099637643 0.031577811 2.0297486e-39
0.025182983 -0.099637643 0.031577811 1.9375502e-39
0.027045975 -0.10038316 0.028614745 1.2928968e-39
0.028920254 -0.1011332 0.025633737 1.292894e-39
0.030911544 -0.10240157 0.020592555 1.6620325e-39
0.033134691 -0.10467763 0.011546299 1.569118e-39
0.034889936 -0.10467763 0.011546299 9.2374856e-40
0.036815319 -0.10542886 0.008560583 1.4751273e-39
0.038923752 -0.10691936 0.0026365966 1.5673229e-39
0.040878456 -0.107684 -0.00040252507 1.6595185e-39
0.042654648 -0.107684 -0.00040252507 1.4751273e-39
0.044626512 -0.10845329 -0.0034600049 1.1992593e-39
0.046603553 -0.10920133 -0.0064330846 1.1070636e-39
0.049872205 -0.11472471 -0.028385833 1.1992593e-39
0.051697463 -0.11472471 -0.028385833 1.4758461e-39
0.053951882 -0.11624531 -0.034429505 1.9368243e-39
0.055787735 -0.11624531 -0.034429505 7.382811e-40
0.057623595 -0.11624531 -0.034429505 5.5389265e-40
0.059992857 -0.11800493 -0.041423157 6.4680854e-40
0.062307067 -0.11950795 -0.047396973 3.6914546e-40
0.064728551 -0.12128322 -0.054452732 1.0818024e-42
0.067089416 -0.12279506 -0.060461596 9.2558566e-41
0.069304489 -0.12380283 -0.064466909 3.5873241e-43
0.071447693 -0.12455635 -0.067461804 7.1746481e-43
0.073341466 -0.12455635 -0.067461804 9.4350827e-41
0.075852834 -0.12631132 -0.074436978 1.8618632e-40
0.07802368 -0.12704925 -0.077369884 7.1746481e-43
0.080304347 -0.12805928 -0.081384256 3.5873241e-43
0.082512356 -0.12883668 -0.084474042 1.0789998e-42
0.084813096 -0.12982969 -0.088420823 1.4391335e-42
0.086743616 -0.12982969 -0.088420823 3.5873241e-43
0.089067958 -0.13082992 -0.092396215 2.8025969e-45
0.092013977 -0.13334687 -0.1023999 2.8025969e-45
0.094795652 -0.13537462 -0.11045916 5.6051939e-45
0.097078331 -0.13613077 -0.11346443 5.6051939e-45
0.099052764 -0.13613077 -0.11346443 5.6051939e-45
-0.091487698 -0.1064329 0.011546299 1.1523009e-38
-0.089732446 -0.1064329 0.011546299 9.7709319e-39
-0.087977208 -0.1064329 0.011546299 1.1049028e-39
-0.086221956 -0.1064329 0.011546299 3.6734198e-40
-0.084270455 -0.10565595 0.014612898 2.7622395e-40
-0.082520597 -0.10565595 0.014612898 5.5317098e-40
-0.080770724 -0.10565595 0.014612898 1.1070636e-39
-0.079020858 -0.10565595 0.014612898 1.5680418e-39
-0.0771029 -0.1049086 0.017562672 7.3756224e-40
-0.075358205 -0.1049086 0.017562672 9.2015143e-40
-0.07361351 -0.1049086 0.017562672 8.268782e-40
-0.071712099 -0.10414095 0.020592555 6.4356594e-40
-0.069972716 -0.10414095 0.020592555 1.01271e-39
-0.068088122 -0.10337795 0.02360408 1.3814925e-39
-0.066354021 -0.10337795 0.02360408 1.5658838e-39
-0.064529173 -0.10286374 0.025633737 2.3027327e-39
-0.062798627 -0.10286374 0.025633737 3.0402978e-39
-0.061068084 -0.10286374 0.025633737 1.9328712e-39
-0.059337538 -0.10286374 0.025633737 3.1314144e-39
-0.057494622 -0.10210848 0.028614745 1.4729721e-39
-0.055769302 -0.10210848 0.028614745 1.1049084e-39
-0.054043982 -0.10210848 0.028614745 2.3041719e-39
-0.052222554 -0.10135777 0.031577811 5.5324567e-39
-0.050502431 -0.10135777 0.031577811 7.8380677e-39
-0.048782308 -0.10135777 0.031577811 2.3985255e-39
-0.047062185 -0.10135777 0.031577811 2.1205023e-39
-0.045264777 -0.10058756 0.034617826 2.3041747e-39
-0.043549981 -0.10058756 0.034617826 2.6729544e-39
-0.041835189 -0.10058756 0.034617826 2.2130482e-39
-0.040061377 -0.099845976 0.037544891 1.4762007e-39
-0.038351718 -0.099845976 0.037544891 1.8449832e-39
-0.036642056 -0.099845976 0.037544891 2.1215701e-39
-0.034932394 -0.099845976 0.037544891 1.2914521e-39
-0.033195559 -0.099322364 0.039611563 2.2134112e-39
-0.031489518 -0.099322364 0.039611563 2.7665878e-39
-0.029754644 -0.098564714 0.042601988 2.6736761e-39
-0.028053848 -0.098564714 0.042601988 1.198546e-39
-0.026334817 -0.097811699 0.045574173 1.3822156e-39
-0.024639232 -0.097811699 0.045574173 3.6841958e-40
-0.02293564 -0.097039983 0.048620149 1.198176e-39
-0.021245398 -0.097039983 0.048620149 9.2194229e-41
-0.019556846 -0.096551389 0.050548598 6.4607706e-40
-0.017869985 -0.096551389 0.050548598 1.8510592e-40
-0.016196338 -0.09578757 0.053563401 9.2911693e-41
-0.014514766 -0.09578757 0.053563401 5.5388284e-40
-0.01283319 -0.09578757 0.053563401 9.2266115e-40
-0.011151616 -0.09578757 0.053563401 6.4571833e-40
-0.00947004 -0.09578757 0.053563401 5.5280664e-40
-0.0077884649 -0.09578757 0.053563401 6.4500367e-40
-0.0061068903 -0.09578757 0.053563401 9.1835496e-41
-0.0044253157 -0.09578757 0.053563401 4.5953621e-40
-0.0027437401 -0.09578757 0.053563401 9.2051156e-40
-0.0010621645 -0.09578757 0.053563401 1.3811296e-39
0.00055374898 -0.09502852 0.056559369 1.3807736e-39
0.0022300701 -0.09502852 0.056559369 2.02542e-39
0.003906393 -0.09502852 0.056559369 3.3161588e-39
0.005582714 -0.09502852 0.056559369 4.6068976e-39
0.0073457095 -0.09578757 0.053563401 5.9916285e-39
0.0090272846 -0.09578757 0.053563401 6.7288362e-39
0.010806649 -0.096551389 0.050548598 4.1466425e-39
0.012493511 -0.096551389 0.050548598 2.7637137e-39
0.014249687 -0.097039983 0.048620149 2.5789679e-39
0.016054751 -0.097811699 0.045574173 2.3949424e-39
0.017985558 -0.099322364 0.039611563 5.5175426e-40
0.019776752 -0.099845976 0.037544891 2.5811399e-39
0.021612147 -0.10058756 0.034617826 5.5391507e-40
0.02346286 -0.10135777 0.031577811 5.553514e-40
0.025182983 -0.10135777 0.031577811 2.5349489e-42
0.027045975 -0.10210848 0.028614745 2.8605939e-39
0.028920254 -0.10286374 0.025633737 2.1219414e-39
0.030911544 -0.10414095 0.020592555 2.3056068e-39
0.033134691 -0.1064329 0.011546299 1.7513512e-39
0.034889936 -0.1064329 0.011546299 1.1981803e-39
0.036815319 -0.10718934 0.008560583 7.3649445e-40
0.038923752 -0.10869022 0.0026365966 7.3721612e-40
0.040878456 -0.10946019 -0.00040252507 8.2940894e-40
0.042654648 -0.10946019 -0.00040252507 8.2940894e-40
0.044626512 -0.11023484 -0.0034600049 7.3721191e-40
0.046603553 -0.1109881 -0.0064330846 6.4537221e-40
0.049669981 -0.11579098 -0.025390103 5.5317658e-40
0.051489986 -0.11579098 -0.025390103 4.6097815e-40
0.053951882 -0.11808117 -0.034429505 2.7658689e-40
0.055787735 -0.11808117 -0.034429505 1.8439126e-40
0.057623595 -0.11808117 -0.034429505 9.219563e-41
0.059992857 -0.11985306 -0.041423157 3.5873241e-43
0.062307067 -0.12136655 -0.047396973 0
0.064728551 -0.12315418 -0.054452732 7.1886611e-43
0.067089416 -0.12467657 -0.060461596 1.8439406e-40
0.069304489 -0.12569134 -0.064466909 1.8511013e-40
0.071447693 -0.12645011 -0.067461804 7.1746481e-43
0.073683552 -0.12744872 -0.07140334 7.1746481e-43
0.075584225 -0.12744872 -0.07140334 7.1746481e-43
0.07802368 -0.12896039 -0.077369884 7.1746481e-43
0.080304347 -0.12997745 -0.081384256 7.1746481e-43
0.082512356 -0.13076027 -0.084474042 7.1746481e-43
0.084813096 -0.13176022 -0.088420823 7.1886611e-43
0.086743616 -0.13176022 -0.088420823 9.219563e-41
0.089067958 -0.13276742 -0.092396215 2.8025969e-45
0.091716923 -0.13455538 -0.099453285 9.1842503e-41
0.094387196 -0.13633488 -0.10647698 9.1843904e-41
0.09676481 -0.13734378 -0.11045916 1.8403953e-40
0.099052764 -0.1381052 -0.11346443 9.1843904e-41
0.10144833 -0.13909473 -0.11737008 9.8090893e-45
0.10342962 -0.13909473 -0.11737008 1.4747812e-39
0.10497605 -0.1381052 -0.11346443 4.2406472e-39
-0.091487698 -0.10818814 0.011546299 1.1706684e-38
-0.089732446 -0.10818814 0.011546299 9.770576e-39
-0.087977208 -0.10818814 0.011546299 5.5173184e-40
-0.086221956 -0.10818814 0.011546299 2.7550649e-40
-0.084270455 -0.10740583 0.014612898 5.5281084e-40
-0.082520597 -0.10740583 0.014612898 5.5317098e-40
-0.080770724 -0.10740583 0.014612898 2.7730295e-40
-0.079020858 -0.10740583 0.014612898 6.4608547e-40
-0.0771029 -0.10665329 0.017562672 4.6097535e-40
-0.075358205 -0.10665329 0.017562672 1.1041896e-39
-0.073451482 -0.10588033 0.020592555 1.0109149e-39
-0.071712099 -0.10588033 0.020592555 8.2760267e-40
-0.069972716 -0.10588033 0.020592555 8.290418e-40
-0.068088122 -0.10511206 0.02360408 8.290418e-40
-0.066354021 -0.10511206 0.02360408 5.5317378e-40
-0.064619921 -0.10511206 0.02360408 1.0127128e-39
-0.062798627 -0.10459428 0.025633737 1.5651677e-39
-0.061068084 -0.10459428 0.025633737 5.2519139e-39
-0.059337538 -0.10459428 0.025633737 1.9818105e-38
-0.057494622 -0.10383381 0.028614745 2.0002496e-38
-0.055769302 -0.10383381 0.028614745 1.7882715e-38
-0.054043982 -0.10383381 0.028614745 2.1941841e-38
-0.052222554 -0.1030779 0.031577811 2.341805e-38
-0.050502431 -0.1030779 0.031577811 1.9179928e-38
-0.048782308 -0.1030779 0.031577811 3.7094332e-40
-0.047062185 -0.1030779 0.031577811 9.1841101e-41
-0.045264777 -0.10230236 0.034617826 2.7551209e-40
-0.043549981 -0.10230236 0.034617826 1.2892997e-39
-0.041835189 -0.10230236 0.034617826 1.56696e-39
-0.040061377 -0.10155563 0.037544891 3.6985311e-40
-0.038351718 -0.10155563 0.037544891 1.0761972e-42
-0.036642056 -0.10155563 0.037544891 4.6276901e-40
-0.034932394 -0.10155563 0.037544891 8.322718e-40
-0.033195559 -0.1010284 0.039611563 6.4752741e-40
-0.031489518 -0.1010284 0.039611563 4.6313895e-40
-0.029754644 -0.10026552 0.042601988 1.845e-39
-0.028053848 -0.10026552 0.042601988 1.5684131e-39
-0.026334817 -0.099507287 0.045574173 1.936474e-39
-0.024639232 -0.099507287 0.045574173 3.6914546e-40
-0.022943651 -0.099507287 0.045574173 8.2976067e-40
-0.021245398 -0.098730221 0.048620149 1.1988963e-39
-0.019556846 -0.09823826 0.050548598 1.0152169e-39
-0.017869985 -0.09823826 0.050548598 7.3898876e-40
-0.016196338 -0.097469151 0.053563401 8.3082566e-40
-0.014514766 -0.097469151 0.053563401 1.0152169e-39
-0.01283319 -0.097469151 0.053563401 1.1070524e-39
-0.011151616 -0.097469151 0.053563401 7.3791396e-40
-0.00947004 -0.097469151 0.053563401 7.371979e-40
-0.0077884649 -0.097469151 0.053563401 9.2158916e-40
-0.0061068903 -0.097469151 0.053563401 9.2051156e-40
-0.0044253157 -0.097469151 0.053563401 8.2831593e-40
-0.0027988967 -0.096704841 0.056559369 1.0119911e-39
-0.0011225739 -0.096704841 0.056559369 1.1963824e-39
0.00055374898 -0.096704841 0.056559369 1.2885808e-39
0.0021809074 -0.09617497 0.058636412 1.5651677e-39
0.0037782225 -0.095418736 0.061600789 2.5782406e-39
0.0054457053 -0.095418736 0.061600789 3.3168819e-39
0.0072590369 -0.096704841 0.056559369 2.0272164e-39
0.0090272846 -0.097469151 0.053563401 2.7647787e-39
0.010708858 -0.097469151 0.053563401 2.9484553e-39
0.012390432 -0.097469151 0.053563401 2.7637109e-39
0.014249687 -0.098730221 0.048620149 1.3804247e-39
0.01593993 -0.098730221 0.048620149 2.8559233e-39
0.017985558 -0.1010284 0.039611563 4.2395823e-39
0.019776752 -0.10155563 0.037544891 7.2831198e-39
0.021612147 -0.10230236 0.034617826 1.5684299e-39
0.02346286 -0.1030779 0.031577811 1.8202867e-42
0.025182983 -0.1030779 0.031577811 2.399264e-39
0.026903106 -0.1030779 0.031577811 1.0881616e-38
0.028771294 -0.10383381 0.028614745 1.2263464e-38
0.030755779 -0.10511206 0.02360408 5.9927159e-39
0.033134691 -0.10818814 0.011546299 9.2015143e-40
0.034889936 -0.10818814 0.011546299 3.6734198e-40
0.036986466 -0.10971604 0.0055571049 3.6771473e-40
0.038923752 -0.11046107 0.0026365966 2.7588484e-40
0.040878456 -0.11123641 -0.00040252507 3.6807767e-40
0.042654648 -0.11123641 -0.00040252507 3.684336e-40
0.044626512 -0.11201639 -0.0034600049 2.7623797e-40
0.046408072 -0.11201639 -0.0034600049 1.8403813e-40
0.048189625 -0.11201639 -0.0034600049 9.1842503e-41
0.051489986 -0.11761098 -0.025390103 2.8025969e-45
0.053951882 -0.11991702 -0.034429505 1.8439126e-40
0.055787735 -0.11991702 -0.034429505 9.219563e-41
0.057842605 -0.12066682 -0.037368611 0
0.059683613 -0.12066682 -0.037368611 0
0.062073365 -0.12246101 -0.044401601 0
0.064405985 -0.12399365 -0.050409392 0
0.067089416 -0.12655805 -0.060461596 9.2198432e-41
0.069304489 -0.12757985 -0.064466909 1.8439126e-40
0.071447693 -0.1283439 -0.067461804 9.2552961e-41
0.073341466 -0.1283439 -0.067461804 9.2552961e-41
0.075584225 -0.12934943 -0.07140334 9.2552961e-41
0.077758841 -0.13012333 -0.074436978 9.2552961e-41
0.080304347 -0.13189565 -0.081384256 9.2194229e-41
0.082512356 -0.13268389 -0.084474042 9.2194229e-41
0.084435962 -0.13268389 -0.084474042 9.219563e-41
0.086743616 -0.13369073 -0.088420823 9.219563e-41
0.089368187 -0.13547809 -0.095426992 2.8025969e-45
0.091716923 -0.13650523 -0.099453285 1.8403813e-40
0.094387196 -0.13829704 -0.10647698 7.0064923e-45
0.09676481 -0.13931294 -0.11045916 7.0064923e-45
0.099052764 -0.14007963 -0.11346443 9.8090893e-45
0.1010272 -0.14007963 -0.11346443 9.8090893e-45
0.10300163 -0.14007963 -0.11346443 1.6591724e-39
-0.091269933 -0.10915567 0.014612898 1.2167662e-38
-0.08952006 -0.10915567 0.014612898 9.6790992e-39
-0.087977208 -0.10994337 0.011546299 2.7550649e-40
-0.086221956 -0.10994337 0.011546299 2.7550649e-40
-0.084270455 -0.10915567 0.014612898 1.013789e-39
-0.082520597 -0.10915567 0.014612898 6.4536661e-40
-0.080770724 -0.10915567 0.014612898 3.5873241e-43
-0.079020858 -0.10915567 0.014612898 3.5873241e-43
-0.0771029 -0.10839801 0.017562672 1.8438846e-40
-0.075358205 -0.10839801 0.017562672 1.2885808e-39
-0.073451482 -0.10761972 0.020592555 1.1953062e-39
-0.071712099 -0.10761972 0.020592555 1.0119939e-39
-0.069822229 -0.10684617 0.02360408 7.3684617e-40
-0.068088122 -0.10684617 0.02360408 5.5245491e-40
-0.066354021 -0.10684617 0.02360408 9.219563e-41
-0.064619921 -0.10684617 0.02360408 2.7550649e-40
-0.062798627 -0.10632484 0.025633737 3.6734198e-40
-0.061068084 -0.10632484 0.025633737 8.0177828e-39
-0.059337538 -0.10632484 0.025633737 1.9818105e-38
-0.057494622 -0.10555913 0.028614745 2.138543e-38
-0.055769302 -0.10555913 0.028614745 2.1386149e-38
-0.054043982 -0.10555913 0.028614745 2.3140384e-38
-0.052222554 -0.104798 0.031577811 2.3234018e-38
-0.050502431 -0.104798 0.031577811 1.9086653e-38
-0.048782308 -0.104798 0.031577811 2.4914428e-39
-0.047062185 -0.104798 0.031577811 4.6062642e-40
-0.045264777 -0.10401715 0.034617826 5.5210319e-40
-0.043549981 -0.10401715 0.034617826 6.4465335e-40
-0.041835189 -0.10401715 0.034617826 0
-0.040120397 -0.10401715 0.034617826 3.5873241e-43
-0.038351718 -0.1032653 0.037544891 7.1746481e-43
-0.036642056 -0.1032653 0.037544891 4.6348928e-40
-0.034932394 -0.1032653 0.037544891 1.8762546e-40
-0.033222735 -0.1032653 0.037544891 3.7202232e-40
-0.031489518 -0.10273445 0.039611563 4.6386202e-40
-0.029754644 -0.10196631 0.042601988 3.0442649e-39
-0.028053848 -0.10196631 0.042601988 1.3847435e-39
-0.026353056 -0.10196631 0.042601988 1.6606115e-39
-0.024639232 -0.10120286 0.045574173 1.2918262e-39
-0.022943651 -0.10120286 0.045574173 4.6134389e-40
-0.021248069 -0.10120286 0.045574173 4.6169421e-40
-0.019555155 -0.10042046 0.048620149 8.3082846e-40
-0.017869985 -0.099925116 0.050548598 8.3082566e-40
-0.016183125 -0.099925116 0.050548598 9.2302409e-40
-0.014496264 -0.099925116 0.050548598 9.2302409e-40
-0.012809403 -0.099925116 0.050548598 7.3791396e-40
-0.011151616 -0.099150717 0.053563401 2.7694142e-40
-0.00947004 -0.099150717 0.053563401 3.6841818e-40
-0.0077884649 -0.099150717 0.053563401 6.4500367e-40
-0.0061515397 -0.098381177 0.056559369 1.3814925e-39
-0.0044752178 -0.098381177 0.056559369 1.1049056e-39
-0.0027988967 -0.098381177 0.056559369 9.2051717e-40
-0.0011225739 -0.098381177 0.056559369 1.1049084e-39
0.00055374898 -0.098381177 0.056559369 1.3807793e-39
0.0021809074 -0.097847655 0.058636412 1.6573661e-39
0.0037782225 -0.097086221 0.061600789 2.1183443e-39
0.0054457053 -0.097086221 0.061600789 2.6715153e-39
0.0072590369 -0.098381177 0.056559369 1.4736853e-39
0.0089353574 -0.098381177 0.056559369 1.7506296e-39
0.01061168 -0.098381177 0.056559369 2.6718684e-39
0.012288001 -0.098381177 0.056559369 2.486045e-39
0.014180371 -0.099925116 0.050548598 1.5637356e-39
0.01593993 -0.10042046 0.048620149 5.8976547e-39
0.01806709 -0.1032653 0.037544891 8.0188786e-39
0.019776752 -0.1032653 0.037544891 8.5734915e-39
0.021612147 -0.10401715 0.034617826 2.858803e-39
0.023326943 -0.10401715 0.034617826 2.2152301e-39
0.025182983 -0.104798 0.031577811 6.6406175e-39
0.026903106 -0.104798 0.031577811 1.5214088e-38
0.028771294 -0.10555913 0.028614745 1.6964362e-38
0.030755779 -0.10684617 0.02360408 6.6373665e-39
0.033134691 -0.10994337 0.011546299 1.0109121e-39
0.034889936 -0.10994337 0.011546299 1.1031106e-39
0.036986466 -0.11148177 0.0055571049 9.1845305e-41
0.038923752 -0.11223195 0.0026365966 1.5414283e-44
0.040878456 -0.1130126 -0.00040252507 9.1849509e-41
0.042654648 -0.1130126 -0.00040252507 9.1846707e-41
0.044626512 -0.11379795 -0.0034600049 9.8090893e-45
0.046408072 -0.11379795 -0.0034600049 5.6051939e-45
0.048189625 -0.11379795 -0.0034600049 5.6051939e-45
0.052319579 -0.12250783 -0.037368611 2.8025969e-45
0.053951882 -0.12175287 -0.034429505 9.219563e-41
0.055787735 -0.12175287 -0.034429505 0
0.057623595 -0.12175287 -0.034429505 0
0.059683613 -0.12250783 -0.037368611 0
0.062073365 -0.12431435 -0.044401601 0
0.064405985 -0.12585752 -0.050409392 0
0.066839166 -0.12765111 -0.057392076 2.8025969e-45
0.069304489 -0.1294684 -0.064466909 9.219563e-41
0.071447693 -0.13023765 -0.067461804 9.2194229e-41
0.073341466 -0.13023765 -0.067461804 9.2194229e-41
0.075584225 -0.1312501 -0.07140334 9.2194229e-41
0.077758841 -0.13202934 -0.074436978 9.2194229e-41
0.080304347 -0.13381381 -0.081384256 9.219563e-41
0.082512356 -0.13460748 -0.084474042 9.219563e-41
0.084435962 -0.13460748 -0.084474042 9.219563e-41
0.086743616 -0.13562126 -0.088420823 9.219563e-41
0.089767046 -0.13845511 -0.099453285 9.2198432e-41
0.091716923 -0.13845511 -0.099453285 1.8439406e-40
0.094387196 -0.14025922 -0.10647698 5.6051939e-45
0.096349381 -0.14025922 -0.10647698 5.6051939e-45
0.098733969 -0.1412821 -0.11045916 7.0064923e-45
0.10070314 -0.1412821 -0.11045916 9.1843904e-41
0.10300163 -0.14205404 -0.11346443 2.0279521e-39
-0.091269933 -0.11090554 0.014612898 1.2537164e-38
-0.08952006 -0.11090554 0.014612898 9.4947079e-39
-0.087977208 -0.11169861 0.011546299 3.6841958e-40
-0.086221956 -0.11169861 0.011546299 2.7622395e-40
-0.084270455 -0.11090554 0.014612898 1.1063448e-39
-0.082520597 -0.11090554 0.014612898 6.4608547e-40
-0.080592297 -0.11014269 0.017562672 7.1746481e-43
-0.078847595 -0.11014269 0.017562672 1.0761972e-42
-0.0771029 -0.11014269 0.017562672 7.1746481e-43
-0.075358205 -0.11014269 0.017562672 1.1041896e-39
-0.073451482 -0.1093591 0.020592555 1.1031106e-39
-0.071712099 -0.1093591 0.020592555 8.2760267e-40
-0.069822229 -0.10858028 0.02360408 5.5245491e-40
-0.068088122 -0.10858028 0.02360408 4.6097815e-40
-0.066354021 -0.10858028 0.02360408 2.7658689e-40
-0.064619921 -0.10858028 0.02360408 4.5953902e-40
-0.062798627 -0.10805537 0.025633737 4.5917888e-40
-0.061068084 -0.10805537 0.025633737 7.0958265e-39
-0.059337538 -0.10805537 0.025633737 2.138543e-38
-0.057494622 -0.10728444 0.028614745 2.1754213e-38
-0.055769302 -0.10728444 0.028614745 1.7606128e-38
-0.053942677 -0.10651813 0.031577811 1.9821342e-38
-0.052222554 -0.10651813 0.031577811 2.341805e-38
-0.050409153 -0.10573195 0.034617826 2.0100805e-38
-0.048694361 -0.10573195 0.034617826 1.6966157e-38
-0.047062185 -0.10651813 0.031577811 1.7332427e-38
-0.045264777 -0.10573195 0.034617826 1.834586e-38
-0.043549981 -0.10573195 0.034617826 1.7609368e-38
-0.041835189 -0.10573195 0.034617826 1.5212995e-38
-0.040061377 -0.10497494 0.037544891 1.4475427e-38
-0.038351718 -0.10497494 0.037544891 1.5767962e-38
-0.036642056 -0.10497494 0.037544891 1.4846008e-38
-0.034932394 -0.10497494 0.037544891 1.106671e-38
-0.033222735 -0.10497494 0.037544891 1.0698293e-38
-0.031489518 -0.10444047 0.039611563 1.106708e-38
-0.029754644 -0.1036671 0.042601988 1.0605748e-38
-0.028053848 -0.1036671 0.042601988 1.7542491e-39
-0.026353056 -0.1036671 0.042601988 3.7134409e-43
-0.024652261 -0.1036671 0.042601988 3.7131186e-40
-0.022943651 -0.10289843 0.045574173 7.3937131e-40
-0.021248069 -0.10289843 0.045574173 9.2339823e-40
-0.019555155 -0.1021107 0.048620149 4.6277041e-40
-0.017869985 -0.10161197 0.050548598 5.5424157e-40
-0.016183125 -0.10161197 0.050548598 5.5424157e-40
-0.014496264 -0.10161197 0.050548598 5.5424437e-40
-0.012809403 -0.10161197 0.050548598 4.6132988e-40
-0.011151616 -0.1008323 0.053563401 2.7694142e-40
-0.00947004 -0.1008323 0.053563401 1.8402972e-40
-0.0077884649 -0.1008323 0.053563401 1.8402972e-40
-0.0061515397 -0.1000575 0.056559369 1.01271e-39
-0.0044752178 -0.1000575 0.056559369 9.2051436e-40
-0.0027988967 -0.1000575 0.056559369 1.0127128e-39
-0.0011225739 -0.1000575 0.056559369 1.2892997e-39
0.00050822593 -0.099520341 0.058636412 1.5651705e-39
0.0021107397 -0.098753691 0.061600789 1.7495618e-39
0.0037782225 -0.098753691 0.061600789 2.3949312e-39
0.0054457053 -0.098753691 0.061600789 3.0402978e-39
0.0071989479 -0.099520341 0.058636412 1.1970984e-39
0.0089353574 -0.1000575 0.056559369 1.8424679e-39
0.01061168 -0.1000575 0.056559369 2.6704335e-39
0.012288001 -0.1000575 0.056559369 3.4080013e-39
0.014180371 -0.10161197 0.050548598 8.3865681e-39
0.01593993 -0.1021107 0.048620149 1.8066753e-38
0.01806709 -0.10497494 0.037544891 1.8898313e-38
0.019776752 -0.10497494 0.037544891 1.6963647e-38
0.021612147 -0.10573195 0.034617826 1.7517181e-38
