# .PCD v0.7 - Point Cloud Data file format
VERSION 0.7
FIELDS x y z rgb
SIZE 4 4 4 4
TYPE F F F F
COUNT 1 1 1 1
WIDTH 912
HEIGHT 1
VIEWPOINT 0 0 0 1 0 0 0
POINTS 912
DATA ascii
-0.015207509 -0.083971798 -0.0071690492 2.3050347e-38
-0.013394397 -0.083971798 -0.0071690492 2.3326213e-38
-0.011628624 -0.0826305 -0.0011690073 2.3509886e-38
-0.0098260324 -0.0826305 -0.0011690073 2.3509886e-38
-0.0080234399 -0.0826305 -0.0011690073 2.3509168e-38
1.5447033e-05 -0.092691094 -0.046172779 2.3232583e-38
0.0015731232 -0.089100882 -0.030112784 2.3509527e-38
0.0034264643 -0.089100882 -0.030112784 2.3509886e-38
0.0052798036 -0.089100882 -0.030112784 2.3509886e-38
0.0070574228 -0.088435039 -0.02713434 2.3325138e-38
0.0089055412 -0.088435039 -0.02713434 2.3417333e-38
0.010753658 -0.088435039 -0.02713434 2.341805e-38
0.012877503 -0.090443924 -0.036120575 2.341805e-38
0.015067438 -0.092691094 -0.046172779 2.341805e-38
0.016948937 -0.092691094 -0.046172779 2.3233662e-38
0.018830435 -0.092691094 -0.046172779 2.3049273e-38
0.020711934 -0.092691094 -0.046172779 2.3325856e-38
0.022356382 -0.091347814 -0.040163916 2.341805e-38
0.024060747 -0.090443924 -0.036120575 2.341805e-38
0.025924621 -0.090443924 -0.036120575 2.3509886e-38
0.027653811 -0.089770496 -0.033108156 2.3509886e-38
0.029373227 -0.089100882 -0.030112784 2.3509886e-38
0.031226566 -0.089100882 -0.030112784 2.3509886e-38
0.033582166 -0.091347814 -0.040163916 2.3509883e-38
0.035605159 -0.092004895 -0.043103259 2.3509883e-38
0.037481278 -0.092004895 -0.043103259 2.3509883e-38
0.039526924 -0.092691094 -0.046172779 2.3509883e-38
0.041066017 -0.091347814 -0.040163916 2.3418045e-38
0.042936977 -0.091347814 -0.040163916 2.3418045e-38
0.044563364 -0.090443924 -0.036120575 2.341805e-38
0.046427239 -0.090443924 -0.036120575 2.341805e-38
0.048291113 -0.090443924 -0.036120575 2.3509527e-38
0.05015498 -0.090443924 -0.036120575 2.3509527e-38
0.052018855 -0.090443924 -0.036120575 2.3509527e-38
0.053882729 -0.090443924 -0.036120575 2.3509527e-38
0.055746604 -0.090443924 -0.036120575 2.3509883e-38
0.057610478 -0.090443924 -0.036120575 2.350988e-38
0.059775647 -0.091347814 -0.040163916 2.3048905e-38
0.061646614 -0.091347814 -0.040163916 2.341805e-38
0.063202098 -0.090443924 -0.036120575 2.2681214e-38
0.065065973 -0.090443924 -0.036120575 1.4291427e-38
0.067259498 -0.091347814 -0.040163916 1.4758854e-39
-0.10510758 -0.088707477 -0.020140689 8.482714e-39
-0.10327173 -0.088707477 -0.020140689 7.1919752e-39
-0.10143588 -0.088707477 -0.020140689 8.2061271e-39
-0.09960001 -0.088707477 -0.020140689 1.1618444e-38
-0.09828531 -0.090283155 -0.02713434 1.7703356e-38
-0.096653901 -0.090954214 -0.030112784 2.3050703e-38
-0.094800569 -0.090954214 -0.030112784 2.3418047e-38
-0.092947222 -0.090954214 -0.030112784 2.3418047e-38
-0.091296084 -0.091629088 -0.033108156 2.3418047e-38
-0.089437492 -0.091629088 -0.033108156 2.3418047e-38
-0.0875789 -0.091629088 -0.033108156 2.3418047e-38
-0.085720308 -0.091629088 -0.033108156 2.3509886e-38
-0.083680518 -0.090954214 -0.030112784 2.3509886e-38
-0.081827186 -0.090954214 -0.030112784 2.3509886e-38
-0.07889051 -0.086670861 -0.011101287 2.3509886e-38
-0.076853327 -0.085784912 -0.0071690492 2.3509886e-38
-0.075040214 -0.085784912 -0.0071690492 2.3509883e-38
-0.072760247 -0.083751351 0.0018568821 2.3509886e-38
-0.070962958 -0.083751351 0.0018568821 2.3509886e-38
-0.069600873 -0.085784912 -0.0071690492 2.3509886e-38
-0.067970462 -0.086670861 -0.011101287 2.3509527e-38
-0.066150464 -0.086670861 -0.011101287 2.3509527e-38
-0.064330451 -0.086670861 -0.011101287 2.3509527e-38
-0.062633879 -0.087345809 -0.014097016 2.3509168e-38
-0.06069044 -0.086670861 -0.011101287 2.3509527e-38
-0.058722198 -0.085784912 -0.0071690492 2.3509527e-38
-0.056909088 -0.085784912 -0.0071690492 2.3509527e-38
-0.055095974 -0.085784912 -0.0071690492 2.3509165e-38
-0.053282864 -0.085784912 -0.0071690492 2.3509165e-38
-0.051469751 -0.085784912 -0.0071690492 2.3509165e-38
-0.049656637 -0.085784912 -0.0071690492 2.3509521e-38
-0.047950391 -0.086670861 -0.011101287 2.3509521e-38
-0.046130385 -0.086670861 -0.011101287 2.3509521e-38
-0.044310376 -0.086670861 -0.011101287 2.3509524e-38
-0.042556025 -0.087345809 -0.014097016 2.3509883e-38
-0.040730767 -0.087345809 -0.014097016 2.3509883e-38
-0.038905509 -0.087345809 -0.014097016 2.3509883e-38
-0.03703035 -0.086670861 -0.011101287 2.3509527e-38
-0.035210345 -0.086670861 -0.011101287 2.3509886e-38
-0.033390336 -0.086670861 -0.011101287 2.3509886e-38
-0.03157033 -0.086670861 -0.011101287 2.3509886e-38
-0.029750327 -0.086670861 -0.011101287 2.341805e-38
-0.027930319 -0.086670861 -0.011101287 2.341805e-38
-0.026110312 -0.086670861 -0.011101287 2.341805e-38
-0.024303438 -0.087345809 -0.014097016 2.3234379e-38
-0.022478178 -0.087345809 -0.014097016 2.341805e-38
-0.020650292 -0.086670861 -0.011101287 2.341805e-38
-0.018830286 -0.086670861 -0.011101287 2.341805e-38
-0.01702062 -0.085784912 -0.0071690492 2.341805e-38
-0.015207509 -0.085784912 -0.0071690492 2.341805e-38
-0.013394397 -0.085784912 -0.0071690492 2.3509886e-38
-0.011628624 -0.084433094 -0.0011690073 2.3509886e-38
-0.0098260324 -0.084433094 -0.0011690073 2.3509886e-38
-0.0080234399 -0.084433094 -0.0011690073 2.3509886e-38
-0.0062208483 -0.084433094 -0.0011690073 2.3509886e-38
1.5447033e-05 -0.094572589 -0.046172779 2.3509886e-38
0.0015130677 -0.090283155 -0.02713434 2.3509886e-38
0.003361186 -0.090283155 -0.02713434 2.3509886e-38
0.0052093044 -0.090283155 -0.02713434 2.3509886e-38
0.0070574228 -0.090283155 -0.02713434 2.3509886e-38
0.0087953508 -0.089369655 -0.023079794 2.3509886e-38
0.010636359 -0.089369655 -0.023079794 2.3509886e-38
0.012387188 -0.088707477 -0.020140689 2.3509886e-38
0.014223045 -0.088707477 -0.020140689 2.3509886e-38
0.015955286 -0.088024676 -0.01711015 2.3509886e-38
0.017677525 -0.087345809 -0.014097016 2.3509886e-38
0.019502783 -0.087345809 -0.014097016 2.3509886e-38
0.021682413 -0.089369655 -0.023079794 2.3509886e-38
0.023523422 -0.089369655 -0.023079794 2.3509886e-38
0.025364434 -0.089369655 -0.023079794 2.3509886e-38
0.027653811 -0.091629088 -0.033108156 2.3509886e-38
0.029046452 -0.089369655 -0.023079794 2.3509886e-38
0.03088746 -0.089369655 -0.023079794 2.3509886e-38
0.033380117 -0.092307791 -0.036120575 2.3509886e-38
0.035243992 -0.092307791 -0.036120575 2.3509886e-38
0.036946774 -0.091629088 -0.033108156 2.3509886e-38
0.038805366 -0.091629088 -0.033108156 2.3509886e-38
0.040835615 -0.092307791 -0.036120575 2.3509883e-38
0.04269949 -0.092307791 -0.036120575 2.3509883e-38
0.044563364 -0.092307791 -0.036120575 2.3509886e-38
0.04623973 -0.091629088 -0.033108156 2.3509886e-38
0.048098322 -0.091629088 -0.033108156 2.3509886e-38
0.05015498 -0.092307791 -0.036120575 2.3509886e-38
0.052018855 -0.092307791 -0.036120575 2.3509886e-38
0.053674098 -0.091629088 -0.033108156 2.3509886e-38
0.05553269 -0.091629088 -0.033108156 2.3325494e-38
0.057391282 -0.091629088 -0.033108156 2.3509883e-38
0.059249874 -0.091629088 -0.033108156 2.3048907e-38
0.061338227 -0.092307791 -0.036120575 2.3509886e-38
0.062967055 -0.091629088 -0.033108156 2.3141467e-38
0.064825647 -0.091629088 -0.033108156 2.0744384e-38
0.066684254 -0.091629088 -0.033108156 1.0510313e-38
-0.10694344 -0.09054333 -0.020140689 2.350988e-38
-0.10510758 -0.09054333 -0.020140689 2.3418047e-38
-0.10327173 -0.09054333 -0.020140689 2.2680125e-38
-0.10143588 -0.09054333 -0.020140689 2.3234018e-38
-0.09960001 -0.09054333 -0.020140689 2.3234018e-38
-0.09828531 -0.092131287 -0.02713434 2.2681564e-38
-0.096437179 -0.092131287 -0.02713434 2.341805e-38
-0.094589062 -0.092131287 -0.02713434 2.2589368e-38
-0.092947222 -0.092807561 -0.030112784 2.341805e-38
-0.09109389 -0.092807561 -0.030112784 2.3234379e-38
-0.089240544 -0.092807561 -0.030112784 2.341805e-38
-0.087196596 -0.092131287 -0.02713434 2.341805e-38
-0.085348479 -0.092131287 -0.02713434 2.341805e-38
-0.082711734 -0.089171067 -0.014097016 2.341805e-38
-0.080479547 -0.087598026 -0.0071690492 2.3509886e-38
-0.078666434 -0.087598026 -0.0071690492 2.341805e-38
-0.076684244 -0.086902916 -0.0041076355 2.3509527e-38
-0.074719347 -0.086235672 -0.0011690073 2.341805e-38
-0.072760247 -0.085548624 0.0018568821 2.3509527e-38
-0.070962958 -0.085548624 0.0018568821 2.3509527e-38
-0.069311567 -0.086235672 -0.0011690073 2.3509527e-38
-0.067508981 -0.086235672 -0.0011690073 2.3509527e-38
-0.0655711 -0.085548624 0.0018568821 2.3509527e-38
-0.063773811 -0.085548624 0.0018568821 2.3509527e-38
-0.062101208 -0.086235672 -0.0011690073 2.3509527e-38
-0.06029861 -0.086235672 -0.0011690073 2.3509527e-38
-0.058606796 -0.086902916 -0.0041076355 2.3509524e-38
-0.05679905 -0.086902916 -0.0041076355 2.3509524e-38
-0.054991305 -0.086902916 -0.0041076355 2.3509165e-38
-0.053183559 -0.086902916 -0.0041076355 2.3509165e-38
-0.051375818 -0.086902916 -0.0041076355 2.3509165e-38
-0.049656637 -0.087598026 -0.0071690492 2.3509521e-38
-0.047950391 -0.088490874 -0.011101287 2.3509521e-38
-0.046130385 -0.088490874 -0.011101287 2.3509883e-38
-0.044310376 -0.088490874 -0.011101287 2.3509883e-38
-0.042490371 -0.088490874 -0.011101287 2.3509883e-38
-0.040670365 -0.088490874 -0.011101287 2.3509883e-38
-0.03885036 -0.088490874 -0.011101287 2.3509883e-38
-0.03703035 -0.088490874 -0.011101287 2.3509886e-38
-0.035210345 -0.088490874 -0.011101287 2.3509886e-38
-0.033390336 -0.088490874 -0.011101287 2.3509886e-38
-0.03157033 -0.088490874 -0.011101287 2.3509886e-38
-0.029750327 -0.088490874 -0.011101287 2.341805e-38
-0.027899293 -0.087598026 -0.0071690492 2.341805e-38
-0.026086181 -0.087598026 -0.0071690492 2.341805e-38
-0.02427307 -0.087598026 -0.0071690492 2.341805e-38
-0.022470299 -0.088490874 -0.011101287 2.341805e-38
-0.020650292 -0.088490874 -0.011101287 2.341805e-38
-0.018833732 -0.087598026 -0.0071690492 2.3509886e-38
-0.01702062 -0.087598026 -0.0071690492 2.3509886e-38
-0.015220927 -0.086902916 -0.0041076355 2.3509886e-38
-0.013413183 -0.086902916 -0.0041076355 2.3509886e-38
-0.011628624 -0.086235672 -0.0011690073 2.3509886e-38
-0.0098260324 -0.086235672 -0.0011690073 2.3509886e-38
-0.0080234399 -0.086235672 -0.0011690073 2.3509886e-38
-0.0062208483 -0.086235672 -0.0011690073 2.3509886e-38
-0.0043744603 -0.086902916 -0.0041076355 2.3509886e-38
-0.0025667157 -0.086902916 -0.0041076355 2.3509886e-38
-0.00046380225 -0.09054333 -0.020140689 2.3509886e-38
0.0013720525 -0.09054333 -0.020140689 2.3509886e-38
0.0032079089 -0.09054333 -0.020140689 2.3509886e-38
0.0051133335 -0.091210663 -0.023079794 2.3509886e-38
0.0069543421 -0.091210663 -0.023079794 2.3509886e-38
0.0087953508 -0.091210663 -0.023079794 2.3509886e-38
0.010551332 -0.09054333 -0.020140689 2.3509886e-38
0.012201747 -0.089171067 -0.014097016 2.3509886e-38
0.013929835 -0.088490874 -0.011101287 2.3509886e-38
0.015749844 -0.088490874 -0.011101287 2.3509886e-38
0.017569849 -0.088490874 -0.011101287 2.3509886e-38
0.019389855 -0.088490874 -0.011101287 2.3509886e-38
0.021209864 -0.088490874 -0.011101287 2.3509886e-38
0.023029869 -0.088490874 -0.011101287 2.3509886e-38
0.024680959 -0.087598026 -0.0071690492 2.3509886e-38
0.026494073 -0.087598026 -0.0071690492 2.3509886e-38
0.028307186 -0.087598026 -0.0071690492 2.3509886e-38
0.030120296 -0.087598026 -0.0071690492 2.3509886e-38
0.032129906 -0.088490874 -0.011101287 2.3509886e-38
0.033949912 -0.088490874 -0.011101287 2.3509886e-38
0.036627311 -0.092131287 -0.02713434 2.3509886e-38
0.038475432 -0.092131287 -0.02713434 2.3509886e-38
0.040493269 -0.092807561 -0.030112784 2.3509886e-38
0.04252255 -0.09348768 -0.033108156 2.3509886e-38
0.044381138 -0.09348768 -0.033108156 2.3509886e-38
0.04623973 -0.09348768 -0.033108156 2.3509886e-38
0.048098322 -0.09348768 -0.033108156 2.3509886e-38
0.049956914 -0.09348768 -0.033108156 2.3509886e-38
0.052018855 -0.094171658 -0.036120575 2.3509886e-38
0.053674098 -0.09348768 -0.033108156 2.3509886e-38
0.05553269 -0.09348768 -0.033108156 2.2864516e-38
0.057391282 -0.09348768 -0.033108156 2.3509886e-38
0.059249874 -0.09348768 -0.033108156 2.3509886e-38
0.061338227 -0.094171658 -0.036120575 2.341769e-38
0.062967055 -0.09348768 -0.033108156 2.3509886e-38
0.064825647 -0.09348768 -0.033108156 2.3509886e-38
-0.10694344 -0.092379183 -0.020140689 2.2864149e-38
-0.10486051 -0.091685757 -0.01711015 2.350988e-38
-0.10302996 -0.091685757 -0.01711015 2.350988e-38
-0.10143588 -0.092379183 -0.020140689 2.350988e-38
-0.099824183 -0.093051672 -0.023079794 2.3509883e-38
-0.097983174 -0.093051672 -0.023079794 2.3418047e-38
-0.096437179 -0.093979403 -0.02713434 2.3509883e-38
-0.094589062 -0.093979403 -0.02713434 2.3418047e-38
-0.092740946 -0.093979403 -0.02713434 2.3509883e-38
-0.090892829 -0.093979403 -0.02713434 2.341805e-38
-0.089044712 -0.093979403 -0.02713434 2.3509886e-38
-0.087196596 -0.093979403 -0.02713434 2.3509886e-38
-0.084913172 -0.092379183 -0.020140689 2.3509886e-38
-0.082292654 -0.089411139 -0.0071690492 2.3509886e-38
-0.080127127 -0.088038266 -0.0011690073 2.3509527e-38
-0.078324534 -0.088038266 -0.0011690073 2.3509886e-38
-0.076521941 -0.088038266 -0.0011690073 2.341805e-38
-0.074557535 -0.087345913 0.0018568821 2.3234379e-38
-0.072760247 -0.087345913 0.0018568821 2.341805e-38
-0.070962958 -0.087345913 0.0018568821 2.341805e-38
-0.069165669 -0.087345913 0.0018568821 2.341805e-38
-0.067368381 -0.087345913 0.0018568821 2.341805e-38
-0.0655711 -0.087345913 0.0018568821 2.3509886e-38
-0.063773811 -0.087345913 0.0018568821 2.3509886e-38
-0.06197653 -0.087345913 0.0018568821 2.3509886e-38
-0.060179237 -0.087345913 0.0018568821 2.3509886e-38
-0.058381952 -0.087345913 0.0018568821 2.3509527e-38
-0.056693427 -0.088038266 -0.0011690073 2.3509527e-38
-0.054890834 -0.088038266 -0.0011690073 2.3509527e-38
-0.05308824 -0.088038266 -0.0011690073 2.3509883e-38
-0.051285651 -0.088038266 -0.0011690073 2.3509883e-38
-0.049568072 -0.088710666 -0.0041076355 2.3509883e-38
-0.047843527 -0.089411139 -0.0071690492 2.3509883e-38
-0.046030417 -0.089411139 -0.0071690492 2.3509886e-38
-0.044310376 -0.090310872 -0.011101287 2.3509886e-38
-0.042490371 -0.090310872 -0.011101287 2.3509886e-38
-0.040670365 -0.090310872 -0.011101287 2.3509886e-38
-0.03885036 -0.090310872 -0.011101287 2.3509886e-38
-0.03703035 -0.090310872 -0.011101287 2.3509886e-38
-0.035210345 -0.090310872 -0.011101287 2.3509886e-38
-0.033338629 -0.089411139 -0.0071690492 2.341805e-38
-0.031525515 -0.089411139 -0.0071690492 2.341805e-38
-0.029712407 -0.089411139 -0.0071690492 2.341805e-38
-0.027899293 -0.089411139 -0.0071690492 2.341805e-38
-0.026086181 -0.089411139 -0.0071690492 2.341805e-38
-0.02427307 -0.089411139 -0.0071690492 2.341805e-38
-0.022459958 -0.089411139 -0.0071690492 2.341805e-38
-0.020646846 -0.089411139 -0.0071690492 2.341805e-38
-0.018833732 -0.089411139 -0.0071690492 2.3509886e-38
-0.017028673 -0.088710666 -0.0041076355 2.3509886e-38
-0.015220927 -0.088710666 -0.0041076355 2.3509886e-38
-0.013413183 -0.088710666 -0.0041076355 2.3509886e-38
-0.011605439 -0.088710666 -0.0041076355 2.3509886e-38
-0.0097976942 -0.088710666 -0.0041076355 2.3509886e-38
-0.0079899495 -0.088710666 -0.0041076355 2.3509886e-38
-0.0061822049 -0.088710666 -0.0041076355 2.3509886e-38
-0.0043744603 -0.088710666 -0.0041076355 2.3509886e-38
-0.0025667157 -0.088710666 -0.0041076355 2.3509886e-38
-0.00057506736 -0.090996325 -0.014097016 2.3509886e-38
0.0012501926 -0.090996325 -0.014097016 2.3509886e-38
0.0032079089 -0.092379183 -0.020140689 2.3509886e-38
0.0050437637 -0.092379183 -0.020140689 2.3509886e-38
0.0068796203 -0.092379183 -0.020140689 2.3509886e-38
0.0087154768 -0.092379183 -0.020140689 2.3509886e-38
0.010463659 -0.091685757 -0.01711015 2.3509886e-38
0.011895241 -0.088710666 -0.0041076355 2.3509886e-38
0.013702983 -0.088710666 -0.0041076355 2.3509886e-38
0.015510729 -0.088710666 -0.0041076355 2.3509886e-38
0.017428512 -0.089411139 -0.0071690492 2.3509886e-38
0.019241622 -0.089411139 -0.0071690492 2.3509886e-38
0.021054735 -0.089411139 -0.0071690492 2.3509886e-38
0.022867849 -0.089411139 -0.0071690492 2.3509886e-38
0.024549453 -0.088710666 -0.0041076355 2.3509886e-38
0.026357198 -0.088710666 -0.0041076355 2.3509886e-38
0.02816494 -0.088710666 -0.0041076355 2.3509886e-38
0.029972686 -0.088710666 -0.0041076355 2.3509886e-38
0.031780433 -0.088710666 -0.0041076355 2.3509886e-38
0.033588175 -0.088710666 -0.0041076355 2.3509886e-38
0.035238773 -0.088038266 -0.0011690073 2.3509886e-38
0.037041366 -0.088038266 -0.0011690073 2.3509886e-38
0.039752338 -0.091685757 -0.01711015 2.3509886e-38
0.041760884 -0.092379183 -0.020140689 2.3509886e-38
0.043774527 -0.093051672 -0.023079794 2.3509886e-38
0.045615535 -0.093051672 -0.023079794 2.3509886e-38
0.047268454 -0.092379183 -0.020140689 2.3509886e-38
0.049104307 -0.092379183 -0.020140689 2.3509886e-38
0.051815506 -0.095346272 -0.033108156 2.3509886e-38
0.053466652 -0.094660893 -0.030112784 2.3509886e-38
0.055108491 -0.093979403 -0.02713434 2.3233299e-38
0.056956608 -0.093979403 -0.02713434 2.3509886e-38
0.058804732 -0.093979403 -0.02713434 2.3509886e-38
0.060652848 -0.093979403 -0.02713434 2.2956712e-38
0.061718848 -0.091685757 -0.01711015 2.3509886e-38
0.063549392 -0.091685757 -0.01711015 2.3509886e-38
0.065379925 -0.091685757 -0.01711015 2.3509886e-38
0.069041006 -0.091685757 -0.01711015 1.5414283e-44
0.070871554 -0.091685757 -0.01711015 2.1216009e-39
0.072435312 -0.090996325 -0.014097016 3.1361074e-39
0.07426057 -0.090996325 -0.014097016 2.1215897e-39
0.076085828 -0.090996325 -0.014097016 1.7528044e-39
-0.10694344 -0.094215035 -0.020140689 2.3509876e-38
-0.10486051 -0.093516305 -0.01711015 2.3509876e-38
-0.10302996 -0.093516305 -0.01711015 2.34166e-38
-0.10143588 -0.094215035 -0.020140689 2.3509874e-38
-0.099824183 -0.094892681 -0.023079794 2.3509879e-38
-0.097983174 -0.094892681 -0.023079794 2.2956345e-38
-0.096142165 -0.094892681 -0.023079794 2.304854e-38
-0.094301157 -0.094892681 -0.023079794 2.2679759e-38
-0.092460148 -0.094892681 -0.023079794 2.350988e-38
-0.090619139 -0.094892681 -0.023079794 2.3509883e-38
-0.088778131 -0.094892681 -0.023079794 2.3509883e-38
-0.086937122 -0.094892681 -0.023079794 2.3509527e-38
-0.084536992 -0.092821583 -0.014097016 2.3509527e-38
-0.082107477 -0.0905184 -0.0041076355 2.3509527e-38
-0.080127127 -0.089840859 -0.0011690073 2.3509527e-38
-0.078324534 -0.089840859 -0.0011690073 2.3509527e-38
-0.076354824 -0.089143202 0.0018568821 2.341805e-38
-0.074557535 -0.089143202 0.0018568821 2.3234379e-38
-0.072604649 -0.088449612 0.0048651285 2.3234379e-38
-0.070812635 -0.088449612 0.0048651285 2.3234379e-38
-0.069020621 -0.088449612 0.0048651285 2.3234379e-38
-0.067228608 -0.088449612 0.0048651285 2.3234379e-38
-0.065436602 -0.088449612 0.0048651285 2.3234379e-38
-0.063644588 -0.088449612 0.0048651285 2.3234379e-38
-0.061852574 -0.088449612 0.0048651285 2.341805e-38
-0.060060564 -0.088449612 0.0048651285 2.341805e-38
-0.058268551 -0.088449612 0.0048651285 2.341805e-38
-0.056584667 -0.089143202 0.0018568821 2.341805e-38
-0.054787379 -0.089143202 0.0018568821 2.341805e-38
-0.052990094 -0.089143202 0.0018568821 2.341805e-38
-0.051192805 -0.089143202 0.0018568821 2.341805e-38
-0.049483057 -0.089840859 -0.0011690073 2.341805e-38
-0.047843527 -0.091224253 -0.0071690492 2.341805e-38
-0.046030417 -0.091224253 -0.0071690492 2.341805e-38
-0.044217303 -0.091224253 -0.0071690492 2.3509886e-38
-0.042490371 -0.092130885 -0.011101287 2.341805e-38
-0.040670365 -0.092130885 -0.011101287 2.3509886e-38
-0.03885036 -0.092130885 -0.011101287 2.3509886e-38
-0.03703035 -0.092130885 -0.011101287 2.3509886e-38
-0.035210345 -0.092130885 -0.011101287 2.3509886e-38
-0.033338629 -0.091224253 -0.0071690492 2.341805e-38
-0.031525515 -0.091224253 -0.0071690492 2.341805e-38
-0.029712407 -0.091224253 -0.0071690492 2.341805e-38
-0.027875138 -0.0905184 -0.0041076355 2.341805e-38
-0.026049362 -0.089840859 -0.0011690073 2.341805e-38
-0.024246769 -0.089840859 -0.0011690073 2.341805e-38
-0.022444177 -0.089840859 -0.0011690073 2.341805e-38
-0.020641586 -0.089840859 -0.0011690073 2.341805e-38
-0.018838992 -0.089840859 -0.0011690073 2.3509886e-38
-0.017028673 -0.0905184 -0.0041076355 2.3509886e-38
-0.015220927 -0.0905184 -0.0041076355 2.3509886e-38
-0.013413183 -0.0905184 -0.0041076355 2.3509886e-38
-0.011605439 -0.0905184 -0.0041076355 2.3509886e-38
-0.0097976942 -0.0905184 -0.0041076355 2.3509886e-38
-0.0079899495 -0.0905184 -0.0041076355 2.3509886e-38
-0.0061822049 -0.0905184 -0.0041076355 2.3509886e-38
-0.0043744603 -0.0905184 -0.0041076355 2.3509886e-38
-0.0025667157 -0.0905184 -0.0041076355 2.3509886e-38
-0.00070261012 -0.091224253 -0.0071690492 2.3509886e-38
0.00098952104 -0.089840859 -0.0011690073 2.3509886e-38
0.0027921125 -0.089840859 -0.0011690073 2.3509886e-38
0.0045230817 -0.089143202 0.0018568821 2.3509886e-38
0.0063203685 -0.089143202 0.0018568821 2.3509886e-38
0.0081176553 -0.089143202 0.0018568821 2.3509886e-38
0.0099149421 -0.089143202 0.0018568821 2.3509886e-38
0.011895241 -0.0905184 -0.0041076355 2.3509886e-38
0.013702983 -0.0905184 -0.0041076355 2.3509886e-38
0.015510729 -0.0905184 -0.0041076355 2.3509886e-38
0.017318474 -0.0905184 -0.0041076355 2.3509886e-38
0.01912622 -0.0905184 -0.0041076355 2.3509886e-38
0.020933961 -0.0905184 -0.0041076355 2.3509886e-38
0.022620628 -0.089840859 -0.0011690073 2.3509886e-38
0.024423217 -0.089840859 -0.0011690073 2.3509886e-38
0.026225811 -0.089840859 -0.0011690073 2.3509886e-38
0.028028404 -0.089840859 -0.0011690073 2.3509886e-38
0.029830994 -0.089840859 -0.0011690073 2.3509886e-38
0.031633589 -0.089840859 -0.0011690073 2.3509886e-38
0.033436179 -0.089840859 -0.0011690073 2.3509886e-38
0.035238773 -0.089840859 -0.0011690073 2.3509886e-38
0.037041366 -0.089840859 -0.0011690073 2.3509886e-38
0.039580639 -0.092821583 -0.014097016 2.3509886e-38
0.041405898 -0.092821583 -0.014097016 2.3509886e-38
0.043413419 -0.093516305 -0.01711015 2.3509886e-38
0.045432594 -0.094215035 -0.020140689 2.3509886e-38
0.046881672 -0.092821583 -0.014097016 2.3509886e-38
0.048706938 -0.092821583 -0.014097016 2.3509886e-38
0.050532196 -0.092821583 -0.014097016 2.3509886e-38
0.052357454 -0.092821583 -0.014097016 2.3509886e-38
0.053969983 -0.092130885 -0.011101287 2.3509886e-38
0.05506729 -0.089840859 -0.0011690073 2.2956712e-38
0.056869876 -0.089840859 -0.0011690073 2.2956712e-38
0.058896597 -0.0905184 -0.0041076355 2.3509886e-38
0.060704347 -0.0905184 -0.0041076355 2.3509886e-38
0.063070014 -0.092130885 -0.011101287 2.2680125e-38
0.064569436 -0.091224253 -0.0071690492 2.3509886e-38
0.06638255 -0.091224253 -0.0071690492 2.5818434e-39
0.068784781 -0.092821583 -0.014097016 1.0930128e-42
0.070610039 -0.092821583 -0.014097016 2.3056278e-39
0.072435312 -0.092821583 -0.014097016 3.3201357e-39
0.07426057 -0.092821583 -0.014097016 2.5825678e-39
0.076085828 -0.092821583 -0.014097016 2.5818434e-39
0.098666973 -0.0905184 -0.0041076355 1.4758461e-39
0.10047472 -0.0905184 -0.0041076355 2.1204967e-39
0.10228247 -0.0905184 -0.0041076355 1.4751273e-39
0.10493017 -0.092130885 -0.011101287 1.01271e-39
0.10675018 -0.092130885 -0.011101287 8.2831873e-40
-0.10718822 -0.096733689 -0.023079794 2.3509873e-38
-0.10510758 -0.096050888 -0.020140689 2.350987e-38
-0.10327173 -0.096050888 -0.020140689 2.2770865e-38
-0.10166519 -0.096733689 -0.023079794 2.350987e-38
-0.099824183 -0.096733689 -0.023079794 2.3509873e-38
-0.097983174 -0.096733689 -0.023079794 2.3509873e-38
-0.096142165 -0.096733689 -0.023079794 2.3509876e-38
-0.094301157 -0.096733689 -0.023079794 2.3509876e-38
-0.092256598 -0.096050888 -0.020140689 2.3509879e-38
-0.090216167 -0.095346853 -0.01711015 2.3509521e-38
-0.088385619 -0.095346853 -0.01711015 2.3509521e-38
-0.085341252 -0.09094049 0.0018568821 2.3509524e-38
-0.083543964 -0.09094049 0.0018568821 2.3509524e-38
-0.081746675 -0.09094049 0.0018568821 2.3509524e-38
-0.079949394 -0.09094049 0.0018568821 2.3509165e-38
-0.078152105 -0.09094049 0.0018568821 2.3509883e-38
-0.076354824 -0.09094049 0.0018568821 2.3418047e-38
-0.074396662 -0.090241626 0.0048651285 2.3234376e-38
-0.072604649 -0.090241626 0.0048651285 2.3234379e-38
-0.070812635 -0.090241626 0.0048651285 2.3234376e-38
-0.069020621 -0.090241626 0.0048651285 2.3234379e-38
-0.067228608 -0.090241626 0.0048651285 2.3234376e-38
-0.065436602 -0.090241626 0.0048651285 2.3234379e-38
-0.063644588 -0.090241626 0.0048651285 2.3142544e-38
-0.061729353 -0.089546859 0.007855732 2.3234379e-38
-0.059942584 -0.089546859 0.007855732 2.3234379e-38
-0.058155816 -0.089546859 0.007855732 2.3234379e-38
-0.056476541 -0.090241626 0.0048651285 2.3234379e-38
-0.054684527 -0.090241626 0.0048651285 2.3142544e-38
-0.052990094 -0.09094049 0.0018568821 2.3142544e-38
-0.051192805 -0.09094049 0.0018568821 2.3142544e-38
-0.049483057 -0.091643453 -0.0011690073 2.3142544e-38
-0.047843527 -0.093037367 -0.0071690492 2.3234379e-38
-0.046030417 -0.093037367 -0.0071690492 2.3234379e-38
-0.044217303 -0.093037367 -0.0071690492 2.341805e-38
-0.042490371 -0.093950883 -0.011101287 2.3234379e-38
-0.040670365 -0.093950883 -0.011101287 2.341805e-38
-0.03885036 -0.093950883 -0.011101287 2.341805e-38
-0.036964852 -0.093037367 -0.0071690492 2.341805e-38
-0.035151742 -0.093037367 -0.0071690492 2.341805e-38
-0.033338629 -0.093037367 -0.0071690492 2.341805e-38
-0.031457137 -0.091643453 -0.0011690073 2.341805e-38
-0.029654546 -0.091643453 -0.0011690073 2.341805e-38
-0.027851954 -0.091643453 -0.0011690073 2.341805e-38
-0.026049362 -0.091643453 -0.0011690073 2.3509886e-38
-0.024246769 -0.091643453 -0.0011690073 2.3509886e-38
-0.022444177 -0.091643453 -0.0011690073 2.3509886e-38
-0.020641586 -0.091643453 -0.0011690073 2.3509886e-38
-0.018838992 -0.091643453 -0.0011690073 2.3509886e-38
-0.017036401 -0.091643453 -0.0011690073 2.3509886e-38
-0.015233809 -0.091643453 -0.0011690073 2.3509886e-38
-0.013431217 -0.091643453 -0.0011690073 2.3509886e-38
-0.011628624 -0.091643453 -0.0011690073 2.3509886e-38
-0.0097976942 -0.092326149 -0.0041076355 2.3509886e-38
-0.0079899495 -0.092326149 -0.0041076355 2.3509886e-38
-0.0061822049 -0.092326149 -0.0041076355 2.3509886e-38
-0.0043744603 -0.092326149 -0.0041076355 2.3509886e-38
-0.0025667157 -0.092326149 -0.0041076355 2.3509886e-38
-0.0007589719 -0.092326149 -0.0041076355 2.3509886e-38
0.00092850823 -0.09094049 0.0018568821 2.3509886e-38
0.0027257949 -0.09094049 0.0018568821 2.3509886e-38
0.0045230817 -0.09094049 0.0018568821 2.3509886e-38
0.0063203685 -0.09094049 0.0018568821 2.3509886e-38
0.0081176553 -0.09094049 0.0018568821 2.3509886e-38
0.0099149421 -0.09094049 0.0018568821 2.3509886e-38
0.011712229 -0.09094049 0.0018568821 2.3509886e-38
0.013509518 -0.09094049 0.0018568821 2.3509886e-38
0.015306802 -0.09094049 0.0018568821 2.3509886e-38
0.017212851 -0.091643453 -0.0011690073 2.3509886e-38
0.019015441 -0.091643453 -0.0011690073 2.3509886e-38
0.020818034 -0.091643453 -0.0011690073 2.3509886e-38
0.022620628 -0.091643453 -0.0011690073 2.3509886e-38
0.024423217 -0.091643453 -0.0011690073 2.3509886e-38
0.026090523 -0.09094049 0.0018568821 2.3509886e-38
0.027748035 -0.090241626 0.0048651285 2.3509886e-38
0.029540049 -0.090241626 0.0048651285 2.3509886e-38
0.031332064 -0.090241626 0.0048651285 2.3509886e-38
0.033124074 -0.090241626 0.0048651285 2.3509886e-38
0.035076957 -0.09094049 0.0018568821 2.3509886e-38
0.036708102 -0.090241626 0.0048651285 2.3509886e-38
0.038500112 -0.090241626 0.0048651285 2.3509886e-38
0.040819153 -0.092326149 -0.0041076355 2.3509886e-38
0.042812083 -0.093037367 -0.0071690492 2.3509886e-38
0.044625197 -0.093037367 -0.0071690492 2.3509886e-38
0.04643831 -0.093037367 -0.0071690492 2.3509886e-38
0.048251424 -0.093037367 -0.0071690492 2.3509886e-38
0.050329972 -0.093950883 -0.011101287 2.3509886e-38
0.051462103 -0.091643453 -0.0011690073 2.3509886e-38
0.053264696 -0.091643453 -0.0011690073 2.3509886e-38
0.05506729 -0.091643453 -0.0011690073 2.2772321e-38
0.056869876 -0.091643453 -0.0011690073 2.2956712e-38
0.058896597 -0.092326149 -0.0041076355 2.3509886e-38
0.060704347 -0.092326149 -0.0041076355 2.3509886e-38
0.062512085 -0.092326149 -0.0041076355 2.2956712e-38
0.064319827 -0.092326149 -0.0041076355 2.3233299e-38
0.066127576 -0.092326149 -0.0041076355 8.9429789e-39
0.067935325 -0.092326149 -0.0041076355 1.4751413e-39
0.069743074 -0.092326149 -0.0041076355 2.489296e-39
0.072170056 -0.093950883 -0.011101287 3.5034451e-39
0.073990054 -0.093950883 -0.011101287 3.5037997e-39
0.075448103 -0.093037367 -0.0071690492 2.950263e-39
0.077261217 -0.093037367 -0.0071690492 2.5814804e-39
0.096526898 -0.091643453 -0.0011690073 1.1070608e-39
0.098329492 -0.091643453 -0.0011690073 1.5680418e-39
0.10013209 -0.091643453 -0.0011690073 2.0283011e-39
0.10228247 -0.092326149 -0.0041076355 1.9361054e-39
0.10409021 -0.092326149 -0.0041076355 1.9346663e-39
0.10589796 -0.092326149 -0.0041076355 1.9346663e-39
0.10808412 -0.093037367 -0.0071690492 2.2105343e-39
0.10989723 -0.093037367 -0.0071690492 2.2105343e-39
0.11132119 -0.092326149 -0.0041076355 2.3027299e-39
-0.10510758 -0.097886756 -0.020140689 2.2771219e-38
-0.10327173 -0.097886756 -0.020140689 2.3509866e-38
-0.10166519 -0.098574698 -0.023079794 2.3509866e-38
-0.099824183 -0.098574698 -0.023079794 2.3508788e-38
-0.097983174 -0.098574698 -0.023079794 2.3508071e-38
-0.095928304 -0.097886756 -0.020140689 2.3509511e-38
-0.093877248 -0.097177386 -0.01711015 2.3509154e-38
-0.0920467 -0.097177386 -0.01711015 2.3509517e-38
-0.089810543 -0.095770895 -0.011101287 2.3509161e-38
-0.087990545 -0.095770895 -0.011101287 2.3509161e-38
-0.085341252 -0.092737779 0.0018568821 2.3509163e-38
-0.083543964 -0.092737779 0.0018568821 2.3508807e-38
-0.081746675 -0.092737779 0.0018568821 2.3509165e-38
-0.079772703 -0.09203364 0.0048651285 2.3509165e-38
-0.07798069 -0.09203364 0.0048651285 2.3509524e-38
-0.076188676 -0.09203364 0.0048651285 2.350988e-38
-0.074396662 -0.09203364 0.0048651285 2.3418045e-38
-0.072449967 -0.091333628 0.007855732 2.3418045e-38
-0.070663199 -0.091333628 0.007855732 2.3418045e-38
-0.068876423 -0.091333628 0.007855732 2.3418047e-38
-0.067089655 -0.091333628 0.007855732 2.3234376e-38
-0.065302886 -0.091333628 0.007855732 2.3234376e-38
-0.063644588 -0.09203364 0.0048651285 2.3234376e-38
-0.061729353 -0.091333628 0.007855732 2.3234379e-38
-0.059942584 -0.091333628 0.007855732 2.3142544e-38
-0.058155816 -0.091333628 0.007855732 2.3142544e-38
-0.056476541 -0.09203364 0.0048651285 2.3142544e-38
-0.054684527 -0.09203364 0.0048651285 2.3142544e-38
-0.052892514 -0.09203364 0.0048651285 2.2958873e-38
-0.051100504 -0.09203364 0.0048651285 2.2958873e-38
-0.04930849 -0.09203364 0.0048651285 2.3142544e-38
-0.047680467 -0.093446046 -0.0011690073 2.3142544e-38
-0.045877874 -0.093446046 -0.0011690073 2.3234379e-38
-0.044217303 -0.094850481 -0.0071690492 2.3234379e-38
-0.04240419 -0.094850481 -0.0071690492 2.3234379e-38
-0.040591076 -0.094850481 -0.0071690492 2.3234379e-38
-0.038777966 -0.094850481 -0.0071690492 2.3234379e-38
-0.036864914 -0.093446046 -0.0011690073 2.341805e-38
-0.035062321 -0.093446046 -0.0011690073 2.341805e-38
-0.033259727 -0.093446046 -0.0011690073 2.341805e-38
-0.031457137 -0.093446046 -0.0011690073 2.341805e-38
-0.029654546 -0.093446046 -0.0011690073 2.341805e-38
-0.027851954 -0.093446046 -0.0011690073 2.341805e-38
-0.026030792 -0.092737779 0.0018568821 2.3509886e-38
-0.024233507 -0.092737779 0.0018568821 2.3509886e-38
-0.022436218 -0.092737779 0.0018568821 2.3509886e-38
-0.020638933 -0.092737779 0.0018568821 2.3509886e-38
-0.018841645 -0.092737779 0.0018568821 2.3509886e-38
-0.01704436 -0.092737779 0.0018568821 2.3509886e-38
-0.015247071 -0.092737779 0.0018568821 2.3509886e-38
-0.013449785 -0.092737779 0.0018568821 2.3509886e-38
-0.011652499 -0.092737779 0.0018568821 2.3509886e-38
-0.0098260324 -0.093446046 -0.0011690073 2.3509886e-38
-0.0080234399 -0.093446046 -0.0011690073 2.3509886e-38
-0.0062208483 -0.093446046 -0.0011690073 2.3509886e-38
-0.0044182558 -0.093446046 -0.0011690073 2.3509886e-38
-0.0026156642 -0.093446046 -0.0011690073 2.3509886e-38
-0.00086877856 -0.092737779 0.0018568821 2.3509886e-38
0.00086785306 -0.09203364 0.0048651285 2.3509886e-38
0.0026598647 -0.09203364 0.0048651285 2.3509886e-38
0.0044518765 -0.09203364 0.0048651285 2.3509886e-38
0.0063203685 -0.092737779 0.0018568821 2.3509886e-38
0.0081176553 -0.092737779 0.0018568821 2.3509886e-38
0.0099149421 -0.092737779 0.0018568821 2.3509886e-38
0.011712229 -0.092737779 0.0018568821 2.3509886e-38
0.013509518 -0.092737779 0.0018568821 2.3509886e-38
0.015306802 -0.092737779 0.0018568821 2.3509886e-38
0.017104091 -0.092737779 0.0018568821 2.3509886e-38
0.018901376 -0.092737779 0.0018568821 2.3509886e-38
0.020698661 -0.092737779 0.0018568821 2.3509886e-38
0.02249595 -0.092737779 0.0018568821 2.3509886e-38
0.024293235 -0.092737779 0.0018568821 2.3509886e-38
0.025956025 -0.09203364 0.0048651285 2.3509886e-38
0.027748035 -0.09203364 0.0048651285 2.3509886e-38
0.029540049 -0.09203364 0.0048651285 2.3509886e-38
0.031332064 -0.09203364 0.0048651285 2.3509886e-38
0.033124074 -0.09203364 0.0048651285 2.3509886e-38
0.034916088 -0.09203364 0.0048651285 2.3509886e-38
0.036708102 -0.09203364 0.0048651285 2.3509886e-38
0.038500112 -0.09203364 0.0048651285 2.3509886e-38
0.040292125 -0.09203364 0.0048651285 2.3509886e-38
0.042266104 -0.092737779 0.0018568821 2.3509886e-38
0.044063393 -0.092737779 0.0018568821 2.3509886e-38
0.045860682 -0.092737779 0.0018568821 2.3509886e-38
0.047657963 -0.092737779 0.0018568821 2.3509886e-38
0.049455252 -0.092737779 0.0018568821 2.3509886e-38
0.05125254 -0.092737779 0.0018568821 2.3509886e-38
0.053049829 -0.092737779 0.0018568821 2.3325494e-38
0.05484711 -0.092737779 0.0018568821 2.3509886e-38
0.056869876 -0.093446046 -0.0011690073 2.3509886e-38
0.058672469 -0.093446046 -0.0011690073 2.3509886e-38
0.060475063 -0.093446046 -0.0011690073 2.2864516e-38
0.062277656 -0.093446046 -0.0011690073 2.3509886e-38
0.064319827 -0.094133899 -0.0041076355 2.3509886e-38
0.066127576 -0.094133899 -0.0041076355 1.4105934e-38
0.067935325 -0.094133899 -0.0041076355 4.7016254e-39
0.069743074 -0.094133899 -0.0041076355 4.7016282e-39
0.071550809 -0.094133899 -0.0041076355 5.8076114e-39
0.07363499 -0.094850481 -0.0071690492 6.17711e-39
0.075166307 -0.094133899 -0.0041076355 5.0700408e-39
0.076698385 -0.093446046 -0.0011690073 4.4253902e-39
0.078211837 -0.092737779 0.0018568821 5.2551537e-39
0.079425372 -0.091333628 0.007855732 5.9001686e-39
0.081212141 -0.091333628 0.007855732 5.4391932e-39
0.083300419 -0.09203364 0.0048651285 5.6232286e-39
0.09324374 -0.094133899 -0.0041076355 4.9789129e-39
0.09472432 -0.093446046 -0.0011690073 5.4398911e-39
0.096526898 -0.093446046 -0.0011690073 5.1636685e-39
0.098329492 -0.093446046 -0.0011690073 4.7026932e-39
0.10013209 -0.093446046 -0.0011690073 4.6097787e-39
0.10193468 -0.093446046 -0.0011690073 5.0707568e-39
0.10409021 -0.094133899 -0.0041076355 6.3600565e-39
0.10589796 -0.094133899 -0.0041076355 6.8210347e-39
0.1077057 -0.094133899 -0.0041076355 6.4515333e-39
0.10951344 -0.094133899 -0.0041076355 5.8061639e-39
0.11132119 -0.094133899 -0.0041076355 5.4373814e-39
0.11312894 -0.094133899 -0.0041076355 1.3807736e-39
-0.10510758 -0.099722609 -0.020140689 1.8068516e-38
-0.10327173 -0.099722609 -0.020140689 2.3231116e-38
-0.10143588 -0.099722609 -0.020140689 2.2954168e-38
-0.09960001 -0.099722609 -0.020140689 2.3138204e-38
-0.097764157 -0.099722609 -0.020140689 2.3509507e-38
-0.095928304 -0.099722609 -0.020140689 2.350951e-38
-0.093663283 -0.098297372 -0.014097016 2.3508432e-38
-0.091630556 -0.097590908 -0.011101287 2.3509156e-38
-0.08893583 -0.094535068 0.0018568821 2.3509158e-38
-0.087138541 -0.094535068 0.0018568821 2.3508802e-38
-0.085341252 -0.094535068 0.0018568821 2.3508802e-38
-0.083543964 -0.094535068 0.0018568821 2.3508804e-38
-0.08156471 -0.093825653 0.0048651285 2.3509163e-38
-0.079772703 -0.093825653 0.0048651285 2.3508807e-38
-0.07798069 -0.093825653 0.0048651285 2.3509521e-38
-0.076188676 -0.093825653 0.0048651285 2.3509879e-38
-0.074396662 -0.093825653 0.0048651285 2.3509879e-38
-0.072449967 -0.093120396 0.007855732 2.3509879e-38
-0.070663199 -0.093120396 0.007855732 2.3509879e-38
-0.068876423 -0.093120396 0.007855732 2.350988e-38
-0.067089655 -0.093120396 0.007855732 2.350988e-38
-0.065302886 -0.093120396 0.007855732 2.350988e-38
-0.063516118 -0.093120396 0.007855732 2.3418045e-38
-0.061729353 -0.093120396 0.007855732 2.3418047e-38
-0.059942584 -0.093120396 0.007855732 2.3234376e-38
-0.058155816 -0.093120396 0.007855732 2.3234379e-38
-0.056369048 -0.093120396 0.007855732 2.3142544e-38
-0.054684527 -0.093825653 0.0048651285 2.3142544e-38
-0.052795511 -0.093120396 0.007855732 2.3142544e-38
-0.051008742 -0.093120396 0.007855732 2.3142544e-38
-0.04922197 -0.093120396 0.007855732 2.3142544e-38
-0.047598232 -0.094535068 0.0018568821 2.3142544e-38
-0.045800947 -0.094535068 0.0018568821 2.3142544e-38
-0.04407528 -0.09524864 -0.0011690073 2.3234379e-38
-0.042337094 -0.095941633 -0.0041076355 2.3234379e-38
-0.040529348 -0.095941633 -0.0041076355 2.3234379e-38
-0.038667507 -0.09524864 -0.0011690073 2.3234379e-38
-0.036864914 -0.09524864 -0.0011690073 2.3234379e-38
-0.035062321 -0.09524864 -0.0011690073 2.3234379e-38
-0.033259727 -0.09524864 -0.0011690073 2.341805e-38
-0.031457137 -0.09524864 -0.0011690073 2.341805e-38
-0.029625366 -0.094535068 0.0018568821 2.3509886e-38
-0.027828081 -0.094535068 0.0018568821 2.3509886e-38
-0.026030792 -0.094535068 0.0018568821 2.3509886e-38
-0.024233507 -0.094535068 0.0018568821 2.3509886e-38
-0.022436218 -0.094535068 0.0018568821 2.3509886e-38
-0.020638933 -0.094535068 0.0018568821 2.3509886e-38
-0.018841645 -0.094535068 0.0018568821 2.3509886e-38
-0.01704436 -0.094535068 0.0018568821 2.3509886e-38
-0.015247071 -0.094535068 0.0018568821 2.3509886e-38
-0.013449785 -0.094535068 0.0018568821 2.3509886e-38
-0.011652499 -0.094535068 0.0018568821 2.3509886e-38
-0.0098552117 -0.094535068 0.0018568821 2.3509886e-38
-0.0080579249 -0.094535068 0.0018568821 2.3509886e-38
-0.0062606381 -0.094535068 0.0018568821 2.3509886e-38
-0.0044633513 -0.094535068 0.0018568821 2.3509886e-38
-0.0026660655 -0.094535068 0.0018568821 2.3509886e-38
-0.00086877856 -0.094535068 0.0018568821 2.3509886e-38
0.00086785306 -0.093825653 0.0048651285 2.3509886e-38
0.0026598647 -0.093825653 0.0048651285 2.3509886e-38
0.0044518765 -0.093825653 0.0048651285 2.3509886e-38
0.0063203685 -0.094535068 0.0018568821 2.3509886e-38
0.0081176553 -0.094535068 0.0018568821 2.3509886e-38
0.0099149421 -0.094535068 0.0018568821 2.3509886e-38
0.011712229 -0.094535068 0.0018568821 2.3509886e-38
0.013509518 -0.094535068 0.0018568821 2.3509886e-38
0.015306802 -0.094535068 0.0018568821 2.3509886e-38
0.017104091 -0.094535068 0.0018568821 2.3509886e-38
0.018901376 -0.094535068 0.0018568821 2.3509886e-38
0.020698661 -0.094535068 0.0018568821 2.3509886e-38
0.02249595 -0.094535068 0.0018568821 2.3509886e-38
0.024164012 -0.093825653 0.0048651285 2.3509886e-38
0.025956025 -0.093825653 0.0048651285 2.3509886e-38
0.027609082 -0.093120396 0.007855732 2.3509886e-38
0.02939585 -0.093120396 0.007855732 2.3509886e-38
0.031182623 -0.093120396 0.007855732 2.3509886e-38
0.032969393 -0.093120396 0.007855732 2.3509886e-38
0.034756161 -0.093120396 0.007855732 2.3509886e-38
0.03654293 -0.093120396 0.007855732 2.3509886e-38
0.038329698 -0.093120396 0.007855732 2.3509886e-38
0.040116467 -0.093120396 0.007855732 2.3509886e-38
0.041903235 -0.093120396 0.007855732 2.3509886e-38
0.043690007 -0.093120396 0.007855732 2.3509886e-38
0.045668159 -0.093825653 0.0048651285 2.3509886e-38
0.047460172 -0.093825653 0.0048651285 2.3509886e-38
0.049252186 -0.093825653 0.0048651285 2.3509886e-38
0.05125254 -0.094535068 0.0018568821 2.3509886e-38
0.053049829 -0.094535068 0.0018568821 2.341769e-38
0.05484711 -0.094535068 0.0018568821 2.3509886e-38
0.056644399 -0.094535068 0.0018568821 2.341769e-38
0.058672469 -0.09524864 -0.0011690073 2.3509886e-38
0.060475063 -0.09524864 -0.0011690073 2.2864516e-38
0.062277656 -0.09524864 -0.0011690073 2.3509886e-38
0.064080246 -0.09524864 -0.0011690073 2.3509886e-38
0.065882839 -0.09524864 -0.0011690073 1.4566912e-38
0.067685433 -0.09524864 -0.0011690073 6.9136016e-39
0.069488026 -0.09524864 -0.0011690073 5.5306672e-39
0.07129062 -0.09524864 -0.0011690073 5.8065296e-39
0.073093213 -0.09524864 -0.0011690073 6.1763883e-39
0.074617274 -0.094535068 0.0018568821 5.9912768e-39
0.076414548 -0.094535068 0.0018568821 6.1763883e-39
0.078211837 -0.094535068 0.0018568821 6.9139562e-39
0.079425372 -0.093120396 0.007855732 6.7295677e-39
0.081212141 -0.093120396 0.007855732 6.7299321e-39
0.083300419 -0.093825653 0.0048651285 6.8217718e-39
0.085711353 -0.09524864 -0.0011690073 7.006163e-39
0.087513946 -0.09524864 -0.0011690073 7.0987146e-39
0.089316539 -0.09524864 -0.0011690073 6.4540598e-39
0.091119133 -0.09524864 -0.0011690073 5.7168451e-39
0.092921726 -0.09524864 -0.0011690073 5.4406128e-39
0.09472432 -0.09524864 -0.0011690073 5.625004e-39
0.096526898 -0.09524864 -0.0011690073 6.2700189e-39
0.098329492 -0.09524864 -0.0011690073 5.8090435e-39
0.10013209 -0.09524864 -0.0011690073 5.7161291e-39
0.10193468 -0.09524864 -0.0011690073 6.1771072e-39
0.10373727 -0.09524864 -0.0011690073 7.18982e-39
0.10589796 -0.095941633 -0.0041076355 7.5586025e-39
0.1077057 -0.095941633 -0.0041076355 7.3734924e-39
0.10951344 -0.095941633 -0.0041076355 6.9125142e-39
0.11132119 -0.095941633 -0.0041076355 5.6217754e-39
0.11312894 -0.095941633 -0.0041076355 1.6573633e-39
-0.10560816 -0.097749382 -0.0041076355 8.2043068e-39
-0.10380041 -0.097749382 -0.0041076355 1.0877256e-38
-0.10199266 -0.097749382 -0.0041076355 1.0599951e-38
-0.10018492 -0.097749382 -0.0041076355 1.189069e-38
-0.098377176 -0.097749382 -0.0041076355 1.5024625e-38
-0.096569426 -0.097749382 -0.0041076355 1.6223169e-38
-0.094984449 -0.098476708 -0.0071690492 1.7974532e-38
-0.092745267 -0.097051233 -0.0011690073 2.0095032e-38
-0.090942673 -0.097051233 -0.0011690073 2.3508797e-38
-0.08893583 -0.096332356 0.0018568821 2.3508797e-38
-0.087138541 -0.096332356 0.0018568821 2.3508802e-38
-0.085341252 -0.096332356 0.0018568821 2.3508802e-38
-0.083543964 -0.096332356 0.0018568821 2.3508804e-38
-0.08156471 -0.095617667 0.0048651285 2.3509163e-38
-0.079772703 -0.095617667 0.0048651285 2.3508807e-38
-0.07798069 -0.095617667 0.0048651285 2.3509163e-38
-0.076023504 -0.094907165 0.007855732 2.350952e-38
-0.074236736 -0.094907165 0.007855732 2.3509517e-38
-0.072449967 -0.094907165 0.007855732 2.3509879e-38
-0.070514627 -0.094200835 0.010828812 2.3509879e-38
-0.068733074 -0.094200835 0.010828812 2.3509879e-38
-0.066951521 -0.094200835 0.010828812 2.3509879e-38
-0.065169968 -0.094200835 0.010828812 2.350988e-38
-0.063388407 -0.094200835 0.010828812 2.350988e-38
-0.061606854 -0.094200835 0.010828812 2.3509883e-38
-0.059825297 -0.094200835 0.010828812 2.3509883e-38
-0.058043741 -0.094200835 0.010828812 2.3509886e-38
-0.056262184 -0.094200835 0.010828812 2.341805e-38
-0.054480627 -0.094200835 0.010828812 2.341805e-38
-0.052699074 -0.094200835 0.010828812 2.3234379e-38
-0.050917517 -0.094200835 0.010828812 2.3234379e-38
-0.049135961 -0.094200835 0.010828812 2.3234379e-38
-0.04751648 -0.095617667 0.0048651285 2.3234379e-38
-0.045724466 -0.095617667 0.0048651285 2.3234379e-38
-0.043932453 -0.095617667 0.0048651285 2.3234379e-38
-0.042206369 -0.096332356 0.0018568821 2.3234379e-38
-0.040409084 -0.096332356 0.0018568821 2.3234379e-38
-0.038556416 -0.095617667 0.0048651285 2.3234379e-38
-0.036764406 -0.095617667 0.0048651285 2.3234379e-38
-0.034972392 -0.095617667 0.0048651285 2.341805e-38
-0.033219937 -0.096332356 0.0018568821 2.341805e-38
-0.031422652 -0.096332356 0.0018568821 2.341805e-38
-0.029625366 -0.096332356 0.0018568821 2.3509886e-38
-0.027828081 -0.096332356 0.0018568821 2.3509886e-38
-0.026030792 -0.096332356 0.0018568821 2.3509886e-38
-0.024233507 -0.096332356 0.0018568821 2.3509886e-38
-0.022436218 -0.096332356 0.0018568821 2.3509886e-38
-0.020638933 -0.096332356 0.0018568821 2.3509886e-38
-0.018841645 -0.096332356 0.0018568821 2.3509886e-38
-0.01704436 -0.096332356 0.0018568821 2.3509886e-38
-0.015247071 -0.096332356 0.0018568821 2.3509886e-38
-0.013449785 -0.096332356 0.0018568821 2.3509886e-38
-0.011652499 -0.096332356 0.0018568821 2.3509886e-38
-0.0098552117 -0.096332356 0.0018568821 2.3509886e-38
-0.0080579249 -0.096332356 0.0018568821 2.3509886e-38
-0.0062606381 -0.096332356 0.0018568821 2.3509886e-38
-0.0044633513 -0.096332356 0.0018568821 2.3509886e-38
-0.0027161725 -0.095617667 0.0048651285 2.3509886e-38
-0.00092416059 -0.095617667 0.0048651285 2.3509886e-38
0.00086785306 -0.095617667 0.0048651285 2.3509886e-38
0.0026598647 -0.095617667 0.0048651285 2.3509886e-38
0.0044518765 -0.095617667 0.0048651285 2.3509886e-38
0.0062438883 -0.095617667 0.0048651285 2.3509886e-38
0.0080359019 -0.095617667 0.0048651285 2.3509886e-38
0.0098279137 -0.095617667 0.0048651285 2.3509886e-38
0.011619927 -0.095617667 0.0048651285 2.3509886e-38
0.013411937 -0.095617667 0.0048651285 2.3509886e-38
0.015306802 -0.096332356 0.0018568821 2.3509886e-38
0.017104091 -0.096332356 0.0018568821 2.3509886e-38
0.018787974 -0.095617667 0.0048651285 2.3509886e-38
0.020579988 -0.095617667 0.0048651285 2.3509886e-38
0.022371998 -0.095617667 0.0048651285 2.3509886e-38
0.024164012 -0.095617667 0.0048651285 2.3509886e-38
0.025956025 -0.095617667 0.0048651285 2.3509886e-38
0.027609082 -0.094907165 0.007855732 2.3509886e-38
0.02939585 -0.094907165 0.007855732 2.3509886e-38
0.031182623 -0.094907165 0.007855732 2.3509886e-38
0.032969393 -0.094907165 0.007855732 2.3509886e-38
0.034756161 -0.094907165 0.007855732 2.3509886e-38
0.03654293 -0.094907165 0.007855732 2.3509886e-38
0.038329698 -0.094907165 0.007855732 2.3509886e-38
0.040116467 -0.094907165 0.007855732 2.3509886e-38
0.041903235 -0.094907165 0.007855732 2.3509886e-38
0.043690007 -0.094907165 0.007855732 2.3509886e-38
0.045476776 -0.094907165 0.007855732 2.3509886e-38
0.047263544 -0.094907165 0.007855732 2.3509886e-38
0.049252186 -0.095617667 0.0048651285 2.3509886e-38
0.0510442 -0.095617667 0.0048651285 2.3509886e-38
0.053049829 -0.096332356 0.0018568821 2.3509886e-38
0.05484711 -0.096332356 0.0018568821 2.3325494e-38
0.056644399 -0.096332356 0.0018568821 2.2587929e-38
0.058441687 -0.096332356 0.0018568821 2.3509886e-38
0.060238976 -0.096332356 0.0018568821 2.3509886e-38
0.062036257 -0.096332356 0.0018568821 2.3048907e-38
0.063833542 -0.096332356 0.0018568821 2.3509886e-38
0.065630831 -0.096332356 0.0018568821 1.336765e-38
0.067428119 -0.096332356 0.0018568821 4.2392067e-39
0.069225408 -0.096332356 0.0018568821 1.3811422e-39
0.071022697 -0.096332356 0.0018568821 2.7550929e-40
0.072819985 -0.096332356 0.0018568821 8.2831873e-40
0.074617274 -0.096332356 0.0018568821 1.9346663e-39
0.076132365 -0.095617667 0.0048651285 3.4097964e-39
0.077924378 -0.095617667 0.0048651285 3.3176035e-39
0.079716392 -0.095617667 0.0048651285 1.0134387e-39
0.081508406 -0.095617667 0.0048651285 6.4430162e-40
0.083300419 -0.095617667 0.0048651285 1.2611686e-44
0.085400991 -0.096332356 0.0018568821 9.1849509e-41
0.08719828 -0.096332356 0.0018568821 1.1981943e-39
0.089316539 -0.097051233 -0.0011690073 1.8442783e-39
0.091119133 -0.097051233 -0.0011690073 1.5680446e-39
0.092921726 -0.097051233 -0.0011690073 7.3863563e-40
0.09472432 -0.097051233 -0.0011690073 1.8546465e-40
0.096526898 -0.097051233 -0.0011690073 7.1746481e-43
0.098329492 -0.097051233 -0.0011690073 4.6169702e-40
0.10013209 -0.097051233 -0.0011690073 1.0141519e-39
0.10193468 -0.097051233 -0.0011690073 9.219563e-40
0.10373727 -0.097051233 -0.0011690073 6.4393028e-40
0.10553987 -0.097051233 -0.0011690073 3.6734339e-40
0.1077057 -0.097749382 -0.0041076355 8.2760267e-40
0.10951344 -0.097749382 -0.0041076355 1.4729721e-39
0.11132119 -0.097749382 -0.0041076355 2.6715153e-39
0.11312894 -0.097749382 -0.0041076355 4.5917888e-40
0.11493667 -0.097749382 -0.0041076355 2.211256e-39
-0.11230055 -0.098129645 0.0018568821 1.2814825e-38
-0.11050326 -0.098129645 0.0018568821 1.0970913e-38
-0.10896859 -0.098853827 -0.0011690073 9.8652841e-39
-0.107166 -0.098853827 -0.0011690073 7.2834407e-39
-0.10536342 -0.098853827 -0.0011690073 7.5589374e-39
-0.10356083 -0.098853827 -0.0011690073 7.2827051e-39
