# .PCD v0.7 - Point Cloud Data file format
VERSION 0.7
FIELDS x y z rgb
SIZE 4 4 4 4
TYPE F F F F
COUNT 1 1 1 1
WIDTH 923
HEIGHT 1
VIEWPOINT 0 0 0 1 0 0 0
POINTS 923
DATA ascii
-0.024485437 -0.090468436 -0.041465774 2.3509527e-38
-0.022591664 -0.090468436 -0.041465774 2.3509527e-38
-0.020697894 -0.090468436 -0.041465774 2.3509527e-38
-0.01880412 -0.090468436 -0.041465774 2.3509527e-38
-0.016910348 -0.090468436 -0.041465774 2.3509527e-38
-0.015016576 -0.090468436 -0.041465774 2.3509883e-38
-0.01314008 -0.091335744 -0.04540731 2.3509883e-38
-0.011239396 -0.091335744 -0.04540731 2.3509883e-38
-0.009341374 -0.092003286 -0.048440948 2.3509883e-38
-0.0074353702 -0.092003286 -0.048440948 2.3509883e-38
-0.0055216551 -0.09264864 -0.051373854 2.3509883e-38
-0.0036105104 -0.09264864 -0.051373854 2.3509883e-38
-0.0016993657 -0.09264864 -0.051373854 2.3509883e-38
0.00021177903 -0.09264864 -0.051373854 2.3509883e-38
0.0021229228 -0.09264864 -0.051373854 2.3509883e-38
0.0040798187 -0.093531981 -0.055388227 2.3509527e-38
0.0059980014 -0.093531981 -0.055388227 2.3509527e-38
0.0079622325 -0.094211861 -0.058478013 2.3509527e-38
0.0098858327 -0.094211861 -0.058478013 2.3509527e-38
0.011809435 -0.094211861 -0.058478013 2.3509886e-38
0.013733035 -0.094211861 -0.058478013 2.341805e-38
0.015656635 -0.094211861 -0.058478013 2.3234379e-38
0.017580235 -0.094211861 -0.058478013 2.3142544e-38
0.019503836 -0.094211861 -0.058478013 2.3142544e-38
0.021343466 -0.093531981 -0.055388227 2.3142544e-38
0.02326165 -0.093531981 -0.055388227 2.341805e-38
0.025179831 -0.093531981 -0.055388227 2.3509886e-38
0.027098017 -0.093531981 -0.055388227 2.3509886e-38
0.028878948 -0.09264864 -0.051373854 2.3509886e-38
0.030790092 -0.09264864 -0.051373854 2.3509886e-38
0.032701239 -0.09264864 -0.051373854 2.3509886e-38
0.03461238 -0.09264864 -0.051373854 2.3509886e-38
0.03640268 -0.092003286 -0.048440948 2.3509886e-38
0.03830868 -0.092003286 -0.048440948 2.3509886e-38
0.04007905 -0.091335744 -0.04540731 2.3509886e-38
0.041979738 -0.091335744 -0.04540731 2.3509886e-38
0.043690369 -0.090468436 -0.041465774 2.3509886e-38
0.045584142 -0.090468436 -0.041465774 2.3509883e-38
0.047477916 -0.090468436 -0.041465774 2.3509883e-38
0.049211532 -0.089809433 -0.038470879 2.3509883e-38
0.051100053 -0.089809433 -0.038470879 2.3509883e-38
0.052988574 -0.089809433 -0.038470879 2.3418047e-38
0.054877095 -0.089809433 -0.038470879 2.3234376e-38
0.056523338 -0.088928089 -0.034465566 2.3418047e-38
0.058404833 -0.088928089 -0.034465566 2.3418047e-38
0.060542658 -0.089809433 -0.038470879 2.3509886e-38
0.062628098 -0.090468436 -0.041465774 2.3509886e-38
0.064521872 -0.090468436 -0.041465774 2.3509527e-38
0.066415645 -0.090468436 -0.041465774 2.3509883e-38
0.0685893 -0.091335744 -0.04540731 2.2955993e-38
0.071216233 -0.093531981 -0.055388227 2.2771958e-38
0.073364653 -0.094211861 -0.058478013 2.3509527e-38
0.075589277 -0.095080331 -0.062424794 2.3325492e-38
0.077519797 -0.095080331 -0.062424794 2.2956709e-38
0.079767458 -0.095955089 -0.066400185 2.3141819e-38
0.081704952 -0.095955089 -0.066400185 2.2773037e-38
-0.074145459 -0.093909279 -0.048440948 1.5694837e-39
-0.072239451 -0.093909279 -0.048440948 1.3843764e-39
-0.070333444 -0.093909279 -0.048440948 2.8025969e-45
-0.067876793 -0.091697961 -0.038470879 3.6860301e-39
-0.06598828 -0.091697961 -0.038470879 2.3045673e-38
-0.064099751 -0.091697961 -0.038470879 2.3509168e-38
-0.06236089 -0.09236221 -0.041465774 2.3508451e-38
-0.060322709 -0.091697961 -0.038470879 2.3509527e-38
-0.058434196 -0.091697961 -0.038470879 2.3509886e-38
-0.056545667 -0.091697961 -0.038470879 2.3509527e-38
-0.054657154 -0.091697961 -0.038470879 2.341805e-38
-0.052768625 -0.091697961 -0.038470879 2.341805e-38
-0.050880104 -0.091697961 -0.038470879 2.341805e-38
-0.048991583 -0.091697961 -0.038470879 2.3509527e-38
-0.047103062 -0.091697961 -0.038470879 2.3509527e-38
-0.045214541 -0.091697961 -0.038470879 2.3509168e-38
-0.04332602 -0.091697961 -0.038470879 2.3509168e-38
-0.041437499 -0.091697961 -0.038470879 2.3508809e-38
-0.039548978 -0.091697961 -0.038470879 2.3509168e-38
-0.037660457 -0.091697961 -0.038470879 2.3509168e-38
-0.035848074 -0.09236221 -0.041465774 2.3509168e-38
-0.0339543 -0.09236221 -0.041465774 2.3509168e-38
-0.032060526 -0.09236221 -0.041465774 2.3509168e-38
-0.030166754 -0.09236221 -0.041465774 2.3509168e-38
-0.028272985 -0.09236221 -0.041465774 2.3509168e-38
-0.026379211 -0.09236221 -0.041465774 2.3509168e-38
-0.024440804 -0.091697961 -0.038470879 2.3509168e-38
-0.022552283 -0.091697961 -0.038470879 2.3509168e-38
-0.020697894 -0.09236221 -0.041465774 2.3509168e-38
-0.01880412 -0.09236221 -0.041465774 2.3509168e-38
-0.016910348 -0.09236221 -0.041465774 2.3509168e-38
-0.015016576 -0.09236221 -0.041465774 2.3509168e-38
-0.013122803 -0.09236221 -0.041465774 2.3509168e-38
-0.011239396 -0.093236431 -0.04540731 2.3509168e-38
-0.0093387142 -0.093236431 -0.04540731 2.3509527e-38
-0.0074380301 -0.093236431 -0.04540731 2.3509883e-38
-0.0055373479 -0.093236431 -0.04540731 2.350988e-38
-0.0036233664 -0.093909279 -0.048440948 2.350988e-38
-0.0017173644 -0.093909279 -0.048440948 2.3509521e-38
0.00018863846 -0.093909279 -0.048440948 2.3509524e-38
0.0020946404 -0.093909279 -0.048440948 2.3509524e-38
0.0040006423 -0.093909279 -0.048440948 2.3509527e-38
0.0059980014 -0.095450163 -0.055388227 2.3509527e-38
0.0079161841 -0.095450163 -0.055388227 2.3509527e-38
0.0098343678 -0.095450163 -0.055388227 2.3509527e-38
0.011752551 -0.095450163 -0.055388227 2.3509886e-38
0.013733035 -0.096135467 -0.058478013 2.341805e-38
0.015656635 -0.096135467 -0.058478013 2.3234379e-38
0.0175071 -0.095450163 -0.055388227 2.3142544e-38
0.019425284 -0.095450163 -0.055388227 2.2958873e-38
0.021343466 -0.095450163 -0.055388227 2.3142544e-38
0.02326165 -0.095450163 -0.055388227 2.341805e-38
0.025179831 -0.095450163 -0.055388227 2.3509886e-38
0.027098017 -0.095450163 -0.055388227 2.3509886e-38
0.028878948 -0.094559789 -0.051373854 2.3509886e-38
0.030790092 -0.094559789 -0.051373854 2.341805e-38
0.032701239 -0.094559789 -0.051373854 2.341805e-38
0.03449668 -0.093909279 -0.048440948 2.341805e-38
0.036277682 -0.093236431 -0.04540731 2.341805e-38
0.038178369 -0.093236431 -0.04540731 2.3509886e-38
0.039902829 -0.09236221 -0.041465774 2.3509886e-38
0.041796595 -0.09236221 -0.041465774 2.3509883e-38
0.043690369 -0.09236221 -0.041465774 2.3509883e-38
0.045584142 -0.09236221 -0.041465774 2.3509883e-38
0.047477916 -0.09236221 -0.041465774 2.3509883e-38
0.049211532 -0.091697961 -0.038470879 2.350988e-38
0.051100053 -0.091697961 -0.038470879 2.3509883e-38
0.052988574 -0.091697961 -0.038470879 2.3142544e-38
0.054877095 -0.091697961 -0.038470879 2.2958873e-38
0.056523338 -0.090809584 -0.034465566 2.3142544e-38
0.058404833 -0.090809584 -0.034465566 2.3142544e-38
0.060542658 -0.091697961 -0.038470879 2.3234379e-38
0.062431179 -0.091697961 -0.038470879 2.341805e-38
0.0643197 -0.091697961 -0.038470879 2.3509886e-38
0.066208228 -0.091697961 -0.038470879 2.3509886e-38
0.068096749 -0.091697961 -0.038470879 2.3509886e-38
0.070489988 -0.093236431 -0.04540731 2.3141103e-38
0.072616726 -0.093909279 -0.048440948 2.3509886e-38
0.075052597 -0.095450163 -0.055388227 2.3326213e-38
0.076970778 -0.095450163 -0.055388227 2.2588648e-38
0.07888896 -0.095450163 -0.055388227 2.3234379e-38
0.079993404 -0.093236431 -0.04540731 2.3050347e-38
0.081894077 -0.093236431 -0.04540731 2.1760327e-38
-0.074145459 -0.095815286 -0.048440948 3.505229e-39
-0.072239451 -0.095815286 -0.048440948 3.5052262e-39
-0.070333444 -0.095815286 -0.048440948 3.2275631e-39
-0.068042211 -0.094255984 -0.041465774 5.6217754e-39
-0.066148438 -0.094255984 -0.041465774 2.3137869e-38
-0.064254664 -0.094255984 -0.041465774 2.3507732e-38
-0.06236089 -0.094255984 -0.041465774 2.3509168e-38
-0.060322709 -0.093586475 -0.038470879 2.3509168e-38
-0.058434196 -0.093586475 -0.038470879 2.3416974e-38
-0.056545667 -0.093586475 -0.038470879 2.3233302e-38
-0.054657154 -0.093586475 -0.038470879 2.3325497e-38
-0.052768625 -0.093586475 -0.038470879 2.3509527e-38
-0.050880104 -0.093586475 -0.038470879 2.3509886e-38
-0.048991583 -0.093586475 -0.038470879 2.3509527e-38
-0.046959095 -0.092691094 -0.034465566 2.3509527e-38
-0.0450776 -0.092691094 -0.034465566 2.3509527e-38
-0.04332602 -0.093586475 -0.038470879 2.3509527e-38
-0.041437499 -0.093586475 -0.038470879 2.3509527e-38
-0.039548978 -0.093586475 -0.038470879 2.3509527e-38
-0.037660457 -0.093586475 -0.038470879 2.3509527e-38
-0.035848074 -0.094255984 -0.041465774 2.3509527e-38
-0.0339543 -0.094255984 -0.041465774 2.3509527e-38
-0.032060526 -0.094255984 -0.041465774 2.3509527e-38
-0.030166754 -0.094255984 -0.041465774 2.3509168e-38
-0.028272985 -0.094255984 -0.041465774 2.3509168e-38
-0.026379211 -0.094255984 -0.041465774 2.3509168e-38
-0.024440804 -0.093586475 -0.038470879 2.3509168e-38
-0.022552283 -0.093586475 -0.038470879 2.3509168e-38
-0.020697894 -0.094255984 -0.041465774 2.3509168e-38
-0.01880412 -0.094255984 -0.041465774 2.3509168e-38
-0.016910348 -0.094255984 -0.041465774 2.3509168e-38
-0.015016576 -0.094255984 -0.041465774 2.3509168e-38
-0.013122803 -0.094255984 -0.041465774 2.3509168e-38
-0.011239396 -0.095137119 -0.04540731 2.3509168e-38
-0.0093387142 -0.095137119 -0.04540731 2.3509527e-38
-0.0074380301 -0.095137119 -0.04540731 2.3509883e-38
-0.0055373479 -0.095137119 -0.04540731 2.3509883e-38
-0.0036366638 -0.095137119 -0.04540731 2.3509883e-38
-0.0017359806 -0.095137119 -0.04540731 2.3509883e-38
0.00018863846 -0.095815286 -0.048440948 2.3509883e-38
0.0020946404 -0.095815286 -0.048440948 2.3509527e-38
0.0040006423 -0.095815286 -0.048440948 2.3509527e-38
0.0059452122 -0.096470937 -0.051373854 2.3509527e-38
0.0078563578 -0.096470937 -0.051373854 2.3509527e-38
0.0097675025 -0.096470937 -0.051373854 2.3509886e-38
0.011678647 -0.096470937 -0.051373854 2.341805e-38
0.01358979 -0.096470937 -0.051373854 2.341805e-38
0.015500935 -0.096470937 -0.051373854 2.3234379e-38
0.017412079 -0.096470937 -0.051373854 2.3142544e-38
0.019323224 -0.096470937 -0.051373854 2.3142544e-38
0.021343466 -0.097368345 -0.055388227 2.3142544e-38
0.02326165 -0.097368345 -0.055388227 2.341805e-38
0.025179831 -0.097368345 -0.055388227 2.3509886e-38
0.027098017 -0.097368345 -0.055388227 2.3509886e-38
0.028878948 -0.096470937 -0.051373854 2.3509886e-38
0.030684674 -0.095815286 -0.048440948 2.341805e-38
0.03259068 -0.095815286 -0.048440948 2.341805e-38
0.034377001 -0.095137119 -0.04540731 2.341805e-38
0.036277682 -0.095137119 -0.04540731 2.341805e-38
0.038178369 -0.095137119 -0.04540731 2.3509883e-38
0.039902829 -0.094255984 -0.041465774 2.3509883e-38
0.041796595 -0.094255984 -0.041465774 2.3509883e-38
0.043690369 -0.094255984 -0.041465774 2.3509883e-38
0.04543449 -0.093586475 -0.038470879 2.3509883e-38
0.047323011 -0.093586475 -0.038470879 2.3509883e-38
0.049211532 -0.093586475 -0.038470879 2.3509883e-38
0.051100053 -0.093586475 -0.038470879 2.3509886e-38
0.052988574 -0.093586475 -0.038470879 2.3234379e-38
0.054877095 -0.093586475 -0.038470879 2.3142544e-38
0.056523338 -0.092691094 -0.034465566 2.3142544e-38
0.058404833 -0.092691094 -0.034465566 2.3234379e-38
0.060542658 -0.093586475 -0.038470879 2.3234379e-38
0.062431179 -0.093586475 -0.038470879 2.341805e-38
0.0643197 -0.093586475 -0.038470879 2.341805e-38
0.066208228 -0.093586475 -0.038470879 2.3509886e-38
0.068096749 -0.093586475 -0.038470879 1.8992303e-38
0.070203185 -0.094255984 -0.041465774 1.4290325e-38
0.072390668 -0.095137119 -0.04540731 1.4566912e-38
0.074291356 -0.095137119 -0.04540731 1.5397033e-38
0.076192029 -0.095137119 -0.04540731 1.4936411e-38
0.078092717 -0.095137119 -0.04540731 1.5305193e-38
0.079993404 -0.095137119 -0.04540731 1.4568349e-38
0.081894077 -0.095137119 -0.04540731 1.4660544e-38
-0.074145459 -0.097721294 -0.048440948 4.1502243e-39
-0.072239451 -0.097721294 -0.048440948 4.2424185e-39
-0.070333444 -0.097721294 -0.048440948 4.7026792e-39
-0.068042211 -0.096149758 -0.041465774 9.0333655e-39
-0.066148438 -0.096149758 -0.041465774 2.1846764e-38
-0.064099751 -0.095475003 -0.038470879 2.3507726e-38
-0.062211238 -0.095475003 -0.038470879 2.3508807e-38
-0.060322709 -0.095475003 -0.038470879 2.3508807e-38
-0.058434196 -0.095475003 -0.038470879 2.3508085e-38
-0.056545667 -0.095475003 -0.038470879 2.3509524e-38
-0.054657154 -0.095475003 -0.038470879 2.2679759e-38
-0.052768625 -0.095475003 -0.038470879 2.3509883e-38
-0.050880104 -0.095475003 -0.038470879 2.350988e-38
-0.048991583 -0.095475003 -0.038470879 2.3417687e-38
-0.046959095 -0.094572589 -0.034465566 2.3418045e-38
-0.0450776 -0.094572589 -0.034465566 2.3418045e-38
-0.04332602 -0.095475003 -0.038470879 2.3418045e-38
-0.041437499 -0.095475003 -0.038470879 2.3418045e-38
-0.039548978 -0.095475003 -0.038470879 2.3418045e-38
-0.037660457 -0.095475003 -0.038470879 2.2957428e-38
-0.035848074 -0.096149758 -0.041465774 2.3418047e-38
-0.0339543 -0.096149758 -0.041465774 2.3509883e-38
-0.032060526 -0.096149758 -0.041465774 2.3325492e-38
-0.030166754 -0.096149758 -0.041465774 2.350988e-38
-0.028217847 -0.095475003 -0.038470879 2.3509879e-38
-0.026329326 -0.095475003 -0.038470879 2.3508798e-38
-0.024485437 -0.096149758 -0.041465774 2.3509158e-38
-0.022591664 -0.096149758 -0.041465774 2.350952e-38
-0.020697894 -0.096149758 -0.041465774 2.350952e-38
-0.01880412 -0.096149758 -0.041465774 2.3509521e-38
-0.016910348 -0.096149758 -0.041465774 2.3509521e-38
-0.015016576 -0.096149758 -0.041465774 2.3509883e-38
-0.01314008 -0.097037792 -0.04540731 2.3417327e-38
-0.011239396 -0.097037792 -0.04540731 2.3416971e-38
-0.0093387142 -0.097037792 -0.04540731 2.3509886e-38
-0.0074380301 -0.097037792 -0.04540731 2.341805e-38
-0.0055373479 -0.097037792 -0.04540731 2.3142542e-38
-0.0036366638 -0.097037792 -0.04540731 2.3142542e-38
-0.0017359806 -0.097037792 -0.04540731 2.3234379e-38
0.00016470253 -0.097037792 -0.04540731 2.341805e-38
0.0020946404 -0.097721294 -0.048440948 2.304927e-38
0.0040006423 -0.097721294 -0.048440948 2.304927e-38
0.0059066452 -0.097721294 -0.048440948 2.341805e-38
0.0078126471 -0.097721294 -0.048440948 2.341805e-38
0.0097186491 -0.097721294 -0.048440948 2.341805e-38
0.011624651 -0.097721294 -0.048440948 2.3234018e-38
0.013530653 -0.097721294 -0.048440948 2.3234018e-38
0.015436657 -0.097721294 -0.048440948 2.341805e-38
0.017412079 -0.098382086 -0.051373854 2.341805e-38
0.019323224 -0.098382086 -0.051373854 2.341805e-38
0.021234369 -0.098382086 -0.051373854 2.3141822e-38
0.023145514 -0.098382086 -0.051373854 2.341805e-38
0.025056658 -0.098382086 -0.051373854 2.3418047e-38
0.026967803 -0.098382086 -0.051373854 2.332621e-38
0.02877867 -0.097721294 -0.048440948 2.3418047e-38
0.030684674 -0.097721294 -0.048440948 2.3418045e-38
0.032476321 -0.097037792 -0.04540731 2.3418045e-38
0.034377001 -0.097037792 -0.04540731 2.3509879e-38
0.036115281 -0.096149758 -0.041465774 2.3509879e-38
0.038009055 -0.096149758 -0.041465774 2.3509879e-38
0.039768927 -0.095475003 -0.038470879 2.3509879e-38
0.041657448 -0.095475003 -0.038470879 2.3417324e-38
0.043545969 -0.095475003 -0.038470879 2.3324052e-38
0.04543449 -0.095475003 -0.038470879 2.3508444e-38
0.047323011 -0.095475003 -0.038470879 2.3509527e-38
0.049211532 -0.095475003 -0.038470879 2.3508809e-38
0.051100053 -0.095475003 -0.038470879 2.3140387e-38
0.052988574 -0.095475003 -0.038470879 2.3509886e-38
0.054877095 -0.095475003 -0.038470879 2.3509886e-38
0.056523338 -0.094572589 -0.034465566 2.3509886e-38
0.058404833 -0.094572589 -0.034465566 2.3325497e-38
0.060542658 -0.095475003 -0.038470879 2.3509886e-38
0.062431179 -0.095475003 -0.038470879 2.3325494e-38
0.0643197 -0.095475003 -0.038470879 2.3509886e-38
0.066208228 -0.095475003 -0.038470879 2.1388667e-38
0.068096749 -0.095475003 -0.038470879 1.5764734e-38
0.070203185 -0.096149758 -0.041465774 1.5303756e-38
0.072096959 -0.096149758 -0.041465774 1.521156e-38
0.073990732 -0.096149758 -0.041465774 1.539667e-38
0.075884499 -0.096149758 -0.041465774 1.5488866e-38
0.078092717 -0.097037792 -0.04540731 1.5304475e-38
0.079993404 -0.097037792 -0.04540731 1.5396667e-38
0.081894077 -0.097037792 -0.04540731 1.5673973e-38
-0.075786628 -0.085548624 0.013564095 4.425379e-39
-0.073989339 -0.085548624 0.013564095 4.7019659e-39
-0.072192051 -0.085548624 0.013564095 4.6104863e-39
-0.074145459 -0.099627286 -0.048440948 4.5182879e-39
-0.072061263 -0.09893848 -0.04540731 4.7955923e-39
-0.069935977 -0.098043531 -0.041465774 5.3480472e-39
-0.067876793 -0.097363517 -0.038470879 8.5716642e-39
-0.06598828 -0.097363517 -0.038470879 1.9449674e-38
-0.064099751 -0.097363517 -0.038470879 2.0463827e-38
-0.062211238 -0.097363517 -0.038470879 2.0463827e-38
-0.060322709 -0.097363517 -0.038470879 1.9358198e-38
-0.058434196 -0.097363517 -0.038470879 1.8528438e-38
-0.056545667 -0.097363517 -0.038470879 1.991245e-38
-0.054657154 -0.097363517 -0.038470879 2.0558538e-38
-0.052768625 -0.097363517 -0.038470879 1.9084128e-38
-0.050880104 -0.097363517 -0.038470879 1.9545106e-38
-0.048991583 -0.097363517 -0.038470879 2.0467782e-38
-0.046959095 -0.096454084 -0.034465566 2.1759239e-38
-0.0450776 -0.096454084 -0.034465566 2.2773388e-38
-0.04332602 -0.097363517 -0.038470879 2.2958859e-38
-0.041437499 -0.097363517 -0.038470879 2.3234369e-38
-0.039548978 -0.097363517 -0.038470879 2.3234372e-38
-0.037660457 -0.097363517 -0.038470879 2.3234374e-38
-0.035848074 -0.098043531 -0.041465774 2.3234376e-38
-0.0339543 -0.098043531 -0.041465774 2.3049621e-38
-0.032060526 -0.098043531 -0.041465774 2.2773034e-38
-0.030106368 -0.097363517 -0.038470879 2.3509879e-38
-0.028217847 -0.097363517 -0.038470879 2.3509876e-38
-0.026329326 -0.097363517 -0.038470879 2.3509876e-38
-0.024485437 -0.098043531 -0.041465774 2.3509873e-38
-0.022591664 -0.098043531 -0.041465774 2.3508432e-38
-0.020697894 -0.098043531 -0.041465774 2.3508432e-38
-0.01880412 -0.098043531 -0.041465774 2.3508795e-38
-0.016910348 -0.098043531 -0.041465774 2.3509158e-38
-0.015040765 -0.09893848 -0.04540731 2.3325129e-38
-0.01314008 -0.09893848 -0.04540731 2.3325129e-38
-0.011239396 -0.09893848 -0.04540731 2.3417687e-38
-0.0093387142 -0.09893848 -0.04540731 2.3418047e-38
-0.0074380301 -0.09893848 -0.04540731 2.3142542e-38
-0.0055477135 -0.098043531 -0.041465774 2.3142544e-38
-0.0036539417 -0.098043531 -0.041465774 2.3142544e-38
-0.0017359806 -0.09893848 -0.04540731 2.3142544e-38
0.00016470253 -0.09893848 -0.04540731 2.3234379e-38
0.0020946404 -0.099627286 -0.048440948 2.3234379e-38
0.0040006423 -0.099627286 -0.048440948 2.3234379e-38
0.0059066452 -0.099627286 -0.048440948 2.3050349e-38
0.0078126471 -0.099627286 -0.048440948 2.304927e-38
0.0097186491 -0.099627286 -0.048440948 2.3325856e-38
0.011568801 -0.09893848 -0.04540731 2.3326213e-38
0.013469486 -0.09893848 -0.04540731 2.3141822e-38
0.01537017 -0.09893848 -0.04540731 2.3049626e-38
0.017270852 -0.09893848 -0.04540731 2.3234018e-38
0.019248661 -0.099627286 -0.048440948 2.3509886e-38
0.021234369 -0.10029322 -0.051373854 2.3509883e-38
0.023060666 -0.099627286 -0.048440948 2.3417687e-38
0.024966666 -0.099627286 -0.048440948 2.3234015e-38
0.026967803 -0.10029322 -0.051373854 2.3418045e-38
0.028674951 -0.09893848 -0.04540731 2.3418045e-38
0.030433962 -0.098043531 -0.041465774 2.3418043e-38
0.032063849 -0.096454084 -0.034465566 2.3234369e-38
0.033945352 -0.096454084 -0.034465566 2.3049256e-38
0.035700373 -0.095757127 -0.031396046 2.3141452e-38
0.037576489 -0.095757127 -0.031396046 2.2956701e-38
0.039589845 -0.096454084 -0.034465566 2.3325483e-38
0.041471347 -0.096454084 -0.034465566 2.3509521e-38
0.043545969 -0.097363517 -0.038470879 2.3509521e-38
0.04543449 -0.097363517 -0.038470879 2.3509527e-38
0.047323011 -0.097363517 -0.038470879 2.3509527e-38
0.049211532 -0.097363517 -0.038470879 2.3509168e-38
0.051100053 -0.097363517 -0.038470879 2.3509168e-38
0.052988574 -0.097363517 -0.038470879 2.3140387e-38
0.054877095 -0.097363517 -0.038470879 2.3509527e-38
0.056523338 -0.096454084 -0.034465566 2.3509527e-38
0.058404833 -0.096454084 -0.034465566 2.28638e-38
0.060542658 -0.097363517 -0.038470879 2.3509527e-38
0.062431179 -0.097363517 -0.038470879 2.3509527e-38
0.0643197 -0.097363517 -0.038470879 2.2679406e-38
0.066208228 -0.097363517 -0.038470879 1.7516451e-38
0.068096749 -0.097363517 -0.038470879 1.6410103e-38
0.070203185 -0.098043531 -0.041465774 1.5764734e-38
0.072096959 -0.098043531 -0.041465774 1.5488147e-38
0.073990732 -0.098043531 -0.041465774 1.5395951e-38
0.075884499 -0.098043531 -0.041465774 1.5027169e-38
0.077778272 -0.098043531 -0.041465774 1.3828626e-38
0.079672046 -0.098043531 -0.041465774 1.2630438e-38
0.081894077 -0.09893848 -0.04540731 1.1893233e-38
-0.075786628 -0.087345913 0.013564095 3.4105222e-39
-0.073989339 -0.087345913 0.013564095 3.7793048e-39
-0.072563298 -0.088710666 0.0075995773 3.8722193e-39
-0.073961951 -0.10083917 -0.04540731 3.6885441e-39
-0.071653835 -0.099252045 -0.038470879 3.6885413e-39
-0.069765322 -0.099252045 -0.038470879 3.8725696e-39
-0.067876793 -0.099252045 -0.038470879 8.1103302e-39
-0.06598828 -0.099252045 -0.038470879 1.7237335e-38
-0.064099751 -0.099252045 -0.038470879 1.8251131e-38
-0.062211238 -0.099252045 -0.038470879 1.9080891e-38
-0.060322709 -0.099252045 -0.038470879 1.8159654e-38
-0.058434196 -0.099252045 -0.038470879 1.6868915e-38
-0.056545667 -0.099252045 -0.038470879 1.7515363e-38
-0.054657154 -0.099252045 -0.038470879 1.8253647e-38
-0.052768625 -0.099252045 -0.038470879 1.7424607e-38
-0.050880104 -0.099252045 -0.038470879 1.7885585e-38
-0.048991583 -0.099252045 -0.038470879 1.880826e-38
-0.047103062 -0.099252045 -0.038470879 2.0007522e-38
-0.045214541 -0.099252045 -0.038470879 2.1021674e-38
-0.043423161 -0.099937305 -0.041465774 2.1759239e-38
-0.041437499 -0.099252045 -0.038470879 2.2681196e-38
-0.039548978 -0.099252045 -0.038470879 2.3234372e-38
-0.037741847 -0.099937305 -0.041465774 2.2866308e-38
-0.035848074 -0.099937305 -0.041465774 2.2405333e-38
-0.0339543 -0.099937305 -0.041465774 2.1851078e-38
-0.032060526 -0.099937305 -0.041465774 2.2127664e-38
-0.030106368 -0.099252045 -0.038470879 2.304854e-38
-0.028217847 -0.099252045 -0.038470879 2.2956701e-38
-0.026329326 -0.099252045 -0.038470879 2.3232209e-38
-0.024485437 -0.099937305 -0.041465774 2.3509876e-38
-0.022591664 -0.099937305 -0.041465774 2.3509517e-38
-0.020697894 -0.099937305 -0.041465774 2.3509517e-38
-0.01880412 -0.099937305 -0.041465774 2.3509879e-38
-0.016941447 -0.10083917 -0.04540731 2.3509879e-38
-0.015040765 -0.10083917 -0.04540731 2.350988e-38
-0.01314008 -0.10083917 -0.04540731 2.350988e-38
-0.011239396 -0.10083917 -0.04540731 2.3509883e-38
-0.0093387142 -0.10083917 -0.04540731 2.332621e-38
-0.0074414853 -0.099937305 -0.041465774 2.2404977e-38
-0.0055477135 -0.099937305 -0.041465774 2.3142542e-38
-0.0036539417 -0.099937305 -0.041465774 2.3234379e-38
-0.0017359806 -0.10083917 -0.04540731 2.2958151e-38
0.00016470253 -0.10083917 -0.04540731 2.3141822e-38
0.0020946404 -0.10153329 -0.048440948 2.341805e-38
0.0040006423 -0.10153329 -0.048440948 2.341805e-38
0.0059066452 -0.10153329 -0.048440948 2.2957431e-38
0.0078126471 -0.10153329 -0.048440948 2.3509886e-38
0.0097186491 -0.10153329 -0.048440948 2.3509886e-38
0.011568801 -0.10083917 -0.04540731 2.3509886e-38
0.01339001 -0.099937305 -0.041465774 2.3509886e-38
0.015283784 -0.099937305 -0.041465774 2.3509883e-38
0.017270852 -0.10083917 -0.04540731 2.3325492e-38
0.019171536 -0.10083917 -0.04540731 2.3232936e-38
0.021154663 -0.10153329 -0.048440948 2.31411e-38
0.022972902 -0.10083917 -0.04540731 2.3417687e-38
0.024873586 -0.10083917 -0.04540731 2.3233652e-38
0.026646418 -0.099937305 -0.041465774 2.3233652e-38
0.028195908 -0.097633243 -0.031396046 2.350988e-38
0.030072024 -0.097633243 -0.031396046 2.3509879e-38
0.031948142 -0.097633243 -0.031396046 2.3509876e-38
0.033824258 -0.097633243 -0.031396046 2.3509876e-38
0.035579264 -0.096960694 -0.028456703 2.3509876e-38
0.037450224 -0.096960694 -0.028456703 2.3509516e-38
0.039321192 -0.096960694 -0.028456703 2.3509516e-38
0.041192152 -0.096960694 -0.028456703 2.3509521e-38
0.043352842 -0.098335579 -0.034465566 2.3509521e-38
0.045234345 -0.098335579 -0.034465566 2.3415532e-38
0.04711584 -0.098335579 -0.034465566 2.2770163e-38
0.049211532 -0.099252045 -0.038470879 2.3138948e-38
0.051100053 -0.099252045 -0.038470879 2.3509168e-38
0.052988574 -0.099252045 -0.038470879 2.3509527e-38
0.054877095 -0.099252045 -0.038470879 2.3509527e-38
0.056523338 -0.098335579 -0.034465566 2.3509527e-38
0.058404833 -0.098335579 -0.034465566 2.3048189e-38
0.060286336 -0.098335579 -0.034465566 2.3509527e-38
0.062431179 -0.099252045 -0.038470879 2.323258e-38
0.0643197 -0.099252045 -0.038470879 2.1941841e-38
0.065930828 -0.098335579 -0.034465566 1.733206e-38
0.067812331 -0.098335579 -0.034465566 1.6318264e-38
0.070203185 -0.099937305 -0.041465774 1.511972e-38
0.072096959 -0.099937305 -0.041465774 1.3828982e-38
0.073990732 -0.099937305 -0.041465774 1.3183612e-38
0.075884499 -0.099937305 -0.041465774 1.2722634e-38
0.077778272 -0.099937305 -0.041465774 1.1985069e-38
0.079672046 -0.099937305 -0.041465774 1.1155308e-38
0.08156582 -0.099937305 -0.041465774 1.0510299e-38
0.086158194 -0.092379183 -0.0084334761 4.4253902e-39
0.087715097 -0.091685757 -0.0054029375 4.2402801e-39
0.089545645 -0.091685757 -0.0054029375 4.3324757e-39
-0.076178797 -0.0905184 0.0075995773 2.3960186e-39
-0.074371047 -0.0905184 0.0075995773 2.9499112e-39
-0.072563298 -0.0905184 0.0075995773 3.042467e-39
-0.073961951 -0.10273984 -0.04540731 2.4896491e-39
-0.071653835 -0.10114056 -0.038470879 1.6598871e-39
-0.069765322 -0.10114056 -0.038470879 1.3829344e-39
-0.067876793 -0.10114056 -0.038470879 2.1186932e-39
-0.06598828 -0.10114056 -0.038470879 1.0691445e-38
-0.064099751 -0.10114056 -0.038470879 1.2996336e-38
-0.062211238 -0.10114056 -0.038470879 1.5762204e-38
-0.060322709 -0.10114056 -0.038470879 1.668488e-38
-0.058434196 -0.10114056 -0.038470879 1.6776719e-38
-0.056545667 -0.10114056 -0.038470879 1.6501211e-38
-0.054657154 -0.10114056 -0.038470879 1.631682e-38
-0.052768625 -0.10114056 -0.038470879 1.7055104e-38
-0.050880104 -0.10114056 -0.038470879 1.6963629e-38
-0.048991583 -0.10114056 -0.038470879 1.6963629e-38
-0.047103062 -0.10114056 -0.038470879 1.6503369e-38
-0.045214541 -0.10114056 -0.038470879 1.5489218e-38
-0.043423161 -0.10183108 -0.041465774 1.4199198e-38
-0.041437499 -0.10114056 -0.038470879 1.3645305e-38
-0.039548978 -0.10114056 -0.038470879 1.3645666e-38
-0.037741847 -0.10183108 -0.041465774 1.3370161e-38
-0.035848074 -0.10183108 -0.041465774 1.3093575e-38
-0.0339543 -0.10183108 -0.041465774 1.3092493e-38
-0.032060526 -0.10183108 -0.041465774 1.3830058e-38
-0.030106368 -0.10114056 -0.038470879 1.4658738e-38
-0.028217847 -0.10114056 -0.038470879 1.419776e-38
-0.026329326 -0.10114056 -0.038470879 1.4565819e-38
-0.024485437 -0.10183108 -0.041465774 1.5948754e-38
-0.022591664 -0.10183108 -0.041465774 1.6869991e-38
-0.020697894 -0.10183108 -0.041465774 1.8345121e-38
-0.018842129 -0.10273984 -0.04540731 2.009756e-38
-0.016965384 -0.10343929 -0.048440948 2.157269e-38
-0.01505938 -0.10343929 -0.048440948 2.203439e-38
-0.013153378 -0.10343929 -0.048440948 2.203439e-38
-0.011239396 -0.10273984 -0.04540731 2.1297188e-38
-0.0093387142 -0.10273984 -0.04540731 2.0651818e-38
-0.0074414853 -0.10183108 -0.041465774 2.0468146e-38
-0.0055477135 -0.10183108 -0.041465774 1.9639464e-38
-0.0036539417 -0.10183108 -0.041465774 1.8348369e-38
-0.0017359806 -0.10273984 -0.04540731 1.6780321e-38
0.00018863846 -0.10343929 -0.048440948 1.5305193e-38
0.0020946404 -0.10343929 -0.048440948 1.4198843e-38
0.0040006423 -0.10343929 -0.048440948 1.3184694e-38
0.0059066452 -0.10343929 -0.048440948 1.2447126e-38
0.0078126471 -0.10343929 -0.048440948 1.0694693e-38
0.0097186491 -0.10343929 -0.048440948 9.6805411e-39
0.011568801 -0.10273984 -0.04540731 8.5741936e-39
0.01339001 -0.10183108 -0.041465774 8.2054111e-39
0.01427553 -0.091224253 0.0045381635 8.2054083e-39
0.016088642 -0.091224253 0.0045381635 8.0206569e-39
0.019171536 -0.10273984 -0.04540731 7.5596787e-39
0.021154663 -0.10343929 -0.048440948 7.2830918e-39
0.022972902 -0.10273984 -0.04540731 8.2050453e-39
0.024873586 -0.10273984 -0.04540731 7.6525904e-39
0.026646418 -0.10183108 -0.041465774 7.744786e-39
0.028195908 -0.099509358 -0.031396046 8.8511322e-39
0.029966375 -0.098831654 -0.028456703 1.0418455e-38
0.031837337 -0.098831654 -0.028456703 1.2077616e-38
0.033708297 -0.098831654 -0.028456703 1.3368355e-38
0.035412662 -0.097899407 -0.024413362 1.4290311e-38
0.037276536 -0.097899407 -0.024413362 1.6317536e-38
0.039140411 -0.097899407 -0.024413362 1.6686319e-38
0.041004285 -0.097899407 -0.024413362 1.7792669e-38
0.043063119 -0.098831654 -0.028456703 1.8714268e-38
0.044934079 -0.098831654 -0.028456703 1.8436965e-38
0.04711584 -0.10021709 -0.034465566 1.7699403e-38
0.049211532 -0.10114056 -0.038470879 1.8529166e-38
0.051100053 -0.10114056 -0.038470879 2.0005013e-38
0.052988574 -0.10114056 -0.038470879 1.9820621e-38
0.054877095 -0.10114056 -0.038470879 1.8714994e-38
0.056523338 -0.10021709 -0.034465566 1.8438407e-38
0.058404833 -0.10021709 -0.034465566 1.7424255e-38
0.060286336 -0.10021709 -0.034465566 1.5395951e-38
0.062431179 -0.10114056 -0.038470879 1.1062757e-38
0.0643197 -0.10114056 -0.038470879 9.9564092e-39
0.065930828 -0.10021709 -0.034465566 7.8359097e-39
0.067812331 -0.10021709 -0.034465566 7.6518743e-39
0.069693826 -0.10021709 -0.034465566 6.4533312e-39
0.067099921 -0.086369663 0.025593504 5.0703967e-39
0.068876117 -0.086369663 0.025593504 4.0562448e-39
0.07112284 -0.087760091 0.019562945 3.7796579e-39
0.072909608 -0.087760091 0.019562945 3.7796579e-39
0.074696369 -0.087760091 0.019562945 3.8718535e-39
0.084054016 -0.093516305 -0.0054029375 2.5814776e-39
0.085884549 -0.093516305 -0.0054029375 2.5814776e-39
0.087715097 -0.093516305 -0.0054029375 3.2261282e-39
0.089545645 -0.093516305 -0.0054029375 3.779302e-39
-0.084548898 -0.090241626 0.016572341 2.6733215e-39
-0.082756884 -0.090241626 0.016572341 2.7647983e-39
-0.081393354 -0.091643453 0.010538206 2.6726055e-39
-0.07979428 -0.092326149 0.0075995773 2.3960186e-39
-0.077788167 -0.091643453 0.010538206 2.1194345e-39
-0.075985573 -0.091643453 0.010538206 2.2116301e-39
-0.07418298 -0.091643453 0.010538206 2.6733243e-39
-0.072380401 -0.091643453 0.010538206 2.7658801e-39
-0.074145459 -0.10534529 -0.048440948 2.2127063e-39
-0.071653835 -0.10302909 -0.038470879 1.1996306e-39
-0.069765322 -0.10302909 -0.038470879 9.219591e-40
-0.067876793 -0.10302909 -0.038470879 1.934302e-39
-0.06598828 -0.10302909 -0.038470879 1.0230464e-38
-0.064099751 -0.10302909 -0.038470879 1.3365115e-38
-0.062211238 -0.10302909 -0.038470879 1.5946593e-38
-0.060322709 -0.10302909 -0.038470879 1.7053659e-38
-0.058434196 -0.10302909 -0.038470879 1.816001e-38
-0.056545667 -0.10302909 -0.038470879 1.8067814e-38
-0.054785796 -0.10372485 -0.041465774 1.7238774e-38
-0.052892022 -0.10372485 -0.041465774 1.631682e-38
-0.050998256 -0.10372485 -0.041465774 1.6778517e-38
-0.049104482 -0.10372485 -0.041465774 1.7700116e-38
-0.047210708 -0.10372485 -0.041465774 1.7977782e-38
-0.045316935 -0.10372485 -0.041465774 1.7148021e-38
-0.04332602 -0.10302909 -0.038470879 1.567361e-38
-0.041437499 -0.10302909 -0.038470879 1.4750935e-38
-0.039548978 -0.10302909 -0.038470879 1.4382515e-38
-0.037741847 -0.10372485 -0.041465774 1.2815909e-38
-0.035848074 -0.10372485 -0.041465774 1.2632596e-38
-0.0339543 -0.10372485 -0.041465774 1.272371e-38
-0.032060526 -0.10372485 -0.041465774 1.3276884e-38
-0.030106368 -0.10302909 -0.038470879 1.4013369e-38
-0.028217847 -0.10302909 -0.038470879 1.3644586e-38
-0.026329326 -0.10302909 -0.038470879 1.4473624e-38
-0.024485437 -0.10372485 -0.041465774 1.6317536e-38
-0.022591664 -0.10372485 -0.041465774 1.8437317e-38
-0.020742813 -0.10464053 -0.04540731 1.9174882e-38
-0.018899666 -0.10602666 -0.051373854 1.9636582e-38
-0.016988523 -0.10602666 -0.051373854 1.9728777e-38
-0.01505938 -0.10534529 -0.048440948 1.9729499e-38
-0.013153378 -0.10534529 -0.048440948 2.0098282e-38
-0.011239396 -0.10464053 -0.04540731 2.0006449e-38
-0.0093387142 -0.10464053 -0.04540731 1.9729862e-38
-0.0074414853 -0.10372485 -0.041465774 1.890082e-38
-0.0055477135 -0.10372485 -0.041465774 1.6780318e-38
-0.0036539417 -0.10372485 -0.041465774 1.447543e-38
-0.0017359806 -0.10464053 -0.04540731 1.2815546e-38
0.00018863846 -0.10534529 -0.048440948 1.069469e-38
0.0020946404 -0.10534529 -0.048440948 8.4823511e-39
0.0040006423 -0.10534529 -0.048440948 7.3756476e-39
0.0059066452 -0.10534529 -0.048440948 7.4681991e-39
0.0078126471 -0.10534529 -0.048440948 8.1128525e-39
0.0087852012 -0.092326149 0.0075995773 6.729918e-39
0.010592945 -0.092326149 0.0075995773 5.0703967e-39
0.012462419 -0.093037367 0.0045381635 4.1484404e-39
0.01427553 -0.093037367 0.0045381635 3.6874623e-39
0.016088642 -0.093037367 0.0045381635 4.0551658e-39
0.019323224 -0.10602666 -0.051373854 4.8849264e-39
0.021154663 -0.10534529 -0.048440948 5.6235705e-39
0.023060666 -0.10534529 -0.048440948 5.8079589e-39
0.024966666 -0.10534529 -0.048440948 5.0703925e-39
0.026774267 -0.10464053 -0.04540731 4.7938056e-39
0.028195908 -0.10138547 -0.031396046 5.7157619e-39
0.029966375 -0.10070263 -0.028456703 7.3756392e-39
0.031837337 -0.10070263 -0.028456703 9.1262771e-39
0.033708297 -0.10070263 -0.028456703 1.032482e-38
0.035412662 -0.099763289 -0.024413362 1.1154581e-38
0.037276536 -0.099763289 -0.024413362 1.2076537e-38
0.039140411 -0.099763289 -0.024413362 1.327508e-38
0.041004285 -0.099763289 -0.024413362 1.5671451e-38
0.043063119 -0.10070263 -0.028456703 1.7330974e-38
0.044934079 -0.10070263 -0.028456703 1.6685248e-38
0.046805039 -0.10070263 -0.028456703 1.5025727e-38
0.049211532 -0.10302909 -0.038470879 1.4656947e-38
0.050878838 -0.10209858 -0.034465566 1.5303035e-38
0.05276034 -0.10209858 -0.034465566 1.6778166e-38
0.054877095 -0.10302909 -0.038470879 1.6687046e-38
0.056765616 -0.10302909 -0.038470879 1.7332415e-38
0.058654137 -0.10302909 -0.038470879 1.6226068e-38
0.060542658 -0.10302909 -0.038470879 1.3091417e-38
0.062431179 -0.10302909 -0.038470879 7.6518743e-39
0.059995145 -0.088145852 0.025593504 6.5455268e-39
0.061771341 -0.088145852 0.025593504 5.0703967e-39
0.063547537 -0.088145852 0.025593504 5.3469836e-39
0.065323733 -0.088145852 0.025593504 5.0703967e-39
0.067099921 -0.088145852 0.025593504 4.5172229e-39
0.068876117 -0.088145852 0.025593504 3.7796579e-39
0.07112284 -0.089546859 0.019562945 3.2264841e-39
0.072909608 -0.089546859 0.019562945 3.0420928e-39
0.074696369 -0.089546859 0.019562945 3.0420928e-39
0.077234752 -0.091643453 0.010538206 3.1342885e-39
0.079037346 -0.091643453 0.010538206 3.9644121e-39
0.080839939 -0.091643453 0.010538206 3.4112383e-39
0.082642533 -0.091643453 0.010538206 2.9495413e-39
0.084710471 -0.092326149 0.0075995773 2.76515e-39
0.086800016 -0.093037367 0.0045381635 3.2254079e-39
0.089545645 -0.095346853 -0.0054029375 3.4097992e-39
-0.084548898 -0.09203364 0.016572341 3.1342983e-39
-0.082756884 -0.09203364 0.016572341 3.0413852e-39
-0.081393354 -0.093446046 0.010538206 2.9491896e-39
-0.07979428 -0.094133899 0.0075995773 3.2257765e-39
-0.077788167 -0.093446046 0.010538206 2.6726027e-39
-0.075985573 -0.093446046 0.010538206 2.212342e-39
-0.07418298 -0.093446046 0.010538206 2.5811245e-39
-0.072380401 -0.093446046 0.010538206 2.7662346e-39
-0.07094074 -0.094850481 0.0045381635 2.674039e-39
-0.069127634 -0.094850481 0.0045381635 2.3985311e-39
-0.066800192 -0.092737779 0.013564095 2.5814776e-39
-0.064836763 -0.09203364 0.016572341 4.3313855e-39
-0.063044749 -0.09203364 0.016572341 1.2443156e-38
-0.061252736 -0.09203364 0.016572341 1.6407571e-38
-0.059762247 -0.093446046 0.010538206 1.8620266e-38
-0.057959653 -0.093446046 0.010538206 1.8528789e-38
-0.056157067 -0.093446046 0.010538206 1.9450746e-38
-0.054485865 -0.094133899 0.0075995773 1.9266357e-38
-0.052678116 -0.094133899 0.0075995773 1.898977e-38
-0.050870366 -0.094133899 0.0075995773 1.9174885e-38
-0.049062625 -0.094133899 0.0075995773 1.8898298e-38
-0.047254883 -0.094133899 0.0075995773 1.8622072e-38
-0.045124628 -0.09203364 0.016572341 1.8068899e-38
-0.043332614 -0.09203364 0.016572341 1.7054747e-38
-0.0415406 -0.09203364 0.016572341 1.5580699e-38
-0.039656825 -0.091333628 0.019562945 1.5118641e-38
-0.037870057 -0.091333628 0.019562945 1.4843133e-38
-0.036083288 -0.091333628 0.019562945 1.5305191e-38
-0.03429652 -0.091333628 0.019562945 1.5029683e-38
-0.030722981 -0.091333628 0.019562945 1.4567623e-38
-0.030730626 -0.11216442 -0.069430962 1.5211912e-38
-0.02878782 -0.11216442 -0.069430962 1.5488499e-38
-0.026845017 -0.11216442 -0.069430962 1.6778514e-38
-0.024902215 -0.11216442 -0.069430962 1.8806818e-38
-0.022959409 -0.11216442 -0.069430962 1.9174882e-38
-0.020982062 -0.11145501 -0.066400185 1.9359273e-38
-0.019006236 -0.11052449 -0.062424794 1.8714625e-38
-0.017075716 -0.11052449 -0.062424794 1.71473e-38
-0.015102012 -0.10887744 -0.055388227 1.5304109e-38
-0.013166234 -0.1079378 -0.051373854 1.401337e-38
-0.011255089 -0.1079378 -0.051373854 1.2446407e-38
-0.0093439445 -0.1079378 -0.051373854 1.1247864e-38
-0.0074380301 -0.1065412 -0.04540731 9.8656457e-39
-0.0055477135 -0.10561861 -0.041465774 7.7451462e-39
-0.0036539417 -0.10561861 -0.041465774 6.3618516e-39
-0.001760168 -0.10561861 -0.041465774 6.269656e-39
-0.00027670711 -0.093446046 0.010538206 5.6242865e-39
0.0014967052 -0.092737779 0.013564095 4.4257434e-39
0.003293992 -0.092737779 0.013564095 4.4257434e-39
0.0050912788 -0.092737779 0.013564095 5.4398953e-39
0.0069336612 -0.093446046 0.010538206 5.2547852e-39
0.0087852012 -0.094133899 0.0075995773 5.4391764e-39
0.010592945 -0.094133899 0.0075995773 5.7157661e-39
0.01240069 -0.094133899 0.0075995773 5.5313749e-39
0.014208434 -0.094133899 0.0075995773 4.7927308e-39
0.01601618 -0.094133899 0.0075995773 4.3317527e-39
0.017749215 -0.093446046 0.010538206 5.3459046e-39
0.019551806 -0.093446046 0.010538206 6.9132275e-39
0.021266859 -0.092737779 0.013564095 6.6369979e-39
0.023064146 -0.092737779 0.013564095 5.9923488e-39
0.024861434 -0.092737779 0.013564095 5.8079575e-39
0.028300853 -0.10398008 -0.034465566 6.1767401e-39
0.029966375 -0.10257359 -0.028456703 6.6369951e-39
0.031837337 -0.10257359 -0.028456703 6.8213864e-39
0.033945352 -0.10398008 -0.034465566 6.913582e-39
0.035579264 -0.10257359 -0.028456703 7.1901689e-39
0.037450224 -0.10257359 -0.028456703 8.665299e-39
0.039140411 -0.10162716 -0.024413362 9.5872553e-39
0.039380319 -0.093446046 0.010538206 1.0969474e-38
0.041037016 -0.092737779 0.013564095 1.1522649e-38
0.042683981 -0.09203364 0.016572341 1.0416301e-38
0.044475988 -0.09203364 0.016572341 8.6642284e-39
0.046268001 -0.09203364 0.016572341 8.0188618e-39
0.050878838 -0.10398008 -0.034465566 8.2039691e-39
0.05276034 -0.10398008 -0.034465566 7.9273822e-39
0.054877095 -0.1049176 -0.038470879 8.7582219e-39
0.056765616 -0.1049176 -0.038470879 9.4035913e-39
0.058654137 -0.1049176 -0.038470879 8.2050481e-39
0.060542658 -0.1049176 -0.038470879 7.2830918e-39
0.05841998 -0.090637714 0.022536024 5.6235705e-39
0.060201533 -0.090637714 0.022536024 6.1767443e-39
0.061771341 -0.089922056 0.025593504 3.9640491e-39
0.063547537 -0.089922056 0.025593504 5.3469836e-39
0.065323733 -0.089922056 0.025593504 5.4391792e-39
0.067099921 -0.089922056 0.025593504 5.0703967e-39
0.068876117 -0.089922056 0.025593504 4.240636e-39
0.07112284 -0.091333628 0.019562945 3.6874623e-39
0.072909608 -0.091333628 0.019562945 3.8718535e-39
0.074940197 -0.09203364 0.016572341 4.240636e-39
0.076982744 -0.092737779 0.013564095 4.6094186e-39
0.078780033 -0.092737779 0.013564095 4.8863684e-39
0.080577321 -0.092737779 0.013564095 4.3331946e-39
0.08237461 -0.092737779 0.013564095 3.6871063e-39
0.084445126 -0.093446046 0.010538206 3.5027151e-39
0.08624772 -0.093446046 0.010538206 3.7785817e-39
0.087766461 -0.092737779 0.013564095 3.962973e-39
0.089276291 -0.09203364 0.016572341 3.9622569e-39
0.091068305 -0.09203364 0.016572341 3.7778656e-39
0.092564054 -0.091333628 0.019562945 4.0544525e-39
0.094350837 -0.091333628 0.019562945 4.1466481e-39
0.095832653 -0.090637714 0.022536024 3.8700613e-39
0.097614206 -0.090637714 0.022536024 4.8849292e-39
-0.11808167 -0.096663594 0.0045381635 1.1431165e-38
-0.11626855 -0.096663594 0.0045381635 1.0602486e-38
-0.11445544 -0.096663594 0.0045381635 1.1247856e-38
-0.11264233 -0.096663594 0.0045381635 9.4965016e-39
-0.11121876 -0.097590908 0.00060592592 3.2275603e-39
-0.10939875 -0.097590908 0.00060592592 2.6743893e-39
-0.107865 -0.098297372 -0.0023898035 3.1364465e-39
-0.10603974 -0.098297372 -0.0023898035 2.7680269e-39
-0.10421448 -0.098297372 -0.0023898035 3.3222825e-39
-0.10238922 -0.098297372 -0.0023898035 2.4921659e-39
-0.084548898 -0.093825653 0.016572341 3.5956268e-39
-0.082756884 -0.093825653 0.016572341 3.5949107e-39
-0.082098641 -0.097590908 0.00060592592 3.6874623e-39
-0.080278642 -0.097590908 0.00060592592 3.7796579e-39
-0.07845863 -0.097590908 0.00060592592 3.2264813e-39
-0.076638632 -0.097590908 0.00060592592 2.8584163e-39
-0.074566968 -0.096663594 0.0045381635 3.1350031e-39
-0.072753854 -0.096663594 0.0045381635 3.4123089e-39
-0.07094074 -0.096663594 0.0045381635 3.5045045e-39
-0.068775214 -0.09524864 0.010538206 3.5974218e-39
-0.066800192 -0.094535068 0.013564095 4.1491551e-39
-0.064836763 -0.093825653 0.016572341 5.4380862e-39
-0.063044749 -0.093825653 0.016572341 1.1061298e-38
-0.061252736 -0.093825653 0.016572341 1.4011201e-38
-0.059762247 -0.09524864 0.010538206 1.6223896e-38
-0.057959653 -0.09524864 0.010538206 1.6316094e-38
-0.056157067 -0.09524864 0.010538206 1.7053659e-38
-0.054485865 -0.095941633 0.0075995773 1.6777075e-38
-0.052678116 -0.095941633 0.0075995773 1.7053662e-38
-0.050870366 -0.095941633 0.0075995773 1.696219e-38
-0.049062625 -0.095941633 0.0075995773 1.6409016e-38
-0.047254883 -0.095941633 0.0075995773 1.5763648e-38
-0.045124628 -0.093825653 0.016572341 1.5486705e-38
-0.043332614 -0.093825653 0.016572341 1.5302314e-38
-0.0415406 -0.093825653 0.016572341 1.5026449e-38
-0.039656825 -0.093120396 0.019562945 1.5302317e-38
-0.037870057 -0.093120396 0.019562945 1.5488147e-38
-0.026845017 -0.11410724 -0.069430962 1.4750211e-38
-0.024902215 -0.11410724 -0.069430962 1.5948754e-38
-0.022959409 -0.11410724 -0.069430962 1.3366557e-38
-0.020982062 -0.11339252 -0.066400185 1.4933883e-38
-0.019044572 -0.11339252 -0.066400185 1.6133148e-38
-0.017107081 -0.11339252 -0.066400185 1.5856561e-38
-0.015120974 -0.11152427 -0.058478013 1.4289957e-38
-0.013197374 -0.11152427 -0.058478013 1.216946e-38
-0.011255089 -0.10984896 -0.051373854 9.1273674e-39
-0.0093439445 -0.10984896 -0.051373854 6.8224738e-39
-0.0074327998 -0.10984896 -0.051373854 6.9150254e-39
-0.0056844838 -0.09524864 0.010538206 5.7164808e-39
-0.0038818922 -0.09524864 0.010538206 5.1625881e-39
-0.0020792997 -0.09524864 0.010538206 5.6235663e-39
-0.00027670711 -0.09524864 0.010538206 5.8079575e-39
0.0014967052 -0.094535068 0.013564095 5.439175e-39
0.003293992 -0.094535068 0.013564095 5.5313707e-39
0.0050912788 -0.094535068 0.013564095 6.1767401e-39
0.0069336612 -0.09524864 0.010538206 4.2395542e-39
0.0087362528 -0.09524864 0.010538206 4.9771193e-39
0.010538846 -0.09524864 0.010538206 6.4522494e-39
0.012341438 -0.09524864 0.010538206 7.3742057e-39
0.014144029 -0.09524864 0.010538206 6.8206717e-39
0.015946621 -0.09524864 0.010538206 5.6221285e-39
0.017749215 -0.09524864 0.010538206 5.4377373e-39
0.019551806 -0.09524864 0.010538206 6.0834668e-39
0.021266859 -0.094535068 0.013564095 5.622846e-39
0.023064146 -0.094535068 0.013564095 6.176017e-39
0.024763854 -0.093825653 0.016572341 7.0979733e-39
0.026555868 -0.093825653 0.016572341 7.4667558e-39
0.028133525 -0.092419267 0.022536024 7.1894501e-39
0.029915081 -0.092419267 0.022536024 6.7284719e-39
0.031931907 -0.093825653 0.016572341 7.0050588e-39
0.033723913 -0.093825653 0.016572341 7.6504282e-39
0.03564515 -0.094535068 0.013564095 8.2958004e-39
0.039140411 -0.10349102 -0.024413362 8.4801917e-39
0.039380319 -0.09524864 0.010538206 8.5723887e-39
0.041037016 -0.094535068 0.013564095 8.2036062e-39
0.042683981 -0.093825653 0.016572341 7.8348237e-39
0.044475988 -0.093825653 0.016572341 7.8348237e-39
0.046268001 -0.093825653 0.016572341 8.2954459e-39
0.047894843 -0.093120396 0.019562945 8.8493385e-39
0.049681611 -0.093120396 0.019562945 7.9273822e-39
0.05146838 -0.093120396 0.019562945 7.8362628e-39
0.053436048 -0.093825653 0.016572341 7.3752847e-39
0.055228069 -0.093825653 0.016572341 5.9923502e-39
0.05663842 -0.092419267 0.022536024 6.4533284e-39
0.05841998 -0.092419267 0.022536024 6.7299152e-39
0.060201533 -0.092419267 0.022536024 8.2972438e-39
0.061983094 -0.092419267 0.022536024 6.1767443e-39
0.063547537 -0.091698244 0.025593504 6.2689399e-39
0.065323733 -0.091698244 0.025593504 6.4533312e-39
0.067099921 -0.091698244 0.025593504 6.0845486e-39
0.068876117 -0.091698244 0.025593504 5.5313749e-39
0.07112284 -0.093120396 0.019562945 5.4391792e-39
0.072909608 -0.093120396 0.019562945 5.992353e-39
0.074940197 -0.093825653 0.016572341 6.4529752e-39
0.076732211 -0.093825653 0.016572341 6.6373665e-39
0.078780033 -0.094535068 0.013564095 5.992353e-39
0.080577321 -0.094535068 0.013564095 5.8079617e-39
0.08237461 -0.094535068 0.013564095 5.8068855e-39
0.084445126 -0.09524864 0.010538206 5.9912768e-39
0.08624772 -0.09524864 0.010538206 6.3593433e-39
0.087766461 -0.094535068 0.013564095 6.6359302e-39
0.089276291 -0.093825653 0.016572341 6.9110821e-39
0.091068305 -0.093825653 0.016572341 6.8188865e-39
0.092564054 -0.093120396 0.019562945 6.9110821e-39
0.094350837 -0.093120396 0.019562945 6.7281258e-39
0.095832653 -0.092419267 0.022536024 6.0827564e-39
0.097614206 -0.092419267 0.022536024 6.451899e-39
0.099395759 -0.092419267 0.022536024 6.452255e-39
0.10117731 -0.092419267 0.022536024 6.4529752e-39
-0.11808167 -0.098476708 0.0045381635 1.1524437e-38
-0.11626855 -0.098476708 0.0045381635 1.1801029e-38
-0.11445544 -0.098476708 0.0045381635 1.1432607e-38
-0.11264233 -0.098476708 0.0045381635 9.9581986e-39
-0.11121876 -0.099410906 0.00060592592 6.6391559e-39
-0.10939875 -0.099410906 0.00060592592 5.0725547e-39
-0.107865 -0.10012263 -0.0023898035 6.0867066e-39
-0.10575873 -0.099410906 0.00060592592 5.1651161e-39
-0.10393872 -0.099410906 0.00060592592 4.6130213e-39
-0.10211872 -0.099410906 0.00060592592 2.6765571e-39
-0.10029871 -0.099410906 0.00060592592 3.5070367e-39
-0.094011508 -0.097051233 0.010538206 3.690688e-39
-0.092208914 -0.097051233 0.010538206 3.5981281e-39
-0.090884976 -0.098476708 0.0045381635 3.5044989e-39
-0.088833012 -0.097749382 0.0075995773 3.3201105e-39
-0.087025262 -0.097749382 0.0075995773 3.5037871e-39
-0.08544565 -0.098476708 0.0045381635 3.780018e-39
-0.083632536 -0.098476708 0.0045381635 4.1484404e-39
-0.082098641 -0.099410906 0.00060592592 4.4250245e-39
-0.080278642 -0.099410906 0.00060592592 4.1484362e-39
-0.07845863 -0.099410906 0.00060592592 3.8722024e-39
-0.076638632 -0.099410906 0.00060592592 3.8729185e-39
-0.074566968 -0.098476708 0.0045381635 4.241701e-39
-0.072753854 -0.098476708 0.0045381635 4.4268112e-39
-0.070755564 -0.097749382 0.0075995773 4.243143e-39
-0.068775214 -0.097051233 0.010538206 4.2431458e-39
-0.066800192 -0.096332356 0.013564095 4.7030449e-39
-0.064836763 -0.095617667 0.016572341 4.8856313e-39
-0.063044749 -0.095617667 0.016572341 6.2678469e-39
-0.061408333 -0.096332356 0.013564095 5.7135941e-39
-0.059762247 -0.097051233 0.010538206 6.2667679e-39
-0.057959653 -0.097051233 0.010538206 5.6214013e-39
-0.056157067 -0.097051233 0.010538206 5.897991e-39
-0.054485865 -0.097749382 0.0075995773 5.0682303e-39
-0.052678116 -0.097749382 0.0075995773 5.5288525e-39
-0.050870366 -0.097749382 0.0075995773 4.6079752e-39
-0.04882732 -0.096332356 0.013564095 4.515781e-39
-0.047030039 -0.096332356 0.013564095 4.8842076e-39
-0.045124628 -0.095617667 0.016572341 5.3451857e-39
-0.043332614 -0.095617667 0.016572341 5.3451885e-39
-0.0415406 -0.095617667 0.016572341 4.7920148e-39
-0.039656825 -0.094907165 0.019562945 4.1466453e-39
-0.037870057 -0.094907165 0.019562945 3.8707773e-39
-0.036083288 -0.094907165 0.019562945 4.8870872e-39
-0.03429652 -0.094907165 0.019562945 4.519025e-39
-0.026845017 -0.11605005 -0.069430962 5.3462591e-39
