# .PCD v0.7 - Point Cloud Data file format
VERSION 0.7
FIELDS x y z rgb
SIZE 4 4 4 4
TYPE F F F F
COUNT 1 1 1 1
WIDTH 921
HEIGHT 1
VIEWPOINT 0 0 0 1 0 0 0
POINTS 921
DATA ascii
-0.041695554 -0.095891505 -0.14945182 2.350951e-38
-0.039584231 -0.092053071 -0.13143358 2.3508431e-38
-0.037615068 -0.092053071 -0.13143358 2.2863059e-38
-0.035624713 -0.090336218 -0.12337431 2.350987e-38
-0.03366968 -0.090336218 -0.12337431 2.2311328e-38
-0.031717233 -0.089708492 -0.1204277 2.3509886e-38
-0.029777959 -0.088850766 -0.1164014 2.341805e-38
-0.027835153 -0.088850766 -0.1164014 2.341805e-38
-0.025910947 -0.088205129 -0.11337063 2.3418047e-38
-0.024004823 -0.087358251 -0.10939524 2.350988e-38
-0.022074301 -0.087358251 -0.10939524 2.3509879e-38
-0.020143781 -0.087358251 -0.10939524 2.3509879e-38
-0.018160984 -0.088205129 -0.11337063 2.3509876e-38
-0.016223494 -0.088205129 -0.11337063 2.3509876e-38
-0.013685009 -0.095891505 -0.14945182 2.3509879e-38
-0.011684257 -0.095891505 -0.14945182 2.350988e-38
-0.0096835038 -0.095891505 -0.14945182 2.3509883e-38
-0.0076827509 -0.095891505 -0.14945182 2.341805e-38
-0.0056819981 -0.095891505 -0.14945182 2.341805e-38
-0.0036812453 -0.095891505 -0.14945182 2.341805e-38
-0.0016804906 -0.095891505 -0.14945182 2.3234379e-38
0.00032026228 -0.095891505 -0.14945182 2.2958873e-38
0.0024583815 -0.071814939 -0.036432236 2.2775202e-38
0.0042609749 -0.071814939 -0.036432236 2.2775202e-38
0.0060635647 -0.071814939 -0.036432236 2.2775202e-38
0.0078661582 -0.071814939 -0.036432236 2.2775202e-38
0.0096687516 -0.071814939 -0.036432236 2.2591531e-38
0.011597577 -0.072440952 -0.039370865 2.2867037e-38
0.013405322 -0.072440952 -0.039370865 2.2958873e-38
-0.039559793 -0.093166932 -0.12745139 2.3138207e-38
-0.037597612 -0.093166932 -0.12745139 2.3509866e-38
-0.035624713 -0.092291236 -0.12337431 2.3509869e-38
-0.033667099 -0.091658354 -0.1204277 2.3326196e-38
-0.031723421 -0.090142623 -0.11337063 2.3418047e-38
-0.029796384 -0.089288771 -0.10939524 2.341805e-38
-0.027865864 -0.089288771 -0.10939524 2.341805e-38
-0.025935344 -0.089288771 -0.10939524 2.3418047e-38
-0.024035962 -0.088441074 -0.10544845 2.350988e-38
-0.022112362 -0.088441074 -0.10544845 2.3509879e-38
-0.02018876 -0.088441074 -0.10544845 2.3509879e-38
-0.018265162 -0.088441074 -0.10544845 2.3509879e-38
-0.016282741 -0.089288771 -0.10939524 2.3509879e-38
-0.01423552 -0.09079358 -0.1164014 2.3509879e-38
-0.012292716 -0.09079358 -0.1164014 2.350988e-38
-0.0097457254 -0.097229466 -0.14636597 2.3509883e-38
-0.0076827509 -0.097892255 -0.14945182 2.341805e-38
-0.0057550399 -0.097229466 -0.14636597 2.341805e-38
-0.0038604038 -0.096378669 -0.14240476 2.341805e-38
-0.0018720077 -0.096378669 -0.14240476 2.3234379e-38
0.00011639204 -0.096378669 -0.14240476 2.3234379e-38
-0.0016087489 -0.070383906 -0.021376938 2.3142544e-38
0.00036305841 -0.071679175 -0.027407497 2.2958873e-38
0.0024583815 -0.073617533 -0.036432236 2.2867036e-38
0.0042609749 -0.073617533 -0.036432236 2.2775202e-38
0.0060635647 -0.073617533 -0.036432236 2.2683366e-38
0.0078661582 -0.073617533 -0.036432236 2.2775202e-38
0.009789831 -0.074248701 -0.039370865 2.2867037e-38
0.011597577 -0.074248701 -0.039370865 2.2499336e-38
0.013405322 -0.074248701 -0.039370865 2.2958873e-38
0.01535531 -0.074906245 -0.042432278 2.3142544e-38
-0.039559793 -0.095129102 -0.12745139 2.3414794e-38
-0.037579741 -0.094246268 -0.12337431 2.2494995e-38
-0.03561696 -0.093608215 -0.1204277 2.3049608e-38
-0.033663567 -0.092736378 -0.1164014 2.3234364e-38
-0.031723421 -0.092080101 -0.11337063 2.3418045e-38
-0.029796384 -0.091219291 -0.10939524 2.341805e-38
-0.027865864 -0.091219291 -0.10939524 2.341805e-38
-0.025959563 -0.090364665 -0.10544845 2.3418047e-38
-0.024035962 -0.090364665 -0.10544845 2.3509883e-38
-0.022112362 -0.090364665 -0.10544845 2.350988e-38
-0.02018876 -0.090364665 -0.10544845 2.350988e-38
-0.018265162 -0.090364665 -0.10544845 2.350988e-38
-0.016282741 -0.091219291 -0.10939524 2.350988e-38
-0.01423552 -0.092736378 -0.1164014 2.350988e-38
-0.012292716 -0.092736378 -0.1164014 2.350988e-38
-0.0099074645 -0.097487867 -0.1383445 2.3509883e-38
-0.0078371996 -0.098367065 -0.14240476 2.3418047e-38
-0.0058488017 -0.098367065 -0.14240476 2.341805e-38
-0.0042405697 -0.095129102 -0.12745139 2.341805e-38
-0.0022783903 -0.095129102 -0.12745139 2.3418047e-38
-0.003384945 -0.072160095 -0.021376938 2.3049978e-38
-0.0016087489 -0.072160095 -0.021376938 2.341804e-38
0.00036305841 -0.073465943 -0.027407497 2.3234369e-38
0.002663522 -0.076719359 -0.042432278 2.3234369e-38
0.0043665981 -0.076056451 -0.039370865 2.3142537e-38
0.0060635647 -0.075420126 -0.036432236 2.2958863e-38
0.0078661582 -0.075420126 -0.036432236 2.2591518e-38
0.009789831 -0.076056451 -0.039370865 2.2591518e-38
0.011597577 -0.076056451 -0.039370865 2.2958867e-38
0.013542197 -0.076719359 -0.042432278 2.2313854e-38
0.01535531 -0.076719359 -0.042432278 2.259044e-38
0.017168421 -0.076719359 -0.042432278 2.3234374e-38
0.018981535 -0.076719359 -0.042432278 2.2957425e-38
-0.04152197 -0.097091287 -0.12745139 1.511539e-38
-0.039516691 -0.095558092 -0.1204277 1.7238048e-38
-0.037566826 -0.095558092 -0.1204277 2.350987e-38
-0.035606373 -0.094679192 -0.1164014 2.3234364e-38
-0.033663567 -0.094679192 -0.1164014 2.2958857e-38
-0.031723421 -0.094017595 -0.11337063 2.3234372e-38
-0.029796384 -0.093149811 -0.10939524 2.3234376e-38
-0.027865864 -0.093149811 -0.10939524 2.3418047e-38
-0.025959563 -0.092288271 -0.10544845 2.3418047e-38
-0.024035962 -0.092288271 -0.10544845 2.3509883e-38
-0.022112362 -0.092288271 -0.10544845 2.3509527e-38
-0.02018876 -0.092288271 -0.10544845 2.3509527e-38
-0.018265162 -0.092288271 -0.10544845 2.3509527e-38
-0.01634156 -0.092288271 -0.10544845 2.3509527e-38
-0.01435222 -0.093149811 -0.10939524 2.3509527e-38
-0.012292716 -0.094679192 -0.1164014 2.3509527e-38
-0.0099074645 -0.09946914 -0.1383445 2.3509883e-38
-0.0079261856 -0.09946914 -0.1383445 2.3418047e-38
-0.0061084898 -0.097960562 -0.13143358 2.3418045e-38
-0.0042405697 -0.097091287 -0.12745139 2.3234374e-38
-0.0022783903 -0.097091287 -0.12745139 2.3418043e-38
-0.003384945 -0.073936298 -0.021376938 2.3509873e-38
-0.0016087489 -0.073936298 -0.021376938 2.350987e-38
0.00036305841 -0.075252712 -0.027407497 2.3509873e-38
0.0024583815 -0.07722272 -0.036432236 2.3509873e-38
0.0043665981 -0.077864185 -0.039370865 2.3418038e-38
0.0061743436 -0.077864185 -0.039370865 2.3418038e-38
0.0079820855 -0.077864185 -0.039370865 2.3234369e-38
0.0099159731 -0.078532472 -0.042432278 2.3142534e-38
0.011729083 -0.078532472 -0.042432278 2.3142534e-38
0.013542197 -0.078532472 -0.042432278 2.3142532e-38
0.015213064 -0.077864185 -0.039370865 2.3234372e-38
0.01702081 -0.077864185 -0.039370865 2.3234372e-38
0.018828556 -0.077864185 -0.039370865 2.3418043e-38
0.020636298 -0.077864185 -0.039370865 2.3418043e-38
0.022444043 -0.077864185 -0.039370865 2.3509879e-38
0.024089489 -0.07722272 -0.036432236 2.2496453e-38
0.026059534 -0.077864185 -0.039370865 2.2958873e-38
0.028047096 -0.078532472 -0.042432278 2.2775202e-38
0.029860206 -0.078532472 -0.042432278 2.2498619e-38
0.03167332 -0.078532472 -0.042432278 1.5860545e-38
0.032908805 -0.076562196 -0.033406347 5.1658546e-39
-0.04152197 -0.099053472 -0.12745139 1.5115037e-38
-0.039516691 -0.097507954 -0.1204277 1.8067814e-38
-0.037566826 -0.097507954 -0.1204277 2.2495722e-38
-0.035606373 -0.09662199 -0.1164014 2.3142534e-38
-0.033660911 -0.095955089 -0.11337063 2.1946146e-38
-0.031723421 -0.095955089 -0.11337063 2.3142537e-38
-0.029796384 -0.095080331 -0.10939524 2.3234374e-38
-0.027865864 -0.095080331 -0.10939524 2.3418047e-38
-0.025959563 -0.094211861 -0.10544845 2.3418047e-38
-0.024035962 -0.094211861 -0.10544845 2.3509527e-38
-0.022142157 -0.093531981 -0.10235867 2.3509527e-38
-0.020223975 -0.093531981 -0.10235867 2.3509168e-38
-0.018305792 -0.093531981 -0.10235867 2.3509168e-38
-0.016387608 -0.093531981 -0.10235867 2.3509168e-38
-0.01441796 -0.094211861 -0.10544845 2.3509168e-38
-0.012292716 -0.09662199 -0.1164014 2.3509527e-38
-0.0098255957 -0.10234386 -0.14240476 2.3509886e-38
-0.0080776503 -0.09992972 -0.13143358 2.350988e-38
-0.0062027471 -0.099053472 -0.12745139 2.3418043e-38
-0.0066315075 -0.078359485 -0.033406347 2.3234372e-38
-0.0048342207 -0.078359485 -0.033406347 2.341804e-38
-0.0032964917 -0.076385275 -0.024434417 2.3509873e-38
-0.0015149349 -0.076385275 -0.024434417 2.3509873e-38
0.0005576415 -0.078359485 -0.033406347 2.3509876e-38
0.0024583815 -0.079025313 -0.036432236 2.3325483e-38
0.0043665981 -0.079671934 -0.039370865 2.3325483e-38
0.0061743436 -0.079671934 -0.039370865 2.3141452e-38
0.0079820855 -0.079671934 -0.039370865 2.2957782e-38
0.009789831 -0.079671934 -0.039370865 2.2774111e-38
0.011597577 -0.079671934 -0.039370865 2.2774111e-38
0.013405322 -0.079671934 -0.039370865 2.3234372e-38
0.015076528 -0.079025313 -0.036432236 2.3234374e-38
0.016879119 -0.079025313 -0.036432236 2.2589722e-38
0.018681712 -0.079025313 -0.036432236 2.2404251e-38
0.020484302 -0.079025313 -0.036432236 2.3141816e-38
0.022286896 -0.079025313 -0.036432236 2.3509883e-38
0.024089489 -0.079025313 -0.036432236 2.3418047e-38
0.026059534 -0.079671934 -0.039370865 2.3234379e-38
0.028047096 -0.080345586 -0.042432278 2.2589371e-38
0.029860206 -0.080345586 -0.042432278 2.3234379e-38
0.03167332 -0.080345586 -0.042432278 2.2405347e-38
0.032908805 -0.078359485 -0.033406347 2.2589378e-38
0.034706086 -0.078359485 -0.033406347 2.240499e-38
-0.039516691 -0.099457815 -0.1204277 1.8436242e-38
-0.037566826 -0.099457815 -0.1204277 2.2311696e-38
-0.035606373 -0.098564804 -0.1164014 2.2038346e-38
-0.033660911 -0.097892582 -0.11337063 2.2867032e-38
-0.031726904 -0.097010851 -0.10939524 2.3142537e-38
-0.029806763 -0.096135467 -0.10544845 2.3234372e-38
-0.027883165 -0.096135467 -0.10544845 2.3418045e-38
-0.025959563 -0.096135467 -0.10544845 2.341805e-38
-0.024060341 -0.095450163 -0.10235867 2.3509527e-38
-0.022142157 -0.095450163 -0.10235867 2.3509527e-38
-0.020269725 -0.094559789 -0.098344296 2.3509168e-38
-0.018358581 -0.094559789 -0.098344296 2.3508809e-38
-0.016387608 -0.095450163 -0.10235867 2.3508809e-38
-0.014469425 -0.095450163 -0.10235867 2.3509168e-38
-0.012551242 -0.095450163 -0.10235867 2.3509527e-38
-0.010046813 -0.10189888 -0.13143358 2.3509886e-38
-0.0080776503 -0.10189888 -0.13143358 2.350988e-38
-0.0062992526 -0.10011137 -0.12337431 2.3418043e-38
-0.0066315075 -0.080156773 -0.033406347 2.3234369e-38
-0.0048342207 -0.080156773 -0.033406347 2.3509876e-38
-0.003036934 -0.080156773 -0.033406347 2.3415885e-38
-0.0012396472 -0.080156773 -0.033406347 2.3508086e-38
0.000655788 -0.080827907 -0.036432236 2.3508807e-38
0.0024583815 -0.080827907 -0.036432236 2.3509165e-38
0.0043665981 -0.081479684 -0.039370865 2.3509524e-38
0.0061743436 -0.081479684 -0.039370865 2.3509883e-38
0.0079820855 -0.081479684 -0.039370865 2.3509886e-38
0.009789831 -0.081479684 -0.039370865 2.341805e-38
0.011471341 -0.080827907 -0.036432236 2.341805e-38
0.013273935 -0.080827907 -0.036432236 2.341805e-38
0.015076528 -0.080827907 -0.036432236 2.3049273e-38
0.016879119 -0.080827907 -0.036432236 2.3325856e-38
0.018681712 -0.080827907 -0.036432236 2.341805e-38
0.020484302 -0.080827907 -0.036432236 2.341805e-38
0.022286896 -0.080827907 -0.036432236 2.3417333e-38
0.024089489 -0.080827907 -0.036432236 2.3509886e-38
0.025892079 -0.080827907 -0.036432236 2.3509876e-38
0.027867276 -0.081479684 -0.039370865 2.3509873e-38
0.029497266 -0.080827907 -0.036432236 2.3509879e-38
0.031299859 -0.080827907 -0.036432236 2.3509886e-38
0.032908805 -0.080156773 -0.033406347 2.2588296e-38
0.034706086 -0.080156773 -0.033406347 2.3417691e-38
0.036503375 -0.080156773 -0.033406347 2.3233662e-38
-0.035606373 -0.1005076 -0.1164014 2.1483377e-38
-0.033660911 -0.099830076 -0.11337063 2.295887e-38
-0.031730365 -0.098059073 -0.10544845 2.3142538e-38
-0.029806763 -0.098059073 -0.10544845 2.3234374e-38
-0.027896706 -0.097368345 -0.10235867 2.3234376e-38
-0.025978524 -0.097368345 -0.10235867 2.341805e-38
-0.024092015 -0.096470937 -0.098344296 2.341805e-38
-0.022209153 -0.095815286 -0.09541139 2.3509527e-38
-0.020303151 -0.095815286 -0.09541139 2.3509168e-38
-0.018488873 -0.094255984 -0.088436216 2.3509168e-38
-0.016595099 -0.094255984 -0.088436216 2.3509168e-38
-0.014469425 -0.097368345 -0.10235867 2.3509168e-38
-0.012551242 -0.097368345 -0.10235867 2.3509527e-38
-0.010127106 -0.10297783 -0.12745139 2.3509883e-38
-0.0081649264 -0.10297783 -0.12745139 2.350988e-38
-0.0062992526 -0.1020664 -0.12337431 2.3509879e-38
-0.0066315075 -0.081954062 -0.033406347 2.3509876e-38
-0.0048342207 -0.081954062 -0.033406347 2.3509879e-38
-0.003036934 -0.081954062 -0.033406347 2.3508085e-38
-0.0012396472 -0.081954062 -0.033406347 2.3508809e-38
0.000655788 -0.0826305 -0.036432236 2.3509168e-38
0.0024583815 -0.0826305 -0.036432236 2.3509168e-38
0.0043665981 -0.083287418 -0.039370865 2.3508446e-38
0.0061743436 -0.083287418 -0.039370865 2.323258e-38
0.0079820855 -0.083287418 -0.039370865 2.3509886e-38
0.009789831 -0.083287418 -0.039370865 2.3509886e-38
0.011471341 -0.0826305 -0.036432236 2.2772686e-38
0.013273935 -0.0826305 -0.036432236 2.341805e-38
0.015076528 -0.0826305 -0.036432236 2.341805e-38
0.016879119 -0.0826305 -0.036432236 2.3233662e-38
0.018681712 -0.0826305 -0.036432236 2.3325856e-38
0.020484302 -0.0826305 -0.036432236 2.3233662e-38
0.02212508 -0.081954062 -0.033406347 2.3325138e-38
0.023922369 -0.081954062 -0.033406347 2.3509886e-38
0.025892079 -0.0826305 -0.036432236 2.3509879e-38
0.027694672 -0.0826305 -0.036432236 2.2955619e-38
0.029314227 -0.081954062 -0.033406347 2.3509879e-38
0.031111516 -0.081954062 -0.033406347 2.2218784e-38
0.032524899 -0.080613017 -0.027407497 2.3509527e-38
0.034116186 -0.079948381 -0.024434417 2.3325138e-38
0.035897739 -0.079948381 -0.024434417 2.2679779e-38
0.0376793 -0.079948381 -0.024434417 2.3233662e-38
0.039884336 -0.081281558 -0.030398101 2.2957796e-38
-0.031730365 -0.099982664 -0.10544845 2.3142544e-38
-0.029806763 -0.099982664 -0.10544845 2.3142544e-38
-0.027896706 -0.099286526 -0.10235867 2.2958514e-38
-0.025978524 -0.099286526 -0.10235867 2.3142544e-38
-0.024092015 -0.098382086 -0.098344296 2.3142544e-38
-0.022209153 -0.097721294 -0.09541139 2.3142544e-38
-0.020416776 -0.095475003 -0.085441321 2.3142544e-38
-0.018580925 -0.094572589 -0.081436008 2.2865955e-38
-0.016699426 -0.094572589 -0.081436008 2.341805e-38
-0.014817926 -0.094572589 -0.081436008 2.3509883e-38
-0.012992938 -0.093881011 -0.078366488 2.3417324e-38
-0.010127106 -0.10494001 -0.12745139 2.350988e-38
-0.0081649264 -0.10494001 -0.12745139 2.3509879e-38
-0.0084287943 -0.083751351 -0.033406347 2.3509518e-38
-0.0066315075 -0.083751351 -0.033406347 2.350952e-38
-0.0048342207 -0.083751351 -0.033406347 2.350952e-38
-0.003036934 -0.083751351 -0.033406347 2.3508441e-38
-0.0012396472 -0.083751351 -0.033406347 2.3417327e-38
0.0005576415 -0.083751351 -0.033406347 2.3417327e-38
0.0023549264 -0.083751351 -0.033406347 2.3509883e-38
0.0042609749 -0.084433094 -0.036432236 2.3509883e-38
0.0060635647 -0.084433094 -0.036432236 2.3509883e-38
0.0078661582 -0.084433094 -0.036432236 2.3509883e-38
0.0096687516 -0.084433094 -0.036432236 2.3509883e-38
0.011471341 -0.084433094 -0.036432236 2.3509883e-38
0.013273935 -0.084433094 -0.036432236 2.3417687e-38
0.015076528 -0.084433094 -0.036432236 2.31411e-38
0.016879119 -0.084433094 -0.036432236 2.3509883e-38
0.018681712 -0.084433094 -0.036432236 2.3509886e-38
0.020484302 -0.084433094 -0.036432236 2.3509883e-38
0.02212508 -0.083751351 -0.033406347 2.3509886e-38
0.023922369 -0.083751351 -0.033406347 2.3509886e-38
0.025719654 -0.083751351 -0.033406347 2.3509886e-38
0.027516942 -0.083751351 -0.033406347 2.3509886e-38
0.029314227 -0.083751351 -0.033406347 2.3509886e-38
0.030924276 -0.083073571 -0.030398101 2.3509886e-38
0.032524899 -0.082399786 -0.027407497 2.3509527e-38
0.034116186 -0.081729934 -0.024434417 2.3509527e-38
0.035897739 -0.081729934 -0.024434417 2.3509527e-38
0.038092323 -0.083073571 -0.030398101 2.341805e-38
0.039884336 -0.083073571 -0.030398101 2.2404628e-38
0.041676342 -0.083073571 -0.030398101 2.3142544e-38
0.043245509 -0.082399786 -0.027407497 2.2774843e-38
-0.029806763 -0.10190627 -0.10544845 2.3234379e-38
-0.027896706 -0.10120471 -0.10235867 2.3234379e-38
-0.02600316 -0.10029322 -0.098344296 2.3050708e-38
-0.024115155 -0.099627286 -0.09541139 2.2774481e-38
-0.022305299 -0.097363517 -0.085441321 2.2866674e-38
-0.020462424 -0.096454084 -0.081436008 2.3142544e-38
-0.018621288 -0.095757127 -0.078366488 2.3142541e-38
-0.016745172 -0.095757127 -0.078366488 2.2774116e-38
-0.014869056 -0.095757127 -0.078366488 2.3049624e-38
-0.012992938 -0.095757127 -0.078366488 2.350988e-38
-0.012084023 -0.084865585 -0.030398101 2.350988e-38
-0.010292011 -0.084865585 -0.030398101 2.3509521e-38
-0.0084999995 -0.084865585 -0.030398101 2.3509524e-38
-0.0067079877 -0.084865585 -0.030398101 2.3508085e-38
-0.0049159741 -0.084865585 -0.030398101 2.3507725e-38
-0.0031239623 -0.084865585 -0.030398101 2.3509883e-38
-0.0013319487 -0.084865585 -0.030398101 2.3509883e-38
0.00046006124 -0.084865585 -0.030398101 2.3417687e-38
0.0022520749 -0.084865585 -0.030398101 2.3325492e-38
0.0041522151 -0.085548624 -0.033406347 2.3325492e-38
0.0059495 -0.085548624 -0.033406347 2.3233296e-38
0.0077467849 -0.085548624 -0.033406347 2.3233296e-38
0.0095440736 -0.085548624 -0.033406347 2.31411e-38
0.011341359 -0.085548624 -0.033406347 2.3048905e-38
0.013138647 -0.085548624 -0.033406347 2.3048905e-38
0.014935932 -0.085548624 -0.033406347 2.3417687e-38
0.016733222 -0.085548624 -0.033406347 2.3509883e-38
0.018530507 -0.085548624 -0.033406347 2.3509883e-38
0.020327795 -0.085548624 -0.033406347 2.3509883e-38
0.02212508 -0.085548624 -0.033406347 2.3325492e-38
0.023756225 -0.084865585 -0.030398101 2.341769e-38
0.025548235 -0.084865585 -0.030398101 2.341805e-38
0.027340248 -0.084865585 -0.030398101 2.3417691e-38
0.029132258 -0.084865585 -0.030398101 2.341805e-38
0.03073813 -0.084186554 -0.027407497 2.341805e-38
0.032524899 -0.084186554 -0.027407497 2.3509886e-38
0.034116186 -0.083511502 -0.024434417 2.3509886e-38
0.035897739 -0.083511502 -0.024434417 2.3509886e-38
0.0376793 -0.083511502 -0.024434417 2.3509886e-38
0.039671972 -0.084186554 -0.027407497 2.3509886e-38
0.041458741 -0.084186554 -0.027407497 2.3234379e-38
0.043245509 -0.084186554 -0.027407497 2.3142544e-38
0.044572324 -0.082817271 -0.021376938 2.2958873e-38
0.04634852 -0.082817271 -0.021376938 2.0747632e-38
-0.027896706 -0.1031229 -0.10235867 2.3509883e-38
-0.02600316 -0.10220437 -0.098344296 2.3509883e-38
-0.024139091 -0.10083917 -0.092377752 2.3418047e-38
-0.022305299 -0.099252045 -0.085441321 2.3141822e-38
-0.020462424 -0.098335579 -0.081436008 2.2865955e-38
-0.018621288 -0.097633243 -0.078366488 2.2865955e-38
-0.016745172 -0.097633243 -0.078366488 2.3234379e-38
-0.014869056 -0.097633243 -0.078366488 2.3234379e-38
-0.012992938 -0.097633243 -0.078366488 2.341805e-38
-0.012023368 -0.087345913 -0.033406347 2.341805e-38
-0.010292011 -0.086657599 -0.030398101 2.3509886e-38
-0.0084999995 -0.086657599 -0.030398101 2.3509527e-38
-0.0067079877 -0.086657599 -0.030398101 2.3509527e-38
-0.0049159741 -0.086657599 -0.030398101 2.3509168e-38
-0.0031239623 -0.086657599 -0.030398101 2.3509886e-38
-0.0013319487 -0.086657599 -0.030398101 2.3509886e-38
0.00046006124 -0.086657599 -0.030398101 2.3509886e-38
0.0022520749 -0.086657599 -0.030398101 2.3509886e-38
0.0041522151 -0.087345913 -0.033406347 2.3509886e-38
0.0059495 -0.087345913 -0.033406347 2.3509886e-38
0.0077467849 -0.087345913 -0.033406347 2.3509886e-38
0.0095440736 -0.087345913 -0.033406347 2.3509886e-38
0.011341359 -0.087345913 -0.033406347 2.3509886e-38
0.013138647 -0.087345913 -0.033406347 2.3509886e-38
0.014796159 -0.086657599 -0.030398101 2.3509886e-38
0.016588174 -0.086657599 -0.030398101 2.3509886e-38
0.018380187 -0.086657599 -0.030398101 2.341769e-38
0.020172197 -0.086657599 -0.030398101 2.3233299e-38
0.021964211 -0.086657599 -0.030398101 2.3325494e-38
0.023591053 -0.085973322 -0.027407497 2.3509886e-38
0.025377821 -0.085973322 -0.027407497 2.3509527e-38
0.026989959 -0.085293055 -0.024434417 2.3509527e-38
0.028771516 -0.085293055 -0.024434417 2.3509527e-38
0.030553073 -0.085293055 -0.024434417 2.3509527e-38
0.032334626 -0.085293055 -0.024434417 2.3509527e-38
0.033915155 -0.084593475 -0.021376938 2.3509527e-38
0.035691351 -0.084593475 -0.021376938 2.3509527e-38
0.037467547 -0.084593475 -0.021376938 2.3509883e-38
0.039243743 -0.084593475 -0.021376938 2.3509886e-38
0.041019939 -0.084593475 -0.021376938 2.2680488e-38
0.042796127 -0.084593475 -0.021376938 2.2773408e-38
0.044572324 -0.084593475 -0.021376938 2.2958873e-38
0.04634852 -0.084593475 -0.021376938 2.2867037e-38
0.048368633 -0.085293055 -0.024434417 2.2683366e-38
-0.02417019 -0.10183108 -0.088436216 2.3509521e-38
-0.022305299 -0.10114056 -0.085441321 2.3509883e-38
-0.020462424 -0.10021709 -0.081436008 2.3509883e-38
-0.018621288 -0.099509358 -0.078366488 2.3049626e-38
-0.016745172 -0.099509358 -0.078366488 2.3141466e-38
-0.014869056 -0.099509358 -0.078366488 2.3234379e-38
-0.012023368 -0.089143202 -0.033406347 2.2865602e-38
-0.010357556 -0.087760091 -0.027407497 2.2865602e-38
-0.0085707875 -0.087760091 -0.027407497 2.3417691e-38
-0.0067840172 -0.087760091 -0.027407497 2.3417691e-38
-0.0049972488 -0.087760091 -0.027407497 2.3417691e-38
-0.0032104803 -0.087760091 -0.027407497 2.3325138e-38
-0.00142371 -0.087760091 -0.027407497 2.3417691e-38
0.00036305841 -0.087760091 -0.027407497 2.3417691e-38
0.0021498268 -0.087760091 -0.027407497 2.3417691e-38
0.0041522151 -0.089143202 -0.033406347 2.3509886e-38
0.0059495 -0.089143202 -0.033406347 2.3509886e-38
0.0077467849 -0.089143202 -0.033406347 2.3509886e-38
0.009420122 -0.088449612 -0.030398101 2.3509886e-38
0.011212136 -0.088449612 -0.030398101 2.3509886e-38
0.013004149 -0.088449612 -0.030398101 2.3509886e-38
0.014796159 -0.088449612 -0.030398101 2.3509886e-38
0.016443975 -0.087760091 -0.027407497 2.3417691e-38
0.018230747 -0.087760091 -0.027407497 2.3325497e-38
0.020017516 -0.087760091 -0.027407497 2.3325497e-38
0.021804284 -0.087760091 -0.027407497 2.3509886e-38
0.023426849 -0.087074608 -0.024434417 2.3509527e-38
0.025208406 -0.087074608 -0.024434417 2.3509527e-38
0.026810374 -0.086369663 -0.021376938 2.3509527e-38
0.02858657 -0.086369663 -0.021376938 2.3509527e-38
0.030553073 -0.087074608 -0.024434417 2.3509886e-38
0.032138959 -0.086369663 -0.021376938 2.3509527e-38
0.033915155 -0.086369663 -0.021376938 2.3509883e-38
0.035691351 -0.086369663 -0.021376938 2.3509883e-38
0.037467547 -0.086369663 -0.021376938 2.3509883e-38
0.039243743 -0.086369663 -0.021376938 2.3509883e-38
0.041019939 -0.086369663 -0.021376938 2.3509886e-38
0.042796127 -0.086369663 -0.021376938 2.3234379e-38
0.044572324 -0.086369663 -0.021376938 2.3050708e-38
0.04658708 -0.087074608 -0.024434417 2.2867037e-38
0.048368633 -0.087074608 -0.024434417 2.2867037e-38
0.050150186 -0.087074608 -0.024434417 1.9641287e-38
-0.02417019 -0.10372485 -0.088436216 2.3508797e-38
-0.022343922 -0.10209858 -0.081436008 2.350952e-38
-0.020497406 -0.10138547 -0.078366488 2.3509883e-38
-0.018621288 -0.10138547 -0.078366488 2.3509886e-38
-0.016745172 -0.10138547 -0.078366488 2.2957075e-38
-0.012023368 -0.09094049 -0.033406347 2.3234379e-38
-0.010357556 -0.089546859 -0.027407497 2.3234379e-38
-0.0086411601 -0.088856161 -0.024434417 2.3234379e-38
-0.0068596033 -0.088856161 -0.024434417 2.323402e-38
-0.0050780484 -0.088856161 -0.024434417 2.3234379e-38
-0.0032964917 -0.088856161 -0.024434417 2.341805e-38
-0.0015149349 -0.088856161 -0.024434417 2.3509527e-38
0.00026662182 -0.088856161 -0.024434417 2.3509527e-38
0.0020481749 -0.088856161 -0.024434417 2.3509527e-38
0.0040440885 -0.090241626 -0.030398101 2.3509527e-38
0.0058360985 -0.090241626 -0.030398101 2.3509527e-38
0.0076281121 -0.090241626 -0.030398101 2.3417333e-38
0.0092969006 -0.089546859 -0.027407497 2.3417333e-38
0.011083669 -0.089546859 -0.027407497 2.2956359e-38
0.012870437 -0.089546859 -0.027407497 2.314075e-38
0.014657206 -0.089546859 -0.027407497 2.3417333e-38
0.016300626 -0.088856161 -0.024434417 2.3509527e-38
0.018082179 -0.088856161 -0.024434417 2.3509527e-38
0.019863736 -0.088856161 -0.024434417 2.3509527e-38
0.021645293 -0.088856161 -0.024434417 2.3509527e-38
0.023426849 -0.088856161 -0.024434417 2.314075e-38
0.025034178 -0.088145852 -0.021376938 2.3509527e-38
0.026810374 -0.088145852 -0.021376938 2.3509527e-38
0.02858657 -0.088145852 -0.021376938 2.3509527e-38
0.030362763 -0.088145852 -0.021376938 2.3509527e-38
0.031944469 -0.08743982 -0.018337816 2.3509524e-38
0.03371533 -0.08743982 -0.018337816 2.3509521e-38
0.035486199 -0.08743982 -0.018337816 2.3509521e-38
0.037257068 -0.08743982 -0.018337816 2.350988e-38
0.039243743 -0.088145852 -0.021376938 2.3417324e-38
0.041019939 -0.088145852 -0.021376938 2.3509883e-38
0.042796127 -0.088145852 -0.021376938 2.341805e-38
0.044572324 -0.088145852 -0.021376938 2.3234379e-38
0.04658708 -0.088856161 -0.024434417 2.3234379e-38
0.048368633 -0.088856161 -0.024434417 2.3050349e-38
0.050150186 -0.088856161 -0.024434417 2.2958873e-38
-0.02417019 -0.10561861 -0.088436216 2.3508435e-38
-0.022343922 -0.10398008 -0.081436008 2.3508077e-38
-0.020497406 -0.1032616 -0.078366488 2.3508801e-38
-0.018621288 -0.1032616 -0.078366488 2.3509883e-38
-0.010422715 -0.090637714 -0.024434417 2.2773408e-38
-0.0086411601 -0.090637714 -0.024434417 2.258902e-38
-0.0068596033 -0.090637714 -0.024434417 2.2681214e-38
-0.0050780484 -0.090637714 -0.024434417 2.3141109e-38
-0.0032964917 -0.090637714 -0.024434417 2.314075e-38
-0.0015149349 -0.090637714 -0.024434417 2.3141106e-38
0.00026662182 -0.090637714 -0.024434417 2.3233302e-38
0.0020481749 -0.090637714 -0.024434417 2.3325497e-38
0.0039365953 -0.091333628 -0.027407497 2.3325497e-38
0.0058360985 -0.09203364 -0.030398101 2.3417691e-38
0.0076281121 -0.09203364 -0.030398101 2.3417691e-38
0.0092969006 -0.091333628 -0.027407497 2.3509886e-38
0.011083669 -0.091333628 -0.027407497 2.3509886e-38
0.012870437 -0.091333628 -0.027407497 2.3509886e-38
0.014519068 -0.090637714 -0.024434417 2.3509886e-38
0.016300626 -0.090637714 -0.024434417 2.3509886e-38
0.018082179 -0.090637714 -0.024434417 2.3325497e-38
0.019863736 -0.090637714 -0.024434417 2.3509886e-38
0.02148179 -0.089922056 -0.021376938 2.3509886e-38
0.023257986 -0.089922056 -0.021376938 2.3509886e-38
0.025034178 -0.089922056 -0.021376938 2.3509527e-38
0.026631866 -0.089210689 -0.018337816 2.3509527e-38
0.028402735 -0.089210689 -0.018337816 2.3509527e-38
0.0301736 -0.089210689 -0.018337816 2.3509883e-38
0.031944469 -0.089210689 -0.018337816 2.3509521e-38
0.03371533 -0.089210689 -0.018337816 2.3509879e-38
0.035486199 -0.089210689 -0.018337816 2.3509879e-38
0.037257068 -0.089210689 -0.018337816 2.3509879e-38
0.039027929 -0.089210689 -0.018337816 2.2956346e-38
0.040798798 -0.089210689 -0.018337816 2.350988e-38
0.042569667 -0.089210689 -0.018337816 2.3048907e-38
0.044572324 -0.089922056 -0.021376938 2.3233662e-38
0.04634852 -0.089922056 -0.021376938 2.341805e-38
0.048124716 -0.089922056 -0.021376938 2.2496824e-38
0.049900912 -0.089922056 -0.021376938 2.3234379e-38
-0.010422715 -0.092419267 -0.024434417 2.3509527e-38
-0.0086411601 -0.092419267 -0.024434417 2.3509527e-38
-0.0068596033 -0.092419267 -0.024434417 2.3509527e-38
-0.0050780484 -0.092419267 -0.024434417 2.3509527e-38
-0.0032964917 -0.092419267 -0.024434417 2.3509527e-38
-0.0015149349 -0.092419267 -0.024434417 2.3509527e-38
0.00026662182 -0.092419267 -0.024434417 2.3509527e-38
0.0020481749 -0.092419267 -0.024434417 2.3509527e-38
0.0039365953 -0.093120396 -0.027407497 2.3509527e-38
0.0057233637 -0.093120396 -0.027407497 2.3509527e-38
0.0075101322 -0.093120396 -0.027407497 2.3509527e-38
0.0091744019 -0.092419267 -0.024434417 2.3509527e-38
0.010955955 -0.092419267 -0.024434417 2.258721e-38
0.012737512 -0.092419267 -0.024434417 2.3416971e-38
0.014519068 -0.092419267 -0.024434417 2.3509527e-38
0.016153205 -0.091698244 -0.021376938 2.3509167e-38
0.017929398 -0.091698244 -0.021376938 2.3048189e-38
0.019705594 -0.091698244 -0.021376938 2.323258e-38
0.021319266 -0.090981558 -0.018337816 2.3509527e-38
0.023090135 -0.090981558 -0.018337816 2.3509527e-38
0.024694581 -0.090292826 -0.015417308 2.3509527e-38
0.026460327 -0.090292826 -0.015417308 2.3509524e-38
0.02822607 -0.090292826 -0.015417308 2.3509524e-38
0.02999182 -0.090292826 -0.015417308 2.3509521e-38
0.031757563 -0.090292826 -0.015417308 2.3509521e-38
0.033523306 -0.090292826 -0.015417308 2.3509879e-38
0.035289057 -0.090292826 -0.015417308 2.3509879e-38
0.037257068 -0.090981558 -0.018337816 2.3509876e-38
0.039027929 -0.090981558 -0.018337816 2.3509879e-38
0.040798798 -0.090981558 -0.018337816 2.350988e-38
0.042569667 -0.090981558 -0.018337816 2.3509523e-38
0.044572324 -0.091698244 -0.021376938 2.3509886e-38
0.04634852 -0.091698244 -0.021376938 2.3509886e-38
0.048124716 -0.091698244 -0.021376938 2.3325138e-38
0.049900912 -0.091698244 -0.021376938 2.3232944e-38
0.051677104 -0.091698244 -0.021376938 2.3417691e-38
-0.0032964917 -0.094200835 -0.024434417 1.8345843e-38
-0.0015149349 -0.094200835 -0.024434417 1.7977782e-38
0.00026662182 -0.094200835 -0.024434417 1.7609e-38
0.0020481749 -0.094200835 -0.024434417 1.7148021e-38
0.0038297316 -0.094200835 -0.024434417 1.6594848e-38
0.0056112884 -0.094200835 -0.024434417 1.6133869e-38
0.0073928451 -0.094200835 -0.024434417 1.5857283e-38
0.0091744019 -0.094200835 -0.024434417 1.5580696e-38
0.010955955 -0.094200835 -0.024434417 1.7332413e-38
0.012600812 -0.093474448 -0.021376938 2.0098282e-38
0.014377008 -0.093474448 -0.021376938 2.2956346e-38
0.016153205 -0.093474448 -0.021376938 2.350988e-38
0.017777532 -0.092752427 -0.018337816 2.350988e-38
0.019548401 -0.092752427 -0.018337816 2.350952e-38
0.021319266 -0.092752427 -0.018337816 2.350952e-38
0.023090135 -0.092752427 -0.018337816 2.350952e-38
0.024694581 -0.092058569 -0.015417308 2.3509524e-38
0.026283912 -0.091345012 -0.01241383 2.3509524e-38
0.028044391 -0.091345012 -0.01241383 2.3509521e-38
0.02980487 -0.091345012 -0.01241383 2.3509521e-38
0.031565353 -0.091345012 -0.01241383 2.3509879e-38
0.033325829 -0.091345012 -0.01241383 2.3509879e-38
0.035086311 -0.091345012 -0.01241383 2.3509876e-38
0.037054799 -0.092058569 -0.015417308 2.3509876e-38
0.03882055 -0.092058569 -0.015417308 2.3509879e-38
0.040586293 -0.092058569 -0.015417308 2.3324407e-38
0.042569667 -0.092752427 -0.018337816 2.3325129e-38
0.044340536 -0.092752427 -0.018337816 2.3509883e-38
0.046111397 -0.092752427 -0.018337816 2.3140384e-38
0.047882266 -0.092752427 -0.018337816 2.3509527e-38
0.049415022 -0.092058569 -0.015417308 2.314039e-38
0.051180776 -0.092058569 -0.015417308 2.3509168e-38
-0.0015149349 -0.095982388 -0.024434417 1.7793745e-38
0.00016744714 -0.095250636 -0.021376938 1.8900093e-38
0.0019436395 -0.095250636 -0.021376938 1.6503007e-38
0.0038297316 -0.095982388 -0.024434417 1.6503007e-38
0.0056112884 -0.095982388 -0.024434417 1.5949833e-38
0.0072722277 -0.095250636 -0.021376938 1.4843485e-38
0.00904842 -0.095250636 -0.021376938 1.4566898e-38
0.010824616 -0.095250636 -0.021376938 1.475129e-38
0.012600812 -0.095250636 -0.021376938 1.6042028e-38
0.014377008 -0.095250636 -0.021376938 1.7424963e-38
0.016006667 -0.094523281 -0.018337816 1.8070332e-38
0.017777532 -0.094523281 -0.018337816 1.853131e-38
0.019397341 -0.093824327 -0.015417308 1.9268875e-38
0.021163087 -0.093824327 -0.015417308 2.0283027e-38
0.023090135 -0.094523281 -0.018337816 2.1020236e-38
0.024523433 -0.093105495 -0.01241383 2.3508441e-38
0.026283912 -0.093105495 -0.01241383 2.3509521e-38
0.027863786 -0.092390925 -0.0094281137 2.350988e-38
0.029619031 -0.092390925 -0.0094281137 2.350988e-38
0.031565353 -0.093105495 -0.01241383 2.3509879e-38
0.033325829 -0.093105495 -0.01241383 2.3509518e-38
0.035086311 -0.093105495 -0.01241383 2.3509518e-38
0.036846794 -0.093105495 -0.01241383 2.3509879e-38
0.03860727 -0.093105495 -0.01241383 2.3509879e-38
0.040367752 -0.093105495 -0.01241383 2.3509879e-38
0.042352043 -0.093824327 -0.015417308 2.3047463e-38
0.044117786 -0.093824327 -0.015417308 2.3509524e-38
0.045883529 -0.093824327 -0.015417308 2.3509524e-38
0.047649279 -0.093824327 -0.015417308 2.3509167e-38
0.049415022 -0.093824327 -0.015417308 2.3509527e-38
0.051180776 -0.093824327 -0.015417308 2.3509168e-38
-0.003384945 -0.09702684 -0.021376938 2.0004271e-38
-0.0016087489 -0.09702684 -0.021376938 1.8807894e-38
0.00016744714 -0.09702684 -0.021376938 1.9637655e-38
0.0019436395 -0.09702684 -0.021376938 1.7148373e-38
0.0038297316 -0.097763941 -0.024434417 1.6871786e-38
0.0054960316 -0.09702684 -0.021376938 1.6226417e-38
0.0071523329 -0.09629415 -0.018337816 1.5673243e-38
0.0089231981 -0.09629415 -0.018337816 1.5765439e-38
0.010824616 -0.09702684 -0.021376938 1.6226417e-38
0.012600812 -0.09702684 -0.021376938 1.594983e-38
0.014235801 -0.09629415 -0.018337816 1.5581047e-38
0.016006667 -0.09629415 -0.018337816 1.5304461e-38
0.017777532 -0.09629415 -0.018337816 1.5212265e-38
0.019397341 -0.09559007 -0.015417308 1.5304461e-38
0.021163087 -0.09559007 -0.015417308 1.5581047e-38
0.023090135 -0.09629415 -0.018337816 1.5857637e-38
0.024523433 -0.094865978 -0.01241383 1.5949477e-38
0.026108541 -0.094146177 -0.0094281137 1.5949478e-38
0.027863786 -0.094146177 -0.0094281137 1.5857283e-38
0.029619031 -0.094146177 -0.0094281137 1.5672891e-38
0.031374276 -0.094146177 -0.0094281137 1.5857281e-38
0.033129521 -0.094146177 -0.0094281137 1.6687042e-38
0.034478642 -0.092695728 -0.0034117401 1.7885585e-38
0.036223337 -0.092695728 -0.0034117401 1.8899737e-38
0.038177498 -0.093406871 -0.0063615143 2.0835125e-38
0.039712727 -0.092695728 -0.0034117401 2.2771233e-38
0.041457422 -0.092695728 -0.0034117401 2.1111354e-38
0.043660991 -0.094146177 -0.0094281137 1.8068899e-38
0.045416236 -0.094146177 -0.0094281137 1.7054031e-38
0.047171481 -0.094146177 -0.0094281137 1.7975987e-38
0.048926726 -0.094146177 -0.0094281137 1.7515009e-38
0.050180905 -0.092695728 -0.0034117401 1.3827184e-38
0.051925596 -0.092695728 -0.0034117401 1.2169457e-38
-0.0015149349 -0.099545494 -0.024434417 1.714765e-38
0.00026662182 -0.099545494 -0.024434417 1.7977411e-38
0.0020481749 -0.099545494 -0.024434417 1.6686672e-38
0.0038297316 -0.099545494 -0.024434417 1.7332041e-38
0.0054960316 -0.098803028 -0.021376938 1.6778868e-38
0.0071523329 -0.098065019 -0.018337816 1.5949107e-38
0.0089231981 -0.098065019 -0.018337816 1.5303737e-38
0.010824616 -0.098803028 -0.021376938 1.6041303e-38
0.012600812 -0.098803028 -0.021376938 1.5395933e-38
0.014235801 -0.098065019 -0.018337816 1.5303737e-38
0.016006667 -0.098065019 -0.018337816 1.5856911e-38
0.017777532 -0.098065019 -0.018337816 1.6225694e-38
0.019548401 -0.098065019 -0.018337816 1.5856911e-38
0.021319266 -0.098065019 -0.018337816 1.5395933e-38
0.023090135 -0.098065019 -0.018337816 1.5120069e-38
0.024353296 -0.095901415 -0.0094281137 1.4843129e-38
0.026108541 -0.095901415 -0.0094281137 1.5120436e-38
0.027499855 -0.094440416 -0.0034117401 1.5397023e-38
0.02924455 -0.094440416 -0.0034117401 1.5489219e-38
0.030989245 -0.094440416 -0.0034117401 1.5397023e-38
0.032534726 -0.093704656 -0.00038185716 1.5489219e-38
0.033933818 -0.092480466 0.0046593249 1.5950197e-38
0.035664357 -0.092480466 0.0046593249 1.631898e-38
0.037394904 -0.092480466 0.0046593249 1.5949478e-38
0.03912545 -0.092480466 0.0046593249 1.6226065e-38
0.040855996 -0.092480466 0.0046593249 1.5948399e-38
0.042741343 -0.092973351 0.0026296675 1.5579617e-38
0.044475444 -0.092973351 0.0026296675 1.5118278e-38
0.046209551 -0.092973351 0.0026296675 1.6039156e-38
0.048189186 -0.093704656 -0.00038185716 1.659233e-38
0.049928568 -0.093704656 -0.00038185716 1.3826459e-38
0.051667955 -0.093704656 -0.00038185716 1.1523361e-38
-0.0013238834 -0.089333788 0.024599761 1.1799948e-38
0.00037169736 -0.089333788 0.024599761 1.216873e-38
0.0020672819 -0.089333788 0.024599761 1.5026795e-38
0.0038749045 -0.090060756 0.021627575 1.5672164e-38
0.0055756969 -0.090060756 0.021627575 1.576436e-38
0.0071540279 -0.089333788 0.024599761 1.4658012e-38
0.0088496124 -0.089333788 0.024599761 1.4842403e-38
0.010545193 -0.089333788 0.024599761 1.4658012e-38
0.01251782 -0.090792179 0.018637151 1.5211186e-38
0.014223858 -0.090792179 0.018637151 1.6409729e-38
0.015929896 -0.090792179 0.018637151 1.6962903e-38
0.01763593 -0.090792179 0.018637151 1.6778512e-38
0.019341968 -0.090792179 0.018637151 1.6870707e-38
0.023380678 -0.093481898 0.007640332 1.5028239e-38
0.025105998 -0.093481898 0.007640332 1.5212632e-38
0.026831314 -0.093481898 0.007640332 1.5489219e-38
0.028742183 -0.094211012 0.0046593249 1.5397383e-38
0.030472726 -0.094211012 0.0046593249 1.5120436e-38
0.03200727 -0.093481898 0.007640332 1.4291036e-38
0.033732586 -0.093481898 0.007640332 1.3645306e-38
0.035252698 -0.092757151 0.010603398 1.3092133e-38
0.036972821 -0.092757151 0.010603398 1.272335e-38
0.038908541 -0.093481898 0.007640332 1.0602132e-38
0.040633865 -0.093481898 0.007640332 1.0694327e-38
0.042586543 -0.094211012 0.0046593249 1.3274726e-38
0.044317089 -0.094211012 0.0046593249 1.2628996e-38
0.046047628 -0.094211012 0.0046593249 1.1890352e-38
0.047943652 -0.094707444 0.0026296675 1.2995981e-38
0.049677759 -0.094707444 0.0026296675 1.1890351e-38
0.051411863 -0.094707444 0.0026296675 1.2445673e-38
0.00037169736 -0.091029361 0.024599761 1.3090689e-38
0.0020672819 -0.091029361 0.024599761 1.4934602e-38
0.0037628626 -0.091029361 0.024599761 1.4842406e-38
0.0054584472 -0.091029361 0.024599761 1.5764362e-38
0.0071540279 -0.091029361 0.024599761 1.5118993e-38
0.0088496124 -0.091029361 0.024599761 1.4289232e-38
0.010678082 -0.091761544 0.021627575 1.4104841e-38
0.01251782 -0.092498213 0.018637151 1.392045e-38
0.014223858 -0.092498213 0.018637151 1.3643863e-38
0.015929896 -0.092498213 0.018637151 1.2906298e-38
0.01763593 -0.092498213 0.018637151 1.2721907e-38
0.019341968 -0.092498213 0.018637151 1.3828254e-38
0.021048006 -0.092498213 0.018637151 1.5119716e-38
0.023211833 -0.094477281 0.010603398 1.5581415e-38
0.024931956 -0.094477281 0.010603398 1.4844212e-38
0.026652079 -0.094477281 0.010603398 1.4014452e-38
0.028372202 -0.094477281 0.010603398 1.3554553e-38
0.030092329 -0.094477281 0.010603398 1.3922256e-38
0.031812452 -0.094477281 0.010603398 1.383114e-38
0.033532575 -0.094477281 0.010603398 1.3737865e-38
0.035252698 -0.094477281 0.010603398 1.3369082e-38
0.036972821 -0.094477281 0.010603398 1.2815909e-38
0.038908541 -0.095207214 0.007640332 1.1616647e-38
0.040633865 -0.095207214 0.007640332 1.0694327e-38
0.042586543 -0.095941558 0.0046593249 1.0140075e-38
0.044317089 -0.095941558 0.0046593249 7.742628e-39
0.046047628 -0.095941558 0.0046593249 6.9117884e-39
0.047943652 -0.096441552 0.0026296675 6.8188739e-39
0.049677759 -0.096441552 0.0026296675 3.7764167e-39
0.051411863 -0.096441552 0.0026296675 4.7930825e-39
-0.061246153 -0.097672105 0.0046593249 6.8213864e-39
-0.05951561 -0.097672105 0.0046593249 6.1781722e-39
-0.043781403 -0.094204247 0.018637151 9.0355249e-39
-0.04207537 -0.094204247 0.018637151 9.403943e-39
-0.040369332 -0.094204247 0.018637151 8.4819867e-39
-0.038663294 -0.094204247 0.018637151 8.0206527e-39
-0.036957256 -0.094204247 0.018637151 8.2972409e-39
-0.035251223 -0.094204247 0.018637151 7.8362656e-39
-0.033542562 -0.093462333 0.021627575 6.7299152e-39
-0.03184177 -0.093462333 0.021627575 9.957114e-39
-0.030140974 -0.093462333 0.021627575 9.9571112e-39
-0.028440181 -0.093462333 0.021627575 1.0510288e-38
-0.021637004 -0.093462333 0.021627575 1.0786889e-38
-0.019936211 -0.093462333 0.021627575 1.0325911e-38
-0.016484812 -0.094204247 0.018637151 1.281483e-38
-0.014778775 -0.094204247 0.018637151 1.1891792e-38
-0.013072737 -0.094204247 0.018637151 1.1799232e-38
-0.0113667 -0.094204247 0.018637151 1.0046789e-38
-0.0097314464 -0.093462333 0.021627575 1.1429362e-38
-0.0080306521 -0.093462333 0.021627575 1.1152053e-38
-0.0063298596 -0.093462333 0.021627575 9.3088621e-39
-0.0046290653 -0.093462333 0.021627575 8.5723845e-39
-0.002928271 -0.093462333 0.021627575 8.5727488e-39
-0.0012274766 -0.093462333 0.021627575 8.3883576e-39
0.00037169736 -0.092724949 0.024599761 7.28201e-39
0.0020672819 -0.092724949 0.024599761 6.4522494e-39
0.0037628626 -0.092724949 0.024599761 3.8707717e-39
0.0054584472 -0.092724949 0.024599761 4.3317499e-39
0.0072764931 -0.093462333 0.021627575 3.6863805e-39
0.0089772856 -0.093462333 0.021627575 3.5019892e-39
0.010678082 -0.093462333 0.021627575 3.9629673e-39
0.01251782 -0.094204247 0.018637151 3.9629673e-39
0.014223858 -0.094204247 0.018637151 2.7644242e-39
0.015929896 -0.094204247 0.018637151 1.1970984e-39
0.01763593 -0.094204247 0.018637151 6.4392467e-40
0.019341968 -0.094204247 0.018637151 1.4736853e-39
0.021048006 -0.094204247 0.018637151 2.3967206e-39
0.023038603 -0.095443189 0.013643414 1.1063448e-39
0.024753395 -0.095443189 0.013643414 9.3990693e-41
0.026652079 -0.096197397 0.010603398 7.1746481e-43
0.028372202 -0.096197397 0.010603398 7.1746481e-43
0.030092329 -0.096197397 0.010603398 7.1746481e-43
0.031812452 -0.096197397 0.010603398 1.8618632e-40
0.033532575 -0.096197397 0.010603398 1.8618632e-40
0.035252698 -0.096197397 0.010603398 1.7950633e-42
0.036972821 -0.096197397 0.010603398 3.5873241e-43
0.038692944 -0.096197397 0.010603398 3.5873241e-43
0.040413067 -0.096197397 0.010603398 0
0.042359181 -0.09693253 0.007640332 5.5173044e-40
0.044084497 -0.09693253 0.007640332 3.6734198e-40
0.045809813 -0.09693253 0.007640332 1.1034637e-39
0.047778174 -0.097672105 0.0046593249 2.3005691e-39
0.049508721 -0.097672105 0.0046593249 6.4284847e-40
-0.064773083 -0.099909768 0.0026296675 5.7146843e-39
-0.063038982 -0.099909768 0.0026296675 6.0834668e-39
-0.061246153 -0.099402651 0.0046593249 6.7302698e-39
-0.059434596 -0.098657846 0.007640332 6.1778093e-39
-0.05770928 -0.098657846 0.007640332 6.6395063e-39
-0.055983961 -0.098657846 0.007640332 7.4681949e-39
-0.054193702 -0.097917527 0.010603398 8.6667423e-39
-0.052412283 -0.09715797 0.013643414 8.5741964e-39
-0.050550502 -0.095163137 0.021627575 6.0845584e-39
-0.0488002 -0.094420537 0.024599761 5.2547978e-39
-0.047104616 -0.094420537 0.024599761 7.2834576e-39
-0.045409035 -0.094420537 0.024599761 6.8224766e-39
-0.043747324 -0.095163137 0.021627575 7.6525904e-39
-0.042046532 -0.095163137 0.021627575 8.2057628e-39
-0.040345736 -0.095163137 0.021627575 8.0213715e-39
-0.038663294 -0.095910296 0.018637151 8.2057642e-39
-0.036957256 -0.095910296 0.018637151 8.9429733e-39
-0.035251223 -0.095910296 0.018637151 9.6805439e-39
-0.033542562 -0.095163137 0.021627575 1.0048961e-38
-0.03184177 -0.095163137 0.021627575 1.1430805e-38
-0.030140974 -0.095163137 0.021627575 1.0601041e-38
-0.028440181 -0.095163137 0.021627575 1.0508849e-38
-0.026757626 -0.094420537 0.024599761 1.0140432e-38
-0.025062043 -0.094420537 0.024599761 9.2181211e-39
-0.023337798 -0.095163137 0.021627575 9.3110398e-39
-0.021637004 -0.095163137 0.021627575 9.403957e-39
-0.019936211 -0.095163137 0.021627575 8.2972536e-39
-0.018235415 -0.095163137 0.021627575 4.5172341e-39
-0.016534623 -0.095163137 0.021627575 5.6235817e-39
-0.014833829 -0.095163137 0.021627575 5.9001672e-39
-0.013133035 -0.095163137 0.021627575 5.4388261e-39
-0.011432241 -0.095163137 0.021627575 3.0420928e-39
-0.0097314464 -0.095163137 0.021627575 4.7005324e-39
-0.0080306521 -0.095163137 0.021627575 3.5019892e-39
-0.0063298596 -0.095163137 0.021627575 2.9484553e-39
-0.0046290653 -0.095163137 0.021627575 1.01271e-39
-0.002928271 -0.095163137 0.021627575 2.1190604e-39
-0.0012274766 -0.095163137 0.021627575 2.8566254e-39
0.00037169736 -0.094420537 0.024599761 3.0410167e-39
0.0020672819 -0.094420537 0.024599761 2.6722341e-39
0.0037628626 -0.094420537 0.024599761 2.7550649e-40
0.0055756969 -0.095163137 0.021627575 8.2832154e-40
0.0072764931 -0.095163137 0.021627575 2.7550649e-40
0.0089772856 -0.095163137 0.021627575 9.2051717e-40
0.010678082 -0.095163137 0.021627575 1.9346691e-39
0.01251782 -0.095910296 0.018637151 2.3956472e-39
0.014223858 -0.095910296 0.018637151 1.5658866e-39
0.015929896 -0.095910296 0.018637151 6.4393028e-40
0.01763593 -0.095910296 0.018637151 3.6734339e-40
0.019341968 -0.095910296 0.018637151 4.5953902e-40
0.021048006 -0.095910296 0.018637151 9.1835496e-41
0.022871811 -0.096426651 0.016570479 3.5873241e-43
0.024753395 -0.09715797 0.013643414 7.1746481e-43
0.026468188 -0.09715797 0.013643414 3.5873241e-43
0.028182983 -0.09715797 0.013643414 1.4377322e-42
0.030092329 -0.097917527 0.010603398 1.7978659e-42
0.031812452 -0.097917527 0.010603398 1.4377322e-42
0.033532575 -0.097917527 0.010603398 7.1746481e-43
0.035042152 -0.09715797 0.013643414 7.1746481e-43
0.036756948 -0.09715797 0.013643414 1.8583039e-40
0.038692944 -0.097917527 0.010603398 7.1746481e-43
0.040413067 -0.097917527 0.010603398 0
0.042359181 -0.098657846 0.007640332 8.2831873e-40
0.044084497 -0.098657846 0.007640332 7.3576017e-40
0.045809813 -0.098657846 0.007640332 5.5101298e-40
0.047535136 -0.098657846 0.007640332 7.3468397e-40
0.049260452 -0.098657846 0.007640332 6.4284847e-40
0.050985765 -0.098657846 0.007640332 4.5918309e-40
-0.064773083 -0.10164386 0.0026296675 7.0979761e-39
-0.063038982 -0.10164386 0.0026296675 6.9135848e-39
-0.061246153 -0.1011332 0.0046593249 6.5458785e-39
-0.059434596 -0.10038316 0.007640332 6.3622033e-39
-0.05770928 -0.10038316 0.007640332 6.6391503e-39
-0.055913825 -0.099637643 0.010603398 5.2555026e-39
-0.054193702 -0.099637643 0.010603398 3.5959827e-39
-0.052251294 -0.096863925 0.021627575 3.0424558e-39
-0.050495785 -0.096116111 0.024599761 1.7517198e-39
-0.048749465 -0.095349744 0.027645737 1.0141547e-39
-0.047059223 -0.095349744 0.027645737 2.1205023e-39
-0.045368981 -0.095349744 0.027645737 2.3048907e-39
-0.04371345 -0.096116111 0.024599761 1.8439098e-39
-0.04201787 -0.096116111 0.024599761 1.1988963e-39
-0.040322289 -0.096116111 0.024599761 5.5352691e-40
-0.038626704 -0.096116111 0.024599761 9.1835496e-41
-0.036944151 -0.096863925 0.021627575 1.8438846e-40
-0.035235539 -0.096116111 0.024599761 1.5666068e-39
-0.033539958 -0.096116111 0.024599761 3.1339325e-39
-0.031844374 -0.096116111 0.024599761 2.3952815e-39
-0.030140974 -0.096863925 0.021627575 7.3468397e-40
-0.028453209 -0.096116111 0.024599761 3.6734198e-40
-0.026757626 -0.096116111 0.024599761 9.2086889e-40
-0.025062043 -0.096116111 0.024599761 1.3825673e-39
-0.023366461 -0.096116111 0.024599761 2.5818308e-39
-0.021637004 -0.096863925 0.021627575 2.213414e-39
-0.019936211 -0.096863925 0.021627575 5.6051939e-45
-0.018235415 -0.096863925 0.021627575 2.776743e-40
-0.016534623 -0.096863925 0.021627575 9.8090893e-45
-0.014833829 -0.096863925 0.021627575 1.75281e-39
-0.013133035 -0.096863925 0.021627575 2.765981e-40
-0.011432241 -0.096863925 0.021627575 1.0145177e-39
-0.0097314464 -0.096863925 0.021627575 1.4751301e-39
-0.0080306521 -0.096863925 0.021627575 1.013789e-39
-0.0063298596 -0.096863925 0.021627575 9.1835496e-41
-0.0046290653 -0.096863925 0.021627575 1.0123569e-39
-0.002928271 -0.096863925 0.021627575 1.0123597e-39
-0.0012274766 -0.096863925 0.021627575 5.5138152e-40
0.00037169736 -0.096116111 0.024599761 1.1045553e-39
0.0020672819 -0.096116111 0.024599761 2.211256e-39
0.0037628626 -0.096116111 0.024599761 7.361231e-40
0.0055756969 -0.096863925 0.021627575 2.4874869e-39
0.0072764931 -0.096863925 0.021627575 1.9346691e-39
0.0089772856 -0.096863925 0.021627575 1.9346663e-39
0.010811782 -0.09761633 0.018637151 2.4878401e-39
0.01251782 -0.09761633 0.018637151 2.2109001e-39
0.014223858 -0.09761633 0.018637151 1.1045525e-39
0.015929896 -0.09761633 0.018637151 8.2796561e-40
0.01763593 -0.09761633 0.018637151 1.3822184e-39
0.019341968 -0.09761633 0.018637151 1.4744168e-39
0.021048006 -0.09761633 0.018637151 7.3685178e-40
0.022754043 -0.09761633 0.018637151 3.5873241e-43
0.02458147 -0.098136306 0.016570479 2.7730295e-40
0.026468188 -0.098872766 0.013643414 4.6241728e-40
0.028182983 -0.098872766 0.013643414 4.6241728e-40
0.029897772 -0.098872766 0.013643414 9.4353629e-41
0.031612568 -0.098872766 0.013643414 1.4377322e-42
0.033327363 -0.098872766 0.013643414 1.4391335e-42
0.035042152 -0.098872766 0.013643414 9.3634763e-41
