# .PCD v0.7 - Point Cloud Data file format
VERSION 0.7
FIELDS x y z rgb
SIZE 4 4 4 4
TYPE F F F F
COUNT 1 1 1 1
WIDTH 950
HEIGHT 1
VIEWPOINT 0 0 0 1 0 0 0
POINTS 950
DATA ascii
0.08846131 -0.12285714 0.025910255 6.4321141e-40
0.090889573 -0.1244873 0.019813653 9.1835496e-41
0.09299694 -0.12528224 0.016840573 0
0.094783708 -0.12528224 0.016840573 9.2194229e-41
0.097248882 -0.12688623 0.010841724 1.8367239e-40
0.099731147 -0.12848105 0.0048772059 3.6734339e-40
0.1015389 -0.12848105 0.0048772059 1.8367239e-40
0.10488549 -0.13195769 -0.0081253089 9.1835496e-41
0.10791996 -0.134638 -0.018149499 9.1838299e-41
0.11013103 -0.13543437 -0.021127943 2.8025969e-45
0.11198437 -0.13543437 -0.021127943 5.6051939e-45
0.1138377 -0.13543437 -0.021127943 5.6051939e-45
0.11607181 -0.13623528 -0.024123315 5.6051939e-45
0.11831862 -0.13704078 -0.027135734 5.6051939e-45
0.12071064 -0.13812189 -0.031179074 1.937553e-39
0.1225816 -0.13812189 -0.031179074 6.3629404e-39
-0.12474464 -0.14616071 -0.054096226 1.2907388e-38
-0.12283349 -0.14616071 -0.054096226 9.1273674e-39
-0.12092236 -0.14616071 -0.054096226 4.9792829e-39
-0.11901121 -0.14616071 -0.054096226 1.8511013e-40
-0.11710006 -0.14616071 -0.054096226 2.7730295e-40
-0.11518891 -0.14616071 -0.054096226 1.8510732e-40
-0.11302322 -0.14537133 -0.051163319 3.5873241e-43
-0.11111723 -0.14537133 -0.051163319 9.2911693e-41
-0.10895857 -0.14455487 -0.048129681 9.219563e-41
-0.10705788 -0.14455487 -0.048129681 1.8367239e-40
-0.1051572 -0.14455487 -0.048129681 1.8367239e-40
-0.10294899 -0.14349405 -0.044188146 1.8367239e-40
-0.10105522 -0.14349405 -0.044188146 9.219563e-41
-0.099161446 -0.14349405 -0.044188146 9.219563e-41
-0.097049758 -0.14268802 -0.041193251 9.219563e-41
-0.095161229 -0.14268802 -0.041193251 9.219563e-41
-0.093272716 -0.14268802 -0.041193251 0
-0.091113821 -0.14161004 -0.037187938 1.8438846e-40
-0.089232311 -0.14161004 -0.037187938 3.6877972e-40
-0.087154374 -0.14078392 -0.034118418 1.8438846e-40
-0.085095301 -0.13999285 -0.031179074 3.5873241e-43
-0.083224341 -0.13999285 -0.031179074 7.1746481e-43
-0.081353381 -0.13999285 -0.031179074 3.6949858e-40
-0.07925202 -0.13890465 -0.027135734 7.3828391e-40
-0.077388138 -0.13890465 -0.027135734 1.8403813e-40
-0.075524271 -0.13890465 -0.027135734 2.7623516e-40
-0.073660389 -0.13890465 -0.027135734 3.6843079e-40
-0.07164599 -0.13809387 -0.024123315 3.6842939e-40
-0.069787398 -0.13809387 -0.024123315 1.8403813e-40
-0.067928806 -0.13809387 -0.024123315 9.1842503e-41
-0.06593629 -0.13728772 -0.021127943 1.83678e-40
-0.06408295 -0.13728772 -0.021127943 2.7587083e-40
-0.062106892 -0.13648613 -0.018149499 9.1841101e-41
-0.060098819 -0.13539489 -0.014094952 9.1841101e-41
-0.058257811 -0.13539489 -0.014094952 2.7551209e-40
-0.056416802 -0.13539489 -0.014094952 2.7551209e-40
-0.054575793 -0.13539489 -0.014094952 3.6735039e-40
-0.052734785 -0.13539489 -0.014094952 4.5918729e-40
-0.050893776 -0.13539489 -0.014094952 5.5138292e-40
-0.04905276 -0.13539489 -0.014094952 6.4357435e-40
-0.047321945 -0.13648613 -0.018149499 7.3647763e-40
-0.045473829 -0.13648613 -0.018149499 1.1974502e-39
-0.043529734 -0.13539489 -0.014094952 1.2896486e-39
-0.041688725 -0.13539489 -0.014094952 6.453596e-40
-0.039788455 -0.13460387 -0.011155847 2.7658269e-40
-0.037952602 -0.13460387 -0.011155847 4.6097114e-40
-0.036066264 -0.13378824 -0.0081253089 5.5280664e-40
-0.034190819 -0.13297729 -0.0051121749 5.5280664e-40
-0.032365561 -0.13297729 -0.0051121749 4.6061241e-40
-0.030506158 -0.13217102 -0.0021164455 5.5280804e-40
-0.028686153 -0.13217102 -0.0021164455 7.361231e-40
-0.026835119 -0.13111271 0.0018157922 6.4392747e-40
-0.025022008 -0.13111271 0.0018157922 4.5953621e-40
-0.023208896 -0.13111271 0.0018157922 5.5101298e-40
-0.021395784 -0.13111271 0.0018157922 6.4321141e-40
-0.019579988 -0.13028879 0.0048772059 7.3612591e-40
-0.017772242 -0.13028879 0.0048772059 3.6950139e-40
-0.015972227 -0.1294979 0.0078158341 1.8655206e-40
-0.014182897 -0.12868352 0.010841724 2.7802883e-40
-0.012385611 -0.12868352 0.010841724 1.8583039e-40
-0.010588325 -0.12868352 0.010841724 9.3634763e-41
-0.0087910378 -0.12868352 0.010841724 2.7730576e-40
-0.0070280349 -0.12787388 0.01384997 3.6949858e-40
-0.0052360231 -0.12787388 0.01384997 6.4536661e-40
-0.0034440104 -0.12787388 0.01384997 2.7658409e-40
-0.0017018113 -0.12706901 0.016840573 1.8438846e-40
3.022328e-05 -0.12626885 0.019813653 1.8402972e-40
0.0018117782 -0.12626885 0.019813653 1.8402972e-40
0.0035263244 -0.12544595 0.022871133 4.5953621e-40
0.0053025205 -0.12544595 0.022871133 5.5173184e-40
0.0070787147 -0.12544595 0.022871133 4.5953902e-40
0.0088549107 -0.12544595 0.022871133 3.6734339e-40
0.010543184 -0.12462802 0.025910255 1.1967481e-39
0.01231405 -0.12462802 0.025910255 1.0123569e-39
0.014084918 -0.12462802 0.025910255 8.2796561e-40
0.015855784 -0.12462802 0.025910255 6.4357435e-40
0.017521678 -0.12384202 0.028830763 5.5137872e-40
0.019174201 -0.12303366 0.031834241 2.7587083e-40
0.020816894 -0.1222301 0.034819957 2.7587363e-40
0.022572139 -0.1222301 0.034819957 2.7587363e-40
0.024327384 -0.1222301 0.034819957 9.1841101e-41
0.026082629 -0.1222301 0.034819957 1.83678e-40
0.027695389 -0.12140475 0.037886556 3.6771193e-40
0.029445259 -0.12140475 0.037886556 2.755163e-40
0.031195128 -0.12140475 0.037886556 1.836794e-40
0.032792419 -0.12061088 0.040836331 9.1842503e-41
0.034537122 -0.12061088 0.040836331 2.7551349e-40
0.036281817 -0.12061088 0.040836331 1.836794e-40
0.037853859 -0.1197954 0.043866213 9.1842503e-41
0.039593242 -0.1197954 0.043866213 9.1842503e-41
0.041332625 -0.1197954 0.043866213 5.6051939e-45
0.042884566 -0.11898489 0.046877738 5.6051939e-45
0.044618666 -0.11898489 0.046877738 5.6051939e-45
0.046352766 -0.11898489 0.046877738 5.6051939e-45
0.048086874 -0.11898489 0.046877738 9.1842503e-41
0.049820974 -0.11898489 0.046877738 9.1842503e-41
0.051555082 -0.11898489 0.046877738 9.1842503e-41
0.053141497 -0.11843865 0.048907395 5.6051939e-45
0.054872043 -0.11843865 0.048907395 5.6051939e-45
0.05660259 -0.11843865 0.048907395 9.1842503e-41
0.058333136 -0.11843865 0.048907395 3.6842939e-40
0.060063675 -0.11843865 0.048907395 5.5282065e-40
0.061551183 -0.11763634 0.051888403 3.6842939e-40
0.0632765 -0.11763634 0.051888403 2.7587083e-40
0.065001816 -0.11763634 0.051888403 3.6734339e-40
0.066727147 -0.11763634 0.051888403 7.361231e-40
0.068716407 -0.11843865 0.048907395 3.6878252e-40
0.070446953 -0.11843865 0.048907395 4.6242009e-40
0.0721775 -0.11843865 0.048907395 1.6613262e-39
0.073908046 -0.11843865 0.048907395 7.2307001e-43
0.075638592 -0.11843865 0.048907395 1.8062737e-42
0.077369124 -0.11843865 0.048907395 3.671402e-43
0.079300746 -0.11898489 0.046877738 2.755163e-40
0.08133845 -0.1197954 0.043866213 3.6735039e-40
0.08369118 -0.12140475 0.037886556 6.4285968e-40
0.086385772 -0.12384202 0.028830763 9.1944517e-40
0.08846131 -0.12462802 0.025910255 9.198011e-40
0.090889573 -0.12626885 0.019813653 2.7586802e-40
0.09299694 -0.12706901 0.016840573 0
0.094783708 -0.12706901 0.016840573 1.8438846e-40
0.097591072 -0.1294979 0.0078158341 1.8367239e-40
0.099393666 -0.1294979 0.0078158341 3.6734339e-40
0.1015389 -0.13028879 0.0048772059 9.1835496e-41
0.10488549 -0.13378824 -0.0081253089 9.1835496e-41
0.10791996 -0.13648613 -0.018149499 9.1838299e-41
0.11013103 -0.13728772 -0.021127943 9.1838299e-41
0.11198437 -0.13728772 -0.021127943 5.6051939e-45
0.1138377 -0.13728772 -0.021127943 5.6051939e-45
0.11607181 -0.13809387 -0.024123315 9.2561369e-41
0.11831862 -0.13890465 -0.027135734 3.657389e-43
0.12071064 -0.13999285 -0.031179074 2.2141371e-39
0.1225816 -0.13999285 -0.031179074 6.2707448e-39
-0.12474464 -0.14807184 -0.054096226 1.2907388e-38
-0.12283349 -0.14807184 -0.054096226 9.1273674e-39
-0.12092236 -0.14807184 -0.054096226 4.8870872e-39
-0.11901121 -0.14807184 -0.054096226 3.5873241e-43
-0.11710006 -0.14807184 -0.054096226 3.5873241e-43
-0.11518891 -0.14807184 -0.054096226 7.1746481e-43
-0.11302322 -0.14727734 -0.051163319 7.1746481e-43
-0.11111723 -0.14727734 -0.051163319 2.7730295e-40
-0.10895857 -0.14645557 -0.048129681 1.8439126e-40
-0.10705788 -0.14645557 -0.048129681 1.8439126e-40
-0.1051572 -0.14645557 -0.048129681 1.8439126e-40
-0.10294899 -0.14538784 -0.044188146 1.8439126e-40
-0.10105522 -0.14538784 -0.044188146 1.8439126e-40
-0.099161446 -0.14538784 -0.044188146 1.8439126e-40
-0.097049758 -0.14457656 -0.041193251 1.8439126e-40
-0.095161229 -0.14457656 -0.041193251 1.8439126e-40
-0.093272716 -0.14457656 -0.041193251 1.8439126e-40
-0.091113821 -0.14349155 -0.037187938 3.6878252e-40
-0.089232311 -0.14349155 -0.037187938 3.6878252e-40
-0.087154374 -0.14266007 -0.034118418 2.7658689e-40
-0.085095301 -0.14186381 -0.031179074 9.219563e-41
-0.083224341 -0.14186381 -0.031179074 9.219563e-41
-0.081353381 -0.14186381 -0.031179074 3.6878252e-40
-0.07925202 -0.14076851 -0.027135734 6.4537221e-40
-0.077388138 -0.14076851 -0.027135734 5.6051939e-45
-0.075524271 -0.14076851 -0.027135734 9.1843904e-41
-0.073660389 -0.14076851 -0.027135734 2.7587363e-40
-0.07164599 -0.13995247 -0.024123315 3.6806926e-40
-0.069787398 -0.13995247 -0.024123315 2.7587363e-40
-0.067928806 -0.13995247 -0.024123315 1.836752e-40
-0.06593629 -0.13914107 -0.021127943 1.836752e-40
-0.06408295 -0.13914107 -0.021127943 2.7586802e-40
-0.062106892 -0.13833423 -0.018149499 3.6734619e-40
-0.060098819 -0.13723589 -0.014094952 3.6734619e-40
-0.058257811 -0.13723589 -0.014094952 2.7550929e-40
-0.056416802 -0.13723589 -0.014094952 2.7550929e-40
-0.054575793 -0.13723589 -0.014094952 4.5918449e-40
-0.052734785 -0.13723589 -0.014094952 5.5102138e-40
-0.050893776 -0.13723589 -0.014094952 7.3505531e-40
-0.04905276 -0.13723589 -0.014094952 8.2760547e-40
-0.047321945 -0.13833423 -0.018149499 8.279558e-40
-0.045370743 -0.13723589 -0.014094952 1.2889297e-39
-0.043529734 -0.13723589 -0.014094952 1.5655166e-39
-0.041688725 -0.13723589 -0.014094952 1.0130617e-39
-0.039788455 -0.13643973 -0.011155847 4.5989495e-40
-0.037896805 -0.13561879 -0.0081253089 3.6770072e-40
-0.036016077 -0.13480256 -0.0051121749 5.5208917e-40
-0.034190819 -0.13480256 -0.0051121749 7.3647763e-40
-0.032326162 -0.13399105 -0.0021164455 8.2867326e-40
-0.030506158 -0.13399105 -0.0021164455 7.3647763e-40
-0.028648233 -0.13292582 0.0018157922 6.4356594e-40
-0.026835119 -0.13292582 0.0018157922 6.4356594e-40
-0.025022008 -0.13292582 0.0018157922 7.3576017e-40
-0.023208896 -0.13292582 0.0018157922 9.1907243e-40
-0.021387732 -0.13209651 0.0048772059 9.187165e-40
-0.019579988 -0.13209651 0.0048772059 5.5173184e-40
-0.017772242 -0.13209651 0.0048772059 2.7802883e-40
-0.015972227 -0.13130049 0.0078158341 9.5079502e-41
-0.014182897 -0.13048081 0.010841724 2.7839176e-40
-0.012385611 -0.13048081 0.010841724 1.8655206e-40
-0.010588325 -0.13048081 0.010841724 2.1608022e-42
-0.0087910378 -0.13048081 0.010841724 9.3634763e-41
-0.0070280349 -0.1296659 0.01384997 1.8618632e-40
-0.0052360231 -0.1296659 0.01384997 4.6169421e-40
-0.0034440104 -0.1296659 0.01384997 9.2911693e-41
-0.0017018113 -0.12885578 0.016840573 7.1746481e-43
3.022328e-05 -0.1280504 0.019813653 0
0.0018117782 -0.1280504 0.019813653 9.2194229e-41
0.0035263244 -0.12722217 0.022871133 2.7586802e-40
0.0053025205 -0.12722217 0.022871133 2.7586802e-40
0.0070787147 -0.12722217 0.022871133 2.7587083e-40
0.0088549107 -0.12722217 0.022871133 9.1838299e-41
0.010631105 -0.12722217 0.022871133 1.3814953e-39
0.012407301 -0.12722217 0.022871133 1.2885808e-39
0.014084918 -0.12639888 0.025910255 1.1041896e-39
0.015855784 -0.12639888 0.025910255 8.2832154e-40
0.017521678 -0.12560774 0.028830763 5.5137872e-40
0.019287424 -0.12560774 0.028830763 2.7587083e-40
0.02093468 -0.12479414 0.031834241 1.836752e-40
0.022572139 -0.12398534 0.034819957 2.8025969e-45
0.024327384 -0.12398534 0.034819957 9.1842503e-41
0.026082629 -0.12398534 0.034819957 5.6051939e-45
0.027837874 -0.12398534 0.034819957 5.6051939e-45
0.029445259 -0.12315463 0.037886556 9.1842503e-41
0.031195128 -0.12315463 0.037886556 2.7587363e-40
0.032792419 -0.12235557 0.040836331 3.6806926e-40
0.034537122 -0.12235557 0.040836331 1.836794e-40
0.036114477 -0.12153481 0.043866213 9.1842503e-41
0.037853859 -0.12153481 0.043866213 1.8403813e-40
0.039593242 -0.12153481 0.043866213 3.6914546e-40
0.041332625 -0.12153481 0.043866213 5.5353672e-40
0.042884566 -0.120719 0.046877738 5.5317658e-40
0.044618666 -0.120719 0.046877738 2.7658969e-40
0.046352766 -0.120719 0.046877738 1.836752e-40
0.048086874 -0.120719 0.046877738 1.836752e-40
0.049820974 -0.120719 0.046877738 2.7587083e-40
0.051555082 -0.120719 0.046877738 4.6026209e-40
0.053289182 -0.120719 0.046877738 9.1838299e-41
0.055023283 -0.120719 0.046877738 9.1838299e-41
0.05660259 -0.12016918 0.048907395 2.8025969e-45
0.058333136 -0.12016918 0.048907395 5.5317658e-40
0.060063675 -0.12016918 0.048907395 7.3792798e-40
0.061551183 -0.11936165 0.051888403 4.6134109e-40
0.0632765 -0.11936165 0.051888403 1.8439406e-40
0.065001816 -0.11936165 0.051888403 3.6734339e-40
0.066727147 -0.11936165 0.051888403 5.5173184e-40
0.068716407 -0.12016918 0.048907395 2.7658689e-40
0.070446953 -0.12016918 0.048907395 4.6242009e-40
0.0721775 -0.12016918 0.048907395 1.6613262e-39
0.073908046 -0.12016918 0.048907395 7.2447131e-43
0.075638592 -0.12016918 0.048907395 1.4489426e-42
0.077566639 -0.120719 0.046877738 3.6994279e-43
0.079599068 -0.12153481 0.043866213 9.8090893e-45
0.081643924 -0.12235557 0.040836331 2.7551349e-40
0.084005713 -0.12398534 0.034819957 6.4285968e-40
0.086690456 -0.12639888 0.025910255 1.1038364e-39
0.08846131 -0.12639888 0.025910255 1.1041924e-39
0.090559885 -0.12722217 0.022871133 4.6025928e-40
0.09299694 -0.12885578 0.016840573 1.8438846e-40
0.094783708 -0.12885578 0.016840573 1.8438846e-40
0.097248882 -0.13048081 0.010841724 9.1835496e-41
0.099393666 -0.13130049 0.0078158341 9.1838299e-41
0.10119626 -0.13130049 0.0078158341 9.1838299e-41
0.105592 -0.13723589 -0.014094952 9.1838299e-41
0.10827769 -0.13914107 -0.021127943 2.8025969e-45
0.11013103 -0.13914107 -0.021127943 2.8025969e-45
0.11198437 -0.13914107 -0.021127943 2.8025969e-45
0.11421321 -0.13995247 -0.024123315 2.8025969e-45
0.11607181 -0.13995247 -0.024123315 9.2558566e-41
0.11831862 -0.14076851 -0.027135734 2.7694983e-40
0.12109458 -0.14266007 -0.034118418 2.3985283e-39
0.1229707 -0.14266007 -0.034118418 5.9941579e-39
-0.12474464 -0.14998297 -0.054096226 1.2722997e-38
-0.12283349 -0.14998297 -0.054096226 9.1273674e-39
-0.12092236 -0.14998297 -0.054096226 5.0714785e-39
-0.11901121 -0.14998297 -0.054096226 3.5873241e-43
-0.11710006 -0.14998297 -0.054096226 3.5873241e-43
-0.11518891 -0.14998297 -0.054096226 9.2911693e-41
-0.11327778 -0.14998297 -0.054096226 9.2911693e-41
-0.11111723 -0.14918335 -0.051163319 2.7730015e-40
-0.10921122 -0.14918335 -0.051163319 9.219563e-41
-0.10730521 -0.14918335 -0.051163319 9.219563e-41
-0.1051572 -0.14835624 -0.048129681 9.219563e-41
-0.10294899 -0.1472816 -0.044188146 9.219563e-41
-0.10105522 -0.1472816 -0.044188146 9.219563e-41
-0.099161446 -0.1472816 -0.044188146 9.219563e-41
-0.097049758 -0.14646508 -0.041193251 9.219563e-41
-0.095161229 -0.14646508 -0.041193251 9.219563e-41
-0.093272716 -0.14646508 -0.041193251 1.8439126e-40
-0.091113821 -0.14537306 -0.037187938 2.7658689e-40
-0.089232311 -0.14537306 -0.037187938 2.7658689e-40
-0.087154374 -0.14453618 -0.034118418 1.8439126e-40
-0.085095301 -0.14373477 -0.031179074 0
-0.083224341 -0.14373477 -0.031179074 0
-0.081353381 -0.14373477 -0.031179074 1.8439126e-40
-0.07925202 -0.14263238 -0.027135734 3.6878532e-40
-0.077388138 -0.14263238 -0.027135734 5.6051939e-45
-0.075524271 -0.14263238 -0.027135734 5.6051939e-45
-0.073660389 -0.14263238 -0.027135734 2.7587363e-40
-0.07164599 -0.14181106 -0.024123315 3.6806646e-40
-0.069787398 -0.14181106 -0.024123315 2.7587083e-40
-0.067928806 -0.14181106 -0.024123315 2.7586802e-40
-0.06593629 -0.14099441 -0.021127943 2.7586802e-40
-0.06408295 -0.14099441 -0.021127943 3.6841958e-40
-0.062106892 -0.14018236 -0.018149499 9.2051717e-40
-0.060258768 -0.14018236 -0.018149499 7.3612591e-40
-0.058410652 -0.14018236 -0.018149499 5.5173465e-40
-0.056416802 -0.1390769 -0.014094952 3.6734619e-40
-0.054575793 -0.1390769 -0.014094952 3.6734479e-40
-0.052734785 -0.1390769 -0.014094952 4.5918449e-40
-0.050893776 -0.1390769 -0.014094952 5.5102279e-40
-0.04905276 -0.1390769 -0.014094952 6.4321421e-40
-0.047211751 -0.1390769 -0.014094952 9.187165e-40
-0.045370743 -0.1390769 -0.014094952 9.2015002e-40
-0.043529734 -0.1390769 -0.014094952 1.1045413e-39
-0.041688725 -0.1390769 -0.014094952 8.2867326e-40
-0.039788455 -0.13827558 -0.011155847 5.5173044e-40
-0.037896805 -0.13744931 -0.0081253089 2.7622395e-40
-0.036016077 -0.13662781 -0.0051121749 2.7622395e-40
-0.034190819 -0.13662781 -0.0051121749 3.6841818e-40
-0.032326162 -0.13581105 -0.0021164455 7.371993e-40
-0.030506158 -0.13581105 -0.0021164455 4.6061241e-40
-0.028648233 -0.13473894 0.0018157922 4.5953621e-40
-0.026835119 -0.13473894 0.0018157922 4.5953621e-40
-0.025022008 -0.13473894 0.0018157922 8.2759987e-40
-0.023195477 -0.13390426 0.0048772059 9.2015143e-40
-0.021387732 -0.13390426 0.0048772059 9.187165e-40
-0.019577412 -0.13310309 0.0078158341 4.5953902e-40
-0.017774818 -0.13310309 0.0078158341 4.6134389e-40
-0.015980186 -0.1322781 0.010841724 1.8619753e-40
-0.014182897 -0.1322781 0.010841724 1.8619753e-40
-0.012404072 -0.13145791 0.01384997 9.4000502e-41
-0.01061206 -0.13145791 0.01384997 1.4419361e-42
-0.0088200476 -0.13145791 0.01384997 1.0818024e-42
-0.0070280349 -0.13145791 0.01384997 1.4391335e-42
-0.0052360231 -0.13145791 0.01384997 9.3990693e-41
-0.0034440104 -0.13145791 0.01384997 7.1746481e-43
-0.0017018113 -0.13064255 0.016840573 3.5873241e-43
3.022328e-05 -0.12983195 0.019813653 3.5873241e-43
0.0018117782 -0.12983195 0.019813653 3.5873241e-43
0.0035933349 -0.12983195 0.019813653 9.219563e-41
0.0053025205 -0.12899835 0.022871133 1.8439126e-40
0.0070787147 -0.12899835 0.022871133 9.2198432e-41
0.0088549107 -0.12899835 0.022871133 9.1838299e-41
0.010631105 -0.12899835 0.022871133 8.2760267e-40
0.012407301 -0.12899835 0.022871133 8.2760267e-40
0.014084918 -0.12816976 0.025910255 7.3540704e-40
0.015855784 -0.12816976 0.025910255 5.5173465e-40
0.017626649 -0.12816976 0.025910255 4.5918309e-40
0.019287424 -0.1273735 0.028830763 1.836752e-40
0.02093468 -0.12655462 0.031834241 9.2198432e-41
0.022695163 -0.12655462 0.031834241 9.2198432e-41
0.024455642 -0.12655462 0.031834241 2.7623376e-40
0.026082629 -0.12574057 0.034819957 9.1842503e-41
0.027837874 -0.12574057 0.034819957 5.6051939e-45
0.029593119 -0.12574057 0.034819957 1.8403813e-40
0.031195128 -0.1249045 0.037886556 5.5246052e-40
0.032944992 -0.1249045 0.037886556 6.4465615e-40
0.034537122 -0.12410025 0.040836331 4.5990756e-40
0.036114477 -0.12327419 0.043866213 9.1842503e-41
0.037853859 -0.12327419 0.043866213 1.847542e-40
0.039593242 -0.12327419 0.043866213 5.5389265e-40
0.041332625 -0.12327419 0.043866213 9.2231923e-40
0.042884566 -0.12245311 0.046877738 9.2267516e-40
0.044618666 -0.12245311 0.046877738 6.4465335e-40
0.046352766 -0.12245311 0.046877738 2.7586802e-40
0.048086874 -0.12245311 0.046877738 2.7587083e-40
0.049820974 -0.12245311 0.046877738 3.6806365e-40
0.051555082 -0.12245311 0.046877738 5.5245772e-40
0.053289182 -0.12245311 0.046877738 2.7586802e-40
0.055023283 -0.12245311 0.046877738 1.836752e-40
0.05675739 -0.12245311 0.046877738 9.219563e-41
0.058491491 -0.12245311 0.046877738 2.7658969e-40
0.060063675 -0.12189974 0.048907395 2.7730576e-40
0.061551183 -0.12108697 0.051888403 1.847542e-40
0.0632765 -0.12108697 0.051888403 9.219563e-41
0.065001816 -0.12108697 0.051888403 2.7550649e-40
0.06698586 -0.12189974 0.048907395 4.5953621e-40
0.068716407 -0.12189974 0.048907395 1.8439126e-40
0.070446953 -0.12189974 0.048907395 4.6242009e-40
0.0721775 -0.12189974 0.048907395 1.6613262e-39
0.073908046 -0.12189974 0.048907395 7.2447131e-43
0.075832531 -0.12245311 0.046877738 7.286752e-43
0.077859685 -0.12327419 0.043866213 9.8090893e-45
0.079599068 -0.12327419 0.043866213 1.8404234e-40
0.081643924 -0.12410025 0.040836331 9.1845305e-41
0.08369118 -0.1249045 0.037886556 5.5102279e-40
0.086690456 -0.12816976 0.025910255 9.1944517e-40
0.08846131 -0.12816976 0.025910255 8.2796561e-40
0.090559885 -0.12899835 0.022871133 3.6806365e-40
0.09299694 -0.13064255 0.016840573 1.8402972e-40
0.094783708 -0.13064255 0.016840573 1.8438846e-40
0.097248882 -0.1322781 0.010841724 9.1835496e-41
0.099046171 -0.1322781 0.010841724 9.1838299e-41
0.10119626 -0.13310309 0.0078158341 9.1838299e-41
0.105592 -0.1390769 -0.014094952 9.1838299e-41
0.10863744 -0.14181106 -0.024123315 2.8025969e-45
0.11049603 -0.14181106 -0.024123315 9.2198432e-41
0.11235462 -0.14181106 -0.024123315 9.2198432e-41
0.11421321 -0.14181106 -0.024123315 9.2198432e-41
0.11607181 -0.14181106 -0.024123315 3.629363e-43
0.11831862 -0.14263238 -0.027135734 1.847542e-40
0.12071064 -0.14373477 -0.031179074 2.2141371e-39
0.1225816 -0.14373477 -0.031179074 5.8097666e-39
-0.10294899 -0.14917539 -0.044188146 0
-0.10105522 -0.14917539 -0.044188146 0
-0.098938271 -0.14835359 -0.041193251 0
-0.097049758 -0.14835359 -0.041193251 0
-0.095161229 -0.14835359 -0.041193251 0
-0.093272716 -0.14835359 -0.041193251 9.219563e-41
-0.091113821 -0.14725454 -0.037187938 9.219563e-41
-0.089232311 -0.14725454 -0.037187938 9.219563e-41
-0.087154374 -0.1464123 -0.034118418 0
-0.085095301 -0.14560573 -0.031179074 2.8025969e-45
-0.083224341 -0.14560573 -0.031179074 2.8025969e-45
-0.081353381 -0.14560573 -0.031179074 2.8025969e-45
-0.07925202 -0.14449625 -0.027135734 9.2198432e-41
-0.077388138 -0.14449625 -0.027135734 9.1841101e-41
-0.075524271 -0.14449625 -0.027135734 1.83678e-40
-0.073660389 -0.14449625 -0.027135734 3.6806926e-40
-0.07164599 -0.14366965 -0.024123315 3.6806646e-40
-0.069787398 -0.14366965 -0.024123315 3.6806365e-40
-0.067928806 -0.14366965 -0.024123315 3.6841958e-40
-0.06593629 -0.14284773 -0.021127943 6.4392747e-40
-0.06408295 -0.14284773 -0.021127943 7.361203e-40
-0.062106892 -0.14203046 -0.018149499 9.2051436e-40
-0.060258768 -0.14203046 -0.018149499 8.2831873e-40
-0.058410652 -0.14203046 -0.018149499 6.4320861e-40
-0.056416802 -0.14091791 -0.014094952 5.5101578e-40
-0.054575793 -0.14091791 -0.014094952 4.5918168e-40
-0.052734785 -0.14091791 -0.014094952 4.5918168e-40
-0.050803594 -0.14011143 -0.011155847 5.5102138e-40
-0.048967734 -0.14011143 -0.011155847 6.4285828e-40
-0.047211751 -0.14091791 -0.014094952 8.2760267e-40
-0.045370743 -0.14091791 -0.014094952 6.4321141e-40
-0.043529734 -0.14091791 -0.014094952 5.5101578e-40
-0.041624315 -0.14011143 -0.011155847 6.4393028e-40
-0.039788455 -0.14011143 -0.011155847 7.3684617e-40
-0.037896805 -0.13927986 -0.0081253089 6.4536941e-40
-0.036016077 -0.13845308 -0.0051121749 3.6878252e-40
-0.034190819 -0.13845308 -0.0051121749 1.8439126e-40
-0.032326162 -0.13763104 -0.0021164455 6.4536661e-40
-0.030506158 -0.13763104 -0.0021164455 3.6877972e-40
-0.028648233 -0.13655205 0.0018157922 1.8402972e-40
-0.026835119 -0.13655205 0.0018157922 2.7622395e-40
-0.025022008 -0.13655205 0.0018157922 6.4393028e-40
-0.023195477 -0.13571201 0.0048772059 7.361231e-40
-0.021387732 -0.13571201 0.0048772059 7.3540704e-40
-0.019577412 -0.13490568 0.0078158341 3.6734619e-40
-0.017774818 -0.13490568 0.0078158341 3.6843079e-40
-0.015980186 -0.13407536 0.010841724 1.8548147e-40
-0.014182897 -0.13407536 0.010841724 9.3283037e-41
-0.012404072 -0.13324992 0.01384997 1.4447387e-42
-0.01061206 -0.13324992 0.01384997 3.629363e-43
-0.0088200476 -0.13324992 0.01384997 2.8025969e-45
-0.0070280349 -0.13324992 0.01384997 7.1886611e-43
-0.0052360231 -0.13324992 0.01384997 9.2914496e-41
-0.0034440104 -0.13324992 0.01384997 1.8438846e-40
-0.0017018113 -0.13242932 0.016840573 9.2194229e-41
8.4957108e-05 -0.13242932 0.016840573 0
0.0018117782 -0.13161351 0.019813653 9.2194229e-41
0.0035263244 -0.13077454 0.022871133 2.7658689e-40
0.0053025205 -0.13077454 0.022871133 2.7658969e-40
0.0070787147 -0.13077454 0.022871133 3.6806646e-40
0.0088549107 -0.13077454 0.022871133 2.7587083e-40
0.010631105 -0.13077454 0.022871133 4.5917888e-40
0.01231405 -0.12994061 0.025910255 6.4284847e-40
0.014084918 -0.12994061 0.025910255 4.5917748e-40
0.015855784 -0.12994061 0.025910255 3.6734198e-40
0.017626649 -0.12994061 0.025910255 3.6734339e-40
0.019287424 -0.12913923 0.028830763 1.8367239e-40
0.021053171 -0.12913923 0.028830763 9.219563e-41
0.022695163 -0.12831511 0.031834241 7.1886611e-43
0.024455642 -0.12831511 0.031834241 1.847542e-40
0.026216121 -0.12831511 0.031834241 3.629363e-43
0.027837874 -0.12749584 0.034819957 2.8025969e-45
0.029593119 -0.12749584 0.034819957 9.2558566e-41
0.031195128 -0.12665437 0.037886556 4.6098095e-40
0.032944992 -0.12665437 0.037886556 5.5317658e-40
0.034537122 -0.12584494 0.040836331 4.6026489e-40
0.036114477 -0.12501357 0.043866213 9.1842503e-41
0.037853859 -0.12501357 0.043866213 3.5873241e-43
0.039593242 -0.12501357 0.043866213 1.7950633e-42
0.041332625 -0.12501357 0.043866213 5.5389265e-40
0.042884566 -0.12418722 0.046877738 4.6169421e-40
0.044618666 -0.12418722 0.046877738 2.7586802e-40
0.046352766 -0.12418722 0.046877738 9.1835496e-41
0.048086874 -0.12418722 0.046877738 2.7550649e-40
0.049820974 -0.12418722 0.046877738 2.7550649e-40
0.051555082 -0.12418722 0.046877738 3.6734339e-40
0.053289182 -0.12418722 0.046877738 5.5173184e-40
0.055023283 -0.12418722 0.046877738 3.6806365e-40
0.05675739 -0.12418722 0.046877738 1.8438846e-40
0.058491491 -0.12418722 0.046877738 0
0.060063675 -0.12363027 0.048907395 3.5873241e-43
0.061551183 -0.12281232 0.051888403 7.1886611e-43
0.0632765 -0.12281232 0.051888403 1.8510732e-40
0.065001816 -0.12281232 0.051888403 4.5953621e-40
0.066727147 -0.12281232 0.051888403 4.5953621e-40
0.068452463 -0.12281232 0.051888403 2.7658689e-40
0.070177779 -0.12281232 0.051888403 7.3900698e-40
0.0721775 -0.12363027 0.048907395 1.7546008e-39
0.073908046 -0.12363027 0.048907395 1.0832037e-42
0.075832531 -0.12418722 0.046877738 1.0888089e-42
0.077566639 -0.12418722 0.046877738 3.7274539e-43
0.079300746 -0.12418722 0.046877738 3.6879653e-40
0.081643924 -0.12584494 0.040836331 2.755191e-40
0.08369118 -0.12665437 0.037886556 4.5918589e-40
0.086690456 -0.12994061 0.025910255 5.5102138e-40
0.08846131 -0.12994061 0.025910255 3.6734619e-40
0.090889573 -0.13161351 0.019813653 9.1835496e-41
0.09299694 -0.13242932 0.016840573 9.1835496e-41
0.094783708 -0.13242932 0.016840573 1.8438846e-40
0.097248882 -0.13407536 0.010841724 0
0.099046171 -0.13407536 0.010841724 2.8025969e-45
0.10084346 -0.13407536 0.010841724 2.8025969e-45
0.10299885 -0.13490568 0.0078158341 9.2198432e-41
0.10515438 -0.13571201 0.0048772059 9.2198432e-41
0.11049603 -0.14366965 -0.024123315 9.2198432e-41
0.11235462 -0.14366965 -0.024123315 3.629363e-43
0.11421321 -0.14366965 -0.024123315 3.629363e-43
0.11607181 -0.14366965 -0.024123315 3.629363e-43
0.1179304 -0.14366965 -0.024123315 9.2558566e-41
0.11978899 -0.14366965 -0.024123315 2.3052537e-39
0.12164758 -0.14366965 -0.024123315 6.1774701e-39
-0.091113821 -0.14913605 -0.037187938 0
-0.089232311 -0.14913605 -0.037187938 0
-0.087154374 -0.14828841 -0.034118418 0
-0.085095301 -0.14747669 -0.031179074 2.8025969e-45
-0.083224341 -0.14747669 -0.031179074 2.8025969e-45
-0.081353381 -0.14747669 -0.031179074 2.8025969e-45
-0.07925202 -0.14636014 -0.027135734 2.8025969e-45
-0.077388138 -0.14636014 -0.027135734 9.1841101e-41
-0.075524271 -0.14636014 -0.027135734 1.836752e-40
-0.073660389 -0.14636014 -0.027135734 3.6806646e-40
-0.07164599 -0.14552824 -0.024123315 3.6806365e-40
-0.069787398 -0.14552824 -0.024123315 3.6841958e-40
-0.067928806 -0.14552824 -0.024123315 3.6841818e-40
-0.066070214 -0.14552824 -0.024123315 6.4392467e-40
-0.06408295 -0.14470108 -0.021127943 7.361203e-40
-0.062229604 -0.14470108 -0.021127943 4.5953621e-40
-0.060258768 -0.14387859 -0.018149499 4.5953621e-40
-0.058410652 -0.14387859 -0.018149499 4.5917748e-40
-0.056416802 -0.14275892 -0.014094952 4.5917748e-40
-0.054575793 -0.14275892 -0.014094952 5.5101578e-40
-0.052734785 -0.14275892 -0.014094952 6.4321421e-40
-0.050803594 -0.14194728 -0.011155847 8.2724954e-40
-0.048967734 -0.14194728 -0.011155847 9.1944517e-40
-0.047211751 -0.14275892 -0.014094952 1.0116408e-39
-0.045370743 -0.14275892 -0.014094952 4.5918589e-40
-0.043460168 -0.14194728 -0.011155847 3.6734899e-40
-0.041624315 -0.14194728 -0.011155847 6.4465615e-40
-0.039727353 -0.14111041 -0.0081253089 1.0137988e-39
-0.037896805 -0.14111041 -0.0081253089 8.3012641e-40
-0.036016077 -0.14027832 -0.0051121749 5.5353952e-40
-0.034146175 -0.13945107 -0.0021164455 9.3640369e-41
-0.032326162 -0.13945107 -0.0021164455 9.3637566e-41
-0.030506158 -0.13945107 -0.0021164455 1.4419361e-42
-0.028686153 -0.13945107 -0.0021164455 3.629363e-43
-0.026835119 -0.13836516 0.0018157922 3.629363e-43
-0.025022008 -0.13836516 0.0018157922 1.8439406e-40
-0.023208896 -0.13836516 0.0018157922 2.7586802e-40
-0.021387732 -0.13751976 0.0048772059 4.5918309e-40
-0.019577412 -0.13670824 0.0078158341 3.6734899e-40
-0.017774818 -0.13670824 0.0078158341 2.755191e-40
-0.015980186 -0.13587265 0.010841724 2.7588204e-40
-0.014182897 -0.13587265 0.010841724 2.7623797e-40
-0.012404072 -0.13504194 0.01384997 1.8403953e-40
-0.01061206 -0.13504194 0.01384997 9.1841101e-41
-0.0088488869 -0.13421609 0.016840573 9.1838299e-41
-0.0070621185 -0.13421609 0.016840573 1.8367239e-40
-0.0052753491 -0.13421609 0.016840573 2.7586802e-40
-0.0034885807 -0.13421609 0.016840573 4.6061521e-40
-0.0017018113 -0.13421609 0.016840573 3.6841958e-40
3.022328e-05 -0.13339506 0.019813653 3.6841958e-40
0.0018117782 -0.13339506 0.019813653 4.6025928e-40
0.0035263244 -0.13255073 0.022871133 5.5245772e-40
0.0053025205 -0.13255073 0.022871133 6.4465335e-40
0.0070787147 -0.13255073 0.022871133 6.4465335e-40
0.0088549107 -0.13255073 0.022871133 7.3576998e-40
0.010543184 -0.1317115 0.025910255 7.3468397e-40
0.01231405 -0.1317115 0.025910255 8.2652087e-40
0.014084918 -0.1317115 0.025910255 6.4320861e-40
0.015855784 -0.1317115 0.025910255 5.5173184e-40
0.017521678 -0.13090499 0.028830763 5.5173465e-40
0.019287424 -0.13090499 0.028830763 1.8439126e-40
0.02093468 -0.13007559 0.031834241 9.219563e-41
0.022695163 -0.13007559 0.031834241 3.5873241e-43
0.024455642 -0.13007559 0.031834241 7.2166871e-43
0.026216121 -0.13007559 0.031834241 3.61535e-43
0.027837874 -0.12925108 0.034819957 2.8025969e-45
0.029593119 -0.12925108 0.034819957 3.629363e-43
0.031195128 -0.12840421 0.037886556 1.8439406e-40
0.032944992 -0.12840421 0.037886556 2.7658969e-40
0.034537122 -0.12758966 0.040836331 1.83678e-40
0.036114477 -0.12675296 0.043866213 2.8025969e-45
0.037853859 -0.12675296 0.043866213 3.5873241e-43
0.039593242 -0.12675296 0.043866213 1.0761972e-42
0.041332625 -0.12675296 0.043866213 1.8510732e-40
0.042884566 -0.12592132 0.046877738 1.8510732e-40
0.044618666 -0.12592132 0.046877738 9.1835496e-41
0.046352766 -0.12592132 0.046877738 9.1835496e-41
0.048086874 -0.12592132 0.046877738 2.7550649e-40
0.049820974 -0.12592132 0.046877738 3.6734198e-40
0.051555082 -0.12592132 0.046877738 2.7550649e-40
0.053289182 -0.12592132 0.046877738 3.6734198e-40
0.055023283 -0.12592132 0.046877738 4.6061521e-40
0.05675739 -0.12592132 0.046877738 1.8438846e-40
0.058491491 -0.12592132 0.046877738 0
0.05982586 -0.12453763 0.051888403 3.5873241e-43
0.061551183 -0.12453763 0.051888403 1.4349296e-42
0.0632765 -0.12453763 0.051888403 5.5388984e-40
0.065001816 -0.12453763 0.051888403 6.4392467e-40
0.066727147 -0.12453763 0.051888403 6.4392467e-40
0.068452463 -0.12453763 0.051888403 4.6097815e-40
0.070177779 -0.12453763 0.051888403 1.0155939e-39
0.071903095 -0.12453763 0.051888403 2.1233834e-39
0.073628411 -0.12453763 0.051888403 1.0874076e-42
0.075832531 -0.12592132 0.046877738 1.4517452e-42
0.077566639 -0.12592132 0.046877738 1.4531465e-42
0.079300746 -0.12592132 0.046877738 4.6099216e-40
0.081643924 -0.12758966 0.040836331 2.755219e-40
0.084311962 -0.13007559 0.031834241 2.755163e-40
0.086690456 -0.1317115 0.025910255 3.6734759e-40
0.088783696 -0.13255073 0.022871133 2.7550929e-40
0.090889573 -0.13339506 0.019813653 9.1835496e-41
0.09299694 -0.13421609 0.016840573 9.1835496e-41
0.094783708 -0.13421609 0.016840573 9.2194229e-41
0.096908674 -0.13504194 0.01384997 9.219563e-41
0.099046171 -0.13587265 0.010841724 9.2198432e-41
0.10084346 -0.13587265 0.010841724 9.2198432e-41
0.10299885 -0.13670824 0.0078158341 9.2198432e-41
0.10515438 -0.13751976 0.0048772059 9.2198432e-41
0.11013103 -0.14470108 -0.021127943 9.2198432e-41
0.11198437 -0.14470108 -0.021127943 3.629363e-43
0.11421321 -0.14552824 -0.024123315 3.629363e-43
0.11607181 -0.14552824 -0.024123315 9.2558566e-41
0.1179304 -0.14552824 -0.024123315 1.847542e-40
0.11978899 -0.14552824 -0.024123315 2.3974493e-39
0.12164758 -0.14552824 -0.024123315 6.2696658e-39
-0.083224341 -0.14934768 -0.031179074 9.1838299e-41
-0.081353381 -0.14934768 -0.031179074 9.1838299e-41
-0.079482421 -0.14934768 -0.031179074 9.1838299e-41
-0.077388138 -0.14822401 -0.027135734 9.1838299e-41
-0.075524271 -0.14822401 -0.027135734 9.1838299e-41
-0.073660389 -0.14822401 -0.027135734 2.7587083e-40
-0.07164599 -0.14738683 -0.024123315 2.7586802e-40
-0.069787398 -0.14738683 -0.024123315 2.7622395e-40
-0.067928806 -0.14738683 -0.024123315 1.8402972e-40
-0.066070214 -0.14738683 -0.024123315 4.5953621e-40
-0.06408295 -0.14655443 -0.021127943 5.5208917e-40
-0.062229604 -0.14655443 -0.021127943 2.7550649e-40
-0.060258768 -0.1457267 -0.018149499 2.7550649e-40
-0.058410652 -0.1457267 -0.018149499 4.5917748e-40
-0.056416802 -0.14459993 -0.014094952 5.5101298e-40
-0.054575793 -0.14459993 -0.014094952 6.4321141e-40
-0.052734785 -0.14459993 -0.014094952 7.3540704e-40
-0.050803594 -0.14378314 -0.011155847 8.2760547e-40
-0.048967734 -0.14378314 -0.011155847 8.2724954e-40
-0.047211751 -0.14459993 -0.014094952 9.1980951e-40
-0.045370743 -0.14459993 -0.014094952 3.6771753e-40
-0.043460168 -0.14378314 -0.011155847 3.6771753e-40
-0.041624315 -0.14378314 -0.011155847 7.3686019e-40
-0.039727353 -0.14294095 -0.0081253089 9.2197031e-40
-0.037896805 -0.14294095 -0.0081253089 4.6207116e-40
-0.036016077 -0.1421036 -0.0051121749 9.4004706e-41
-0.034146175 -0.14127107 -0.0021164455 1.8090763e-42
-0.032326162 -0.14127107 -0.0021164455 7.258726e-43
-0.030506158 -0.14127107 -0.0021164455 1.0860063e-42
-0.028686153 -0.14127107 -0.0021164455 1.084605e-42
-0.026835119 -0.14017828 0.0018157922 7.2447131e-43
-0.025022008 -0.14017828 0.0018157922 5.6051939e-45
-0.023208896 -0.14017828 0.0018157922 2.8025969e-45
-0.021387732 -0.13932751 0.0048772059 5.6051939e-45
-0.019577412 -0.13851084 0.0078158341 2.755163e-40
-0.017774818 -0.13851084 0.0078158341 4.591929e-40
-0.015980186 -0.13766994 0.010841724 4.591929e-40
-0.014182897 -0.13766994 0.010841724 5.5102699e-40
-0.012404072 -0.13683395 0.01384997 4.5918729e-40
-0.01061206 -0.13683395 0.01384997 3.6734899e-40
-0.0088488869 -0.13600285 0.016840573 2.7550929e-40
-0.0070621185 -0.13600285 0.016840573 4.5953902e-40
-0.0052753491 -0.13600285 0.016840573 5.5173465e-40
-0.0034885807 -0.13600285 0.016840573 5.5173184e-40
-0.0017018113 -0.13600285 0.016840573 4.5953621e-40
3.022328e-05 -0.13517661 0.019813653 4.5953902e-40
0.0018117782 -0.13517661 0.019813653 5.5173465e-40
0.0035263244 -0.13432692 0.022871133 7.3576998e-40
0.0053025205 -0.13432692 0.022871133 8.2796561e-40
0.0070787147 -0.13432692 0.022871133 7.3577278e-40
0.0087723173 -0.13348235 0.025910255 8.2760547e-40
0.010543184 -0.13348235 0.025910255 8.2652087e-40
0.01231405 -0.13348235 0.025910255 8.268782e-40
0.013990184 -0.13267075 0.028830763 7.3540424e-40
0.015755931 -0.13267075 0.028830763 6.4392747e-40
0.017521678 -0.13267075 0.028830763 6.4392747e-40
0.019287424 -0.13267075 0.028830763 2.7658409e-40
0.02093468 -0.13183604 0.031834241 9.2194229e-41
0.022695163 -0.13183604 0.031834241 3.5873241e-43
0.024455642 -0.13183604 0.031834241 3.5873241e-43
0.026216121 -0.13183604 0.031834241 7.1886611e-43
0.027837874 -0.13100632 0.034819957 1.8511013e-40
0.029593119 -0.13100632 0.034819957 9.2914496e-41
0.031195128 -0.13015409 0.037886556 9.2198432e-41
0.032944992 -0.13015409 0.037886556 2.8025969e-45
0.034537122 -0.12933435 0.040836331 9.1838299e-41
0.036281817 -0.12933435 0.040836331 9.219563e-41
0.037853859 -0.12849234 0.043866213 9.2911693e-41
0.039593242 -0.12849234 0.043866213 1.4349296e-42
0.041332625 -0.12849234 0.043866213 9.2911693e-41
0.042884566 -0.12765543 0.046877738 9.2911693e-41
0.044618666 -0.12765543 0.046877738 3.6841818e-40
0.046352766 -0.12765543 0.046877738 4.6061241e-40
0.048086874 -0.12765543 0.046877738 7.361203e-40
0.049820974 -0.12765543 0.046877738 8.2831593e-40
0.051555082 -0.12765543 0.046877738 4.5953621e-40
0.053289182 -0.12765543 0.046877738 5.5173044e-40
0.055023283 -0.12765543 0.046877738 3.6841818e-40
0.05675739 -0.12765543 0.046877738 9.2552961e-41
0.058491491 -0.12765543 0.046877738 3.5873241e-43
0.05982586 -0.12626295 0.051888403 3.5873241e-43
0.061551183 -0.12626295 0.051888403 1.4349296e-42
0.0632765 -0.12626295 0.051888403 4.6169141e-40
0.065001816 -0.12626295 0.051888403 6.4392467e-40
0.066727147 -0.12626295 0.051888403 5.5173044e-40
0.068452463 -0.12626295 0.051888403 3.6878252e-40
0.070177779 -0.12626295 0.051888403 1.1077895e-39
0.071903095 -0.12626295 0.051888403 2.1233848e-39
0.073628411 -0.12626295 0.051888403 7.272739e-43
0.075638592 -0.12709136 0.048907395 1.4503439e-42
0.077566639 -0.12765543 0.046877738 1.8146815e-42
0.079300746 -0.12765543 0.046877738 2.7660371e-40
0.081643924 -0.12933435 0.040836331 1.8368501e-40
0.084311962 -0.13183604 0.031834241 2.755163e-40
0.087007493 -0.13432692 0.022871133 5.5102279e-40
0.088783696 -0.13432692 0.022871133 3.6734619e-40
0.090889573 -0.13517661 0.019813653 9.1835496e-41
0.09299694 -0.13600285 0.016840573 9.1835496e-41
0.094783708 -0.13600285 0.016840573 1.8438846e-40
0.096908674 -0.13683395 0.01384997 9.2914496e-41
0.099046171 -0.13766994 0.010841724 9.2558566e-41
0.10084346 -0.13766994 0.010841724 9.2558566e-41
0.10299885 -0.13851084 0.0078158341 3.629363e-43
0.10515438 -0.13932751 0.0048772059 3.629363e-43
0.11013103 -0.14655443 -0.021127943 3.629363e-43
0.11198437 -0.14655443 -0.021127943 3.5873241e-43
0.11421321 -0.14738683 -0.024123315 3.5873241e-43
0.11607181 -0.14738683 -0.024123315 7.1886611e-43
0.11831862 -0.14822401 -0.027135734 2.7730576e-40
0.12018248 -0.14822401 -0.027135734 2.3974493e-39
0.12204637 -0.14822401 -0.027135734 5.9008832e-39
-0.07164599 -0.14924543 -0.024123315 3.6734339e-40
-0.069787398 -0.14924543 -0.024123315 2.7550649e-40
-0.067928806 -0.14924543 -0.024123315 2.7550649e-40
-0.066070214 -0.14924543 -0.024123315 3.6734198e-40
-0.06408295 -0.14840777 -0.021127943 4.5917748e-40
-0.062229604 -0.14840777 -0.021127943 4.5917748e-40
-0.060258768 -0.14757483 -0.018149499 4.5917748e-40
-0.058410652 -0.14757483 -0.018149499 5.5101298e-40
-0.056416802 -0.14644094 -0.014094952 5.5101298e-40
-0.054575793 -0.14644094 -0.014094952 6.4321141e-40
-0.052734785 -0.14644094 -0.014094952 5.5101858e-40
-0.050803594 -0.14561899 -0.011155847 5.5101858e-40
-0.048967734 -0.14561899 -0.011155847 4.5918589e-40
-0.047211751 -0.14644094 -0.014094952 4.5991036e-40
-0.045370743 -0.14644094 -0.014094952 1.8368641e-40
-0.043529734 -0.14644094 -0.014094952 3.6807767e-40
-0.041624315 -0.14561899 -0.011155847 6.4538342e-40
-0.039727353 -0.1447715 -0.0081253089 5.5318779e-40
-0.037896805 -0.1447715 -0.0081253089 7.328791e-43
-0.036016077 -0.14392884 -0.0051121749 7.286752e-43
-0.034190819 -0.14392884 -0.0051121749 1.4489426e-42
-0.032326162 -0.14309107 -0.0021164455 3.657389e-43
-0.030506158 -0.14309107 -0.0021164455 7.2447131e-43
-0.028686153 -0.14309107 -0.0021164455 1.084605e-42
-0.026835119 -0.14199139 0.0018157922 7.2166871e-43
-0.025022008 -0.14199139 0.0018157922 3.5873241e-43
-0.023208896 -0.14199139 0.0018157922 3.5873241e-43
-0.021387732 -0.14113526 0.0048772059 3.5873241e-43
-0.019577412 -0.14031343 0.0078158341 1.8439406e-40
-0.017774818 -0.14031343 0.0078158341 2.755191e-40
-0.015980186 -0.13946722 0.010841724 5.5102979e-40
-0.014182897 -0.13946722 0.010841724 5.5102699e-40
-0.012404072 -0.13862596 0.01384997 5.5102699e-40
-0.01061206 -0.13862596 0.01384997 3.6735039e-40
-0.0088488869 -0.13778962 0.016840573 4.5918589e-40
-0.0070621185 -0.13778962 0.016840573 5.5137872e-40
-0.0052753491 -0.13778962 0.016840573 7.3612591e-40
-0.0034885807 -0.13778962 0.016840573 2.7550649e-40
-0.0017018113 -0.13778962 0.016840573 2.7550649e-40
8.4957108e-05 -0.13778962 0.016840573 2.7550649e-40
0.0018117782 -0.13695817 0.019813653 2.7550649e-40
0.0035933349 -0.13695817 0.019813653 5.5101298e-40
0.0053025205 -0.13610314 0.022871133 5.5173465e-40
0.0070787147 -0.13610314 0.022871133 6.4321141e-40
0.0087723173 -0.13525321 0.025910255 5.5101298e-40
0.010543184 -0.13525321 0.025910255 3.6734198e-40
0.01231405 -0.13525321 0.025910255 3.6734198e-40
0.013990184 -0.13443647 0.028830763 4.5953621e-40
0.015755931 -0.13443647 0.028830763 5.5173184e-40
0.017521678 -0.13443647 0.028830763 3.6841958e-40
0.019287424 -0.13443647 0.028830763 2.7658409e-40
0.02093468 -0.13359652 0.031834241 1.8438846e-40
0.022695163 -0.13359652 0.031834241 9.2911693e-41
0.024455642 -0.13359652 0.031834241 7.1746481e-43
0.026216121 -0.13359652 0.031834241 2.7730295e-40
0.027837874 -0.13276155 0.034819957 4.6169702e-40
0.029593119 -0.13276155 0.034819957 4.6097815e-40
0.031195128 -0.13190396 0.037886556 1.8439126e-40
0.032944992 -0.13190396 0.037886556 0
0.034537122 -0.13107903 0.040836331 1.8367239e-40
0.036281817 -0.13107903 0.040836331 3.6806365e-40
0.037853859 -0.13023172 0.043866213 2.7730295e-40
0.039593242 -0.13023172 0.043866213 7.1746481e-43
0.041332625 -0.13023172 0.043866213 3.5873241e-43
0.043072008 -0.13023172 0.043866213 3.5873241e-43
0.044618666 -0.12938951 0.046877738 2.7622395e-40
0.046352766 -0.12938951 0.046877738 6.4500647e-40
0.048086874 -0.12938951 0.046877738 8.2939773e-40
0.049820974 -0.12938951 0.046877738 9.2159336e-40
0.051555082 -0.12938951 0.046877738 1.1049056e-39
0.053289182 -0.12938951 0.046877738 7.372021e-40
0.055023283 -0.12938951 0.046877738 4.6061521e-40
0.05675739 -0.12938951 0.046877738 9.2194229e-41
0.058333136 -0.12882192 0.048907395 3.5873241e-43
0.05982586 -0.12798826 0.051888403 3.5873241e-43
0.061551183 -0.12798826 0.051888403 7.1746481e-43
0.0632765 -0.12798826 0.051888403 7.1746481e-43
0.065001816 -0.12798826 0.051888403 1.8402972e-40
0.066727147 -0.12798826 0.051888403 9.1835496e-41
0.068452463 -0.12798826 0.051888403 9.219563e-41
0.070177779 -0.12798826 0.051888403 8.312026e-40
0.071903095 -0.12798826 0.051888403 2.1223058e-39
0.073628411 -0.12798826 0.051888403 3.685415e-43
0.075638592 -0.12882192 0.048907395 3.7134409e-43
0.077566639 -0.12938951 0.046877738 3.7274539e-43
0.079300746 -0.12938951 0.046877738 1.4012985e-44
0.081643924 -0.13107903 0.040836331 9.1845305e-41
0.084311962 -0.13359652 0.031834241 3.673532e-40
0.087007493 -0.13610314 0.022871133 6.4357715e-40
0.088783696 -0.13610314 0.022871133 6.4357435e-40
0.090889573 -0.13695817 0.019813653 4.5953902e-40
0.093324661 -0.13862596 0.01384997 1.8402972e-40
0.09511666 -0.13862596 0.01384997 2.7658409e-40
0.097248882 -0.13946722 0.010841724 2.7658969e-40
0.099393666 -0.14031343 0.0078158341 1.84757e-40
0.10119626 -0.14031343 0.0078158341 9.2561369e-41
0.10334665 -0.14113526 0.0048772059 9.2561369e-41
0.10552207 -0.14199139 0.0018157922 3.629363e-43
0.11013103 -0.14840777 -0.021127943 2.8025969e-45
0.11198437 -0.14840777 -0.021127943 3.5873241e-43
0.11421321 -0.14924543 -0.024123315 3.5873241e-43
0.11607181 -0.14924543 -0.024123315 3.5873241e-43
0.1179304 -0.14924543 -0.024123315 1.8511013e-40
0.11978899 -0.14924543 -0.024123315 2.2130581e-39
0.12164758 -0.14924543 -0.024123315 5.3477095e-39
-0.060258768 -0.14942293 -0.018149499 1.0109177e-39
-0.058410652 -0.14942293 -0.018149499 9.187221e-40
-0.056562535 -0.14942293 -0.018149499 8.2652647e-40
-0.054575793 -0.14828195 -0.014094952 6.4321421e-40
-0.052734785 -0.14828195 -0.014094952 6.4285828e-40
-0.050893776 -0.14828195 -0.014094952 6.4357715e-40
-0.04905276 -0.14828195 -0.014094952 6.4357715e-40
-0.047211751 -0.14828195 -0.014094952 4.6062502e-40
-0.045370743 -0.14828195 -0.014094952 4.6134389e-40
-0.043460168 -0.14745484 -0.011155847 4.6134389e-40
-0.041624315 -0.14745484 -0.011155847 1.84757e-40
-0.039666593 -0.14575411 -0.0051121749 5.6051939e-45
-0.037841335 -0.14575411 -0.0051121749 5.6051939e-45
-0.036016077 -0.14575411 -0.0051121749 1.4447387e-42
-0.034146175 -0.14491107 -0.0021164455 2.7803163e-40
-0.032326162 -0.14491107 -0.0021164455 3.61535e-43
-0.030506158 -0.14491107 -0.0021164455 1.0789998e-42
-0.028686153 -0.14491107 -0.0021164455 9.3987891e-41
-0.026835119 -0.14380451 0.0018157922 2.7765888e-40
-0.025022008 -0.14380451 0.0018157922 1.8546465e-40
-0.023195477 -0.14294298 0.0048772059 9.3270426e-41
-0.021387732 -0.14294298 0.0048772059 1.8582339e-40
-0.019577412 -0.14211603 0.0078158341 2.7765888e-40
-0.017774818 -0.14211603 0.0078158341 5.6051939e-45
-0.015980186 -0.14126451 0.010841724 3.6807767e-40
-0.014182897 -0.14126451 0.010841724 7.3721612e-40
-0.012385611 -0.14126451 0.010841724 7.3721612e-40
-0.01061206 -0.14041798 0.01384997 3.6843079e-40
-0.0088200476 -0.14041798 0.01384997 9.1842503e-41
-0.0070280349 -0.14041798 0.01384997 1.836752e-40
-0.0052360231 -0.14041798 0.01384997 2.7586802e-40
-0.0034440104 -0.14041798 0.01384997 2.7622395e-40
-0.0016519986 -0.14041798 0.01384997 1.8402972e-40
8.4957108e-05 -0.13957639 0.016840573 9.1835496e-41
0.0018717255 -0.13957639 0.016840573 9.1835496e-41
0.0035933349 -0.13873972 0.019813653 2.7550649e-40
0.0053748898 -0.13873972 0.019813653 9.2194229e-41
0.0070787147 -0.13787933 0.022871133 2.7550649e-40
0.0088549107 -0.13787933 0.022871133 9.2194229e-41
0.010543184 -0.13702409 0.025910255 2.7622395e-40
0.01231405 -0.13702409 0.025910255 6.4572254e-40
0.013990184 -0.13620223 0.028830763 1.0145051e-39
0.015755931 -0.13620223 0.028830763 7.3791817e-40
0.017521678 -0.13620223 0.028830763 1.8474719e-40
0.019287424 -0.13620223 0.028830763 3.5873241e-43
0.02093468 -0.13535701 0.031834241 1.8474719e-40
0.022695163 -0.13535701 0.031834241 6.4572254e-40
0.024455642 -0.13535701 0.031834241 2.7694142e-40
0.026216121 -0.13535701 0.031834241 2.7694142e-40
0.027837874 -0.13451682 0.034819957 1.8438846e-40
0.029593119 -0.13451682 0.034819957 2.7622395e-40
0.031195128 -0.13365383 0.037886556 3.6841958e-40
0.032944992 -0.13365383 0.037886556 3.6841958e-40
0.034694865 -0.13365383 0.037886556 3.6734198e-40
0.036281817 -0.13282375 0.040836331 9.1835496e-41
0.037853859 -0.13197111 0.043866213 3.6806365e-40
0.039593242 -0.13197111 0.043866213 3.6877972e-40
0.041332625 -0.13197111 0.043866213 3.6878252e-40
0.043072008 -0.13197111 0.043866213 3.6841958e-40
0.04481139 -0.13197111 0.043866213 3.6806365e-40
0.046550773 -0.13197111 0.043866213 4.6025928e-40
0.048290163 -0.13197111 0.043866213 7.3684617e-40
0.049820974 -0.13112362 0.046877738 9.219563e-40
0.051555082 -0.13112362 0.046877738 6.4465054e-40
0.053289182 -0.13112362 0.046877738 4.6097815e-40
0.055023283 -0.13112362 0.046877738 9.2198432e-41
0.05675739 -0.13112362 0.046877738 2.8025969e-45
0.058333136 -0.13055246 0.048907395 3.6914546e-40
0.05982586 -0.12971358 0.051888403 1.0145149e-39
0.061551183 -0.12971358 0.051888403 9.2231923e-40
0.0632765 -0.12971358 0.051888403 2.7694983e-40
0.065001816 -0.12971358 0.051888403 5.6051939e-45
0.066727147 -0.12971358 0.051888403 1.84757e-40
0.068452463 -0.12971358 0.051888403 5.6051939e-45
0.070177779 -0.12971358 0.051888403 3.5048787e-39
0.071903095 -0.12971358 0.051888403 3.6889126e-39
0.073628411 -0.12971358 0.051888403 9.3283037e-41
0.075638592 -0.13055246 0.048907395 4.6134529e-40
0.077566639 -0.13112362 0.046877738 7.0064923e-45
0.079300746 -0.13112362 0.046877738 2.7623376e-40
0.081643924 -0.13282375 0.040836331 1.8403813e-40
0.084620029 -0.13620223 0.028830763 1.83678e-40
0.087007493 -0.13787933 0.022871133 3.6734619e-40
0.088783696 -0.13787933 0.022871133 5.5173465e-40
0.090889573 -0.13873972 0.019813653 5.5173465e-40
0.09299694 -0.13957639 0.016840573 4.5953902e-40
