# .PCD v0.7 - Point Cloud Data file format
VERSION 0.7
FIELDS x y z rgb
SIZE 4 4 4 4
TYPE F F F F
COUNT 1 1 1 1
WIDTH 914
HEIGHT 1
VIEWPOINT 0 0 0 1 0 0 0
POINTS 914
DATA ascii
0.012318886 -0.045577407 -0.010255159 2.3509886e-38
0.014205396 -0.044870034 -0.0062407861 2.3509886e-38
0.016116541 -0.044870034 -0.0062407861 2.3509886e-38
0.017994259 -0.044353217 -0.0033078799 2.3509886e-38
0.019900262 -0.044353217 -0.0033078799 2.3509886e-38
0.021849975 -0.044870034 -0.0062407861 2.3509886e-38
0.02376112 -0.044870034 -0.0062407861 2.3509886e-38
0.025672264 -0.044870034 -0.0062407861 2.3509886e-38
0.02766435 -0.045577407 -0.010255159 2.3509886e-38
0.029582534 -0.045577407 -0.010255159 2.3509886e-38
0.031500719 -0.045577407 -0.010255159 2.3509886e-38
0.033316843 -0.044870034 -0.0062407861 2.3509886e-38
0.035227984 -0.044870034 -0.0062407861 2.3509886e-38
0.037139133 -0.044870034 -0.0062407861 2.3509886e-38
0.038960285 -0.044353217 -0.0033078799 2.3141103e-38
0.040866286 -0.044353217 -0.0033078799 2.341769e-38
0.042668566 -0.043818668 -0.0002742419 2.3509886e-38
0.044427581 -0.043124124 0.003667294 2.3325494e-38
0.046321355 -0.043124124 0.003667294 2.3509886e-38
0.048215128 -0.043124124 0.003667294 2.3509886e-38
0.050108895 -0.043124124 0.003667294 2.3509886e-38
0.051874019 -0.0425964 0.006662189 2.3509886e-38
0.05376254 -0.0425964 0.006662189 2.3509886e-38
0.055651061 -0.0425964 0.006662189 2.3509886e-38
0.057539582 -0.0425964 0.006662189 2.3325494e-38
0.059428103 -0.0425964 0.006662189 2.3509886e-38
0.061316624 -0.0425964 0.006662189 2.3509886e-38
0.063205145 -0.0425964 0.006662189 2.3509886e-38
0.065093666 -0.0425964 0.006662189 2.3326213e-38
0.066982187 -0.0425964 0.006662189 2.2220942e-38
0.068870708 -0.0425964 0.006662189 2.268192e-38
0.070516951 -0.041890621 0.010667502 2.3142542e-38
0.072398447 -0.041890621 0.010667502 2.3325856e-38
0.074279949 -0.041890621 0.010667502 2.341805e-38
0.076161444 -0.041890621 0.010667502 2.3417691e-38
0.078042947 -0.041890621 0.010667502 2.332478e-38
0.079924442 -0.041890621 0.010667502 4.2402969e-39
0.081587978 -0.041349739 0.013737022 9.2053538e-40
-0.086524196 -0.05389975 -0.046240985 1.6230387e-38
-0.084231339 -0.053204685 -0.042335331 2.2223103e-38
-0.082022421 -0.052669853 -0.039330065 2.2958873e-38
-0.080053262 -0.052669853 -0.039330065 2.3142544e-38
-0.078084104 -0.052669853 -0.039330065 2.3234379e-38
-0.076114945 -0.052669853 -0.039330065 2.2865235e-38
-0.073863007 -0.051961169 -0.035347879 2.3509886e-38
-0.071900822 -0.051961169 -0.035347879 2.3509886e-38
-0.069938652 -0.051961169 -0.035347879 2.3509527e-38
-0.067976467 -0.051961169 -0.035347879 2.3509886e-38
-0.066014282 -0.051961169 -0.035347879 2.3509886e-38
-0.064052112 -0.051961169 -0.035347879 2.3509886e-38
-0.062089927 -0.051961169 -0.035347879 2.3509886e-38
-0.060127757 -0.051961169 -0.035347879 2.341805e-38
-0.058165573 -0.051961169 -0.035347879 2.341805e-38
-0.055978216 -0.051235601 -0.031270802 2.3509886e-38
-0.054023184 -0.051235601 -0.031270802 2.3509886e-38
-0.052068152 -0.051235601 -0.031270802 2.3509886e-38
-0.050113119 -0.051235601 -0.031270802 2.3509886e-38
-0.048016019 -0.050711215 -0.028324187 2.3509886e-38
-0.046066158 -0.050711215 -0.028324187 2.3509886e-38
-0.044116288 -0.050711215 -0.028324187 2.3509886e-38
-0.042166427 -0.050711215 -0.028324187 2.3509886e-38
-0.040216558 -0.050711215 -0.028324187 2.3509886e-38
-0.038107865 -0.049994677 -0.024297893 2.3509886e-38
-0.036165059 -0.049994677 -0.024297893 2.3509886e-38
-0.034222253 -0.049994677 -0.024297893 2.3509886e-38
-0.032279447 -0.049994677 -0.024297893 2.3509886e-38
-0.030336643 -0.049994677 -0.024297893 2.3509886e-38
-0.028300842 -0.049455315 -0.021267116 2.3509886e-38
-0.026363352 -0.049455315 -0.021267116 2.3509886e-38
-0.024425862 -0.049455315 -0.021267116 2.3509886e-38
-0.022488372 -0.049455315 -0.021267116 2.3509886e-38
-0.020550879 -0.049455315 -0.021267116 2.3509886e-38
-0.018613392 -0.049455315 -0.021267116 2.3509886e-38
-0.016675899 -0.049455315 -0.021267116 2.3509886e-38
-0.014738409 -0.049455315 -0.021267116 2.3509886e-38
-0.012734698 -0.048747838 -0.017291725 2.3509886e-38
-0.010804178 -0.048747838 -0.017291725 2.3509886e-38
-0.0088736583 -0.048747838 -0.017291725 2.3509886e-38
-0.0068981592 -0.048045456 -0.013344944 2.3509886e-38
-0.0049745571 -0.048045456 -0.013344944 2.3509886e-38
-0.0030820984 -0.048747838 -0.017291725 2.3509886e-38
-0.0011515766 -0.048747838 -0.017291725 2.3509886e-38
0.0007789433 -0.048747838 -0.017291725 2.3509886e-38
0.0027094651 -0.048747838 -0.017291725 2.3509886e-38
0.004643444 -0.048045456 -0.013344944 2.3509886e-38
0.006567046 -0.048045456 -0.013344944 2.3509886e-38
0.0084906463 -0.048045456 -0.013344944 2.3509886e-38
0.010400703 -0.047495589 -0.010255159 2.3509886e-38
0.012318886 -0.047495589 -0.010255159 2.3509886e-38
0.014205396 -0.046781182 -0.0062407861 2.3509886e-38
0.016116541 -0.046781182 -0.0062407861 2.3509886e-38
0.017994259 -0.046259224 -0.0033078799 2.3509886e-38
0.019900262 -0.046259224 -0.0033078799 2.3509886e-38
0.021849975 -0.046781182 -0.0062407861 2.3509886e-38
0.02376112 -0.046781182 -0.0062407861 2.3509886e-38
0.025672264 -0.046781182 -0.0062407861 2.3509886e-38
0.027583407 -0.046781182 -0.0062407861 2.3509886e-38
0.029582534 -0.047495589 -0.010255159 2.3509886e-38
0.031500719 -0.047495589 -0.010255159 2.3509886e-38
0.033316843 -0.046781182 -0.0062407861 2.3509886e-38
0.035227984 -0.046781182 -0.0062407861 2.3509886e-38
0.037054285 -0.046259224 -0.0033078799 2.3509886e-38
0.038960285 -0.046259224 -0.0033078799 2.3048907e-38
0.040866286 -0.046259224 -0.0033078799 2.3233299e-38
0.042668566 -0.045719355 -0.0002742419 2.3509886e-38
0.044427581 -0.045017898 0.003667294 2.3509886e-38
0.046321355 -0.045017898 0.003667294 2.3325494e-38
0.048215128 -0.045017898 0.003667294 2.3509886e-38
0.050108895 -0.045017898 0.003667294 2.3509886e-38
0.051874019 -0.044484913 0.006662189 2.2956712e-38
0.05376254 -0.044484913 0.006662189 2.3325494e-38
0.055651061 -0.044484913 0.006662189 2.341769e-38
0.057539582 -0.044484913 0.006662189 2.3509886e-38
0.059428103 -0.044484913 0.006662189 2.3233299e-38
0.061316624 -0.044484913 0.006662189 2.341769e-38
0.063205145 -0.044484913 0.006662189 2.3325494e-38
0.065093666 -0.044484913 0.006662189 2.3325492e-38
0.066982187 -0.044484913 0.006662189 2.3418045e-38
0.068635449 -0.043772116 0.010667502 2.3418045e-38
0.070516951 -0.043772116 0.010667502 2.3418047e-38
0.072398447 -0.043772116 0.010667502 2.3049626e-38
0.074279949 -0.043772116 0.010667502 2.2864882e-38
0.076161444 -0.043772116 0.010667502 2.3509527e-38
0.077835739 -0.043225855 0.013737022 2.2495029e-38
0.079711862 -0.043225855 0.013737022 6.4526291e-39
0.081587978 -0.043225855 0.013737022 1.0130869e-39
0.083464094 -0.043225855 0.013737022 3.6856784e-39
-0.086524196 -0.055881023 -0.046240985 1.973526e-38
-0.08399158 -0.054639012 -0.039330065 2.2039072e-38
-0.082022421 -0.054639012 -0.039330065 2.2867037e-38
-0.080053262 -0.054639012 -0.039330065 2.2775199e-38
-0.078084104 -0.054639012 -0.039330065 2.3142544e-38
-0.075825177 -0.053923354 -0.035347879 2.3234379e-38
-0.073863007 -0.053923354 -0.035347879 2.3234018e-38
-0.071900822 -0.053923354 -0.035347879 2.3509886e-38
-0.069938652 -0.053923354 -0.035347879 2.3509886e-38
-0.067976467 -0.053923354 -0.035347879 2.3509886e-38
-0.066014282 -0.053923354 -0.035347879 2.3509886e-38
-0.064052112 -0.053923354 -0.035347879 2.3509886e-38
-0.062089927 -0.053923354 -0.035347879 2.3509886e-38
-0.060127757 -0.053923354 -0.035347879 2.341805e-38
-0.058165573 -0.053923354 -0.035347879 2.341805e-38
-0.055978216 -0.053190634 -0.031270802 2.3509886e-38
-0.054023184 -0.053190634 -0.031270802 2.3509886e-38
-0.052068152 -0.053190634 -0.031270802 2.3509886e-38
-0.050113119 -0.053190634 -0.031270802 2.3509886e-38
-0.048016019 -0.052661076 -0.028324187 2.3509886e-38
-0.046066158 -0.052661076 -0.028324187 2.3509886e-38
-0.044116288 -0.052661076 -0.028324187 2.3509886e-38
-0.042166427 -0.052661076 -0.028324187 2.3509886e-38
-0.040216558 -0.052661076 -0.028324187 2.3509886e-38
-0.038107865 -0.051937476 -0.024297893 2.3509886e-38
-0.036165059 -0.051937476 -0.024297893 2.3509886e-38
-0.034222253 -0.051937476 -0.024297893 2.3509886e-38
-0.032279447 -0.051937476 -0.024297893 2.3509886e-38
-0.030336643 -0.051937476 -0.024297893 2.3509886e-38
-0.028300842 -0.051392809 -0.021267116 2.3509886e-38
-0.026363352 -0.051392809 -0.021267116 2.3509886e-38
-0.024425862 -0.051392809 -0.021267116 2.3509886e-38
-0.022488372 -0.051392809 -0.021267116 2.3509886e-38
-0.020550879 -0.051392809 -0.021267116 2.3509886e-38
-0.018613392 -0.051392809 -0.021267116 2.3509886e-38
-0.016675899 -0.051392809 -0.021267116 2.3509886e-38
-0.014665222 -0.050678357 -0.017291725 2.3509886e-38
-0.012734698 -0.050678357 -0.017291725 2.3509886e-38
-0.01074536 -0.049969062 -0.013344944 2.3509886e-38
-0.0088217575 -0.049969062 -0.013344944 2.3509886e-38
-0.0068981592 -0.049969062 -0.013344944 2.3509886e-38
-0.0049745571 -0.049969062 -0.013344944 2.3509886e-38
-0.0030509587 -0.049969062 -0.013344944 2.3509886e-38
-0.0011273567 -0.049969062 -0.013344944 2.3509886e-38
0.0007789433 -0.050678357 -0.017291725 2.3509886e-38
0.0027198438 -0.049969062 -0.013344944 2.3509886e-38
0.004643444 -0.049969062 -0.013344944 2.3509886e-38
0.006567046 -0.049969062 -0.013344944 2.3509886e-38
0.0084906463 -0.049969062 -0.013344944 2.3509886e-38
0.010400703 -0.04941377 -0.010255159 2.3509886e-38
0.012318886 -0.04941377 -0.010255159 2.3509886e-38
0.014205396 -0.048692316 -0.0062407861 2.3509886e-38
0.016116541 -0.048692316 -0.0062407861 2.3509886e-38
0.018027686 -0.048692316 -0.0062407861 2.3509886e-38
0.01993883 -0.048692316 -0.0062407861 2.3509886e-38
0.021849975 -0.048692316 -0.0062407861 2.3509886e-38
0.02376112 -0.048692316 -0.0062407861 2.3509886e-38
0.025672264 -0.048692316 -0.0062407861 2.3509886e-38
0.027583407 -0.048692316 -0.0062407861 2.3509886e-38
0.029494552 -0.048692316 -0.0062407861 2.3509886e-38
0.031405695 -0.048692316 -0.0062407861 2.3509886e-38
0.033242278 -0.048165232 -0.0033078799 2.3509886e-38
0.035148278 -0.048165232 -0.0033078799 2.3509886e-38
0.036966518 -0.047620028 -0.0002742419 2.3509886e-38
0.038867205 -0.047620028 -0.0002742419 2.3509886e-38
0.040767886 -0.047620028 -0.0002742419 2.3509886e-38
0.042533807 -0.046911672 0.003667294 2.3509886e-38
0.044427581 -0.046911672 0.003667294 2.3509886e-38
0.046321355 -0.046911672 0.003667294 2.3141103e-38
0.048215128 -0.046911672 0.003667294 2.3048907e-38
0.050108895 -0.046911672 0.003667294 2.3325494e-38
0.052002668 -0.046911672 0.003667294 2.3509886e-38
0.05376254 -0.046373442 0.006662189 2.341769e-38
0.055651061 -0.046373442 0.006662189 2.3325494e-38
0.057539582 -0.046373442 0.006662189 2.3509886e-38
0.059428103 -0.046373442 0.006662189 2.3509886e-38
0.061316624 -0.046373442 0.006662189 2.3509886e-38
0.063205145 -0.046373442 0.006662189 2.3509886e-38
0.065093666 -0.046373442 0.006662189 2.3509883e-38
0.066982187 -0.046373442 0.006662189 2.350988e-38
0.068635449 -0.045653611 0.010667502 2.3049261e-38
0.070516951 -0.045653611 0.010667502 2.31411e-38
0.072398447 -0.045653611 0.010667502 2.3048907e-38
0.074279949 -0.045653611 0.010667502 2.3509527e-38
0.076161444 -0.045653611 0.010667502 2.3509168e-38
0.077835739 -0.04510197 0.013737022 2.3232227e-38
0.079711862 -0.04510197 0.013737022 5.6217866e-39
-0.086205773 -0.057153538 -0.042335331 2.1856478e-38
-0.08399158 -0.05660817 -0.039330065 2.2039072e-38
-0.082022421 -0.05660817 -0.039330065 2.2775202e-38
-0.080053262 -0.05660817 -0.039330065 2.2130188e-38
-0.078084104 -0.05660817 -0.039330065 2.2958873e-38
-0.075825177 -0.055885524 -0.035347879 2.3234379e-38
-0.073863007 -0.055885524 -0.035347879 2.2865955e-38
-0.071900822 -0.055885524 -0.035347879 2.3509886e-38
-0.069938652 -0.055885524 -0.035347879 2.3509886e-38
-0.067976467 -0.055885524 -0.035347879 2.3509886e-38
-0.066014282 -0.055885524 -0.035347879 2.3509886e-38
-0.064052112 -0.055885524 -0.035347879 2.3509886e-38
-0.062089927 -0.055885524 -0.035347879 2.3509886e-38
-0.060127757 -0.055885524 -0.035347879 2.341805e-38
-0.058165573 -0.055885524 -0.035347879 2.341805e-38
-0.055978216 -0.055145666 -0.031270802 2.3509886e-38
-0.054023184 -0.055145666 -0.031270802 2.3509886e-38
-0.052068152 -0.055145666 -0.031270802 2.3509886e-38
-0.049965881 -0.054610938 -0.028324187 2.3509886e-38
-0.048016019 -0.054610938 -0.028324187 2.3509886e-38
-0.046066158 -0.054610938 -0.028324187 2.3509886e-38
-0.043936275 -0.053880289 -0.024297893 2.3509886e-38
-0.041993469 -0.053880289 -0.024297893 2.3509886e-38
-0.040050663 -0.053880289 -0.024297893 2.3509886e-38
-0.038107865 -0.053880289 -0.024297893 2.3509886e-38
-0.036165059 -0.053880289 -0.024297893 2.3509886e-38
-0.034222253 -0.053880289 -0.024297893 2.3509886e-38
-0.032279447 -0.053880289 -0.024297893 2.3509886e-38
-0.030238336 -0.053330287 -0.021267116 2.3509886e-38
-0.028300842 -0.053330287 -0.021267116 2.3509886e-38
-0.026363352 -0.053330287 -0.021267116 2.3509886e-38
-0.024425862 -0.053330287 -0.021267116 2.3509886e-38
-0.022488372 -0.053330287 -0.021267116 2.3509886e-38
-0.020550879 -0.053330287 -0.021267116 2.3509886e-38
-0.018613392 -0.053330287 -0.021267116 2.3509886e-38
-0.016675899 -0.053330287 -0.021267116 2.3509886e-38
-0.014665222 -0.052608877 -0.017291725 2.3509886e-38
-0.012668962 -0.051892653 -0.013344944 2.3509886e-38
-0.01074536 -0.051892653 -0.013344944 2.3509886e-38
-0.0088217575 -0.051892653 -0.013344944 2.3509886e-38
-0.0068981592 -0.051892653 -0.013344944 2.3509886e-38
-0.0049745571 -0.051892653 -0.013344944 2.3509886e-38
-0.0030509587 -0.051892653 -0.013344944 2.3509886e-38
-0.0011273567 -0.051892653 -0.013344944 2.3509886e-38
0.0007789433 -0.052608877 -0.017291725 2.3509886e-38
0.0027198438 -0.051892653 -0.013344944 2.3509886e-38
0.004643444 -0.051892653 -0.013344944 2.3509886e-38
0.006567046 -0.051892653 -0.013344944 2.3509886e-38
0.0084906463 -0.051892653 -0.013344944 2.3509886e-38
0.010400703 -0.051331952 -0.010255159 2.3509886e-38
0.012318886 -0.051331952 -0.010255159 2.3509886e-38
0.014205396 -0.050603464 -0.0062407861 2.3509886e-38
0.016116541 -0.050603464 -0.0062407861 2.3509886e-38
0.018027686 -0.050603464 -0.0062407861 2.3509886e-38
0.01993883 -0.050603464 -0.0062407861 2.3509886e-38
0.021849975 -0.050603464 -0.0062407861 2.3509886e-38
0.02376112 -0.050603464 -0.0062407861 2.3509886e-38
0.025672264 -0.050603464 -0.0062407861 2.3509886e-38
0.027583407 -0.050603464 -0.0062407861 2.3509886e-38
0.029494552 -0.050603464 -0.0062407861 2.3509886e-38
0.031405695 -0.050603464 -0.0062407861 2.3509886e-38
0.033242278 -0.050071225 -0.0033078799 2.3509886e-38
0.035148278 -0.050071225 -0.0033078799 2.3509886e-38
0.036966518 -0.049520716 -0.0002742419 2.3141103e-38
0.03874626 -0.048805445 0.003667294 2.3509886e-38
0.040640034 -0.048805445 0.003667294 2.3509886e-38
0.042533807 -0.048805445 0.003667294 2.3509886e-38
0.044427581 -0.048805445 0.003667294 2.3509886e-38
0.046321355 -0.048805445 0.003667294 2.3509886e-38
0.048215128 -0.048805445 0.003667294 2.3509886e-38
0.050108895 -0.048805445 0.003667294 2.3509886e-38
0.052002668 -0.048805445 0.003667294 2.3509886e-38
0.05376254 -0.048261955 0.006662189 2.3233299e-38
0.055651061 -0.048261955 0.006662189 2.3509886e-38
0.057539582 -0.048261955 0.006662189 2.3325494e-38
0.059428103 -0.048261955 0.006662189 2.3509886e-38
0.061316624 -0.048261955 0.006662189 2.2587929e-38
0.063205145 -0.048261955 0.006662189 2.3509886e-38
0.065093666 -0.048261955 0.006662189 2.3509883e-38
0.066982187 -0.048261955 0.006662189 2.350988e-38
0.068870708 -0.048261955 0.006662189 2.323365e-38
0.070516951 -0.047535121 0.010667502 2.3509883e-38
0.072398447 -0.047535121 0.010667502 2.3509886e-38
0.074279949 -0.047535121 0.010667502 2.3232583e-38
0.076161444 -0.047535121 0.010667502 2.3232585e-38
0.077835739 -0.046978086 0.013737022 2.3509168e-38
0.079711862 -0.046978086 0.013737022 6.5440989e-39
0.081587978 -0.046978086 0.013737022 1.3804247e-39
-0.087598257 -0.057847708 -0.035347879 2.0337017e-39
-0.085636072 -0.057847708 -0.035347879 2.2224184e-38
-0.08399158 -0.058577344 -0.039330065 2.2683365e-38
-0.081711717 -0.057847708 -0.035347879 2.2775202e-38
-0.079749547 -0.057847708 -0.035347879 2.2958873e-38
-0.077787362 -0.057847708 -0.035347879 2.2775199e-38
-0.075825177 -0.057847708 -0.035347879 2.3234379e-38
-0.073863007 -0.057847708 -0.035347879 2.2589368e-38
-0.071900822 -0.057847708 -0.035347879 2.3509886e-38
-0.069938652 -0.057847708 -0.035347879 2.3509886e-38
-0.067976467 -0.057847708 -0.035347879 2.3509886e-38
-0.066014282 -0.057847708 -0.035347879 2.3509886e-38
-0.064052112 -0.057847708 -0.035347879 2.3509886e-38
-0.062089927 -0.057847708 -0.035347879 2.3509886e-38
-0.060127757 -0.057847708 -0.035347879 2.341805e-38
-0.058165573 -0.057847708 -0.035347879 2.341805e-38
-0.055978216 -0.057100698 -0.031270802 2.3509886e-38
-0.054023184 -0.057100698 -0.031270802 2.3509886e-38
-0.052068152 -0.057100698 -0.031270802 2.3509886e-38
-0.049965881 -0.056560799 -0.028324187 2.3509886e-38
-0.048016019 -0.056560799 -0.028324187 2.3509886e-38
-0.045879073 -0.055823088 -0.024297893 2.3509886e-38
-0.043936275 -0.055823088 -0.024297893 2.3509886e-38
-0.041993469 -0.055823088 -0.024297893 2.3509886e-38
-0.040050663 -0.055823088 -0.024297893 2.3509886e-38
-0.038107865 -0.055823088 -0.024297893 2.3509886e-38
-0.036165059 -0.055823088 -0.024297893 2.3509886e-38
-0.034222253 -0.055823088 -0.024297893 2.3509886e-38
-0.032279447 -0.055823088 -0.024297893 2.3509886e-38
-0.030238336 -0.055267781 -0.021267116 2.3509886e-38
-0.028300842 -0.055267781 -0.021267116 2.3509886e-38
-0.026363352 -0.055267781 -0.021267116 2.3509886e-38
-0.024425862 -0.055267781 -0.021267116 2.3509886e-38
-0.022488372 -0.055267781 -0.021267116 2.3509886e-38
-0.020550879 -0.055267781 -0.021267116 2.3509886e-38
-0.018613392 -0.055267781 -0.021267116 2.3509886e-38
-0.016675899 -0.055267781 -0.021267116 2.3509886e-38
-0.014665222 -0.054539397 -0.017291725 2.3509886e-38
-0.012668962 -0.053816259 -0.013344944 2.3509886e-38
-0.010699311 -0.053250134 -0.010255159 2.3509886e-38
-0.0087811295 -0.053250134 -0.010255159 2.3509886e-38
-0.0068629477 -0.053250134 -0.010255159 2.3509886e-38
-0.0049447622 -0.053250134 -0.010255159 2.3509886e-38
-0.0030509587 -0.053816259 -0.013344944 2.3509886e-38
-0.0011273567 -0.053816259 -0.013344944 2.3509886e-38
0.00079624355 -0.053816259 -0.013344944 2.3509886e-38
0.0027094651 -0.054539397 -0.017291725 2.3509886e-38
0.004643444 -0.053816259 -0.013344944 2.3509886e-38
0.006567046 -0.053816259 -0.013344944 2.3509886e-38
0.0084906463 -0.053816259 -0.013344944 2.3509886e-38
0.010400703 -0.053250134 -0.010255159 2.3509886e-38
0.012318886 -0.053250134 -0.010255159 2.3509886e-38
0.014205396 -0.052514613 -0.0062407861 2.3509886e-38
0.016116541 -0.052514613 -0.0062407861 2.3509886e-38
0.018027686 -0.052514613 -0.0062407861 2.3509886e-38
0.01993883 -0.052514613 -0.0062407861 2.3509886e-38
0.021849975 -0.052514613 -0.0062407861 2.3509886e-38
0.02376112 -0.052514613 -0.0062407861 2.3509886e-38
0.025672264 -0.052514613 -0.0062407861 2.3509886e-38
0.027583407 -0.052514613 -0.0062407861 2.3509886e-38
0.029430274 -0.051977232 -0.0033078799 2.3509886e-38
0.031336278 -0.051977232 -0.0033078799 2.3509886e-38
0.033165153 -0.051421404 -0.0002742419 2.3509886e-38
0.035065837 -0.051421404 -0.0002742419 2.3509886e-38
0.036966518 -0.051421404 -0.0002742419 2.3509886e-38
0.03874626 -0.050699219 0.003667294 2.3509886e-38
0.040640034 -0.050699219 0.003667294 2.3509886e-38
0.042533807 -0.050699219 0.003667294 2.3509886e-38
0.044427581 -0.050699219 0.003667294 2.3509886e-38
0.046321355 -0.050699219 0.003667294 2.3509886e-38
0.048215128 -0.050699219 0.003667294 2.3509886e-38
0.049985498 -0.050150484 0.006662189 2.3509886e-38
0.051874019 -0.050150484 0.006662189 2.3509886e-38
0.05376254 -0.050150484 0.006662189 2.3509886e-38
0.055651061 -0.050150484 0.006662189 2.3509886e-38
0.057539582 -0.050150484 0.006662189 2.3509886e-38
0.059428103 -0.050150484 0.006662189 2.3509886e-38
0.061316624 -0.050150484 0.006662189 2.3509886e-38
0.063205145 -0.050150484 0.006662189 2.3509886e-38
0.065093666 -0.050150484 0.006662189 2.3509883e-38
0.066982187 -0.050150484 0.006662189 2.350988e-38
0.068635449 -0.049416617 0.010667502 2.3509879e-38
0.070516951 -0.049416617 0.010667502 2.3232936e-38
0.072398447 -0.049416617 0.010667502 2.3509527e-38
0.074083507 -0.048854202 0.013737022 2.3509527e-38
0.075959623 -0.048854202 0.013737022 2.3048191e-38
0.077835739 -0.048854202 0.013737022 2.3509168e-38
0.079711862 -0.048854202 0.013737022 7.5582494e-39
0.081587978 -0.048854202 0.013737022 9.1944517e-40
-0.089560442 -0.059809893 -0.035347879 2.9538629e-39
-0.087598257 -0.059809893 -0.035347879 2.6779921e-39
-0.085636072 -0.059809893 -0.035347879 2.2132346e-38
-0.083673902 -0.059809893 -0.035347879 2.2499691e-38
-0.081711717 -0.059809893 -0.035347879 2.2591526e-38
-0.079749547 -0.059809893 -0.035347879 2.2683362e-38
-0.077787362 -0.059809893 -0.035347879 2.2682283e-38
-0.075825177 -0.059809893 -0.035347879 2.3234379e-38
-0.073863007 -0.059809893 -0.035347879 2.341805e-38
-0.071900822 -0.059809893 -0.035347879 2.3509886e-38
-0.069663428 -0.059055716 -0.031270802 2.3509886e-38
-0.067708395 -0.059055716 -0.031270802 2.3509886e-38
-0.066014282 -0.059809893 -0.035347879 2.3509886e-38
-0.063798346 -0.059055716 -0.031270802 2.3509886e-38
-0.061843313 -0.059055716 -0.031270802 2.3509886e-38
-0.059888281 -0.059055716 -0.031270802 2.341805e-38
-0.057933249 -0.059055716 -0.031270802 2.341805e-38
-0.055978216 -0.059055716 -0.031270802 2.3509886e-38
-0.054023184 -0.059055716 -0.031270802 2.3509886e-38
-0.051915742 -0.058510661 -0.028324187 2.3509886e-38
-0.049965881 -0.058510661 -0.028324187 2.3509886e-38
-0.048016019 -0.058510661 -0.028324187 2.3509886e-38
-0.045879073 -0.057765901 -0.024297893 2.3509886e-38
-0.043936275 -0.057765901 -0.024297893 2.3509886e-38
-0.041993469 -0.057765901 -0.024297893 2.3509886e-38
-0.040050663 -0.057765901 -0.024297893 2.3509886e-38
-0.038107865 -0.057765901 -0.024297893 2.3509886e-38
-0.036165059 -0.057765901 -0.024297893 2.3509886e-38
-0.034222253 -0.057765901 -0.024297893 2.3509886e-38
-0.032279447 -0.057765901 -0.024297893 2.3509886e-38
-0.030238336 -0.057205275 -0.021267116 2.3509886e-38
-0.028300842 -0.057205275 -0.021267116 2.3509886e-38
-0.026363352 -0.057205275 -0.021267116 2.3509886e-38
-0.024425862 -0.057205275 -0.021267116 2.3509886e-38
-0.022488372 -0.057205275 -0.021267116 2.3509886e-38
-0.020550879 -0.057205275 -0.021267116 2.3509886e-38
-0.018613392 -0.057205275 -0.021267116 2.3509886e-38
-0.016595742 -0.056469917 -0.017291725 2.3509886e-38
-0.014665222 -0.056469917 -0.017291725 2.3509886e-38
-0.012617493 -0.055168316 -0.010255159 2.3509886e-38
-0.010699311 -0.055168316 -0.010255159 2.3509886e-38
-0.0087811295 -0.055168316 -0.010255159 2.3509886e-38
-0.0068629477 -0.055168316 -0.010255159 2.3509886e-38
-0.0049447622 -0.055168316 -0.010255159 2.3509886e-38
-0.0030265804 -0.055168316 -0.010255159 2.3509886e-38
-0.0011083949 -0.055168316 -0.010255159 2.3509886e-38
0.00080978684 -0.055168316 -0.010255159 2.3509886e-38
0.0027198438 -0.05573985 -0.013344944 2.3509886e-38
0.004643444 -0.05573985 -0.013344944 2.3509886e-38
0.006567046 -0.05573985 -0.013344944 2.3509886e-38
0.0084825195 -0.055168316 -0.010255159 2.3509886e-38
0.010400703 -0.055168316 -0.010255159 2.3509886e-38
0.012294251 -0.054425761 -0.0062407861 2.3509886e-38
0.014205396 -0.054425761 -0.0062407861 2.3509886e-38
0.016116541 -0.054425761 -0.0062407861 2.3509886e-38
0.018027686 -0.054425761 -0.0062407861 2.3509886e-38
0.01993883 -0.054425761 -0.0062407861 2.3509886e-38
0.021849975 -0.054425761 -0.0062407861 2.3509886e-38
0.02376112 -0.054425761 -0.0062407861 2.3509886e-38
0.025618268 -0.05388324 -0.0033078799 2.3509886e-38
0.02752427 -0.05388324 -0.0033078799 2.3509886e-38
0.029430274 -0.05388324 -0.0033078799 2.3509886e-38
0.031336278 -0.05388324 -0.0033078799 2.3509886e-38
0.033165153 -0.053322077 -0.0002742419 2.3509886e-38
0.035065837 -0.053322077 -0.0002742419 2.3509886e-38
0.036966518 -0.053322077 -0.0002742419 2.3509886e-38
0.038867205 -0.053322077 -0.0002742419 2.3509886e-38
0.040767886 -0.053322077 -0.0002742419 2.3509886e-38
0.042533807 -0.052592993 0.003667294 2.3509886e-38
0.044427581 -0.052592993 0.003667294 2.3509886e-38
0.046321355 -0.052592993 0.003667294 2.3509886e-38
0.048215128 -0.052592993 0.003667294 2.3509886e-38
0.049985498 -0.052038997 0.006662189 2.3509886e-38
0.051874019 -0.052038997 0.006662189 2.3509886e-38
0.05376254 -0.052038997 0.006662189 2.3509886e-38
0.055651061 -0.052038997 0.006662189 2.3509886e-38
0.057539582 -0.052038997 0.006662189 2.3509886e-38
0.059428103 -0.052038997 0.006662189 2.3509886e-38
0.061316624 -0.052038997 0.006662189 2.3509886e-38
0.063205145 -0.052038997 0.006662189 2.3509886e-38
0.065093666 -0.052038997 0.006662189 2.3509883e-38
0.066982187 -0.052038997 0.006662189 2.3418043e-38
0.068635449 -0.051298112 0.010667502 2.3418043e-38
0.070516951 -0.051298112 0.010667502 2.3232936e-38
0.072398447 -0.051298112 0.010667502 2.3509527e-38
0.074083507 -0.050730333 0.013737022 2.3509527e-38
0.075959623 -0.050730333 0.013737022 2.3140387e-38
0.077835739 -0.050730333 0.013737022 2.3509168e-38
0.079711862 -0.050730333 0.013737022 8.5724013e-39
0.081587978 -0.050730333 0.013737022 1.472619e-39
-0.089560442 -0.061772063 -0.035347879 2.0311877e-39
-0.087598257 -0.061772063 -0.035347879 4.4289902e-39
-0.085636072 -0.061772063 -0.035347879 2.2867037e-38
-0.083673902 -0.061772063 -0.035347879 2.2867037e-38
-0.081711717 -0.061772063 -0.035347879 2.2958873e-38
-0.079749547 -0.061772063 -0.035347879 2.295887e-38
-0.077787362 -0.061772063 -0.035347879 2.2681564e-38
-0.075825177 -0.061772063 -0.035347879 2.341805e-38
-0.073863007 -0.061772063 -0.035347879 2.3509886e-38
-0.071900822 -0.061772063 -0.035347879 2.3509886e-38
-0.069663428 -0.061010748 -0.031270802 2.3509527e-38
-0.067708395 -0.061010748 -0.031270802 2.3509886e-38
-0.065753363 -0.061010748 -0.031270802 2.3509886e-38
-0.063798346 -0.061010748 -0.031270802 2.3509886e-38
-0.061843313 -0.061010748 -0.031270802 2.3509886e-38
-0.059888281 -0.061010748 -0.031270802 2.341805e-38
-0.057933249 -0.061010748 -0.031270802 2.341805e-38
-0.055815473 -0.060460538 -0.028324187 2.3509886e-38
-0.053865612 -0.060460538 -0.028324187 2.3509886e-38
-0.051915742 -0.060460538 -0.028324187 2.3509886e-38
-0.049764685 -0.0597087 -0.024297893 2.3509886e-38
-0.047821887 -0.0597087 -0.024297893 2.3509886e-38
-0.045879073 -0.0597087 -0.024297893 2.3509886e-38
-0.043936275 -0.0597087 -0.024297893 2.3509886e-38
-0.041993469 -0.0597087 -0.024297893 2.3509886e-38
-0.040050663 -0.0597087 -0.024297893 2.3509886e-38
-0.038107865 -0.0597087 -0.024297893 2.3509886e-38
-0.036165059 -0.0597087 -0.024297893 2.3509886e-38
-0.034222253 -0.0597087 -0.024297893 2.3509886e-38
-0.032175824 -0.059142768 -0.021267116 2.3509886e-38
-0.030238336 -0.059142768 -0.021267116 2.3509886e-38
-0.028300842 -0.059142768 -0.021267116 2.3509886e-38
-0.026363352 -0.059142768 -0.021267116 2.3509886e-38
-0.024425862 -0.059142768 -0.021267116 2.3509886e-38
-0.022488372 -0.059142768 -0.021267116 2.3509886e-38
-0.020550879 -0.059142768 -0.021267116 2.3509886e-38
-0.018613392 -0.059142768 -0.021267116 2.3509886e-38
-0.016595742 -0.058400437 -0.017291725 2.3509886e-38
-0.014665222 -0.058400437 -0.017291725 2.3509886e-38
-0.012617493 -0.057086498 -0.010255159 2.3509886e-38
-0.010699311 -0.057086498 -0.010255159 2.3509886e-38
-0.0087811295 -0.057086498 -0.010255159 2.3509886e-38
-0.0068629477 -0.057086498 -0.010255159 2.3509886e-38
-0.0049447622 -0.057086498 -0.010255159 2.3509886e-38
-0.0030265804 -0.057086498 -0.010255159 2.3509886e-38
-0.0011083949 -0.057086498 -0.010255159 2.3509886e-38
0.00080978684 -0.057086498 -0.010255159 2.3509886e-38
0.0027279705 -0.057086498 -0.010255159 2.3509886e-38
0.0046461541 -0.057086498 -0.010255159 2.3509886e-38
0.0065643359 -0.057086498 -0.010255159 2.3509886e-38
0.0084825195 -0.057086498 -0.010255159 2.3509886e-38
0.010400703 -0.057086498 -0.010255159 2.3509886e-38
0.012294251 -0.056336895 -0.0062407861 2.3509886e-38
0.014205396 -0.056336895 -0.0062407861 2.3509886e-38
0.016116541 -0.056336895 -0.0062407861 2.3509886e-38
0.018027686 -0.056336895 -0.0062407861 2.3509886e-38
0.019900262 -0.055789232 -0.0033078799 2.3509886e-38
0.021806264 -0.055789232 -0.0033078799 2.3509886e-38
0.023712266 -0.055789232 -0.0033078799 2.3509886e-38
0.025618268 -0.055789232 -0.0033078799 2.3509886e-38
0.02752427 -0.055789232 -0.0033078799 2.3509886e-38
0.029363787 -0.055222765 -0.0002742419 2.3509886e-38
0.031264469 -0.055222765 -0.0002742419 2.3509886e-38
0.033165153 -0.055222765 -0.0002742419 2.3509886e-38
0.035065837 -0.055222765 -0.0002742419 2.3509886e-38
0.036966518 -0.055222765 -0.0002742419 2.3509886e-38
0.038867205 -0.055222765 -0.0002742419 2.3509886e-38
0.040767886 -0.055222765 -0.0002742419 2.3509886e-38
0.042668566 -0.055222765 -0.0002742419 2.3509886e-38
0.044427581 -0.054486766 0.003667294 2.3509886e-38
0.046321355 -0.054486766 0.003667294 2.3509886e-38
0.048215128 -0.054486766 0.003667294 2.3509886e-38
0.049985498 -0.053927526 0.006662189 2.3509886e-38
0.051874019 -0.053927526 0.006662189 2.3509886e-38
0.05376254 -0.053927526 0.006662189 2.3509886e-38
0.055651061 -0.053927526 0.006662189 2.3509886e-38
0.057539582 -0.053927526 0.006662189 2.3509886e-38
0.059428103 -0.053927526 0.006662189 2.3509886e-38
0.061316624 -0.053927526 0.006662189 2.3509886e-38
0.063205145 -0.053927526 0.006662189 2.3509886e-38
0.065093666 -0.053927526 0.006662189 2.3509886e-38
0.066982187 -0.053927526 0.006662189 2.3233296e-38
0.068635449 -0.053179607 0.010667502 2.3325492e-38
0.070516951 -0.053179607 0.010667502 2.3233296e-38
0.072398447 -0.053179607 0.010667502 2.3509886e-38
0.074083507 -0.052606449 0.013737022 2.3509527e-38
0.075959623 -0.052606449 0.013737022 2.3140387e-38
0.077835739 -0.052606449 0.013737022 2.3509168e-38
0.079711862 -0.052606449 0.013737022 1.0139727e-38
0.081587978 -0.052606449 0.013737022 2.2105399e-39
-0.089560442 -0.063734248 -0.035347879 5.1647601e-39
-0.087598257 -0.063734248 -0.035347879 6.180347e-39
-0.085636072 -0.063734248 -0.035347879 2.2958873e-38
-0.083673902 -0.063734248 -0.035347879 2.3142544e-38
-0.081711717 -0.063734248 -0.035347879 2.3142544e-38
-0.079749547 -0.063734248 -0.035347879 2.3234379e-38
-0.077787362 -0.063734248 -0.035347879 2.3234018e-38
-0.075528525 -0.06296578 -0.031270802 2.3509886e-38
-0.073573492 -0.06296578 -0.031270802 2.3233299e-38
-0.07161846 -0.06296578 -0.031270802 2.3509527e-38
-0.069663428 -0.06296578 -0.031270802 2.3509527e-38
-0.067708395 -0.06296578 -0.031270802 2.3509886e-38
-0.065753363 -0.06296578 -0.031270802 2.3509886e-38
-0.063798346 -0.06296578 -0.031270802 2.3509886e-38
-0.061843313 -0.06296578 -0.031270802 2.341805e-38
-0.059888281 -0.06296578 -0.031270802 2.341805e-38
-0.057933249 -0.06296578 -0.031270802 2.341805e-38
-0.055815473 -0.062410399 -0.028324187 2.3509886e-38
-0.053865612 -0.062410399 -0.028324187 2.3509886e-38
-0.051915742 -0.062410399 -0.028324187 2.3509886e-38
-0.049764685 -0.061651513 -0.024297893 2.3509886e-38
-0.047821887 -0.061651513 -0.024297893 2.3509886e-38
-0.045879073 -0.061651513 -0.024297893 2.3509886e-38
-0.043936275 -0.061651513 -0.024297893 2.3509886e-38
-0.041993469 -0.061651513 -0.024297893 2.3509886e-38
-0.040050663 -0.061651513 -0.024297893 2.3509886e-38
-0.037988298 -0.061080262 -0.021267116 2.3509886e-38
-0.036050804 -0.061080262 -0.021267116 2.3509886e-38
-0.034113318 -0.061080262 -0.021267116 2.3509886e-38
-0.032175824 -0.061080262 -0.021267116 2.3509886e-38
-0.030238336 -0.061080262 -0.021267116 2.3509886e-38
-0.028300842 -0.061080262 -0.021267116 2.3509886e-38
-0.026363352 -0.061080262 -0.021267116 2.3509886e-38
-0.024425862 -0.061080262 -0.021267116 2.3509886e-38
-0.022488372 -0.061080262 -0.021267116 2.3509886e-38
-0.020550879 -0.061080262 -0.021267116 2.3509886e-38
-0.018613392 -0.061080262 -0.021267116 2.3509886e-38
-0.016595742 -0.060330957 -0.017291725 2.3509886e-38
-0.014665222 -0.060330957 -0.017291725 2.3509886e-38
-0.012617493 -0.059004679 -0.010255159 2.3509886e-38
-0.010639483 -0.058248043 -0.0062407861 2.3509886e-38
-0.0087283384 -0.058248043 -0.0062407861 2.3509886e-38
-0.0068629477 -0.059004679 -0.010255159 2.3509886e-38
-0.0049447622 -0.059004679 -0.010255159 2.3509886e-38
-0.0030265804 -0.059004679 -0.010255159 2.3509886e-38
-0.0011083949 -0.059004679 -0.010255159 2.3509886e-38
0.00080978684 -0.059004679 -0.010255159 2.3509886e-38
0.0027279705 -0.059004679 -0.010255159 2.3509886e-38
0.0046461541 -0.059004679 -0.010255159 2.3509886e-38
0.0065643359 -0.059004679 -0.010255159 2.3509886e-38
0.0084825195 -0.059004679 -0.010255159 2.3509886e-38
0.010383107 -0.058248043 -0.0062407861 2.3509886e-38
0.012294251 -0.058248043 -0.0062407861 2.3509886e-38
0.014205396 -0.058248043 -0.0062407861 2.3509886e-38
0.016116541 -0.058248043 -0.0062407861 2.3509886e-38
0.017994259 -0.05769524 -0.0033078799 2.3509886e-38
0.019860368 -0.057123452 -0.0002742419 2.3509886e-38
0.021761052 -0.057123452 -0.0002742419 2.3509886e-38
0.023712266 -0.05769524 -0.0033078799 2.3509886e-38
0.025562419 -0.057123452 -0.0002742419 2.3509886e-38
0.027463103 -0.057123452 -0.0002742419 2.3509886e-38
0.029277401 -0.05638054 0.003667294 2.3509886e-38
0.031171173 -0.05638054 0.003667294 2.3509886e-38
0.033064947 -0.05638054 0.003667294 2.3509886e-38
0.03495872 -0.05638054 0.003667294 2.3509886e-38
0.036966518 -0.057123452 -0.0002742419 2.3509886e-38
0.038867205 -0.057123452 -0.0002742419 2.3509886e-38
0.040767886 -0.057123452 -0.0002742419 2.3509886e-38
0.042668566 -0.057123452 -0.0002742419 2.3509886e-38
0.044427581 -0.05638054 0.003667294 2.3509886e-38
0.046321355 -0.05638054 0.003667294 2.3509886e-38
0.048096977 -0.055816054 0.006662189 2.3509886e-38
0.049985498 -0.055816054 0.006662189 2.3509886e-38
0.051874019 -0.055816054 0.006662189 2.3509886e-38
0.05376254 -0.055816054 0.006662189 2.3509886e-38
0.055651061 -0.055816054 0.006662189 2.3509886e-38
0.057539582 -0.055816054 0.006662189 2.3509886e-38
0.059428103 -0.055816054 0.006662189 2.3509886e-38
0.061316624 -0.055816054 0.006662189 2.3509886e-38
0.063205145 -0.055816054 0.006662189 2.3509886e-38
0.065093666 -0.055816054 0.006662189 2.3509886e-38
0.066982187 -0.055816054 0.006662189 2.3325492e-38
0.068635449 -0.055061117 0.010667502 2.3325492e-38
0.070516951 -0.055061117 0.010667502 2.3509886e-38
0.072398447 -0.055061117 0.010667502 2.3509886e-38
0.074083507 -0.054482564 0.013737022 2.3509168e-38
0.075959623 -0.054482564 0.013737022 2.3140387e-38
0.077835739 -0.054482564 0.013737022 2.3509168e-38
0.079711862 -0.054482564 0.013737022 1.1614857e-38
0.081587978 -0.054482564 0.013737022 3.2246918e-39
-0.089560442 -0.065696418 -0.035347879 5.8097694e-39
-0.087598257 -0.065696418 -0.035347879 8.2997675e-39
-0.085636072 -0.065696418 -0.035347879 2.295887e-38
-0.083673902 -0.065696418 -0.035347879 2.2681564e-38
-0.081711717 -0.065696418 -0.035347879 2.341805e-38
-0.079749547 -0.065696418 -0.035347879 2.341805e-38
-0.077787362 -0.065696418 -0.035347879 2.3509886e-38
-0.075528525 -0.064920813 -0.031270802 2.3509886e-38
-0.073573492 -0.064920813 -0.031270802 2.3509167e-38
-0.07161846 -0.064920813 -0.031270802 2.3509527e-38
-0.069663428 -0.064920813 -0.031270802 2.3509527e-38
-0.067708395 -0.064920813 -0.031270802 2.3509527e-38
-0.065753363 -0.064920813 -0.031270802 2.3509886e-38
-0.063798346 -0.064920813 -0.031270802 2.3509886e-38
-0.061843313 -0.064920813 -0.031270802 2.341805e-38
-0.059888281 -0.064920813 -0.031270802 2.341805e-38
-0.057765342 -0.064360261 -0.028324187 2.341805e-38
-0.055815473 -0.064360261 -0.028324187 2.3509886e-38
-0.053650297 -0.063594311 -0.024297893 2.3509886e-38
-0.051707491 -0.063594311 -0.024297893 2.3509886e-38
-0.049764685 -0.063594311 -0.024297893 2.3509886e-38
-0.047821887 -0.063594311 -0.024297893 2.3509886e-38
-0.045738257 -0.063017741 -0.021267116 2.3509886e-38
-0.043800764 -0.063017741 -0.021267116 2.3509886e-38
-0.041863278 -0.063017741 -0.021267116 2.3509886e-38
-0.039925791 -0.063017741 -0.021267116 2.3509886e-38
-0.037988298 -0.063017741 -0.021267116 2.3509886e-38
-0.036050804 -0.063017741 -0.021267116 2.3509886e-38
-0.034113318 -0.063017741 -0.021267116 2.3509886e-38
-0.032175824 -0.063017741 -0.021267116 2.3509886e-38
-0.030238336 -0.063017741 -0.021267116 2.3509886e-38
-0.028300842 -0.063017741 -0.021267116 2.3509886e-38
-0.026248345 -0.062261477 -0.017291725 2.3509886e-38
-0.024317825 -0.062261477 -0.017291725 2.3509886e-38
-0.022387305 -0.062261477 -0.017291725 2.3509886e-38
-0.020550879 -0.063017741 -0.021267116 2.3509886e-38
-0.018613392 -0.063017741 -0.021267116 2.3509886e-38
-0.016595742 -0.062261477 -0.017291725 2.3509886e-38
-0.014665222 -0.062261477 -0.017291725 2.3509886e-38
-0.012617493 -0.060922861 -0.010255159 2.3509886e-38
-0.010639483 -0.060159191 -0.0062407861 2.3509886e-38
-0.0087283384 -0.060159191 -0.0062407861 2.3509886e-38
-0.0068171937 -0.060159191 -0.0062407861 2.3509886e-38
-0.004906049 -0.060159191 -0.0062407861 2.3509886e-38
-0.0029949062 -0.060159191 -0.0062407861 2.3509886e-38
-0.0010837615 -0.060159191 -0.0062407861 2.3509886e-38
0.00082738325 -0.060159191 -0.0062407861 2.3509886e-38
0.0027279705 -0.060922861 -0.010255159 2.3509886e-38
0.0046461541 -0.060922861 -0.010255159 2.3509886e-38
0.0065643359 -0.060922861 -0.010255159 2.3509886e-38
0.0084719621 -0.060159191 -0.0062407861 2.3509886e-38
0.010383107 -0.060159191 -0.0062407861 2.3509886e-38
0.012294251 -0.060159191 -0.0062407861 2.3509886e-38
0.014205396 -0.060159191 -0.0062407861 2.3509886e-38
0.016088258 -0.059601247 -0.0033078799 2.3509886e-38
0.017994259 -0.059601247 -0.0033078799 2.3509886e-38
0.019860368 -0.059024125 -0.0002742419 2.3509886e-38
0.021761052 -0.059024125 -0.0002742419 2.3509886e-38
0.023661736 -0.059024125 -0.0002742419 2.3509886e-38
0.025562419 -0.059024125 -0.0002742419 2.3509886e-38
0.027463103 -0.059024125 -0.0002742419 2.3509886e-38
0.029277401 -0.058274314 0.003667294 2.3509886e-38
0.031171173 -0.058274314 0.003667294 2.3509886e-38
0.033064947 -0.058274314 0.003667294 2.3509886e-38
0.03495872 -0.058274314 0.003667294 2.3509886e-38
0.03685249 -0.058274314 0.003667294 2.3509886e-38
0.03874626 -0.058274314 0.003667294 2.3509886e-38
0.040640034 -0.058274314 0.003667294 2.3509886e-38
0.042533807 -0.058274314 0.003667294 2.3509886e-38
0.044427581 -0.058274314 0.003667294 2.3509886e-38
0.046321355 -0.058274314 0.003667294 2.3509886e-38
0.048096977 -0.057704568 0.006662189 2.3509886e-38
0.049985498 -0.057704568 0.006662189 2.3509886e-38
0.051874019 -0.057704568 0.006662189 2.3509886e-38
0.05376254 -0.057704568 0.006662189 2.3509886e-38
0.055651061 -0.057704568 0.006662189 2.3509886e-38
0.057539582 -0.057704568 0.006662189 2.3509886e-38
0.059428103 -0.057704568 0.006662189 2.3509886e-38
0.061316624 -0.057704568 0.006662189 2.3509886e-38
0.063205145 -0.057704568 0.006662189 2.3509886e-38
0.065093666 -0.057704568 0.006662189 2.3509886e-38
0.066982187 -0.057704568 0.006662189 2.341805e-38
0.068635449 -0.056942612 0.010667502 2.3326213e-38
0.070516951 -0.056942612 0.010667502 2.341805e-38
0.072398447 -0.056942612 0.010667502 2.3325856e-38
0.074083507 -0.05635868 0.013737022 2.3509527e-38
0.075959623 -0.05635868 0.013737022 2.3048554e-38
0.077835739 -0.05635868 0.013737022 2.3509527e-38
0.079711862 -0.05635868 0.013737022 1.2353501e-38
0.081587978 -0.05635868 0.013737022 4.1470111e-39
0.08368744 -0.056942612 0.010667502 3.0406607e-39
-0.089560442 -0.067658603 -0.035347879 1.0142961e-38
-0.087598257 -0.067658603 -0.035347879 1.1433697e-38
-0.085636072 -0.067658603 -0.035347879 2.341805e-38
-0.083673902 -0.067658603 -0.035347879 2.3049626e-38
-0.081711717 -0.067658603 -0.035347879 2.3325494e-38
-0.079749547 -0.067658603 -0.035347879 2.3325494e-38
-0.077787362 -0.067658603 -0.035347879 2.3509527e-38
-0.075528525 -0.066875845 -0.031270802 2.3509527e-38
-0.073573492 -0.066875845 -0.031270802 2.3509527e-38
-0.07161846 -0.066875845 -0.031270802 2.3509527e-38
-0.069663428 -0.066875845 -0.031270802 2.3509527e-38
-0.067708395 -0.066875845 -0.031270802 2.3509527e-38
-0.065753363 -0.066875845 -0.031270802 2.3509886e-38
-0.063614927 -0.066310123 -0.028324187 2.3509886e-38
-0.061665066 -0.066310123 -0.028324187 2.341805e-38
-0.059715204 -0.066310123 -0.028324187 2.3234379e-38
-0.057765342 -0.066310123 -0.028324187 2.3234379e-38
-0.055593103 -0.06553711 -0.024297893 2.3509886e-38
-0.053650297 -0.06553711 -0.024297893 2.3509886e-38
-0.051707491 -0.06553711 -0.024297893 2.3509886e-38
-0.049764685 -0.06553711 -0.024297893 2.3509886e-38
-0.047821887 -0.06553711 -0.024297893 2.3509886e-38
-0.045738257 -0.064955235 -0.021267116 2.3509886e-38
-0.043800764 -0.064955235 -0.021267116 2.3509886e-38
-0.041863278 -0.064955235 -0.021267116 2.3509886e-38
-0.039925791 -0.064955235 -0.021267116 2.3509886e-38
-0.037831463 -0.064191997 -0.017291725 2.3509886e-38
-0.03590095 -0.064191997 -0.017291725 2.3509886e-38
-0.03397043 -0.064191997 -0.017291725 2.3509886e-38
-0.032039903 -0.064191997 -0.017291725 2.3509886e-38
-0.030109385 -0.064191997 -0.017291725 2.3509886e-38
-0.028300842 -0.064955235 -0.021267116 2.3509886e-38
-0.026248345 -0.064191997 -0.017291725 2.3509886e-38
-0.024317825 -0.064191997 -0.017291725 2.3509886e-38
-0.022387305 -0.064191997 -0.017291725 2.3509886e-38
-0.020550879 -0.064955235 -0.021267116 2.3509886e-38
-0.018526262 -0.064191997 -0.017291725 2.3509886e-38
-0.016595742 -0.064191997 -0.017291725 2.3509886e-38
-0.014535679 -0.062841058 -0.010255159 2.3509886e-38
-0.012617493 -0.062841058 -0.010255159 2.3509886e-38
-0.010639483 -0.062070325 -0.0062407861 2.3509886e-38
-0.0087283384 -0.062070325 -0.0062407861 2.3509886e-38
-0.0068171937 -0.062070325 -0.0062407861 2.3509886e-38
-0.004906049 -0.062070325 -0.0062407861 2.3509886e-38
-0.0029949062 -0.062070325 -0.0062407861 2.3509886e-38
-0.0010837615 -0.062070325 -0.0062407861 2.3509886e-38
0.00082738325 -0.062070325 -0.0062407861 2.3509886e-38
0.0027279705 -0.062841058 -0.010255159 2.3509886e-38
0.0046461541 -0.062841058 -0.010255159 2.3509886e-38
0.0065608174 -0.062070325 -0.0062407861 2.3509886e-38
0.0084719621 -0.062070325 -0.0062407861 2.3509886e-38
0.010383107 -0.062070325 -0.0062407861 2.3509886e-38
0.012276253 -0.06150724 -0.0033078799 2.3509886e-38
0.014182256 -0.06150724 -0.0033078799 2.3509886e-38
0.016088258 -0.06150724 -0.0033078799 2.3509886e-38
0.017959686 -0.060924813 -0.0002742419 2.3509886e-38
0.019860368 -0.060924813 -0.0002742419 2.3509886e-38
0.021761052 -0.060924813 -0.0002742419 2.3509886e-38
0.023661736 -0.060924813 -0.0002742419 2.3509886e-38
0.025489856 -0.060168073 0.003667294 2.3509886e-38
0.027383627 -0.060168073 0.003667294 2.3509886e-38
0.029277401 -0.060168073 0.003667294 2.3509886e-38
0.031171173 -0.060168073 0.003667294 2.3509886e-38
0.033064947 -0.060168073 0.003667294 2.3509886e-38
0.03495872 -0.060168073 0.003667294 2.3509886e-38
0.03685249 -0.060168073 0.003667294 2.3509886e-38
0.03874626 -0.060168073 0.003667294 2.3509886e-38
0.040640034 -0.060168073 0.003667294 2.3509886e-38
0.042533807 -0.060168073 0.003667294 2.3509886e-38
0.044427581 -0.060168073 0.003667294 2.3509886e-38
0.046321355 -0.060168073 0.003667294 2.3509886e-38
0.048096977 -0.059593096 0.006662189 2.3509886e-38
0.049985498 -0.059593096 0.006662189 2.3509886e-38
0.051874019 -0.059593096 0.006662189 2.3509886e-38
0.05376254 -0.059593096 0.006662189 2.3509886e-38
0.055651061 -0.059593096 0.006662189 2.3509886e-38
0.057539582 -0.059593096 0.006662189 2.3509886e-38
0.059428103 -0.059593096 0.006662189 2.3509886e-38
0.061316624 -0.059593096 0.006662189 2.3509886e-38
0.063205145 -0.059593096 0.006662189 2.3509886e-38
0.065093666 -0.059593096 0.006662189 2.3509886e-38
0.066982187 -0.059593096 0.006662189 2.341805e-38
0.068870708 -0.059593096 0.006662189 2.3326213e-38
0.070516951 -0.058824107 0.010667502 2.341805e-38
0.072398447 -0.058824107 0.010667502 2.3233662e-38
0.074083507 -0.058234796 0.013737022 2.3509527e-38
0.075959623 -0.058234796 0.013737022 2.3232944e-38
0.07763733 -0.057670474 0.016676366 2.3509527e-38
0.07950829 -0.057670474 0.016676366 1.2998871e-38
0.081587978 -0.058234796 0.013737022 5.161163e-39
0.08368744 -0.058824107 0.010667502 2.5796854e-39
0.085568942 -0.058824107 0.010667502 2.6715181e-39
-0.089560442 -0.069620788 -0.035347879 9.3121216e-39
-0.087598257 -0.069620788 -0.035347879 1.2815911e-38
-0.085636072 -0.069620788 -0.035347879 2.3509886e-38
-0.083673902 -0.069620788 -0.035347879 2.3509886e-38
-0.081711717 -0.069620788 -0.035347879 2.3509527e-38
-0.079749547 -0.069620788 -0.035347879 2.3509167e-38
-0.077787362 -0.069620788 -0.035347879 2.3509527e-38
-0.075528525 -0.068830878 -0.031270802 2.3508807e-38
-0.073573492 -0.068830878 -0.031270802 2.3509167e-38
-0.07161846 -0.068830878 -0.031270802 2.3509527e-38
-0.069663428 -0.068830878 -0.031270802 2.3509527e-38
-0.067708395 -0.068830878 -0.031270802 2.3509527e-38
-0.065753363 -0.068830878 -0.031270802 2.3509886e-38
-0.063614927 -0.068259984 -0.028324187 2.3509886e-38
-0.061665066 -0.068259984 -0.028324187 2.341805e-38
-0.059715204 -0.068259984 -0.028324187 2.3234379e-38
-0.057765342 -0.068259984 -0.028324187 2.3234379e-38
-0.055593103 -0.067479923 -0.024297893 2.3509886e-38
-0.053650297 -0.067479923 -0.024297893 2.3509886e-38
-0.051707491 -0.067479923 -0.024297893 2.3509886e-38
-0.049764685 -0.067479923 -0.024297893 2.3509886e-38
-0.047675751 -0.066892728 -0.021267116 2.3509886e-38
-0.045738257 -0.066892728 -0.021267116 2.3509886e-38
-0.043800764 -0.066892728 -0.021267116 2.3509886e-38
-0.041863278 -0.066892728 -0.021267116 2.3509886e-38
-0.039761983 -0.066122517 -0.017291725 2.3509886e-38
-0.037831463 -0.066122517 -0.017291725 2.3509886e-38
-0.03590095 -0.066122517 -0.017291725 2.3509886e-38
-0.03397043 -0.066122517 -0.017291725 2.3509886e-38
-0.032039903 -0.066122517 -0.017291725 2.3509886e-38
-0.030109385 -0.066122517 -0.017291725 2.3509886e-38
-0.028178865 -0.066122517 -0.017291725 2.3509886e-38
-0.026248345 -0.066122517 -0.017291725 2.3509886e-38
-0.024317825 -0.066122517 -0.017291725 2.3509886e-38
-0.022387305 -0.066122517 -0.017291725 2.3509886e-38
-0.020550879 -0.066892728 -0.021267116 2.3509886e-38
-0.018526262 -0.066122517 -0.017291725 2.3509886e-38
-0.016595742 -0.066122517 -0.017291725 2.3509886e-38
-0.014535679 -0.06475924 -0.010255159 2.3509886e-38
-0.012617493 -0.06475924 -0.010255159 2.3509886e-38
-0.010699311 -0.06475924 -0.010255159 2.3509886e-38
-0.0087811295 -0.06475924 -0.010255159 2.3509886e-38
-0.0068171937 -0.063981473 -0.0062407861 2.3509886e-38
-0.004906049 -0.063981473 -0.0062407861 2.3509886e-38
-0.0029949062 -0.063981473 -0.0062407861 2.3509886e-38
-0.0010837615 -0.063981473 -0.0062407861 2.3509886e-38
0.00082738325 -0.063981473 -0.0062407861 2.3509886e-38
0.002738528 -0.063981473 -0.0062407861 2.3509886e-38
0.0046496727 -0.063981473 -0.0062407861 2.3509886e-38
0.0065608174 -0.063981473 -0.0062407861 2.3509886e-38
0.0084719621 -0.063981473 -0.0062407861 2.3509886e-38
0.010383107 -0.063981473 -0.0062407861 2.3509886e-38
0.012276253 -0.063413247 -0.0033078799 2.3509886e-38
0.014182256 -0.063413247 -0.0033078799 2.3509886e-38
0.016088258 -0.063413247 -0.0033078799 2.3509886e-38
0.017959686 -0.062825501 -0.0002742419 2.3509886e-38
0.019860368 -0.062825501 -0.0002742419 2.3509886e-38
0.021761052 -0.062825501 -0.0002742419 2.3509886e-38
0.023661736 -0.062825501 -0.0002742419 2.3509886e-38
0.025489856 -0.062061846 0.003667294 2.3509886e-38
0.027383627 -0.062061846 0.003667294 2.3509886e-38
0.029277401 -0.062061846 0.003667294 2.3509886e-38
0.031171173 -0.062061846 0.003667294 2.3509886e-38
0.033064947 -0.062061846 0.003667294 2.3509886e-38
0.03495872 -0.062061846 0.003667294 2.3509886e-38
0.03685249 -0.062061846 0.003667294 2.3509886e-38
0.03874626 -0.062061846 0.003667294 2.3509886e-38
0.040640034 -0.062061846 0.003667294 2.3509886e-38
0.042533807 -0.062061846 0.003667294 2.3509886e-38
0.044427581 -0.062061846 0.003667294 2.3509886e-38
