# .PCD v0.7 - Point Cloud Data file format
VERSION 0.7
FIELDS x y z rgb
SIZE 4 4 4 4
TYPE F F F F
COUNT 1 1 1 1
WIDTH 125
HEIGHT 1
VIEWPOINT 0 0 0 1 0 0 0
POINTS 125
DATA ascii
-0.0030724937 -0.12170117 -0.024876226 2.3509527e-38
-0.0012243753 -0.12170117 -0.024876226 2.3509886e-38
-0.0050023654 -0.12250783 -0.020821679 2.3509168e-38
-0.0031613549 -0.12250783 -0.020821679 2.3509527e-38
-0.0013203463 -0.12250783 -0.020821679 2.3509886e-38
0.0005206624 -0.12250783 -0.020821679 2.341805e-38
-0.0050023654 -0.12434883 -0.020821679 2.3509527e-38
-0.0031613549 -0.12434883 -0.020821679 2.3509527e-38
-0.0013203463 -0.12434883 -0.020821679 2.3509886e-38
0.0005206624 -0.12434883 -0.020821679 2.341805e-38
-0.0051227333 -0.12463553 -0.014852036 2.3509527e-38
-0.0032921908 -0.12463553 -0.014852036 2.3509527e-38
-0.0013899161 -0.12542458 -0.017882574 2.3509886e-38
0.00044594053 -0.12542458 -0.017882574 2.341805e-38
-0.0070087472 -0.12567626 -0.011838902 2.3509168e-38
-0.0051834872 -0.12567626 -0.011838902 2.3509527e-38
-0.0033582291 -0.12567626 -0.011838902 2.3509527e-38
-0.0014616484 -0.12646608 -0.014852036 2.3509886e-38
0.00036889408 -0.12646608 -0.014852036 2.3418047e-38
0.0021994365 -0.12646608 -0.014852036 2.3418047e-38
0.0041176518 -0.12726043 -0.017882574 2.3234015e-38
-0.0070087472 -0.1275015 -0.011838902 2.3509527e-38
-0.0051834872 -0.1275015 -0.011838902 2.3509527e-38
-0.0033582291 -0.1275015 -0.011838902 2.3509527e-38
-0.0014616484 -0.1282966 -0.014852036 2.3509886e-38
0.00036889408 -0.1282966 -0.014852036 2.3418047e-38
0.0021994365 -0.1282966 -0.014852036 2.3418047e-38
0.0041176518 -0.12909628 -0.017882574 2.3234379e-38
-0.0070087472 -0.12932678 -0.011838902 2.3509527e-38
-0.0051834872 -0.12932678 -0.011838902 2.3509527e-38
-0.0033582291 -0.12932678 -0.011838902 2.3509527e-38
-0.0014616484 -0.13012715 -0.014852036 2.3509883e-38
0.00036889408 -0.13012715 -0.014852036 2.3418047e-38
0.0021994365 -0.13012715 -0.014852036 2.3418047e-38
-0.0051834872 -0.13115202 -0.011838902 2.3509527e-38
-0.0034238854 -0.13035102 -0.0088431723 2.3509527e-38
-0.0016038781 -0.13035102 -0.0088431723 2.3417687e-38
0.00029229093 -0.13115202 -0.011838902 2.2957428e-38
0.0021175491 -0.13115202 -0.011838902 2.3418047e-38
-0.0054441588 -0.1294979 0.0010891072 2.3509523e-38
-0.0036415672 -0.1294979 0.0010891072 2.3140384e-38
-0.0016969545 -0.13111271 -0.0049109347 2.3509883e-38
0.00021612924 -0.13217102 -0.0088431723 2.3418045e-38
0.0021175491 -0.13297729 -0.011838902 2.3418047e-38
-0.0054441588 -0.13130049 0.0010891072 2.3325129e-38
-0.0036415672 -0.13130049 0.0010891072 2.3509523e-38
-0.0016969545 -0.13292582 -0.0049109347 2.3509883e-38
0.00021612924 -0.13399105 -0.0088431723 2.3418045e-38
0.0021175491 -0.13480256 -0.011838902 2.3418047e-38
-0.0054441588 -0.13310309 0.0010891072 2.3325129e-38
-0.0036415672 -0.13310309 0.0010891072 2.3509883e-38
-0.0016969545 -0.13473894 -0.0049109347 2.3325492e-38
0.00021612924 -0.13581105 -0.0088431723 2.2957425e-38
0.0020361347 -0.13581105 -0.0088431723 2.3418047e-38
-0.0072467504 -0.13490568 0.0010891072 2.3140013e-38
-0.0054441588 -0.13490568 0.0010891072 2.3325129e-38
-0.0036415672 -0.13490568 0.0010891072 2.3509883e-38
-0.0016969545 -0.13655205 -0.0049109347 2.3417687e-38
0.00011615921 -0.13655205 -0.0049109347 2.2865229e-38
0.0020361347 -0.13763104 -0.0088431723 2.3418047e-38
0.010754596 -0.14917539 -0.050914872 2.3509886e-38
0.012648365 -0.14917539 -0.050914872 2.3509527e-38
-0.0055051716 -0.13587265 0.0041149966 2.3509879e-38
-0.0036415672 -0.13670824 0.0010891072 2.3509523e-38
-0.0018389756 -0.13670824 0.0010891072 2.3509883e-38
-3.6382116e-05 -0.13670824 0.0010891072 2.3141816e-38
0.0020361347 -0.13945107 -0.0088431723 2.3418047e-38
-0.0055051716 -0.13766994 0.0041149966 2.3509879e-38
-0.0037078848 -0.13766994 0.0041149966 2.3232936e-38
-0.001910598 -0.13766994 0.0041149966 2.3509883e-38
-3.6382116e-05 -0.13851084 0.0010891072 2.2865229e-38
0.0017662095 -0.13851084 0.0010891072 2.332621e-38
0.0035688011 -0.13851084 0.0010891072 2.3509886e-38
-0.0055051716 -0.13946722 0.0041149966 2.3509879e-38
-0.0037078848 -0.13946722 0.0041149966 2.3325129e-38
-0.001910598 -0.13946722 0.0041149966 2.3509883e-38
-3.6382116e-05 -0.14031343 0.0010891072 2.2587927e-38
0.0017662095 -0.14031343 0.0010891072 2.3509883e-38
0.0035688011 -0.14031343 0.0010891072 2.3509886e-38
-0.0055051716 -0.14126451 0.0041149966 2.3508795e-38
-0.0037078848 -0.14126451 0.0041149966 2.350988e-38
-0.001910598 -0.14126451 0.0041149966 2.3232936e-38
-0.00011331122 -0.14126451 0.0041149966 2.3509883e-38
0.0016839756 -0.14126451 0.0041149966 2.2680122e-38
0.0034812624 -0.14126451 0.0041149966 2.3509883e-38
-0.003773815 -0.14220999 0.0071232431 2.3325127e-38
-0.0019818032 -0.14220999 0.0071232431 2.350988e-38
-0.00018979143 -0.14220999 0.0071232431 2.3325131e-38
0.0016022222 -0.14220999 0.0071232431 2.3417327e-38
0.003394234 -0.14220999 0.0071232431 2.3509883e-38
-0.0038393596 -0.14314993 0.010113847 2.3509879e-38
-0.0020525912 -0.14314993 0.010113847 2.350988e-38
-0.00026582088 -0.14314993 0.010113847 2.3048545e-38
0.0014401479 -0.14230286 0.013086926 2.3509883e-38
0.0032217046 -0.14230286 0.013086926 2.3325492e-38
0.0050032614 -0.14230286 0.013086926 2.3509886e-38
-0.0020525912 -0.1449367 0.010113847 2.3325127e-38
-0.00057065208 -0.14149947 0.022104036 2.350988e-38
0.0011950945 -0.14149947 0.022104036 2.3509883e-38
0.0030453308 -0.14233668 0.019183528 2.3509886e-38
0.0048161959 -0.14233668 0.019183528 2.3509886e-38
0.0066856435 -0.14320792 0.016144406 2.314039e-38
-0.00087587442 -0.13980253 0.034109604 2.3509876e-38
0.00086882245 -0.13980253 0.034109604 2.3417324e-38
0.0029608393 -0.1432652 0.022104036 2.3325494e-38
0.0047265859 -0.1432652 0.022104036 2.3509886e-38
0.0066856435 -0.14498411 0.016144406 2.3324775e-38
0.0084618358 -0.14498411 0.016144406 2.3509527e-38
0.010238032 -0.14498411 0.016144406 2.3508446e-38
-0.00095290411 -0.14066802 0.037139487 2.3509153e-38
0.00078648049 -0.14066802 0.037139487 2.3325127e-38
0.0029608393 -0.14503096 0.022104036 2.3048189e-38
0.0047265859 -0.14503096 0.022104036 2.3509886e-38
0.0066856435 -0.1467603 0.016144406 2.3509883e-38
0.0084618358 -0.1467603 0.016144406 2.3232936e-38
0.010238032 -0.1467603 0.016144406 2.3509168e-38
-0.00095290411 -0.1424074 0.037139487 2.3509509e-38
0.00078648049 -0.1424074 0.037139487 2.3417679e-38
0.0029608393 -0.14679669 0.022104036 2.3324775e-38
0.0047265859 -0.14679669 0.022104036 2.3509886e-38
0.0066856435 -0.14853649 0.016144406 2.3509879e-38
0.0085663712 -0.14942907 0.013086926 2.3509518e-38
0.010347928 -0.14942907 0.013086926 2.3509168e-38
0.0012744637 -0.14942016 0.019183528 2.3417676e-38
0.0030453308 -0.14942016 0.019183528 2.3509527e-38
