# .PCD v0.7 - Point Cloud Data file format
VERSION 0.7
FIELDS x y z rgb
SIZE 4 4 4 4
TYPE F F F F
COUNT 1 1 1 1
WIDTH 917
HEIGHT 1
VIEWPOINT 0 0 0 1 0 0 0
POINTS 917
DATA ascii
0.052464105 -0.058758065 0.019348769 2.3509886e-38
0.05432798 -0.058758065 0.019348769 2.3509886e-38
0.056191854 -0.058758065 0.019348769 2.3509527e-38
0.058055729 -0.058758065 0.019348769 2.3509527e-38
0.059726812 -0.058174431 0.022361187 2.3509527e-38
0.061585404 -0.058174431 0.022361187 2.3509527e-38
0.063443996 -0.058174431 0.022361187 2.3509527e-38
0.065095142 -0.057594091 0.025356559 2.3509527e-38
0.066948481 -0.057594091 0.025356559 2.3141103e-38
0.06880182 -0.057594091 0.025356559 2.3325494e-38
0.070878364 -0.058174431 0.022361187 2.3418047e-38
0.072508499 -0.057594091 0.025356559 2.3142539e-38
0.074361846 -0.057594091 0.025356559 2.2405693e-38
0.076215185 -0.057594091 0.025356559 6.272537e-39
0.078068532 -0.057594091 0.025356559 8.3299487e-40
0.079921864 -0.057594091 0.025356559 1.4783643e-39
-0.086927824 -0.075280696 -0.055633396 1.3829333e-38
-0.084665082 -0.074506298 -0.05167219 2.3509876e-38
-0.082676686 -0.074506298 -0.05167219 2.3232932e-38
-0.080428459 -0.073712528 -0.047611922 2.3325127e-38
-0.078204073 -0.072948977 -0.043706268 2.3509883e-38
-0.07604786 -0.072361469 -0.040701002 2.341769e-38
-0.074078687 -0.072361469 -0.040701002 2.3509886e-38
-0.071882613 -0.071582958 -0.036718816 2.3417691e-38
-0.069920428 -0.071582958 -0.036718816 2.3509886e-38
-0.067958258 -0.071582958 -0.036718816 2.3509886e-38
-0.065996073 -0.071582958 -0.036718816 2.3509886e-38
-0.064033896 -0.071582958 -0.036718816 2.3509886e-38
-0.062071718 -0.071582958 -0.036718816 2.3509886e-38
-0.060294561 -0.072361469 -0.040701002 2.3509886e-38
-0.058147363 -0.071582958 -0.036718816 2.3509886e-38
-0.056185178 -0.071582958 -0.036718816 2.3509886e-38
-0.054223001 -0.071582958 -0.036718816 2.3509886e-38
-0.05209998 -0.07078591 -0.032641739 2.3509886e-38
-0.050144948 -0.07078591 -0.032641739 2.3509886e-38
-0.048189923 -0.07078591 -0.032641739 2.3509886e-38
-0.046134144 -0.070209846 -0.029695125 2.3509886e-38
-0.044184282 -0.070209846 -0.029695125 2.3509886e-38
-0.042234421 -0.070209846 -0.029695125 2.3509886e-38
-0.040284552 -0.070209846 -0.029695125 2.3509886e-38
-0.03833469 -0.070209846 -0.029695125 2.3509886e-38
-0.036282465 -0.069422722 -0.025668832 2.3509886e-38
-0.034339659 -0.069422722 -0.025668832 2.3509886e-38
-0.032330431 -0.068830222 -0.022638055 2.3509886e-38
-0.030392939 -0.068830222 -0.022638055 2.3509886e-38
-0.028455449 -0.068830222 -0.022638055 2.3509886e-38
-0.026517959 -0.068830222 -0.022638055 2.3509886e-38
-0.024580466 -0.068830222 -0.022638055 2.3509886e-38
-0.022590699 -0.068053037 -0.018662663 2.3509886e-38
-0.020660179 -0.068053037 -0.018662663 2.3509886e-38
-0.018729659 -0.068053037 -0.018662663 2.3509886e-38
-0.016767999 -0.067281455 -0.014715882 2.3509886e-38
-0.014844397 -0.067281455 -0.014715882 2.3509886e-38
-0.012920797 -0.067281455 -0.014715882 2.3509886e-38
-0.01098907 -0.066677421 -0.011626096 2.3509886e-38
-0.0090708863 -0.066677421 -0.011626096 2.3509886e-38
-0.0071527045 -0.066677421 -0.011626096 2.3509886e-38
-0.0052345209 -0.066677421 -0.011626096 2.3509886e-38
-0.0033163372 -0.066677421 -0.011626096 2.3509886e-38
-0.0013981545 -0.066677421 -0.011626096 2.3509886e-38
0.00048835576 -0.065892622 -0.0076117236 2.3509886e-38
0.0023994995 -0.065892622 -0.0076117236 2.3509886e-38
0.0042772191 -0.065319255 -0.0046788175 2.3509886e-38
0.0061433287 -0.064726189 -0.0016451795 2.3509886e-38
0.0080440119 -0.064726189 -0.0016451795 2.3509886e-38
0.0098790433 -0.06395562 0.0022963565 2.3509886e-38
0.011772815 -0.06395562 0.0022963565 2.3509886e-38
0.013666587 -0.06395562 0.0022963565 2.3509886e-38
0.015494723 -0.063370138 0.0052912515 2.3509886e-38
0.017383244 -0.063370138 0.0052912515 2.3509886e-38
0.019271765 -0.063370138 0.0052912515 2.3509886e-38
0.021160286 -0.063370138 0.0052912515 2.3509886e-38
0.023048807 -0.063370138 0.0052912515 2.341805e-38
0.02493733 -0.063370138 0.0052912515 2.341805e-38
0.026825851 -0.063370138 0.0052912515 2.341805e-38
0.02857743 -0.062587112 0.0092965644 2.341805e-38
0.030348601 -0.061987028 0.012366084 2.341805e-38
0.032113917 -0.061412394 0.015305428 2.341805e-38
0.033984877 -0.061412394 0.015305428 2.3509886e-38
0.035855837 -0.061412394 0.015305428 2.3509886e-38
0.037726805 -0.061412394 0.015305428 2.3509527e-38
0.039597765 -0.061412394 0.015305428 2.3509527e-38
0.041468732 -0.061412394 0.015305428 2.3509527e-38
0.043339692 -0.061412394 0.015305428 2.3509527e-38
0.04521066 -0.061412394 0.015305428 2.3509527e-38
0.04708162 -0.061412394 0.015305428 2.3509527e-38
0.048952579 -0.061412394 0.015305428 2.3509527e-38
0.050600231 -0.060621932 0.019348769 2.3509527e-38
0.052464105 -0.060621932 0.019348769 2.3509527e-38
0.05432798 -0.060621932 0.019348769 2.3509886e-38
0.056191854 -0.060621932 0.019348769 2.3509527e-38
0.05786822 -0.060033023 0.022361187 2.3509527e-38
0.059726812 -0.060033023 0.022361187 2.3509527e-38
0.061585404 -0.060033023 0.022361187 2.3509527e-38
0.063241802 -0.059447438 0.025356559 2.3509527e-38
0.065095142 -0.059447438 0.025356559 2.3509886e-38
0.066948481 -0.059447438 0.025356559 2.3509886e-38
0.06880182 -0.059447438 0.025356559 2.3326213e-38
0.07065516 -0.059447438 0.025356559 2.3142539e-38
0.072508499 -0.059447438 0.025356559 2.2405333e-38
0.074361846 -0.059447438 0.025356559 2.3050704e-38
0.076215185 -0.059447438 0.025356559 9.6837753e-39
0.078068532 -0.059447438 0.025356559 1.7549512e-39
0.079921864 -0.059447438 0.025356559 7.4079924e-40
-0.088641889 -0.076494694 -0.05167219 1.0417019e-38
-0.086653493 -0.076494694 -0.05167219 1.2814105e-38
-0.084391005 -0.075693801 -0.047611922 2.3509879e-38
-0.082409732 -0.075693801 -0.047611922 2.2771955e-38
-0.080428459 -0.075693801 -0.047611922 2.3509883e-38
-0.078204073 -0.074923411 -0.043706268 2.3509886e-38
-0.07604786 -0.074330628 -0.040701002 2.3325856e-38
-0.074078687 -0.074330628 -0.040701002 2.2864879e-38
-0.071882613 -0.073545143 -0.036718816 2.341805e-38
-0.069920428 -0.073545143 -0.036718816 2.3509886e-38
-0.067958258 -0.073545143 -0.036718816 2.3509886e-38
-0.065996073 -0.073545143 -0.036718816 2.3509886e-38
-0.064033896 -0.073545143 -0.036718816 2.3509886e-38
-0.062071718 -0.073545143 -0.036718816 2.3509886e-38
-0.060109533 -0.073545143 -0.036718816 2.3509886e-38
-0.058147363 -0.073545143 -0.036718816 2.3509886e-38
-0.056185178 -0.073545143 -0.036718816 2.3509886e-38
-0.054223001 -0.073545143 -0.036718816 2.3509886e-38
-0.05209998 -0.072740942 -0.032641739 2.3509886e-38
-0.050144948 -0.072740942 -0.032641739 2.3509886e-38
-0.048189923 -0.072740942 -0.032641739 2.3509886e-38
-0.046134144 -0.072159722 -0.029695125 2.3509886e-38
-0.044184282 -0.072159722 -0.029695125 2.3509886e-38
-0.042234421 -0.072159722 -0.029695125 2.3509886e-38
-0.040168077 -0.071365535 -0.025668832 2.3509886e-38
-0.038225271 -0.071365535 -0.025668832 2.3509886e-38
-0.036282465 -0.071365535 -0.025668832 2.3509886e-38
-0.034339659 -0.071365535 -0.025668832 2.3509886e-38
-0.032330431 -0.070767716 -0.022638055 2.3509886e-38
-0.030392939 -0.070767716 -0.022638055 2.3509886e-38
-0.028455449 -0.070767716 -0.022638055 2.3509886e-38
-0.026517959 -0.070767716 -0.022638055 2.3509886e-38
-0.024521219 -0.069983557 -0.018662663 2.3509886e-38
-0.022590699 -0.069983557 -0.018662663 2.3509886e-38
-0.020660179 -0.069983557 -0.018662663 2.3509886e-38
-0.018691598 -0.069205061 -0.014715882 2.3509886e-38
-0.016767999 -0.069205061 -0.014715882 2.3509886e-38
-0.014844397 -0.069205061 -0.014715882 2.3509886e-38
-0.012907254 -0.068595603 -0.011626096 2.3509886e-38
-0.01098907 -0.068595603 -0.011626096 2.3509886e-38
-0.0090708863 -0.068595603 -0.011626096 2.3509886e-38
-0.0071527045 -0.068595603 -0.011626096 2.3509886e-38
-0.0052345209 -0.068595603 -0.011626096 2.3509886e-38
-0.0033163372 -0.068595603 -0.011626096 2.3509886e-38
-0.0014227889 -0.06780377 -0.0076117236 2.3509886e-38
0.00048835576 -0.06780377 -0.0076117236 2.3509886e-38
0.0023994995 -0.06780377 -0.0076117236 2.3509886e-38
0.0042426456 -0.066626862 -0.0016451795 2.3509886e-38
0.0061433287 -0.066626862 -0.0016451795 2.3509886e-38
0.0079852697 -0.065849394 0.0022963565 2.3509886e-38
0.0098790433 -0.065849394 0.0022963565 2.3509886e-38
0.011717679 -0.065258652 0.0052912515 2.3509886e-38
0.0136062 -0.065258652 0.0052912515 2.3509886e-38
0.015494723 -0.065258652 0.0052912515 2.3509886e-38
0.017383244 -0.065258652 0.0052912515 2.3509886e-38
0.019271765 -0.065258652 0.0052912515 2.3509886e-38
0.021160286 -0.065258652 0.0052912515 2.3509886e-38
0.023048807 -0.065258652 0.0052912515 2.3509886e-38
0.02493733 -0.065258652 0.0052912515 2.3509886e-38
0.026695931 -0.064468607 0.0092965644 2.3509886e-38
0.028472485 -0.063863143 0.012366084 2.3509886e-38
0.030348601 -0.063863143 0.012366084 2.3509886e-38
0.032113917 -0.063283354 0.015305428 2.3509886e-38
0.033984877 -0.063283354 0.015305428 2.3509886e-38
0.035855837 -0.063283354 0.015305428 2.3509886e-38
0.037553117 -0.062485814 0.019348769 2.3509886e-38
0.039416991 -0.062485814 0.019348769 2.3509886e-38
0.041280866 -0.062485814 0.019348769 2.3509886e-38
0.04314474 -0.062485814 0.019348769 2.3509886e-38
0.045008607 -0.062485814 0.019348769 2.3509886e-38
0.046872482 -0.062485814 0.019348769 2.3509886e-38
0.048736356 -0.062485814 0.019348769 2.3509527e-38
0.050600231 -0.062485814 0.019348769 2.3509527e-38
0.052464105 -0.062485814 0.019348769 2.3509527e-38
0.05432798 -0.062485814 0.019348769 2.3509527e-38
0.056191854 -0.062485814 0.019348769 2.3509886e-38
0.05786822 -0.061891615 0.022361187 2.3509886e-38
0.059726812 -0.061891615 0.022361187 2.3509886e-38
0.061388463 -0.061300769 0.025356559 2.3509886e-38
0.063241802 -0.061300769 0.025356559 2.3509886e-38
0.065095142 -0.061300769 0.025356559 2.341805e-38
0.066948481 -0.061300769 0.025356559 2.332621e-38
0.06880182 -0.061300769 0.025356559 2.3142539e-38
0.07065516 -0.061300769 0.025356559 2.3234376e-38
0.072508499 -0.061300769 0.025356559 2.1944355e-38
0.074361846 -0.061300769 0.025356559 2.2497889e-38
0.076215185 -0.061300769 0.025356559 1.235637e-38
0.078068532 -0.061300769 0.025356559 3.044611e-39
0.079921864 -0.061300769 0.025356559 2.1537957e-42
-0.088641889 -0.07848309 -0.05167219 9.9556833e-39
-0.086653493 -0.07848309 -0.05167219 1.2537161e-38
-0.084391005 -0.077675089 -0.047611922 2.3509521e-38
-0.082409732 -0.077675089 -0.047611922 2.3048545e-38
-0.080178507 -0.076897845 -0.043706268 2.3509883e-38
-0.078204073 -0.076897845 -0.043706268 2.3509886e-38
-0.07604786 -0.076299787 -0.040701002 2.3325856e-38
-0.074078687 -0.076299787 -0.040701002 2.2865961e-38
-0.071882613 -0.075507313 -0.036718816 2.3234379e-38
-0.069920428 -0.075507313 -0.036718816 2.3509886e-38
-0.067958258 -0.075507313 -0.036718816 2.3509886e-38
-0.065996073 -0.075507313 -0.036718816 2.3509886e-38
-0.064033896 -0.075507313 -0.036718816 2.3509886e-38
-0.062071718 -0.075507313 -0.036718816 2.3509886e-38
-0.060109533 -0.075507313 -0.036718816 2.3509886e-38
-0.058147363 -0.075507313 -0.036718816 2.3509886e-38
-0.056185178 -0.075507313 -0.036718816 2.3509886e-38
-0.054223001 -0.075507313 -0.036718816 2.3509886e-38
-0.05209998 -0.074695975 -0.032641739 2.3509886e-38
-0.050144948 -0.074695975 -0.032641739 2.3509886e-38
-0.048189923 -0.074695975 -0.032641739 2.3509886e-38
-0.046134144 -0.074109584 -0.029695125 2.3509886e-38
-0.044184282 -0.074109584 -0.029695125 2.3509886e-38
-0.042234421 -0.074109584 -0.029695125 2.3509886e-38
-0.040168077 -0.073308334 -0.025668832 2.3509886e-38
-0.038225271 -0.073308334 -0.025668832 2.3509886e-38
-0.036282465 -0.073308334 -0.025668832 2.3509886e-38
-0.034339659 -0.073308334 -0.025668832 2.3509886e-38
-0.032330431 -0.072705194 -0.022638055 2.3509886e-38
-0.030392939 -0.072705194 -0.022638055 2.3509886e-38
-0.028455449 -0.072705194 -0.022638055 2.3509886e-38
-0.026517959 -0.072705194 -0.022638055 2.3509886e-38
-0.024521219 -0.071914092 -0.018662663 2.3509886e-38
-0.022590699 -0.071914092 -0.018662663 2.3509886e-38
-0.0206152 -0.071128666 -0.014715882 2.3509886e-38
-0.018691598 -0.071128666 -0.014715882 2.3509886e-38
-0.016767999 -0.071128666 -0.014715882 2.3509886e-38
-0.014825435 -0.070513785 -0.011626096 2.3509886e-38
-0.012907254 -0.070513785 -0.011626096 2.3509886e-38
-0.010978512 -0.069714904 -0.0076117236 2.3509886e-38
-0.0090673678 -0.069714904 -0.0076117236 2.3509886e-38
-0.0071562231 -0.069714904 -0.0076117236 2.3509886e-38
-0.0052450784 -0.069714904 -0.0076117236 2.3509886e-38
-0.0033339337 -0.069714904 -0.0076117236 2.3509886e-38
-0.0014227889 -0.069714904 -0.0076117236 2.3509886e-38
0.00048835576 -0.069714904 -0.0076117236 2.3509886e-38
0.0023994995 -0.069714904 -0.0076117236 2.3509886e-38
0.0042426456 -0.06852755 -0.0016451795 2.3509886e-38
0.0061433287 -0.06852755 -0.0016451795 2.3509886e-38
0.0079852697 -0.067743167 0.0022963565 2.3509886e-38
0.0098790433 -0.067743167 0.0022963565 2.3509886e-38
0.011717679 -0.06714718 0.0052912515 2.3509886e-38
0.0136062 -0.06714718 0.0052912515 2.3509886e-38
0.015494723 -0.06714718 0.0052912515 2.3509886e-38
0.017383244 -0.06714718 0.0052912515 2.3509886e-38
0.019271765 -0.06714718 0.0052912515 2.3509886e-38
0.021160286 -0.06714718 0.0052912515 2.3509886e-38
0.023048807 -0.06714718 0.0052912515 2.3509886e-38
0.02493733 -0.06714718 0.0052912515 2.3509886e-38
0.026596365 -0.065739259 0.012366084 2.3509886e-38
0.028472485 -0.065739259 0.012366084 2.3509886e-38
0.030242952 -0.065154314 0.015305428 2.3509886e-38
0.032113917 -0.065154314 0.015305428 2.3509886e-38
0.033825368 -0.064349681 0.019348769 2.3509886e-38
0.035689242 -0.064349681 0.019348769 2.3509886e-38
0.037553117 -0.064349681 0.019348769 2.3509886e-38
0.039416991 -0.064349681 0.019348769 2.3509886e-38
0.041280866 -0.064349681 0.019348769 2.3509886e-38
0.04314474 -0.064349681 0.019348769 2.3509886e-38
0.045008607 -0.064349681 0.019348769 2.3509886e-38
0.046716675 -0.063750207 0.022361187 2.3509886e-38
0.048575267 -0.063750207 0.022361187 2.3509886e-38
0.050433859 -0.063750207 0.022361187 2.3509886e-38
0.052292451 -0.063750207 0.022361187 2.3509527e-38
0.054151043 -0.063750207 0.022361187 2.3509527e-38
0.056009628 -0.063750207 0.022361187 2.3509886e-38
0.05786822 -0.063750207 0.022361187 2.3509886e-38
0.059535123 -0.063154116 0.025356559 2.3509886e-38
0.061388463 -0.063154116 0.025356559 2.3509886e-38
0.063241802 -0.063154116 0.025356559 2.341805e-38
0.065095142 -0.063154116 0.025356559 2.341805e-38
0.066948481 -0.063154116 0.025356559 2.3234376e-38
0.06880182 -0.063154116 0.025356559 2.2958507e-38
0.07065516 -0.063154116 0.025356559 2.3234376e-38
0.072508499 -0.063154116 0.025356559 2.1575572e-38
0.074361846 -0.063154116 0.025356559 2.2221302e-38
0.076215185 -0.063154116 0.025356559 1.3278326e-38
0.078068532 -0.063154116 0.025356559 4.1509585e-39
0.079921864 -0.063154116 0.025356559 6.4860361e-40
-0.088641889 -0.080471486 -0.05167219 9.4957841e-39
-0.086653493 -0.080471486 -0.05167219 1.1524088e-38
-0.084391005 -0.079656363 -0.047611922 2.350988e-38
-0.082409732 -0.079656363 -0.047611922 2.3325131e-38
-0.080178507 -0.078872278 -0.043706268 2.3509883e-38
-0.078017019 -0.078268945 -0.040701002 2.341769e-38
-0.07604786 -0.078268945 -0.040701002 2.341805e-38
-0.074078687 -0.078268945 -0.040701002 2.3142544e-38
-0.071882613 -0.077469498 -0.036718816 2.3234379e-38
-0.069920428 -0.077469498 -0.036718816 2.3509886e-38
-0.068171211 -0.078268945 -0.040701002 2.3509886e-38
-0.066202052 -0.078268945 -0.040701002 2.3509886e-38
-0.064232886 -0.078268945 -0.040701002 2.3509886e-38
-0.06226372 -0.078268945 -0.040701002 2.3509886e-38
-0.060109533 -0.077469498 -0.036718816 2.3509886e-38
-0.058147363 -0.077469498 -0.036718816 2.3509886e-38
-0.056185178 -0.077469498 -0.036718816 2.3509886e-38
-0.054223001 -0.077469498 -0.036718816 2.3509886e-38
-0.05209998 -0.076650992 -0.032641739 2.3509886e-38
-0.050033875 -0.076059446 -0.029695125 2.3509886e-38
-0.048084013 -0.076059446 -0.029695125 2.3509886e-38
-0.046134144 -0.076059446 -0.029695125 2.3509886e-38
-0.044184282 -0.076059446 -0.029695125 2.3509886e-38
-0.042110875 -0.075251147 -0.025668832 2.3509886e-38
-0.040168077 -0.075251147 -0.025668832 2.3509886e-38
-0.038225271 -0.075251147 -0.025668832 2.3509886e-38
-0.036282465 -0.075251147 -0.025668832 2.3509886e-38
-0.034267917 -0.074642688 -0.022638055 2.3509886e-38
-0.032330431 -0.074642688 -0.022638055 2.3509886e-38
-0.030392939 -0.074642688 -0.022638055 2.3509886e-38
-0.028455449 -0.074642688 -0.022638055 2.3509886e-38
-0.026451739 -0.073844612 -0.018662663 2.3509886e-38
-0.024521219 -0.073844612 -0.018662663 2.3509886e-38
-0.022590699 -0.073844612 -0.018662663 2.3509886e-38
-0.0206152 -0.073052257 -0.014715882 2.3509886e-38
-0.018691598 -0.073052257 -0.014715882 2.3509886e-38
-0.016743621 -0.072431967 -0.011626096 2.3509886e-38
-0.014825435 -0.072431967 -0.011626096 2.3509886e-38
-0.012907254 -0.072431967 -0.011626096 2.3509886e-38
-0.010978512 -0.071626052 -0.0076117236 2.3509886e-38
-0.0090673678 -0.071626052 -0.0076117236 2.3509886e-38
-0.0071587935 -0.071037248 -0.0046788175 2.3509886e-38
-0.0052527916 -0.071037248 -0.0046788175 2.3509886e-38
-0.0033339337 -0.071626052 -0.0076117236 2.3509886e-38
-0.0014227889 -0.071626052 -0.0076117236 2.3509886e-38
0.00048835576 -0.071626052 -0.0076117236 2.3509886e-38
0.0023994995 -0.071626052 -0.0076117236 2.3509886e-38
0.0042426456 -0.070428237 -0.0016451795 2.3509886e-38
0.0061433287 -0.070428237 -0.0016451795 2.3509886e-38
0.0079852697 -0.069636941 0.0022963565 2.3509886e-38
0.0098790433 -0.069636941 0.0022963565 2.3509886e-38
0.011717679 -0.069035694 0.0052912515 2.3509886e-38
0.0136062 -0.069035694 0.0052912515 2.3509886e-38
0.015494723 -0.069035694 0.0052912515 2.3509886e-38
0.017383244 -0.069035694 0.0052912515 2.3509886e-38
0.019271765 -0.069035694 0.0052912515 2.3509886e-38
0.021160286 -0.069035694 0.0052912515 2.3509886e-38
0.023048807 -0.069035694 0.0052912515 2.3509886e-38
0.02493733 -0.069035694 0.0052912515 2.3509886e-38
0.026596365 -0.067615375 0.012366084 2.3509886e-38
0.028472485 -0.067615375 0.012366084 2.3509886e-38
0.030242952 -0.067025289 0.015305428 2.3509886e-38
0.032113917 -0.067025289 0.015305428 2.3509886e-38
0.033825368 -0.066213563 0.019348769 2.3509886e-38
0.035689242 -0.066213563 0.019348769 2.3509886e-38
0.037553117 -0.066213563 0.019348769 2.3509886e-38
0.039416991 -0.066213563 0.019348769 2.3509886e-38
0.041280866 -0.066213563 0.019348769 2.3509886e-38
0.04314474 -0.066213563 0.019348769 2.3509886e-38
0.045008607 -0.066213563 0.019348769 2.3509886e-38
0.046716675 -0.065608799 0.022361187 2.3509886e-38
0.048575267 -0.065608799 0.022361187 2.3509886e-38
0.050433859 -0.065608799 0.022361187 2.3509886e-38
0.052292451 -0.065608799 0.022361187 2.3509527e-38
0.054151043 -0.065608799 0.022361187 2.3509527e-38
0.056009628 -0.065608799 0.022361187 2.3509886e-38
0.057681784 -0.065007448 0.025356559 2.3509886e-38
0.059535123 -0.065007448 0.025356559 2.3509886e-38
0.061388463 -0.065007448 0.025356559 2.3509886e-38
0.063040748 -0.064409509 0.028335003 2.3418047e-38
0.064888865 -0.064409509 0.028335003 2.3418047e-38
0.066736981 -0.064409509 0.028335003 2.3418047e-38
0.068585098 -0.064409509 0.028335003 2.2957428e-38
0.07065516 -0.065007448 0.025356559 2.3234376e-38
0.072508499 -0.065007448 0.025356559 2.1022399e-38
0.074361846 -0.065007448 0.025356559 2.1944355e-38
0.076215185 -0.065007448 0.025356559 1.4845291e-38
0.078312747 -0.065608799 0.022361187 5.9026755e-39
0.080171339 -0.065608799 0.022361187 1.4787202e-39
0.082029931 -0.065608799 0.022361187 2.0326114e-39
-0.088641889 -0.082459882 -0.05167219 9.772371e-39
-0.086653493 -0.082459882 -0.05167219 1.041774e-38
-0.084391005 -0.081637636 -0.047611922 2.350988e-38
-0.082409732 -0.081637636 -0.047611922 2.3417327e-38
-0.080178507 -0.080846712 -0.043706268 2.3509883e-38
-0.078017019 -0.080238104 -0.040701002 2.3233299e-38
-0.07604786 -0.080238104 -0.040701002 2.341805e-38
-0.073844798 -0.079431683 -0.036718816 2.341805e-38
-0.071882613 -0.079431683 -0.036718816 2.341805e-38
-0.069920428 -0.079431683 -0.036718816 2.3509886e-38
-0.068171211 -0.080238104 -0.040701002 2.3509886e-38
-0.066202052 -0.080238104 -0.040701002 2.3509886e-38
-0.064232886 -0.080238104 -0.040701002 2.3509886e-38
-0.062071718 -0.079431683 -0.036718816 2.3509886e-38
-0.060109533 -0.079431683 -0.036718816 2.3509886e-38
-0.058147363 -0.079431683 -0.036718816 2.3509886e-38
-0.056185178 -0.079431683 -0.036718816 2.3509886e-38
-0.054055013 -0.078606024 -0.032641739 2.3509886e-38
-0.051983736 -0.078009307 -0.029695125 2.3509886e-38
-0.050033875 -0.078009307 -0.029695125 2.3509886e-38
-0.048084013 -0.078009307 -0.029695125 2.3509886e-38
-0.045996487 -0.077193946 -0.025668832 2.3509886e-38
-0.044053681 -0.077193946 -0.025668832 2.3509886e-38
-0.042110875 -0.077193946 -0.025668832 2.3509886e-38
-0.040080391 -0.076580182 -0.022638055 2.3509886e-38
-0.038142905 -0.076580182 -0.022638055 2.3509886e-38
-0.036205411 -0.076580182 -0.022638055 2.3509886e-38
-0.034267917 -0.076580182 -0.022638055 2.3509886e-38
-0.032330431 -0.076580182 -0.022638055 2.3509886e-38
-0.030392939 -0.076580182 -0.022638055 2.3509886e-38
-0.028382262 -0.075775132 -0.018662663 2.3509886e-38
-0.026451739 -0.075775132 -0.018662663 2.3509886e-38
-0.024521219 -0.075775132 -0.018662663 2.3509886e-38
-0.022590699 -0.075775132 -0.018662663 2.3509886e-38
-0.0206152 -0.074975863 -0.014715882 2.3509886e-38
-0.018661803 -0.074350148 -0.011626096 2.3509886e-38
-0.016743621 -0.074350148 -0.011626096 2.3509886e-38
-0.014825435 -0.074350148 -0.011626096 2.3509886e-38
-0.012907254 -0.074350148 -0.011626096 2.3509886e-38
-0.010978512 -0.073537201 -0.0076117236 2.3509886e-38
-0.0090673678 -0.073537201 -0.0076117236 2.3509886e-38
-0.0071587935 -0.072943255 -0.0046788175 2.3509886e-38
-0.0052527916 -0.072943255 -0.0046788175 2.3509886e-38
-0.0033467896 -0.072943255 -0.0046788175 2.3509886e-38
-0.0014407877 -0.072943255 -0.0046788175 2.3509886e-38
0.00046521518 -0.072943255 -0.0046788175 2.3509886e-38
0.0023712171 -0.072943255 -0.0046788175 2.3509886e-38
0.0042772191 -0.072943255 -0.0046788175 2.3509886e-38
0.0061433287 -0.07232891 -0.0016451795 2.3509886e-38
0.0079852697 -0.071530715 0.0022963565 2.3509886e-38
0.0098790433 -0.071530715 0.0022963565 2.3509886e-38
0.011772815 -0.071530715 0.0022963565 2.3509886e-38
0.0136062 -0.070924222 0.0052912515 2.3509886e-38
0.015494723 -0.070924222 0.0052912515 2.3509886e-38
0.017383244 -0.070924222 0.0052912515 2.3509886e-38
0.019271765 -0.070924222 0.0052912515 2.3509886e-38
0.021160286 -0.070924222 0.0052912515 2.3509886e-38
0.023048807 -0.070924222 0.0052912515 2.3509886e-38
0.02493733 -0.070924222 0.0052912515 2.3509886e-38
0.026596365 -0.069491491 0.012366084 2.3509886e-38
0.028472485 -0.069491491 0.012366084 2.3509886e-38
0.030242952 -0.068896249 0.015305428 2.3509886e-38
0.032113917 -0.068896249 0.015305428 2.3509886e-38
0.033825368 -0.06807743 0.019348769 2.3509886e-38
0.035689242 -0.06807743 0.019348769 2.3509886e-38
0.037553117 -0.06807743 0.019348769 2.3509886e-38
0.039416991 -0.06807743 0.019348769 2.3509886e-38
0.041280866 -0.06807743 0.019348769 2.3509886e-38
0.042999491 -0.067467391 0.022361187 2.3509886e-38
0.044858083 -0.067467391 0.022361187 2.3509886e-38
0.046716675 -0.067467391 0.022361187 2.3509886e-38
0.048575267 -0.067467391 0.022361187 2.3509886e-38
0.050433859 -0.067467391 0.022361187 2.3509886e-38
0.052121758 -0.066860795 0.025356559 2.3509527e-38
0.053975105 -0.066860795 0.025356559 2.3509527e-38
0.055828437 -0.066860795 0.025356559 2.3509886e-38
0.057681784 -0.066860795 0.025356559 2.3509886e-38
0.059535123 -0.066860795 0.025356559 2.3509886e-38
0.061192632 -0.066257626 0.028335003 2.3509886e-38
0.063040748 -0.066257626 0.028335003 2.3418047e-38
0.064888865 -0.066257626 0.028335003 2.3418047e-38
0.066736981 -0.066257626 0.028335003 2.3418047e-38
0.068585098 -0.066257626 0.028335003 2.2865232e-38
0.07065516 -0.066860795 0.025356559 2.3234376e-38
0.072508499 -0.066860795 0.025356559 2.0469225e-38
0.074361846 -0.066860795 0.025356559 2.1667768e-38
0.076215185 -0.066860795 0.025356559 1.6320422e-38
0.078312747 -0.067467391 0.022361187 7.9309794e-39
0.080171339 -0.067467391 0.022361187 1.7542281e-39
0.082029931 -0.067467391 0.022361187 2.0322457e-39
-0.088641889 -0.084448278 -0.05167219 8.2976039e-39
-0.086653493 -0.084448278 -0.05167219 9.5879798e-39
-0.084127359 -0.082821131 -0.043706268 2.3417324e-38
-0.08215294 -0.082821131 -0.043706268 2.3325847e-38
-0.080178507 -0.082821131 -0.043706268 2.350988e-38
-0.078017019 -0.082207277 -0.040701002 2.3325492e-38
-0.07604786 -0.082207277 -0.040701002 2.3418047e-38
-0.073844798 -0.081393853 -0.036718816 2.3418047e-38
-0.071882613 -0.081393853 -0.036718816 2.3234018e-38
-0.069920428 -0.081393853 -0.036718816 2.3509886e-38
-0.068171211 -0.082207277 -0.040701002 2.3509886e-38
-0.066202052 -0.082207277 -0.040701002 2.3509886e-38
-0.064033896 -0.081393853 -0.036718816 2.3509886e-38
-0.062071718 -0.081393853 -0.036718816 2.3509886e-38
-0.060109533 -0.081393853 -0.036718816 2.3509886e-38
-0.058147363 -0.081393853 -0.036718816 2.3509886e-38
-0.056010045 -0.080561057 -0.032641739 2.3509886e-38
-0.054055013 -0.080561057 -0.032641739 2.3509886e-38
-0.051983736 -0.079959169 -0.029695125 2.3509886e-38
-0.050033875 -0.079959169 -0.029695125 2.3509886e-38
-0.048084013 -0.079959169 -0.029695125 2.3509886e-38
-0.045996487 -0.079136744 -0.025668832 2.3509886e-38
-0.044053681 -0.079136744 -0.025668832 2.3509886e-38
-0.042017885 -0.078517675 -0.022638055 2.3509886e-38
-0.040080391 -0.078517675 -0.022638055 2.3509886e-38
-0.038142905 -0.078517675 -0.022638055 2.3509886e-38
-0.036205411 -0.078517675 -0.022638055 2.3509886e-38
-0.034173824 -0.077705652 -0.018662663 2.3509886e-38
-0.032243304 -0.077705652 -0.018662663 2.3509886e-38
-0.030392939 -0.078517675 -0.022638055 2.3509886e-38
-0.028382262 -0.077705652 -0.018662663 2.3509886e-38
-0.026451739 -0.077705652 -0.018662663 2.3509886e-38
-0.024521219 -0.077705652 -0.018662663 2.3509886e-38
-0.022590699 -0.077705652 -0.018662663 2.3509886e-38
-0.0206152 -0.076899469 -0.014715882 2.3509886e-38
-0.018661803 -0.07626833 -0.011626096 2.3509886e-38
-0.016743621 -0.07626833 -0.011626096 2.3509886e-38
-0.014800802 -0.075448349 -0.0076117236 2.3509886e-38
-0.012889657 -0.075448349 -0.0076117236 2.3509886e-38
-0.010978512 -0.075448349 -0.0076117236 2.3509886e-38
-0.0090673678 -0.075448349 -0.0076117236 2.3509886e-38
-0.0071587935 -0.074849263 -0.0046788175 2.3509886e-38
-0.0052527916 -0.074849263 -0.0046788175 2.3509886e-38
-0.0033467896 -0.074849263 -0.0046788175 2.3509886e-38
-0.0014407877 -0.074849263 -0.0046788175 2.3509886e-38
0.00046521518 -0.074849263 -0.0046788175 2.3509886e-38
0.0023712171 -0.074849263 -0.0046788175 2.3509886e-38
0.0042772191 -0.074849263 -0.0046788175 2.3509886e-38
0.0061832219 -0.074849263 -0.0046788175 2.3509886e-38
0.0080440119 -0.074229598 -0.0016451795 2.3509886e-38
0.0098790433 -0.073424488 0.0022963565 2.3509886e-38
0.011772815 -0.073424488 0.0022963565 2.3509886e-38
0.013666587 -0.073424488 0.0022963565 2.3509886e-38
0.015560361 -0.073424488 0.0022963565 2.3509886e-38
0.017383244 -0.072812736 0.0052912515 2.3509886e-38
0.019271765 -0.072812736 0.0052912515 2.3509886e-38
0.021160286 -0.072812736 0.0052912515 2.3509886e-38
0.023048807 -0.072812736 0.0052912515 2.3509886e-38
0.02493733 -0.072812736 0.0052912515 2.3509886e-38
0.026596365 -0.071367607 0.012366084 2.3509886e-38
0.028472485 -0.071367607 0.012366084 2.3509886e-38
0.030242952 -0.070767209 0.015305428 2.3509886e-38
0.032113917 -0.070767209 0.015305428 2.3509886e-38
0.033825368 -0.069941312 0.019348769 2.3509886e-38
0.035689242 -0.069941312 0.019348769 2.3509886e-38
0.037553117 -0.069941312 0.019348769 2.3509886e-38
0.039416991 -0.069941312 0.019348769 2.3509886e-38
0.041140899 -0.069325984 0.022361187 2.3509886e-38
0.042999491 -0.069325984 0.022361187 2.3509886e-38
0.044858083 -0.069325984 0.022361187 2.3509886e-38
0.046716675 -0.069325984 0.022361187 2.3509886e-38
0.048575267 -0.069325984 0.022361187 2.3509886e-38
0.050268419 -0.068714127 0.025356559 2.3509886e-38
0.052121758 -0.068714127 0.025356559 2.3509886e-38
0.053975105 -0.068714127 0.025356559 2.3509886e-38
0.055828437 -0.068714127 0.025356559 2.3509886e-38
0.057496391 -0.068105742 0.028335003 2.3509886e-38
0.059344508 -0.068105742 0.028335003 2.3509886e-38
0.061192632 -0.068105742 0.028335003 2.3509886e-38
0.063040748 -0.068105742 0.028335003 2.3509883e-38
0.064888865 -0.068105742 0.028335003 2.3509883e-38
0.066736981 -0.068105742 0.028335003 2.3418047e-38
0.06880182 -0.068714127 0.025356559 2.2865232e-38
0.07065516 -0.068714127 0.025356559 2.2773034e-38
0.072508499 -0.068714127 0.025356559 2.0191556e-38
0.074595548 -0.069325984 0.022361187 2.157557e-38
0.07645414 -0.069325984 0.022361187 1.7426766e-38
0.078558348 -0.069941312 0.019348769 1.0143312e-38
0.080422215 -0.069941312 0.019348769 1.1088573e-39
0.082286097 -0.069941312 0.019348769 1.8467726e-39
-0.088641889 -0.086436674 -0.05167219 6.9146694e-39
-0.086372294 -0.085600197 -0.047611922 9.6808943e-39
-0.084127359 -0.084795564 -0.043706268 2.3325129e-38
-0.08215294 -0.084795564 -0.043706268 2.3233652e-38
-0.080178507 -0.084795564 -0.043706268 2.350988e-38
-0.078017019 -0.084176436 -0.040701002 2.3509883e-38
-0.07604786 -0.084176436 -0.040701002 2.3509883e-38
-0.073844798 -0.083356038 -0.036718816 2.3418047e-38
-0.071882613 -0.083356038 -0.036718816 2.332621e-38
-0.069920428 -0.083356038 -0.036718816 2.3509886e-38
-0.068171211 -0.084176436 -0.040701002 2.3509886e-38
-0.066202052 -0.084176436 -0.040701002 2.3509886e-38
-0.064033896 -0.083356038 -0.036718816 2.3509886e-38
-0.062071718 -0.083356038 -0.036718816 2.3509886e-38
-0.060109533 -0.083356038 -0.036718816 2.3509886e-38
-0.058147363 -0.083356038 -0.036718816 2.3509886e-38
-0.056010045 -0.082516089 -0.032641739 2.3509886e-38
-0.054055013 -0.082516089 -0.032641739 2.3509886e-38
-0.051983736 -0.081909031 -0.029695125 2.3509886e-38
-0.050033875 -0.081909031 -0.029695125 2.3509886e-38
-0.047939293 -0.081079558 -0.025668832 2.3509886e-38
-0.045996487 -0.081079558 -0.025668832 2.3509886e-38
-0.043955378 -0.080455169 -0.022638055 2.3509886e-38
-0.042017885 -0.080455169 -0.022638055 2.3509886e-38
-0.040080391 -0.080455169 -0.022638055 2.3509886e-38
-0.038142905 -0.080455169 -0.022638055 2.3509886e-38
-0.036205411 -0.080455169 -0.022638055 2.3509886e-38
-0.034173824 -0.079636171 -0.018662663 2.3509886e-38
-0.032243304 -0.079636171 -0.018662663 2.3509886e-38
-0.030312782 -0.079636171 -0.018662663 2.3509886e-38
-0.028382262 -0.079636171 -0.018662663 2.3509886e-38
-0.026386002 -0.07882306 -0.014715882 2.3509886e-38
-0.0244624 -0.07882306 -0.014715882 2.3509886e-38
-0.022538798 -0.07882306 -0.014715882 2.3509886e-38
-0.0206152 -0.07882306 -0.014715882 2.3509886e-38
-0.018661803 -0.078186512 -0.011626096 2.3509886e-38
-0.016743621 -0.078186512 -0.011626096 2.3509886e-38
-0.014800802 -0.077359483 -0.0076117236 2.3509886e-38
-0.012889657 -0.077359483 -0.0076117236 2.3509886e-38
-0.010978512 -0.077359483 -0.0076117236 2.3509886e-38
-0.0090673678 -0.077359483 -0.0076117236 2.3509886e-38
-0.0071587935 -0.076755255 -0.0046788175 2.3509886e-38
-0.0052527916 -0.076755255 -0.0046788175 2.3509886e-38
-0.0033467896 -0.076755255 -0.0046788175 2.3509886e-38
-0.0014407877 -0.076755255 -0.0046788175 2.3509886e-38
0.00046521518 -0.076755255 -0.0046788175 2.3509886e-38
0.0023712171 -0.076755255 -0.0046788175 2.3509886e-38
0.0042772191 -0.076755255 -0.0046788175 2.3509886e-38
0.0061433287 -0.076130286 -0.0016451795 2.3509886e-38
0.0080440119 -0.076130286 -0.0016451795 2.3509886e-38
0.0098790433 -0.075318262 0.0022963565 2.3509886e-38
0.011772815 -0.075318262 0.0022963565 2.3509886e-38
0.013666587 -0.075318262 0.0022963565 2.3509886e-38
0.015560361 -0.075318262 0.0022963565 2.3509886e-38
0.017383244 -0.074701265 0.0052912515 2.3509886e-38
0.019271765 -0.074701265 0.0052912515 2.3509886e-38
0.021160286 -0.074701265 0.0052912515 2.3509886e-38
0.023048807 -0.074701265 0.0052912515 2.3509886e-38
0.02493733 -0.074701265 0.0052912515 2.3509886e-38
0.026596365 -0.073243722 0.012366084 2.3509886e-38
0.028472485 -0.073243722 0.012366084 2.3509886e-38
0.030242952 -0.072638169 0.015305428 2.3509886e-38
0.032113917 -0.072638169 0.015305428 2.3509886e-38
0.033825368 -0.071805179 0.019348769 2.3509886e-38
0.035689242 -0.071805179 0.019348769 2.3509886e-38
0.037553117 -0.071805179 0.019348769 2.3509886e-38
0.039416991 -0.071805179 0.019348769 2.3509886e-38
0.041140899 -0.071184576 0.022361187 2.3509886e-38
0.042999491 -0.071184576 0.022361187 2.3509886e-38
0.044858083 -0.071184576 0.022361187 2.3509886e-38
0.046716675 -0.071184576 0.022361187 2.3509886e-38
0.04841508 -0.070567474 0.025356559 2.3509886e-38
0.050103925 -0.069953859 0.028335003 2.3509886e-38
0.051952042 -0.069953859 0.028335003 2.3509886e-38
0.053800158 -0.069953859 0.028335003 2.3509886e-38
0.055648275 -0.069953859 0.028335003 2.3509886e-38
0.057496391 -0.069953859 0.028335003 2.3509886e-38
0.059344508 -0.069953859 0.028335003 2.3509886e-38
0.061192632 -0.069953859 0.028335003 2.3509886e-38
0.063040748 -0.069953859 0.028335003 2.3509883e-38
0.064888865 -0.069953859 0.028335003 2.3509883e-38
0.066948481 -0.070567474 0.025356559 2.3418047e-38
0.06880182 -0.070567474 0.025356559 2.3141816e-38
0.070878364 -0.071184576 0.022361187 2.1574491e-38
0.072736956 -0.071184576 0.022361187 1.9730578e-38
0.074595548 -0.071184576 0.022361187 2.1758882e-38
0.07645414 -0.071184576 0.022361187 1.8256527e-38
0.078558348 -0.071805179 0.019348769 1.2448202e-38
0.080758952 -0.072638169 0.015305428 2.7873508e-40
0.082629927 -0.072638169 0.015305428 1.4776258e-39
-0.088353567 -0.087581471 -0.047611922 7.0075839e-39
-0.086372294 -0.087581471 -0.047611922 1.0786886e-38
-0.084127359 -0.086769998 -0.043706268 2.3509883e-38
-0.08215294 -0.086769998 -0.043706268 2.3233652e-38
-0.080178507 -0.086769998 -0.043706268 2.350988e-38
-0.078017019 -0.086145595 -0.040701002 2.350988e-38
-0.07604786 -0.086145595 -0.040701002 2.350988e-38
-0.073844798 -0.085318208 -0.036718816 2.3418045e-38
-0.071882613 -0.085318208 -0.036718816 2.3418047e-38
-0.069920428 -0.085318208 -0.036718816 2.3509886e-38
-0.067958258 -0.085318208 -0.036718816 2.3509886e-38
-0.065996073 -0.085318208 -0.036718816 2.3509886e-38
-0.064033896 -0.085318208 -0.036718816 2.3509886e-38
-0.062071718 -0.085318208 -0.036718816 2.3509886e-38
-0.060109533 -0.085318208 -0.036718816 2.3509886e-38
-0.057965077 -0.084471121 -0.032641739 2.3509886e-38
-0.056010045 -0.084471121 -0.032641739 2.3509886e-38
-0.053933598 -0.083858907 -0.029695125 2.3509886e-38
-0.051824905 -0.083022356 -0.025668832 2.3509886e-38
-0.049882099 -0.083022356 -0.025668832 2.3509886e-38
-0.047939293 -0.083022356 -0.025668832 2.3509886e-38
-0.045892864 -0.082392648 -0.022638055 2.3509886e-38
-0.043955378 -0.082392648 -0.022638055 2.3509886e-38
-0.042017885 -0.082392648 -0.022638055 2.3509886e-38
-0.039965384 -0.081566691 -0.018662663 2.3509886e-38
-0.038034864 -0.081566691 -0.018662663 2.3509886e-38
-0.036104344 -0.081566691 -0.018662663 2.3509886e-38
-0.034173824 -0.081566691 -0.018662663 2.3509886e-38
-0.032243304 -0.081566691 -0.018662663 2.3509886e-38
-0.030312782 -0.081566691 -0.018662663 2.3509886e-38
-0.028382262 -0.081566691 -0.018662663 2.3509886e-38
-0.026386002 -0.080746666 -0.014715882 2.3509886e-38
-0.0244624 -0.080746666 -0.014715882 2.3509886e-38
-0.022538798 -0.080746666 -0.014715882 2.3509886e-38
-0.0206152 -0.080746666 -0.014715882 2.3509886e-38
-0.018661803 -0.080104694 -0.011626096 2.3509886e-38
-0.016743621 -0.080104694 -0.011626096 2.3509886e-38
-0.014800802 -0.079270631 -0.0076117236 2.3509886e-38
-0.012889657 -0.079270631 -0.0076117236 2.3509886e-38
-0.010978512 -0.079270631 -0.0076117236 2.3509886e-38
-0.0090673678 -0.079270631 -0.0076117236 2.3509886e-38
-0.0071587935 -0.078661263 -0.0046788175 2.3509886e-38
-0.0052527916 -0.078661263 -0.0046788175 2.3509886e-38
-0.0033467896 -0.078661263 -0.0046788175 2.3509886e-38
-0.0014594039 -0.078030959 -0.0016451795 2.3509886e-38
0.00044127926 -0.078030959 -0.0016451795 2.3509886e-38
0.0023419624 -0.078030959 -0.0016451795 2.3509886e-38
0.0042426456 -0.078030959 -0.0016451795 2.3509886e-38
0.0061433287 -0.078030959 -0.0016451795 2.3509886e-38
0.0079852697 -0.077212036 0.0022963565 2.3509886e-38
0.0098790433 -0.077212036 0.0022963565 2.3509886e-38
0.011717679 -0.076589778 0.0052912515 2.3509886e-38
0.0136062 -0.076589778 0.0052912515 2.3509886e-38
0.015494723 -0.076589778 0.0052912515 2.3509886e-38
0.017383244 -0.076589778 0.0052912515 2.3509886e-38
0.019271765 -0.076589778 0.0052912515 2.3509886e-38
0.021051435 -0.075757593 0.0092965644 2.3509886e-38
0.022932934 -0.075757593 0.0092965644 2.3509886e-38
0.024814432 -0.075757593 0.0092965644 2.3509886e-38
0.026596365 -0.075119838 0.012366084 2.3509886e-38
0.028472485 -0.075119838 0.012366084 2.3509886e-38
0.030242952 -0.074509144 0.015305428 2.3509886e-38
0.032113917 -0.074509144 0.015305428 2.3509886e-38
0.033825368 -0.073669046 0.019348769 2.3509886e-38
0.035689242 -0.073669046 0.019348769 2.3509886e-38
0.037553117 -0.073669046 0.019348769 2.3509886e-38
0.039416991 -0.073669046 0.019348769 2.3509886e-38
0.041140899 -0.073043168 0.022361187 2.3509886e-38
0.042999491 -0.073043168 0.022361187 2.3509886e-38
0.044858083 -0.073043168 0.022361187 2.3509886e-38
0.04656174 -0.072420821 0.025356559 2.3509886e-38
0.04841508 -0.072420821 0.025356559 2.3509886e-38
0.050103925 -0.071801975 0.028335003 2.3509886e-38
0.051952042 -0.071801975 0.028335003 2.3509886e-38
0.053800158 -0.071801975 0.028335003 2.3509886e-38
0.055648275 -0.071801975 0.028335003 2.3509886e-38
0.057496391 -0.071801975 0.028335003 2.3509886e-38
0.059344508 -0.071801975 0.028335003 2.3509886e-38
0.061192632 -0.071801975 0.028335003 2.3509886e-38
0.063040748 -0.071801975 0.028335003 2.3509883e-38
0.064888865 -0.071801975 0.028335003 2.3509883e-38
0.066948481 -0.072420821 0.025356559 2.3418043e-38
0.06880182 -0.072420821 0.025356559 2.350988e-38
0.070878364 -0.073043168 0.022361187 2.0375587e-38
0.072736956 -0.073043168 0.022361187 1.9269957e-38
0.074595548 -0.073043168 0.022361187 2.1759239e-38
0.076694466 -0.073669046 0.019348769 1.899337e-38
0.078558348 -0.073669046 0.019348769 1.4844567e-38
0.080758952 -0.074509144 0.015305428 9.3270426e-41
0.082629927 -0.074509144 0.015305428 1.2003186e-39
-0.087862827 -0.088114753 -0.040701002 5.994511e-39
-0.085893653 -0.088114753 -0.040701002 1.1801038e-38
-0.083924495 -0.088114753 -0.040701002 2.3509883e-38
-0.081955336 -0.088114753 -0.040701002 2.3233652e-38
-0.079986177 -0.088114753 -0.040701002 2.350988e-38
-0.078017019 -0.088114753 -0.040701002 2.350988e-38
-0.07604786 -0.088114753 -0.040701002 2.350988e-38
-0.073844798 -0.087280393 -0.036718816 2.3326208e-38
-0.071882613 -0.087280393 -0.036718816 2.3418045e-38
-0.069920428 -0.087280393 -0.036718816 2.3509886e-38
-0.067958258 -0.087280393 -0.036718816 2.3509886e-38
-0.065996073 -0.087280393 -0.036718816 2.3509886e-38
-0.064033896 -0.087280393 -0.036718816 2.3509886e-38
-0.062071718 -0.087280393 -0.036718816 2.3509886e-38
-0.059920102 -0.086426154 -0.032641739 2.3509886e-38
-0.057965077 -0.086426154 -0.032641739 2.3509886e-38
-0.055883467 -0.085808769 -0.029695125 2.3509886e-38
-0.053933598 -0.085808769 -0.029695125 2.3509886e-38
-0.051824905 -0.084965169 -0.025668832 2.3509886e-38
-0.049882099 -0.084965169 -0.025668832 2.3509886e-38
-0.047830358 -0.084330142 -0.022638055 2.3509886e-38
-0.045892864 -0.084330142 -0.022638055 2.3509886e-38
-0.043955378 -0.084330142 -0.022638055 2.3509886e-38
-0.041895904 -0.083497211 -0.018662663 2.3509886e-38
-0.039965384 -0.083497211 -0.018662663 2.3509886e-38
-0.038034864 -0.083497211 -0.018662663 2.3509886e-38
-0.036104344 -0.083497211 -0.018662663 2.3509886e-38
-0.034173824 -0.083497211 -0.018662663 2.3509886e-38
-0.032243304 -0.083497211 -0.018662663 2.3509886e-38
-0.030312782 -0.083497211 -0.018662663 2.3509886e-38
-0.0283096 -0.082670271 -0.014715882 2.3509886e-38
-0.026386002 -0.082670271 -0.014715882 2.3509886e-38
-0.0244624 -0.082670271 -0.014715882 2.3509886e-38
-0.022538798 -0.082670271 -0.014715882 2.3509886e-38
-0.0206152 -0.082670271 -0.014715882 2.3509886e-38
-0.018661803 -0.08202289 -0.011626096 2.3509886e-38
-0.016743621 -0.08202289 -0.011626096 2.3509886e-38
-0.014825435 -0.08202289 -0.011626096 2.3509886e-38
-0.012889657 -0.08118178 -0.0076117236 2.3509886e-38
-0.010978512 -0.08118178 -0.0076117236 2.3509886e-38
-0.0090673678 -0.08118178 -0.0076117236 2.3509886e-38
-0.0071587935 -0.080567271 -0.0046788175 2.3509886e-38
-0.0052527916 -0.080567271 -0.0046788175 2.3509886e-38
-0.0033467896 -0.080567271 -0.0046788175 2.3509886e-38
-0.0014594039 -0.079931647 -0.0016451795 2.3509886e-38
0.00041018054 -0.079105809 0.0022963565 2.3509886e-38
0.0023039533 -0.079105809 0.0022963565 2.3509886e-38
0.0041977251 -0.079105809 0.0022963565 2.3509886e-38
0.0060914978 -0.079105809 0.0022963565 2.3509886e-38
0.0079852697 -0.079105809 0.0022963565 2.3509886e-38
0.0098790433 -0.079105809 0.0022963565 2.3509886e-38
0.011717679 -0.078478307 0.0052912515 2.3509886e-38
0.0136062 -0.078478307 0.0052912515 2.3509886e-38
0.015494723 -0.078478307 0.0052912515 2.3509886e-38
0.017383244 -0.078478307 0.0052912515 2.3509886e-38
0.019271765 -0.078478307 0.0052912515 2.3509886e-38
0.021051435 -0.077639103 0.0092965644 2.3509886e-38
0.022932934 -0.077639103 0.0092965644 2.3509886e-38
0.024814432 -0.077639103 0.0092965644 2.3509886e-38
0.026596365 -0.076995969 0.012366084 2.3509886e-38
0.028472485 -0.076995969 0.012366084 2.3509886e-38
0.030242952 -0.076380104 0.015305428 2.3509886e-38
0.032113917 -0.076380104 0.015305428 2.3509886e-38
0.033984877 -0.076380104 0.015305428 2.3509886e-38
0.035689242 -0.075532928 0.019348769 2.3509886e-38
0.037553117 -0.075532928 0.019348769 2.3509886e-38
0.039416991 -0.075532928 0.019348769 2.3509886e-38
0.041140899 -0.07490176 0.022361187 2.3509886e-38
0.042999491 -0.07490176 0.022361187 2.3509886e-38
0.044858083 -0.07490176 0.022361187 2.3509886e-38
0.04656174 -0.074274153 0.025356559 2.3509886e-38
0.04841508 -0.074274153 0.025356559 2.3509886e-38
0.050103925 -0.073650107 0.028335003 2.3509886e-38
0.051952042 -0.073650107 0.028335003 2.3509886e-38
0.053800158 -0.073650107 0.028335003 2.3509886e-38
0.055648275 -0.073650107 0.028335003 2.3509886e-38
0.057496391 -0.073650107 0.028335003 2.3509886e-38
0.059344508 -0.073650107 0.028335003 2.3509886e-38
0.061192632 -0.073650107 0.028335003 2.3509886e-38
0.063040748 -0.073650107 0.028335003 2.3509883e-38
0.064888865 -0.073650107 0.028335003 2.3509883e-38
0.066948481 -0.074274153 0.025356559 2.3418043e-38
0.06880182 -0.074274153 0.025356559 2.3509879e-38
0.070878364 -0.07490176 0.022361187 1.945363e-38
0.072736956 -0.07490176 0.022361187 1.9084847e-38
0.074595548 -0.07490176 0.022361187 2.1850716e-38
0.076694466 -0.075532928 0.019348769 1.9269954e-38
0.078887992 -0.076380104 0.015305428 1.6318975e-38
0.080758952 -0.076380104 0.015305428 9.2911693e-41
0.082629927 -0.076380104 0.015305428 1.1074069e-39
-0.087862827 -0.090083912 -0.040701002 6.4554892e-39
-0.085893653 -0.090083912 -0.040701002 1.4013733e-38
-0.083924495 -0.090083912 -0.040701002 2.3509883e-38
-0.081955336 -0.090083912 -0.040701002 2.3509883e-38
-0.079986177 -0.090083912 -0.040701002 2.2864513e-38
-0.077769153 -0.089242578 -0.036718816 2.350988e-38
-0.075806968 -0.089242578 -0.036718816 2.3418043e-38
-0.073844798 -0.089242578 -0.036718816 2.3418045e-38
-0.071882613 -0.089242578 -0.036718816 2.3418045e-38
-0.069920428 -0.089242578 -0.036718816 2.3509886e-38
-0.067958258 -0.089242578 -0.036718816 2.3509886e-38
-0.065996073 -0.089242578 -0.036718816 2.3509886e-38
-0.06383016 -0.088381186 -0.032641739 2.3509886e-38
-0.061875135 -0.088381186 -0.032641739 2.3509886e-38
-0.059920102 -0.088381186 -0.032641739 2.3509886e-38
-0.057833329 -0.087758631 -0.029695125 2.3509886e-38
-0.055883467 -0.087758631 -0.029695125 2.3509886e-38
-0.053767703 -0.086907968 -0.025668832 2.3509886e-38
-0.051705338 -0.086267635 -0.022638055 2.3509886e-38
-0.049767844 -0.086267635 -0.022638055 2.3509886e-38
-0.047830358 -0.086267635 -0.022638055 2.3509886e-38
-0.045756944 -0.085427731 -0.018662663 2.3509886e-38
-0.043826424 -0.085427731 -0.018662663 2.3509886e-38
-0.041895904 -0.085427731 -0.018662663 2.3509886e-38
-0.039965384 -0.085427731 -0.018662663 2.3509886e-38
-0.038034864 -0.085427731 -0.018662663 2.3509886e-38
-0.036104344 -0.085427731 -0.018662663 2.3509886e-38
-0.034080401 -0.084593862 -0.014715882 2.3509886e-38
-0.032156803 -0.084593862 -0.014715882 2.3509886e-38
-0.030233203 -0.084593862 -0.014715882 2.3509886e-38
-0.0283096 -0.084593862 -0.014715882 2.3509886e-38
-0.026386002 -0.084593862 -0.014715882 2.3509886e-38
-0.0244624 -0.084593862 -0.014715882 2.3509886e-38
-0.02249817 -0.083941072 -0.011626096 2.3509886e-38
-0.020579988 -0.083941072 -0.011626096 2.3509886e-38
-0.018661803 -0.083941072 -0.011626096 2.3509886e-38
-0.016743621 -0.083941072 -0.011626096 2.3509886e-38
-0.014825435 -0.083941072 -0.011626096 2.3509886e-38
-0.012889657 -0.083092928 -0.0076117236 2.3509886e-38
-0.010978512 -0.083092928 -0.0076117236 2.3509886e-38
-0.0090673678 -0.083092928 -0.0076117236 2.3509886e-38
-0.0071587935 -0.082473263 -0.0046788175 2.3509886e-38
-0.0052527916 -0.082473263 -0.0046788175 2.3509886e-38
-0.0033600871 -0.081832334 -0.0016451795 2.3509886e-38
-0.0014835913 -0.080999583 0.0022963565 2.3509886e-38
0.00041018054 -0.080999583 0.0022963565 2.3509886e-38
0.0023039533 -0.080999583 0.0022963565 2.3509886e-38
0.0041977251 -0.080999583 0.0022963565 2.3509886e-38
0.0060914978 -0.080999583 0.0022963565 2.3509886e-38
0.0079852697 -0.080999583 0.0022963565 2.3509886e-38
0.0098790433 -0.080999583 0.0022963565 2.3509886e-38
0.011717679 -0.08036682 0.0052912515 2.3509886e-38
0.0136062 -0.08036682 0.0052912515 2.3509886e-38
0.015494723 -0.08036682 0.0052912515 2.3509886e-38
0.017383244 -0.08036682 0.0052912515 2.3509886e-38
0.019271765 -0.08036682 0.0052912515 2.3509886e-38
0.021160286 -0.08036682 0.0052912515 2.3509886e-38
0.023048807 -0.08036682 0.0052912515 2.3509886e-38
0.024814432 -0.079520598 0.0092965644 2.3509886e-38
0.026596365 -0.078872085 0.012366084 2.3509886e-38
0.028472485 -0.078872085 0.012366084 2.3509886e-38
0.030242952 -0.078251064 0.015305428 2.3509886e-38
0.032113917 -0.078251064 0.015305428 2.3509886e-38
0.033984877 -0.078251064 0.015305428 2.3509886e-38
0.035855837 -0.078251064 0.015305428 2.3509886e-38
0.037553117 -0.077396795 0.019348769 2.3509886e-38
0.039416991 -0.077396795 0.019348769 2.3509886e-38
0.041280866 -0.077396795 0.019348769 2.3509886e-38
0.042999491 -0.076760352 0.022361187 2.3509886e-38
0.044858083 -0.076760352 0.022361187 2.3509886e-38
0.04656174 -0.076127499 0.025356559 2.3509886e-38
0.04841508 -0.076127499 0.025356559 2.3509886e-38
0.050103925 -0.075498223 0.028335003 2.3509886e-38
0.051952042 -0.075498223 0.028335003 2.3509886e-38
0.053562008 -0.074641585 0.032389551 2.3509886e-38
0.055403017 -0.074641585 0.032389551 2.3509886e-38
0.057496391 -0.075498223 0.028335003 2.3509886e-38
0.059344508 -0.075498223 0.028335003 2.3509886e-38
0.061192632 -0.075498223 0.028335003 2.3509886e-38
0.063040748 -0.075498223 0.028335003 2.3509883e-38
0.064888865 -0.075498223 0.028335003 2.3509883e-38
0.066948481 -0.076127499 0.025356559 2.350988e-38
0.069019772 -0.076760352 0.022361187 2.3509879e-38
0.071102843 -0.077396795 0.019348769 1.9084847e-38
0.072966717 -0.077396795 0.019348769 1.917704e-38
0.074830592 -0.077396795 0.019348769 2.2219496e-38
0.076694466 -0.077396795 0.019348769 2.1574126e-38
0.078887992 -0.078251064 0.015305428 1.6963985e-38
0.080758952 -0.078251064 0.015305428 4.6097114e-40
0.082629927 -0.078251064 0.015305428 1.8474719e-40
-0.088076226 -0.092693284 -0.043706268 7.1919752e-39
-0.086101793 -0.092693284 -0.043706268 1.5673254e-38
-0.083924495 -0.092053071 -0.040701002 2.3233296e-38
-0.081955336 -0.092053071 -0.040701002 2.3509883e-38
-0.079986177 -0.092053071 -0.040701002 2.2956709e-38
