# .PCD v0.7 - Point Cloud Data file format
VERSION 0.7
FIELDS x y z rgb
SIZE 4 4 4 4
TYPE F F F F
COUNT 1 1 1 1
WIDTH 965
HEIGHT 1
VIEWPOINT 0 0 0 1 0 0 0
POINTS 965
DATA ascii
-0.061510243 -0.13890465 -0.026212864 7.3685178e-40
-0.059276111 -0.13648613 -0.017226629 1.2900228e-39
-0.057427987 -0.13648613 -0.017226629 4.6026209e-40
-0.055427022 -0.13539489 -0.013172083 4.5953902e-40
-0.053586014 -0.13539489 -0.013172083 1.0127128e-39
-0.051644519 -0.13460387 -0.010232978 1.2892997e-39
-0.049710363 -0.13378824 -0.007202439 9.2051436e-40
-0.047787368 -0.13297729 -0.004189305 7.3612591e-40
-0.045875445 -0.13217102 -0.0011935756 8.2939773e-40
-0.044055432 -0.13217102 -0.0011935756 1.1067007e-39
-0.042235427 -0.13217102 -0.0011935756 9.2302689e-40
-0.040415421 -0.13217102 -0.0011935756 7.3863563e-40
-0.038509235 -0.13111271 0.0027386621 4.6204874e-40
-0.036634393 -0.13028879 0.0058000758 5.5424437e-40
-0.034716845 -0.12868352 0.011764593 1.0152225e-39
-0.032869451 -0.12787388 0.01477284 1.0152225e-39
-0.031032866 -0.12706901 0.017763443 7.3863563e-40
-0.029207001 -0.12626885 0.020736523 9.2302689e-40
-0.027425444 -0.12626885 0.020736523 1.1074182e-39
-0.025614405 -0.12544595 0.023794003 9.2302689e-40
-0.023838209 -0.12544595 0.023794003 4.6204874e-40
-0.022043364 -0.12462802 0.026833124 3.6985311e-40
-0.020259695 -0.12384202 0.029753633 4.6204874e-40
-0.018486051 -0.12303366 0.032757111 5.5352551e-40
-0.01672557 -0.12303366 0.032757111 1.8474719e-40
-0.014967708 -0.1222301 0.035742827 0
-0.013220528 -0.12140475 0.038809426 1.8439126e-40
-0.01149687 -0.1197954 0.044789083 8.2976067e-40
-0.0097574871 -0.1197954 0.044789083 1.2914577e-39
-0.0080418643 -0.11898489 0.047800608 1.1070664e-39
-0.0063077603 -0.11898489 0.047800608 2.7730576e-40
-0.0045967884 -0.11843865 0.049830265 3.5873241e-43
-0.0029054433 -0.11763634 0.052811272 3.5873241e-43
-0.001224285 -0.11683889 0.055774339 8.2976067e-40
0.00044520199 -0.11602069 0.058814354 7.3756504e-40
0.0021599941 -0.11602069 0.058814354 7.3756504e-40
0.0037740972 -0.1146767 0.063808091 7.3756504e-40
0.005414594 -0.11387186 0.066798516 8.290418e-40
0.0071153883 -0.11387186 0.066798516 8.290418e-40
0.0088161826 -0.11387186 0.066798516 8.290418e-40
0.010516975 -0.11387186 0.066798516 8.2904461e-40
0.012131784 -0.11307193 0.069770701 1.3825827e-39
0.013827367 -0.11307193 0.069770701 2.5814888e-39
0.015522951 -0.11307193 0.069770701 2.028671e-39
0.017218532 -0.11307193 0.069770701 3.6914966e-40
0.019020947 -0.11387186 0.066798516 5.6051939e-45
0.020721739 -0.11387186 0.066798516 1.84757e-40
0.022422532 -0.11387186 0.066798516 1.847542e-40
0.024123328 -0.11387186 0.066798516 4.6134109e-40
0.026041357 -0.11523293 0.061741419 4.6097815e-40
0.027751019 -0.11523293 0.061741419 7.3684617e-40
0.029460678 -0.11523293 0.061741419 6.4500647e-40
0.03117034 -0.11523293 0.061741419 5.5173044e-40
0.033026263 -0.11602069 0.058814354 6.4356594e-40
0.034741059 -0.11602069 0.058814354 1.1956579e-39
0.036618419 -0.11683889 0.055774339 1.1956593e-39
0.038338542 -0.11683889 0.055774339 1.0112681e-39
0.040058665 -0.11683889 0.055774339 2.2090952e-39
0.041952834 -0.11763634 0.052811272 2.3934864e-39
0.043858469 -0.11843865 0.049830265 2.3934864e-39
0.045715347 -0.11898489 0.047800608 1.9328684e-39
0.047449455 -0.11898489 0.047800608 1.4718903e-39
0.049183555 -0.11898489 0.047800608 1.1963852e-39
0.050917663 -0.11898489 0.047800608 1.5651677e-39
0.052651763 -0.11898489 0.047800608 1.8424735e-39
0.054599717 -0.1197954 0.044789083 9.1835496e-41
0.0563391 -0.1197954 0.044789083 9.1835496e-41
0.058078483 -0.1197954 0.044789083 2.7658689e-40
0.060048953 -0.12061088 0.0417592 6.4536661e-40
0.062023804 -0.12140475 0.038809426 4.6169421e-40
0.064018317 -0.1222301 0.035742827 9.2911693e-41
0.065773562 -0.1222301 0.035742827 7.1746481e-43
0.067777462 -0.12303366 0.032757111 1.8510732e-40
0.069537945 -0.12303366 0.032757111 6.4536661e-40
0.071559094 -0.12384202 0.029753633 2.7658689e-40
0.073852532 -0.12544595 0.023794003 0
0.07562872 -0.12544595 0.023794003 0
0.077686362 -0.12626885 0.020736523 2.8025969e-45
0.079467915 -0.12626885 0.020736523 2.7658969e-40
0.081533559 -0.12706901 0.017763443 2.7658969e-40
0.083320327 -0.12706901 0.017763443 1.8439406e-40
0.085107096 -0.12706901 0.017763443 2.8025969e-45
0.086893879 -0.12706901 0.017763443 2.8025969e-45
0.088680647 -0.12706901 0.017763443 2.7658689e-40
0.090467416 -0.12706901 0.017763443 2.7658689e-40
0.092254184 -0.12706901 0.017763443 7.3756224e-40
0.093720354 -0.12626885 0.020736523 6.4536661e-40
0.095501922 -0.12626885 0.020736523 1.7520701e-39
0.097283475 -0.12626885 0.020736523 6.2689371e-39
0.099065028 -0.12626885 0.020736523 6.8210347e-39
-0.086056747 -0.1499963 -0.060277514 2.7765888e-40
-0.083940841 -0.1491593 -0.057187729 1.793662e-42
-0.081779815 -0.14807184 -0.053173356 1.4349296e-42
-0.079696409 -0.14727734 -0.05024045 9.3987891e-41
-0.077617534 -0.14645557 -0.047206812 7.382783e-40
-0.075716861 -0.14645557 -0.047206812 8.2976347e-40
-0.073605396 -0.14538784 -0.043265276 8.2940894e-40
-0.07155671 -0.14457656 -0.040270381 9.2160317e-40
-0.069668196 -0.14457656 -0.040270381 9.2160317e-40
-0.067586549 -0.14349155 -0.036265068 8.2940754e-40
-0.065562434 -0.14266007 -0.033195548 7.3721191e-40
-0.06355489 -0.14186381 -0.030256204 8.2904741e-40
-0.061510243 -0.14076851 -0.026212864 7.3685178e-40
-0.059398822 -0.13914107 -0.020205073 5.5245772e-40
-0.057427987 -0.13833423 -0.017226629 9.1838299e-41
-0.055427022 -0.13723589 -0.013172083 2.7550929e-40
-0.053586014 -0.13723589 -0.013172083 9.2016124e-40
-0.051644519 -0.13643973 -0.010232978 1.2889438e-39
-0.049710363 -0.13561879 -0.007202439 1.0127128e-39
-0.047787368 -0.13480256 -0.004189305 8.2796561e-40
-0.045875445 -0.13399105 -0.0011935756 8.290418e-40
-0.044055432 -0.13399105 -0.0011935756 1.0148652e-39
-0.042235427 -0.13399105 -0.0011935756 4.6276901e-40
-0.040415421 -0.13399105 -0.0011935756 2.7837775e-40
-0.038509235 -0.13292582 0.0027386621 4.6276901e-40
-0.036575139 -0.13130049 0.008738704 8.3083126e-40
-0.034716845 -0.13048081 0.011764593 7.3863563e-40
-0.032869451 -0.1296659 0.01477284 7.3863563e-40
-0.031032866 -0.12885578 0.017763443 9.2302689e-40
-0.029207001 -0.1280504 0.020736523 1.0152225e-39
-0.027425444 -0.1280504 0.020736523 1.1996138e-39
-0.025614405 -0.12722217 0.023794003 1.1066993e-39
-0.023838209 -0.12722217 0.023794003 7.3791676e-40
-0.022043364 -0.12639888 0.026833124 5.5352551e-40
-0.020259695 -0.12560774 0.029753633 6.4572113e-40
-0.018486051 -0.12479414 0.032757111 4.6132988e-40
-0.016722953 -0.12398534 0.035742827 2.7694142e-40
-0.014967708 -0.12398534 0.035742827 3.6806365e-40
-0.013228286 -0.12235557 0.0417592 2.7658969e-40
-0.01149687 -0.12153481 0.044789083 4.6098095e-40
-0.0097574871 -0.12153481 0.044789083 7.3756784e-40
-0.0080418643 -0.120719 0.047800608 5.5353672e-40
-0.0063273329 -0.12016918 0.049830265 1.847542e-40
-0.0045967884 -0.12016918 0.049830265 9.2558566e-41
-0.0029054433 -0.11936165 0.052811272 2.7694983e-40
-0.001224285 -0.11855899 0.055774339 7.3792798e-40
0.00044520199 -0.11773549 0.058814354 7.3792798e-40
0.0021599941 -0.11773549 0.058814354 9.219591e-40
0.0037740972 -0.11638273 0.063808091 9.219591e-40
0.005414594 -0.11557265 0.066798516 9.2124024e-40
0.0071153883 -0.11557265 0.066798516 8.2904461e-40
0.0087406188 -0.11476754 0.069770701 7.3684898e-40
0.010436201 -0.11476754 0.069770701 6.4465335e-40
0.012131784 -0.11476754 0.069770701 1.6591696e-39
0.013827367 -0.11476754 0.069770701 2.6733215e-39
0.015522951 -0.11476754 0.069770701 2.0279521e-39
0.017218532 -0.11476754 0.069770701 4.6062642e-40
0.019020947 -0.11557265 0.066798516 5.6051939e-45
0.020721739 -0.11557265 0.066798516 1.8403813e-40
0.022422532 -0.11557265 0.066798516 1.8439406e-40
0.024123328 -0.11557265 0.066798516 3.6878532e-40
0.026041357 -0.11694257 0.061741419 5.5245491e-40
0.027751019 -0.11694257 0.061741419 9.2123743e-40
0.029460678 -0.11694257 0.061741419 9.2159336e-40
0.03117034 -0.11694257 0.061741419 4.5953621e-40
0.033026263 -0.11773549 0.058814354 2.7550649e-40
0.034741059 -0.11773549 0.058814354 3.6734198e-40
0.036618419 -0.11855899 0.055774339 7.3540424e-40
0.038338542 -0.11855899 0.055774339 1.1041868e-39
0.040058665 -0.11855899 0.055774339 1.9328684e-39
0.041952834 -0.11936165 0.052811272 2.1172597e-39
0.043858469 -0.12016918 0.049830265 1.8406756e-39
0.045715347 -0.120719 0.047800608 8.2760267e-40
0.047449455 -0.120719 0.047800608 7.3540704e-40
0.049183555 -0.120719 0.047800608 1.1045525e-39
0.050917663 -0.120719 0.047800608 1.2889438e-39
0.052651763 -0.120719 0.047800608 1.1045525e-39
0.054599717 -0.12153481 0.044789083 9.1838299e-41
0.0563391 -0.12153481 0.044789083 9.1838299e-41
0.058078483 -0.12153481 0.044789083 4.6098095e-40
0.060048953 -0.12235557 0.0417592 9.219563e-40
0.062023804 -0.12315463 0.038809426 7.3828391e-40
0.064018317 -0.12398534 0.035742827 2.7730576e-40
0.065773562 -0.12398534 0.035742827 7.1746481e-43
0.067528807 -0.12398534 0.035742827 7.1746481e-43
0.069537945 -0.12479414 0.032757111 5.5317378e-40
0.071559094 -0.12560774 0.029753633 3.6878532e-40
0.073852532 -0.12722217 0.023794003 9.2198432e-41
0.07562872 -0.12722217 0.023794003 2.8025969e-45
0.077686362 -0.1280504 0.020736523 2.8025969e-45
0.079467915 -0.1280504 0.020736523 1.8439406e-40
0.081533559 -0.12885578 0.017763443 5.5317658e-40
0.083320327 -0.12885578 0.017763443 7.3756784e-40
0.085107096 -0.12885578 0.017763443 2.7658689e-40
0.086893879 -0.12885578 0.017763443 0
0.088680647 -0.12885578 0.017763443 2.7658689e-40
0.090467416 -0.12885578 0.017763443 9.219563e-41
0.092254184 -0.12885578 0.017763443 5.5317098e-40
0.094040953 -0.12885578 0.017763443 4.6097535e-40
0.095501922 -0.1280504 0.020736523 1.4751273e-39
0.097283475 -0.1280504 0.020736523 5.9001574e-39
0.099065028 -0.1280504 0.020736523 6.6366434e-39
-0.081779815 -0.14998297 -0.053173356 1.793662e-42
-0.079696409 -0.14918335 -0.05024045 1.8618352e-40
-0.077617534 -0.14835624 -0.047206812 5.5496884e-40
-0.075716861 -0.14835624 -0.047206812 1.0145149e-39
-0.073605396 -0.1472816 -0.043265276 1.0137988e-39
-0.07155671 -0.14646508 -0.040270381 1.0137988e-39
-0.069668196 -0.14646508 -0.040270381 9.2160317e-40
-0.067586549 -0.14537306 -0.036265068 7.3721191e-40
-0.065562434 -0.14453618 -0.033195548 5.5282065e-40
-0.06355489 -0.14373477 -0.030256204 4.6026489e-40
-0.061510243 -0.14263238 -0.026212864 3.6806926e-40
-0.059522249 -0.14181106 -0.023200445 3.6806646e-40
-0.057427987 -0.14018236 -0.017226629 9.1838299e-41
-0.055579871 -0.14018236 -0.017226629 2.7550929e-40
-0.053586014 -0.1390769 -0.013172083 7.3576998e-40
-0.051644519 -0.13827558 -0.010232978 1.1045525e-39
-0.049710363 -0.13744931 -0.007202439 1.0123569e-39
-0.047787368 -0.13662781 -0.004189305 9.2016404e-40
-0.045875445 -0.13581105 -0.0011935756 9.2124024e-40
-0.044055432 -0.13581105 -0.0011935756 9.2267236e-40
-0.042235427 -0.13581105 -0.0011935756 1.793662e-42
-0.040415421 -0.13581105 -0.0011935756 1.4349296e-42
-0.038509235 -0.13473894 0.0027386621 5.5496604e-40
-0.036575139 -0.13310309 0.008738704 8.3047393e-40
-0.034716845 -0.1322781 0.011764593 2.7730015e-40
-0.032869451 -0.13145791 0.01477284 2.7730015e-40
-0.031032866 -0.13064255 0.017763443 1.0148652e-39
-0.029207001 -0.12983195 0.020736523 8.3047393e-40
-0.027425444 -0.12983195 0.020736523 9.2266956e-40
-0.025643887 -0.12983195 0.020736523 1.0145051e-39
-0.023838209 -0.12899835 0.023794003 8.301138e-40
-0.022043364 -0.12816976 0.026833124 8.301138e-40
-0.020259695 -0.1273735 0.029753633 7.3791817e-40
-0.018486051 -0.12655462 0.032757111 7.3791817e-40
-0.016722953 -0.12574057 0.035742827 5.5317098e-40
-0.014970396 -0.1249045 0.038809426 9.2123743e-40
-0.013228286 -0.12410025 0.0417592 5.5245772e-40
-0.01149687 -0.12327419 0.044789083 2.7587083e-40
-0.0097574871 -0.12327419 0.044789083 2.7658969e-40
-0.0080418643 -0.12245311 0.047800608 1.847542e-40
-0.0063273329 -0.12189974 0.049830265 9.2558566e-41
-0.0045967884 -0.12189974 0.049830265 3.6914546e-40
-0.0029054433 -0.12108697 0.052811272 8.3012361e-40
-0.001224285 -0.12027912 0.055774339 6.4573235e-40
0.00044520199 -0.11945029 0.058814354 7.3792798e-40
0.0021599941 -0.11945029 0.058814354 9.219591e-40
0.0037740972 -0.11808877 0.063808091 9.219591e-40
0.005414594 -0.11727346 0.066798516 9.2124024e-40
0.0071153883 -0.11727346 0.066798516 7.3684898e-40
0.0087406188 -0.11646311 0.069770701 4.6026209e-40
0.010436201 -0.11646311 0.069770701 3.6806646e-40
0.012131784 -0.11646311 0.069770701 1.3822212e-39
0.013827367 -0.11646311 0.069770701 2.3045376e-39
0.015522951 -0.11646311 0.069770701 1.842842e-39
0.017218532 -0.11646311 0.069770701 4.6062502e-40
0.019020947 -0.11727346 0.066798516 2.7587363e-40
0.020721739 -0.11727346 0.066798516 1.8403813e-40
0.022422532 -0.11727346 0.066798516 2.8025969e-45
0.024123328 -0.11727346 0.066798516 1.8439406e-40
0.026041357 -0.11865224 0.061741419 1.8367239e-40
0.027751019 -0.11865224 0.061741419 5.5245491e-40
0.029460678 -0.11865224 0.061741419 5.5245491e-40
0.031311475 -0.11945029 0.058814354 1.8402972e-40
0.033026263 -0.11945029 0.058814354 9.1835496e-41
0.034741059 -0.11945029 0.058814354 9.1835496e-41
0.036618419 -0.12027912 0.055774339 3.6806365e-40
0.038338542 -0.12027912 0.055774339 1.01271e-39
0.040058665 -0.12027912 0.055774339 2.7550649e-40
0.041952834 -0.12108697 0.052811272 1.2892969e-39
0.043858469 -0.12189974 0.049830265 1.6573633e-39
0.045589015 -0.12189974 0.049830265 1.0127128e-39
0.047449455 -0.12245311 0.047800608 9.2016124e-40
0.049183555 -0.12245311 0.047800608 1.473335e-39
0.050917663 -0.12245311 0.047800608 1.2889466e-39
0.052651763 -0.12245311 0.047800608 5.5138152e-40
0.054385871 -0.12245311 0.047800608 3.6806926e-40
0.0563391 -0.12327419 0.044789083 3.6806926e-40
0.058078483 -0.12327419 0.044789083 4.6062502e-40
0.060048953 -0.12410025 0.0417592 4.6098095e-40
0.062023804 -0.1249045 0.038809426 3.6914546e-40
0.063773669 -0.1249045 0.038809426 2.7730576e-40
0.065523542 -0.1249045 0.038809426 3.6949858e-40
0.067528807 -0.12574057 0.035742827 5.5389265e-40
0.069537945 -0.12655462 0.032757111 8.2976347e-40
0.071559094 -0.1273735 0.029753633 8.2976347e-40
0.073852532 -0.12899835 0.023794003 7.3756784e-40
0.075904794 -0.12983195 0.020736523 4.6098095e-40
0.077686362 -0.12983195 0.020736523 1.8439406e-40
0.079467915 -0.12983195 0.020736523 9.2198432e-41
0.081533559 -0.13064255 0.017763443 4.6098095e-40
0.083320327 -0.13064255 0.017763443 7.3756504e-40
0.085107096 -0.13064255 0.017763443 5.5317378e-40
0.086893879 -0.13064255 0.017763443 1.8439126e-40
0.088680647 -0.13064255 0.017763443 1.8439126e-40
0.090467416 -0.13064255 0.017763443 0
0.092254184 -0.13064255 0.017763443 1.8438846e-40
0.094040953 -0.13064255 0.017763443 0
0.095827721 -0.13064255 0.017763443 7.3756224e-40
0.097614489 -0.13064255 0.017763443 4.9782011e-39
0.099401258 -0.13064255 0.017763443 5.8990784e-39
-0.077392936 -0.14917539 -0.043265276 3.7057758e-40
-0.07549917 -0.14917539 -0.043265276 8.3012361e-40
-0.073605396 -0.14917539 -0.043265276 8.2976347e-40
-0.07155671 -0.14835359 -0.040270381 8.2976347e-40
-0.069668196 -0.14835359 -0.040270381 7.3756784e-40
-0.067586549 -0.14725454 -0.036265068 5.5317658e-40
-0.065562434 -0.1464123 -0.033195548 4.6098095e-40
-0.06355489 -0.14560573 -0.030256204 3.6806926e-40
-0.061510243 -0.14449625 -0.026212864 2.7587363e-40
-0.059522249 -0.14366965 -0.023200445 6.4465615e-40
-0.057427987 -0.14203046 -0.017226629 3.6806926e-40
-0.055579871 -0.14203046 -0.017226629 4.5918589e-40
-0.053586014 -0.14091791 -0.013172083 6.4357715e-40
-0.051644519 -0.14011143 -0.010232978 8.2796841e-40
-0.049710363 -0.13927986 -0.007202439 9.2016404e-40
-0.047787368 -0.13845308 -0.004189305 1.0123611e-39
-0.045875445 -0.13763104 -0.0011935756 1.1056343e-39
-0.044055432 -0.13763104 -0.0011935756 6.4681135e-40
-0.042235427 -0.13763104 -0.0011935756 1.4377322e-42
-0.040415421 -0.13763104 -0.0011935756 1.0789998e-42
-0.038509235 -0.13655205 0.0027386621 6.4680854e-40
-0.036634393 -0.13571201 0.0058000758 6.4680854e-40
-0.034772553 -0.13490568 0.008738704 7.1886611e-43
-0.032869451 -0.13324992 0.01477284 9.2914496e-41
-0.031077435 -0.13324992 0.01477284 9.2267516e-40
-0.029246097 -0.13242932 0.017763443 8.3047953e-40
-0.027425444 -0.13161351 0.020736523 7.3828391e-40
-0.025643887 -0.13161351 0.020736523 9.219563e-40
-0.023838209 -0.13077454 0.023794003 1.0141519e-39
-0.022043364 -0.12994061 0.026833124 1.0134331e-39
-0.020259695 -0.12913923 0.029753633 8.290418e-40
-0.018486051 -0.12831511 0.032757111 7.3684617e-40
-0.016722953 -0.12749584 0.035742827 7.3684617e-40
-0.014970396 -0.12665437 0.038809426 7.3576998e-40
-0.013228286 -0.12584494 0.0417592 4.6026209e-40
-0.01149687 -0.12501357 0.044789083 6.4465335e-40
-0.0097574871 -0.12501357 0.044789083 9.219591e-40
-0.0080418643 -0.12418722 0.047800608 8.3012361e-40
-0.0063077603 -0.12418722 0.047800608 5.5353672e-40
-0.0045967884 -0.12363027 0.049830265 1.858332e-40
-0.0029054433 -0.12281232 0.052811272 2.7802883e-40
-0.001224285 -0.12199925 0.055774339 1.858332e-40
0.00044520199 -0.12116508 0.058814354 2.7802883e-40
0.0021599941 -0.12116508 0.058814354 6.4573235e-40
0.0037740972 -0.1197948 0.063808091 7.3792798e-40
0.005414594 -0.11897425 0.066798516 7.3756784e-40
0.0071153883 -0.11897425 0.066798516 5.5317658e-40
0.0087406188 -0.11815868 0.069770701 3.6806646e-40
0.010436201 -0.11815868 0.069770701 1.836752e-40
0.012131784 -0.11815868 0.069770701 6.4465335e-40
0.013827367 -0.11815868 0.069770701 1.6588053e-39
0.015522951 -0.11815868 0.069770701 1.6577291e-39
0.017320151 -0.11897425 0.066798516 5.5245772e-40
0.019020947 -0.11897425 0.066798516 6.4357435e-40
0.020721739 -0.11897425 0.066798516 2.7587083e-40
0.022422532 -0.11897425 0.066798516 9.1838299e-41
0.024331698 -0.12036191 0.061741419 9.1838299e-41
0.026041357 -0.12036191 0.061741419 9.1838299e-41
0.027751019 -0.12036191 0.061741419 9.1838299e-41
0.029460678 -0.12036191 0.061741419 9.2198432e-41
0.031311475 -0.12116508 0.058814354 1.8439126e-40
0.033026263 -0.12116508 0.058814354 9.2198432e-41
0.034741059 -0.12116508 0.058814354 0
0.036618419 -0.12199925 0.055774339 2.8025969e-45
0.038338542 -0.12199925 0.055774339 1.8439126e-40
0.040058665 -0.12199925 0.055774339 9.1835496e-41
0.041952834 -0.12281232 0.052811272 7.372021e-40
0.043858469 -0.12363027 0.049830265 1.0127128e-39
0.045589015 -0.12363027 0.049830265 9.1838299e-41
0.047449455 -0.12418722 0.047800608 9.1841101e-41
0.049183555 -0.12418722 0.047800608 4.6026489e-40
0.050917663 -0.12418722 0.047800608 9.2088571e-40
0.052651763 -0.12418722 0.047800608 6.4429882e-40
0.054385871 -0.12418722 0.047800608 1.836794e-40
0.0563391 -0.12501357 0.044789083 1.83678e-40
0.058078483 -0.12501357 0.044789083 9.1842503e-41
0.060048953 -0.12584494 0.0417592 2.8025969e-45
0.062023804 -0.12665437 0.038809426 2.8025969e-45
0.063773669 -0.12665437 0.038809426 0
0.065523542 -0.12665437 0.038809426 2.7658409e-40
0.067777462 -0.12831511 0.032757111 3.6878252e-40
0.069537945 -0.12831511 0.032757111 6.4537221e-40
0.071559094 -0.12913923 0.029753633 8.2940754e-40
0.073852532 -0.13077454 0.023794003 9.2160317e-40
0.07562872 -0.13077454 0.023794003 7.3721191e-40
0.077686362 -0.13161351 0.020736523 2.7658969e-40
0.079467915 -0.13161351 0.020736523 9.2198432e-41
0.081533559 -0.13242932 0.017763443 1.8439126e-40
0.083320327 -0.13242932 0.017763443 3.6878252e-40
0.085107096 -0.13242932 0.017763443 5.5317378e-40
0.086893879 -0.13242932 0.017763443 9.2194229e-41
0.088680647 -0.13242932 0.017763443 9.2194229e-41
0.090467416 -0.13242932 0.017763443 0
0.092254184 -0.13242932 0.017763443 1.8438846e-40
0.094040953 -0.13242932 0.017763443 0
0.095827721 -0.13242932 0.017763443 3.6877972e-40
0.097614489 -0.13242932 0.017763443 4.4250273e-39
0.099401258 -0.13242932 0.017763443 5.3459046e-39
0.10118803 -0.13242932 0.017763443 6.1749464e-39
-0.067586549 -0.14913605 -0.036265068 5.5317658e-40
-0.065562434 -0.14828841 -0.033195548 5.5317658e-40
-0.06355489 -0.14747669 -0.030256204 6.4465615e-40
-0.061510243 -0.14636014 -0.026212864 5.5246052e-40
-0.059522249 -0.14552824 -0.023200445 8.2904741e-40
-0.057427987 -0.14387859 -0.017226629 6.4465615e-40
-0.055427022 -0.14275892 -0.013172083 7.3577278e-40
-0.053586014 -0.14275892 -0.013172083 6.4357715e-40
-0.051644519 -0.14194728 -0.010232978 6.4357855e-40
-0.049710363 -0.14111041 -0.007202439 8.2796981e-40
-0.047787368 -0.14027832 -0.004189305 1.1045567e-39
-0.045875445 -0.13945107 -0.0011935756 1.105277e-39
-0.044055432 -0.13945107 -0.0011935756 6.4645682e-40
-0.042235427 -0.13945107 -0.0011935756 9.4000502e-41
-0.040415421 -0.13945107 -0.0011935756 1.85836e-40
-0.038509235 -0.13836516 0.0027386621 7.3900978e-40
-0.036634393 -0.13751976 0.0058000758 6.4681415e-40
-0.034772553 -0.13670824 0.008738704 1.084605e-42
-0.032919556 -0.13587265 0.011764593 1.84757e-40
-0.031077435 -0.13504194 0.01477284 8.3012641e-40
-0.029246097 -0.13421609 0.017763443 9.2232204e-40
-0.027459329 -0.13421609 0.017763443 8.3012641e-40
-0.025643887 -0.13339506 0.020736523 9.2160317e-40
-0.023838209 -0.13255073 0.023794003 1.0137988e-39
-0.022043364 -0.1317115 0.026833124 1.0134387e-39
-0.020259695 -0.13090499 0.029753633 6.4465615e-40
-0.018486051 -0.13007559 0.032757111 4.6026489e-40
-0.016722953 -0.12925108 0.035742827 5.5246052e-40
-0.014970396 -0.12840421 0.038809426 1.2889466e-39
-0.013220528 -0.12840421 0.038809426 9.2016124e-40
-0.01149687 -0.12675296 0.044789083 6.4357435e-40
-0.0097574871 -0.12675296 0.044789083 6.4465335e-40
-0.0080418643 -0.12592132 0.047800608 6.4537221e-40
-0.0063077603 -0.12592132 0.047800608 4.6134109e-40
-0.0045967884 -0.12536083 0.049830265 3.7022446e-40
-0.0029054433 -0.12453763 0.052811272 5.5461572e-40
-0.001224285 -0.12371938 0.055774339 1.0818024e-42
0.00044520199 -0.12287988 0.058814354 9.3637566e-41
0.0021061078 -0.12207155 0.061741419 4.6134109e-40
0.0037740972 -0.12150083 0.063808091 5.5353672e-40
0.005414594 -0.12067504 0.066798516 6.4537221e-40
0.0071153883 -0.12067504 0.066798516 4.6098095e-40
0.0087406188 -0.11985429 0.069770701 3.6806646e-40
0.010436201 -0.11985429 0.069770701 2.7587083e-40
0.012131784 -0.11985429 0.069770701 4.5918309e-40
0.013827367 -0.11985429 0.069770701 1.3811394e-39
0.015619358 -0.12067504 0.066798516 1.1967481e-39
0.017320151 -0.12067504 0.066798516 6.4357435e-40
0.019020947 -0.12067504 0.066798516 6.4357435e-40
0.020721739 -0.12067504 0.066798516 4.5918309e-40
0.022422532 -0.12067504 0.066798516 2.7550929e-40
0.024331698 -0.12207155 0.061741419 9.1838299e-41
0.026041357 -0.12207155 0.061741419 3.6806646e-40
0.027751019 -0.12207155 0.061741419 9.1838299e-41
0.029460678 -0.12207155 0.061741419 2.8025969e-45
0.031311475 -0.12287988 0.058814354 3.6878532e-40
0.033026263 -0.12287988 0.058814354 4.6098095e-40
0.034741059 -0.12287988 0.058814354 9.2558566e-41
0.036618419 -0.12371938 0.055774339 2.8025969e-45
0.038338542 -0.12371938 0.055774339 2.8025969e-45
0.04022751 -0.12453763 0.052811272 0
0.041952834 -0.12453763 0.052811272 6.4536941e-40
0.043858469 -0.12536083 0.049830265 9.2124024e-40
0.045715347 -0.12592132 0.047800608 2.7587083e-40
0.047449455 -0.12592132 0.047800608 9.1841101e-41
0.049183555 -0.12592132 0.047800608 9.1841101e-41
0.050917663 -0.12592132 0.047800608 3.6771193e-40
0.052651763 -0.12592132 0.047800608 2.755163e-40
0.054599717 -0.12675296 0.044789083 9.1842503e-41
0.0563391 -0.12675296 0.044789083 1.836794e-40
0.058078483 -0.12675296 0.044789083 1.8403953e-40
0.060048953 -0.12758966 0.0417592 5.6051939e-45
0.062263072 -0.12925108 0.035742827 2.8025969e-45
0.064018317 -0.12925108 0.035742827 2.8025969e-45
0.065773562 -0.12925108 0.035742827 0
0.067777462 -0.13007559 0.032757111 0
0.069537945 -0.13007559 0.032757111 5.6051939e-45
0.071559094 -0.13090499 0.029753633 2.7623376e-40
0.073852532 -0.13255073 0.023794003 4.6062502e-40
0.07562872 -0.13255073 0.023794003 4.6062502e-40
0.077686362 -0.13339506 0.020736523 1.8439406e-40
0.079467915 -0.13339506 0.020736523 2.8025969e-45
0.081533559 -0.13421609 0.017763443 0
0.083320327 -0.13421609 0.017763443 1.8439126e-40
0.085107096 -0.13421609 0.017763443 2.7658409e-40
0.087195374 -0.13504194 0.01477284 0
0.088987388 -0.13504194 0.01477284 9.2194229e-41
0.090779401 -0.13504194 0.01477284 0
0.092571415 -0.13504194 0.01477284 3.6877972e-40
0.094363429 -0.13504194 0.01477284 0
0.095827721 -0.13421609 0.017763443 3.6877972e-40
0.097614489 -0.13421609 0.017763443 4.4250273e-39
0.099401258 -0.13421609 0.017763443 5.253709e-39
0.10118803 -0.13421609 0.017763443 6.0827508e-39
-0.06355489 -0.14934768 -0.030256204 7.3685178e-40
-0.061510243 -0.14822401 -0.026212864 7.3685178e-40
-0.059522249 -0.14738683 -0.023200445 6.4429882e-40
-0.057427987 -0.1457267 -0.017226629 6.4429882e-40
-0.055427022 -0.14459993 -0.013172083 8.2796981e-40
-0.053586014 -0.14459993 -0.013172083 7.3577418e-40
-0.051644519 -0.14378314 -0.010232978 7.3541825e-40
-0.049710363 -0.14294095 -0.007202439 8.2761388e-40
-0.047787368 -0.1421036 -0.004189305 1.0120051e-39
-0.045875445 -0.14127107 -0.0011935756 9.2088851e-40
-0.044055432 -0.14127107 -0.0011935756 5.5426679e-40
-0.042235427 -0.14127107 -0.0011935756 2.7804004e-40
-0.040415421 -0.14127107 -0.0011935756 4.6207116e-40
-0.038509235 -0.14017828 0.0027386621 6.4646242e-40
-0.036634393 -0.13932751 0.0058000758 3.6987553e-40
-0.034772553 -0.13851084 0.008738704 7.328791e-43
-0.032919556 -0.13766994 0.011764593 1.8440527e-40
-0.031077435 -0.13683395 0.01477284 5.5318779e-40
-0.029246097 -0.13600285 0.017763443 8.2905582e-40
-0.027459329 -0.13600285 0.017763443 6.4466456e-40
-0.025643887 -0.13517661 0.020736523 7.3686019e-40
-0.023838209 -0.13432692 0.023794003 1.0134471e-39
-0.022043364 -0.13348235 0.026833124 1.0130869e-39
-0.020259695 -0.13267075 0.029753633 6.4430442e-40
-0.018486051 -0.13183604 0.032757111 4.5991316e-40
-0.016722953 -0.13100632 0.035742827 5.5210599e-40
-0.014967708 -0.13100632 0.035742827 1.7499261e-39
-0.013220528 -0.13015409 0.038809426 1.0123597e-39
-0.011483589 -0.12933435 0.0417592 4.5918589e-40
-0.0097388942 -0.12933435 0.0417592 2.7587363e-40
-0.0080181034 -0.12849234 0.044789083 2.7623376e-40
-0.0063077603 -0.12765543 0.047800608 2.7695263e-40
-0.0045967884 -0.12709136 0.049830265 3.7022726e-40
-0.0029054433 -0.12626295 0.052811272 7.3900978e-40
-0.001224285 -0.12543948 0.055774339 7.2447131e-43
0.00044520199 -0.12459467 0.058814354 1.084605e-42
0.0021061078 -0.12378122 0.061741419 3.6914826e-40
0.0037740972 -0.1232069 0.063808091 4.6134389e-40
0.005414594 -0.12237583 0.066798516 6.4501628e-40
0.0071153883 -0.12237583 0.066798516 6.4501628e-40
0.0087406188 -0.12154986 0.069770701 6.4465615e-40
0.010436201 -0.12154986 0.069770701 7.3576998e-40
0.012131784 -0.12154986 0.069770701 8.2760547e-40
0.013827367 -0.12154986 0.069770701 1.4729721e-39
0.015619358 -0.12237583 0.066798516 1.1041896e-39
0.017320151 -0.12237583 0.066798516 4.5917888e-40
0.019020947 -0.12237583 0.066798516 6.4321421e-40
0.020721739 -0.12237583 0.066798516 4.5918309e-40
0.022422532 -0.12237583 0.066798516 2.7550929e-40
0.024331698 -0.12378122 0.061741419 5.5137872e-40
0.026041357 -0.12378122 0.061741419 4.6026209e-40
0.027751019 -0.12378122 0.061741419 1.836752e-40
0.029596681 -0.12459467 0.058814354 9.1842503e-41
0.031311475 -0.12459467 0.058814354 4.6134389e-40
0.033026263 -0.12459467 0.058814354 6.4573515e-40
0.034898296 -0.12543948 0.055774339 9.3640369e-41
0.036618419 -0.12543948 0.055774339 7.2447131e-43
0.038502194 -0.12626295 0.052811272 1.0818024e-42
0.04022751 -0.12626295 0.052811272 1.8511013e-40
0.042127922 -0.12709136 0.049830265 4.6169702e-40
0.043981247 -0.12765543 0.047800608 9.219591e-40
0.045715347 -0.12765543 0.047800608 9.219591e-40
0.047449455 -0.12765543 0.047800608 6.4501628e-40
0.049183555 -0.12765543 0.047800608 2.7623516e-40
0.051120952 -0.12849234 0.044789083 9.8090893e-45
0.052860335 -0.12849234 0.044789083 9.8090893e-45
0.054599717 -0.12849234 0.044789083 9.8090893e-45
0.0563391 -0.12849234 0.044789083 3.6843079e-40
0.058078483 -0.12849234 0.044789083 6.4429882e-40
0.060048953 -0.12933435 0.0417592 3.6806926e-40
0.062263072 -0.13100632 0.035742827 1.836752e-40
0.064256504 -0.13183604 0.032757111 2.7587083e-40
0.066016987 -0.13183604 0.032757111 1.8367239e-40
0.067777462 -0.13183604 0.032757111 9.1835496e-41
0.069793351 -0.13267075 0.029753633 5.6051939e-45
0.071559094 -0.13267075 0.029753633 7.0064923e-45
0.073583432 -0.13348235 0.026833124 9.1842503e-41
0.07562872 -0.13432692 0.023794003 9.1842503e-41
0.077404909 -0.13432692 0.023794003 2.8025969e-45
0.079181112 -0.13432692 0.023794003 2.8025969e-45
0.081533559 -0.13600285 0.017763443 9.219563e-41
0.083320327 -0.13600285 0.017763443 1.8439126e-40
0.085107096 -0.13600285 0.017763443 9.2194229e-41
0.086893879 -0.13600285 0.017763443 0
0.088987388 -0.13683395 0.01477284 0
0.090779401 -0.13683395 0.01477284 0
0.092571415 -0.13683395 0.01477284 4.6097535e-40
0.094363429 -0.13683395 0.01477284 0
0.096155442 -0.13683395 0.01477284 1.8438846e-40
0.097947441 -0.13683395 0.01477284 3.9640491e-39
0.099739455 -0.13683395 0.01477284 5.1615133e-39
0.10153147 -0.13683395 0.01477284 5.9905551e-39
-0.059522249 -0.14924543 -0.023200445 4.5918589e-40
-0.057427987 -0.14757483 -0.017226629 6.4357715e-40
-0.055427022 -0.14644094 -0.013172083 1.0116408e-39
-0.053586014 -0.14644094 -0.013172083 9.1944657e-40
-0.051644519 -0.14561899 -0.010232978 9.1944657e-40
-0.049710363 -0.1447715 -0.007202439 1.0112863e-39
-0.047787368 -0.14392884 -0.004189305 1.0112863e-39
-0.04596211 -0.14392884 -0.004189305 9.1981231e-40
-0.044136852 -0.14392884 -0.004189305 4.6099496e-40
-0.042311594 -0.14392884 -0.004189305 3.695196e-40
-0.040415421 -0.14309107 -0.0011935756 6.4538622e-40
-0.038509235 -0.14199139 0.0027386621 5.5319059e-40
-0.036634393 -0.14113526 0.0058000758 2.7660371e-40
-0.034772553 -0.14031343 0.008738704 1.6815582e-44
-0.032919556 -0.13946722 0.011764593 1.6815582e-44
-0.031077435 -0.13862596 0.01477284 2.7588204e-40
-0.029246097 -0.13778962 0.017763443 4.602733e-40
-0.027459329 -0.13778962 0.017763443 2.7588204e-40
-0.025643887 -0.13695817 0.020736523 4.602733e-40
-0.023838209 -0.13610314 0.023794003 9.2160738e-40
-0.022043364 -0.13525321 0.026833124 1.1052798e-39
-0.020259695 -0.13443647 0.029753633 7.3649725e-40
-0.018486051 -0.13359652 0.032757111 6.4430162e-40
-0.016722953 -0.13276155 0.035742827 9.2088571e-40
-0.014970396 -0.13190396 0.038809426 7.3577278e-40
-0.013220528 -0.13190396 0.038809426 6.4357435e-40
-0.011483589 -0.13107903 0.0417592 6.4465335e-40
-0.0097388942 -0.13107903 0.0417592 1.1056315e-39
-0.0080181034 -0.13023172 0.044789083 1.198546e-39
-0.0063077603 -0.12938951 0.047800608 6.4573515e-40
-0.0045967884 -0.12882192 0.049830265 7.2447131e-43
-0.0029054433 -0.12798826 0.052811272 3.643376e-43
-0.0011801254 -0.12798826 0.052811272 7.2447131e-43
0.00044520199 -0.12630944 0.058814354 1.084605e-42
0.0021599941 -0.12630944 0.058814354 2.7695263e-40
0.0037740972 -0.12491293 0.063808091 4.6134389e-40
0.005414594 -0.12407662 0.066798516 7.3721191e-40
0.0071153883 -0.12407662 0.066798516 7.3721331e-40
0.0087406188 -0.12324543 0.069770701 8.2869008e-40
0.010436201 -0.12324543 0.069770701 8.2904741e-40
0.012131784 -0.12324543 0.069770701 1.1045525e-39
0.013827367 -0.12324543 0.069770701 1.5658866e-39
0.015619358 -0.12407662 0.066798516 9.2051717e-40
0.017320151 -0.12407662 0.066798516 2.7550649e-40
0.019020947 -0.12407662 0.066798516 3.6734619e-40
0.020721739 -0.12407662 0.066798516 3.6734619e-40
0.022422532 -0.12407662 0.066798516 2.7550929e-40
0.024246542 -0.12491293 0.063808091 6.4465335e-40
0.025952579 -0.12491293 0.063808091 2.7587083e-40
0.027751019 -0.12549089 0.061741419 2.8025969e-45
0.029596681 -0.12630944 0.058814354 1.8403813e-40
0.031311475 -0.12630944 0.058814354 5.5353952e-40
0.033026263 -0.12630944 0.058814354 7.3793078e-40
0.034898296 -0.12715961 0.055774339 3.7022726e-40
0.036618419 -0.12715961 0.055774339 3.7022726e-40
0.038502194 -0.12798826 0.052811272 7.3900698e-40
0.040397383 -0.12882192 0.049830265 9.2267516e-40
0.042127922 -0.12882192 0.049830265 3.6950139e-40
0.043981247 -0.12938951 0.047800608 3.629363e-43
0.045715347 -0.12938951 0.047800608 1.847542e-40
0.047449455 -0.12938951 0.047800608 3.6842939e-40
0.049183555 -0.12938951 0.047800608 1.8403813e-40
0.051120952 -0.13023172 0.044789083 7.0064923e-45
0.052860335 -0.13023172 0.044789083 7.0064923e-45
0.054599717 -0.13023172 0.044789083 2.7623516e-40
0.0563391 -0.13023172 0.044789083 5.5282205e-40
0.058078483 -0.13023172 0.044789083 4.6026489e-40
0.060273938 -0.13190396 0.038809426 9.1841101e-41
0.062496029 -0.13359652 0.032757111 9.1838299e-41
0.064256504 -0.13359652 0.032757111 9.1838299e-41
0.066016987 -0.13359652 0.032757111 1.8367239e-40
0.068027608 -0.13443647 0.029753633 9.1835496e-41
0.069793351 -0.13443647 0.029753633 2.7658969e-40
0.071559094 -0.13443647 0.029753633 1.8403813e-40
0.073583432 -0.13525321 0.026833124 2.8025969e-45
0.07562872 -0.13610314 0.023794003 2.8025969e-45
0.077404909 -0.13610314 0.023794003 0
0.079181112 -0.13610314 0.023794003 0
0.081249468 -0.13695817 0.020736523 9.219563e-41
0.083031021 -0.13695817 0.020736523 1.8438846e-40
0.085107096 -0.13778962 0.017763443 9.2194229e-41
0.086893879 -0.13778962 0.017763443 0
0.088987388 -0.13862596 0.01477284 0
0.090779401 -0.13862596 0.01477284 0
0.092571415 -0.13862596 0.01477284 2.7658409e-40
0.094363429 -0.13862596 0.01477284 0
0.096155442 -0.13862596 0.01477284 0
0.097947441 -0.13862596 0.01477284 3.2268442e-39
0.099739455 -0.13862596 0.01477284 4.8849264e-39
-0.055579871 -0.14942293 -0.017226629 1.3797003e-39
-0.053586014 -0.14828195 -0.013172083 1.6562871e-39
-0.051644519 -0.14745484 -0.010232978 1.7474094e-39
-0.049710363 -0.14660202 -0.007202439 1.3786297e-39
-0.047787368 -0.14575411 -0.004189305 1.0102087e-39
-0.04596211 -0.14575411 -0.004189305 7.3470219e-40
-0.044136852 -0.14575411 -0.004189305 1.1971223e-39
-0.042311594 -0.14575411 -0.004189305 3.6808047e-40
-0.040415421 -0.14491107 -0.0011935756 1.8368641e-40
-0.038509235 -0.14380451 0.0027386621 6.4466456e-40
-0.036575139 -0.14211603 0.008738704 7.3686019e-40
-0.034772553 -0.14211603 0.008738704 1.8368641e-40
-0.032919556 -0.14126451 0.011764593 1.8368641e-40
-0.031077435 -0.14041798 0.01477284 7.3649725e-40
-0.029246097 -0.13957639 0.017763443 4.5990756e-40
-0.027425444 -0.13873972 0.020736523 7.3649445e-40
-0.025643887 -0.13873972 0.020736523 8.2940754e-40
-0.023838209 -0.13787933 0.023794003 6.4537221e-40
-0.022043364 -0.13702409 0.026833124 2.7658689e-40
-0.020259695 -0.13620223 0.029753633 2.7658689e-40
-0.018486051 -0.13535701 0.032757111 6.4536661e-40
-0.016722953 -0.13451682 0.035742827 1.0141491e-39
-0.014970396 -0.13365383 0.038809426 1.3829344e-39
-0.013220528 -0.13365383 0.038809426 5.5317378e-40
-0.011483589 -0.13282375 0.0417592 6.4536941e-40
-0.0097388942 -0.13282375 0.0417592 1.4751301e-39
-0.0080181034 -0.13197111 0.044789083 1.4758489e-39
-0.0063077603 -0.13112362 0.047800608 5.5353672e-40
-0.0045967884 -0.13055246 0.049830265 3.629363e-43
-0.0029054433 -0.12971358 0.052811272 1.847542e-40
-0.0011801254 -0.12971358 0.052811272 3.657389e-43
0.000495838 -0.12887974 0.055774339 1.84757e-40
0.0021599941 -0.12802424 0.058814354 3.6914966e-40
0.0037740972 -0.12661897 0.063808091 5.5354092e-40
0.005414594 -0.12577744 0.066798516 5.5354092e-40
0.0071153883 -0.12577744 0.066798516 5.5318499e-40
0.0087406188 -0.12494104 0.069770701 8.2941175e-40
0.010436201 -0.12494104 0.069770701 9.2160457e-40
0.012131784 -0.12494104 0.069770701 1.6588081e-39
0.013827367 -0.12494104 0.069770701 1.474414e-39
0.015619358 -0.12577744 0.066798516 1.9353922e-39
0.017320151 -0.12577744 0.066798516 9.1838299e-41
0.019020947 -0.12577744 0.066798516 3.6806646e-40
0.020721739 -0.12577744 0.066798516 9.1838299e-41
0.022422532 -0.12577744 0.066798516 9.1838299e-41
0.024246542 -0.12661897 0.063808091 7.3756784e-40
0.025952579 -0.12661897 0.063808091 4.6098095e-40
0.027751019 -0.12720053 0.061741419 7.3756784e-40
0.029596681 -0.12802424 0.058814354 1.0141547e-39
0.031311475 -0.12802424 0.058814354 9.219591e-40
0.033026263 -0.12802424 0.058814354 6.4537221e-40
0.034898296 -0.12887974 0.055774339 4.6134109e-40
0.036618419 -0.12887974 0.055774339 7.3792798e-40
0.038502194 -0.12971358 0.052811272 1.0145149e-39
0.040397383 -0.13055246 0.049830265 3.6878252e-40
0.042127922 -0.13055246 0.049830265 1.8439126e-40
0.043981247 -0.13112362 0.047800608 0
0.045715347 -0.13112362 0.047800608 0
0.047449455 -0.13112362 0.047800608 2.7658969e-40
0.049183555 -0.13112362 0.047800608 3.6878532e-40
0.051120952 -0.13197111 0.044789083 2.7658969e-40
0.052860335 -0.13197111 0.044789083 9.2198432e-41
0.054599717 -0.13197111 0.044789083 2.8025969e-45
0.0563391 -0.13197111 0.044789083 2.8025969e-45
0.058304258 -0.13282375 0.0417592 2.8025969e-45
0.060273938 -0.13365383 0.038809426 2.8025969e-45
0.062263072 -0.13451682 0.035742827 0
0.064018317 -0.13451682 0.035742827 0
0.066016987 -0.13535701 0.032757111 0
0.067777462 -0.13535701 0.032757111 0
0.069793351 -0.13620223 0.029753633 9.2194229e-41
0.071559094 -0.13620223 0.029753633 9.2194229e-41
0.073583432 -0.13702409 0.026833124 9.2194229e-41
0.0753543 -0.13702409 0.026833124 9.2194229e-41
0.077404909 -0.13787933 0.023794003 9.2194229e-41
0.079181112 -0.13787933 0.023794003 9.2552961e-41
0.081249468 -0.13873972 0.020736523 9.2552961e-41
0.083031021 -0.13873972 0.020736523 9.2552961e-41
0.085107096 -0.13957639 0.017763443 9.2552961e-41
0.086893879 -0.13957639 0.017763443 3.5873241e-43
0.088680647 -0.13957639 0.017763443 2.7694142e-40
0.090779401 -0.14041798 0.01477284 3.5873241e-43
0.092571415 -0.14041798 0.01477284 2.7658409e-40
0.094363429 -0.14041798 0.01477284 0
0.096155442 -0.14041798 0.01477284 1.8438846e-40
0.097947441 -0.14041798 0.01477284 3.8722137e-39
0.099739455 -0.14041798 0.01477284 4.8867215e-39
-0.051644519 -0.14929073 -0.010232978 8.2652507e-40
-0.049808666 -0.14929073 -0.010232978 1.0102003e-39
-0.047879823 -0.14843257 -0.007202439 1.2857152e-39
-0.04596211 -0.14757936 -0.004189305 1.3786297e-39
-0.044136852 -0.14757936 -0.004189305 9.1981231e-40
-0.042235427 -0.14673109 -0.0011935756 2.755191e-40
-0.040415421 -0.14673109 -0.0011935756 3.6771473e-40
-0.038509235 -0.14561762 0.0027386621 1.0130841e-39
-0.036575139 -0.14391862 0.008738704 1.1052798e-39
-0.034772553 -0.14391862 0.008738704 5.5210319e-40
-0.032919556 -0.1430618 0.011764593 3.6771193e-40
-0.031077435 -0.14220999 0.01477284 7.3685178e-40
-0.029207001 -0.14052127 0.020736523 6.4465615e-40
-0.027390597 -0.13965552 0.023794003 8.2904461e-40
-0.025614405 -0.13965552 0.023794003 7.3756784e-40
-0.023814229 -0.13879494 0.026833124 5.5317378e-40
-0.022025442 -0.13796796 0.029753633 3.6878252e-40
-0.02024653 -0.13711749 0.032757111 3.6877972e-40
-0.018486051 -0.13711749 0.032757111 5.5317098e-40
-0.016722953 -0.13627206 0.035742827 8.2975787e-40
-0.014970396 -0.13540371 0.038809426 7.382811e-40
-0.013220528 -0.13540371 0.038809426 4.6169421e-40
-0.011483589 -0.13456844 0.0417592 6.4608547e-40
-0.0097388942 -0.13456844 0.0417592 1.014868e-39
-0.0080181034 -0.13371049 0.044789083 9.2267516e-40
-0.0063077603 -0.13285773 0.047800608 1.8511013e-40
-0.0045967884 -0.13228302 0.049830265 3.629363e-43
-0.0029054433 -0.1314389 0.052811272 2.7694983e-40
-0.0011801254 -0.1314389 0.052811272 5.6051939e-45
0.000495838 -0.13059987 0.055774339 1.84757e-40
0.0021599941 -0.12973903 0.058814354 3.6914966e-40
0.0038157683 -0.1289102 0.061741419 5.5354092e-40
0.0054801349 -0.128325 0.063808091 5.5318499e-40
0.0071153883 -0.12747823 0.066798516 5.5318499e-40
0.0088161826 -0.12747823 0.066798516 5.5318779e-40
0.010516975 -0.12747823 0.066798516 6.4538062e-40
0.012217769 -0.12747823 0.066798516 1.1981901e-39
0.013918564 -0.12747823 0.066798516 1.5673285e-39
0.015619358 -0.12747823 0.066798516 2.4892848e-39
0.017320151 -0.12747823 0.066798516 1.8439406e-40
0.019020947 -0.12747823 0.066798516 6.4537221e-40
0.020721739 -0.12747823 0.066798516 3.6878532e-40
0.022422532 -0.12747823 0.066798516 1.8439406e-40
0.024246542 -0.128325 0.063808091 6.4537221e-40
0.025952579 -0.128325 0.063808091 6.4537221e-40
0.027751019 -0.1289102 0.061741419 8.2976347e-40
0.029596681 -0.12973903 0.058814354 9.219591e-40
0.031311475 -0.12973903 0.058814354 7.3756784e-40
0.033026263 -0.12973903 0.058814354 2.7658969e-40
0.034898296 -0.13059987 0.055774339 9.2198432e-41
0.036618419 -0.13059987 0.055774339 1.8439406e-40
0.038502194 -0.1314389 0.052811272 3.6878532e-40
0.040397383 -0.13228302 0.049830265 3.6878252e-40
0.042127922 -0.13228302 0.049830265 1.8439126e-40
0.043858469 -0.13228302 0.049830265 9.219563e-41
0.045715347 -0.13285773 0.047800608 9.219563e-41
0.047449455 -0.13285773 0.047800608 1.8439126e-40
0.049183555 -0.13285773 0.047800608 2.7658689e-40
0.050917663 -0.13285773 0.047800608 1.8439126e-40
0.052860335 -0.13371049 0.044789083 1.8439126e-40
0.054599717 -0.13371049 0.044789083 0
0.056559563 -0.13456844 0.0417592 0
0.058304258 -0.13456844 0.0417592 0
0.060273938 -0.13540371 0.038809426 0
0.062263072 -0.13627206 0.035742827 0
0.064018317 -0.13627206 0.035742827 0
0.066016987 -0.13711749 0.032757111 0
0.067777462 -0.13711749 0.032757111 0
0.069793351 -0.13796796 0.029753633 9.2194229e-41
0.071559094 -0.13796796 0.029753633 9.2194229e-41
0.073583432 -0.13879494 0.026833124 9.2194229e-41
0.0753543 -0.13879494 0.026833124 9.2194229e-41
0.077404909 -0.13965552 0.023794003 9.2194229e-41
0.079181112 -0.13965552 0.023794003 9.2194229e-41
0.081249468 -0.14052127 0.020736523 9.2552961e-41
0.083031021 -0.14052127 0.020736523 9.2552961e-41
0.085107096 -0.14136316 0.017763443 9.2194229e-41
0.086893879 -0.14136316 0.017763443 0
0.088680647 -0.14136316 0.017763443 1.8438846e-40
0.090779401 -0.14220999 0.01477284 0
0.092571415 -0.14220999 0.01477284 1.8438846e-40
0.094363429 -0.14220999 0.01477284 0
0.096155442 -0.14220999 0.01477284 1.8439126e-40
0.097614489 -0.14136316 0.017763443 3.8722137e-39
0.099401258 -0.14136316 0.017763443 5.4402554e-39
-0.04596211 -0.14940463 -0.004189305 1.5640915e-39
-0.044136852 -0.14940463 -0.004189305 5.5138152e-40
-0.042235427 -0.14855109 -0.0011935756 9.1841101e-41
-0.040415421 -0.14855109 -0.0011935756 4.6026489e-40
-0.038595416 -0.14855109 -0.0011935756 1.1978271e-39
-0.036575139 -0.14572121 0.008738704 1.3822184e-39
-0.034772553 -0.14572121 0.008738704 9.2123743e-40
-0.032869451 -0.14400201 0.01477284 5.5317378e-40
-0.031032866 -0.14314993 0.017763443 6.4536941e-40
-0.029207001 -0.14230286 0.020736523 8.2976067e-40
-0.027390597 -0.1414317 0.023794003 7.3756504e-40
-0.025614405 -0.1414317 0.023794003 6.4537221e-40
-0.023814229 -0.14056583 0.026833124 5.5317658e-40
-0.022025442 -0.13973372 0.029753633 4.6062502e-40
-0.02024653 -0.13887797 0.032757111 4.6062502e-40
-0.018478198 -0.1380273 0.035742827 5.5282065e-40
-0.016722953 -0.1380273 0.035742827 6.4537221e-40
-0.014970396 -0.13715358 0.038809426 3.6949858e-40
-0.013228286 -0.13631313 0.0417592 6.4608267e-40
-0.011483589 -0.13631313 0.0417592 8.3047393e-40
-0.0097574871 -0.13544987 0.044789083 6.4608267e-40
-0.0080418643 -0.13459183 0.047800608 2.7730295e-40
-0.0063077603 -0.13459183 0.047800608 9.2911693e-41
-0.0045967884 -0.13401355 0.049830265 2.7730576e-40
-0.0029054433 -0.13316421 0.052811272 5.5389265e-40
-0.001224285 -0.13231997 0.055774339 2.8025969e-45
0.000495838 -0.13231997 0.055774339 1.847542e-40
0.0021599941 -0.13145383 0.058814354 4.6134389e-40
0.0038157683 -0.13061987 0.061741419 5.5353952e-40
0.0054801349 -0.13003103 0.063808091 4.6134529e-40
0.0071153883 -0.12917902 0.066798516 3.6914966e-40
0.0088161826 -0.12917902 0.066798516 3.6879373e-40
0.010516975 -0.12917902 0.066798516 3.6879373e-40
0.012217769 -0.12917902 0.066798516 5.5282065e-40
0.013918564 -0.12917902 0.066798516 1.7513638e-39
0.015522951 -0.12833218 0.069770701 3.0424586e-39
0.017218532 -0.12833218 0.069770701 4.6098095e-40
0.019020947 -0.12917902 0.066798516 7.3756784e-40
0.020721739 -0.12917902 0.066798516 5.5317658e-40
0.022422532 -0.12917902 0.066798516 2.7658969e-40
0.024246542 -0.13003103 0.063808091 2.7658969e-40
0.025952579 -0.13003103 0.063808091 4.6098095e-40
0.027751019 -0.13061987 0.061741419 5.5317658e-40
0.029596681 -0.13145383 0.058814354 6.4536941e-40
0.031311475 -0.13145383 0.058814354 3.6878252e-40
0.033026263 -0.13145383 0.058814354 0
0.034898296 -0.13231997 0.055774339 0
0.036618419 -0.13231997 0.055774339 0
0.038502194 -0.13316421 0.052811272 0
0.040397383 -0.13401355 0.049830265 2.7658689e-40
0.042127922 -0.13401355 0.049830265 2.7658689e-40
0.043858469 -0.13401355 0.049830265 2.7658689e-40
0.045589015 -0.13401355 0.049830265 1.8439126e-40
0.047449455 -0.13459183 0.047800608 0
0.049183555 -0.13459183 0.047800608 0
0.050917663 -0.13459183 0.047800608 9.219563e-41
0.052860335 -0.13544987 0.044789083 1.8439126e-40
0.054599717 -0.13544987 0.044789083 0
0.056559563 -0.13631313 0.0417592 0
0.058304258 -0.13631313 0.0417592 0
0.060273938 -0.13715358 0.038809426 0
0.062263072 -0.1380273 0.035742827 0
0.064018317 -0.1380273 0.035742827 0
0.066016987 -0.13887797 0.032757111 0
0.067777462 -0.13887797 0.032757111 0
0.069793351 -0.13973372 0.029753633 9.2198432e-41
0.071559094 -0.13973372 0.029753633 9.2198432e-41
0.073583432 -0.14056583 0.026833124 9.2198432e-41
0.0753543 -0.14056583 0.026833124 9.2198432e-41
0.077125169 -0.14056583 0.026833124 9.219563e-41
0.079181112 -0.1414317 0.023794003 9.219563e-41
0.081249468 -0.14230286 0.020736523 9.219563e-41
0.083031021 -0.14230286 0.020736523 9.219563e-41
0.084812574 -0.14230286 0.020736523 0
0.086893879 -0.14314993 0.017763443 0
0.088680647 -0.14314993 0.017763443 9.219563e-41
0.090779401 -0.14400201 0.01477284 0
0.092571415 -0.14400201 0.01477284 9.219563e-41
0.094363429 -0.14400201 0.01477284 0
0.096155442 -0.14400201 0.01477284 1.8439406e-40
0.097614489 -0.14314993 0.017763443 3.7800208e-39
0.099401258 -0.14314993 0.017763443 5.6246495e-39
0.10118803 -0.14314993 0.017763443 5.7168423e-39
-0.038509235 -0.14924385 0.0027386621 1.1059846e-39
-0.036575139 -0.14752381 0.008738704 1.3825687e-39
-0.034772553 -0.14752381 0.008738704 1.0137862e-39
-0.032869451 -0.14579402 0.01477284 6.4572254e-40
-0.031032866 -0.1449367 0.017763443 7.3791817e-40
-0.029207001 -0.14408441 0.020736523 1.0145051e-39
-0.027390597 -0.14320792 0.023794003 8.2975787e-40
-0.025614405 -0.14320792 0.023794003 5.5317378e-40
-0.023814229 -0.14233668 0.026833124 4.6062502e-40
-0.022025442 -0.14149947 0.029753633 5.5282205e-40
-0.02024653 -0.14063846 0.032757111 6.4502049e-40
-0.018478198 -0.13978253 0.035742827 5.5246893e-40
-0.016722953 -0.13978253 0.035742827 5.5282486e-40
-0.014970396 -0.13890342 0.038809426 4.6169702e-40
-0.013228286 -0.13805781 0.0417592 8.3047393e-40
-0.01149687 -0.13718925 0.044789083 8.3047393e-40
-0.0097574871 -0.13718925 0.044789083 4.6169141e-40
-0.0080418643 -0.13632594 0.047800608 1.8510732e-40
-0.0063077603 -0.13632594 0.047800608 4.6169421e-40
-0.0045967884 -0.13574408 0.049830265 6.4608828e-40
-0.0029054433 -0.13488953 0.052811272 6.4608828e-40
-0.001224285 -0.1340401 0.055774339 2.8025969e-45
0.000495838 -0.1340401 0.055774339 1.847542e-40
0.0021599941 -0.13316862 0.058814354 4.6134389e-40
0.0038157683 -0.13232954 0.061741419 5.5353952e-40
0.0054801349 -0.13173707 0.063808091 4.6134389e-40
0.0071153883 -0.1308798 0.066798516 2.7695403e-40
0.0088161826 -0.1308798 0.066798516 1.847584e-40
0.010436201 -0.13002776 0.069770701 1.847584e-40
0.012131784 -0.13002776 0.069770701 7.0064923e-45
0.013827367 -0.13002776 0.069770701 1.6591682e-39
0.015522951 -0.13002776 0.069770701 3.0421027e-39
0.017218532 -0.13002776 0.069770701 1.8439406e-40
0.018914117 -0.13002776 0.069770701 2.7658969e-40
0.020721739 -0.1308798 0.066798516 2.7658969e-40
0.022422532 -0.1308798 0.066798516 9.2198432e-41
0.024246542 -0.13173707 0.063808091 2.8025969e-45
0.025952579 -0.13173707 0.063808091 2.8025969e-45
0.027751019 -0.13232954 0.061741419 9.2198432e-41
0.029596681 -0.13316862 0.058814354 1.8439126e-40
0.031311475 -0.13316862 0.058814354 9.219563e-41
0.033026263 -0.13316862 0.058814354 0
0.034898296 -0.1340401 0.055774339 0
0.036618419 -0.1340401 0.055774339 0
