# .PCD v0.7 - Point Cloud Data file format
VERSION 0.7
FIELDS x y z rgb
SIZE 4 4 4 4
TYPE F F F F
COUNT 1 1 1 1
WIDTH 936
HEIGHT 1
VIEWPOINT 0 0 0 1 0 0 0
POINTS 936
DATA ascii
-0.039100952 -0.092821583 -0.039670698 2.3509886e-38
-0.037275694 -0.092821583 -0.039670698 2.3509886e-38
-0.035450432 -0.092821583 -0.039670698 2.3509886e-38
-0.033625174 -0.092821583 -0.039670698 2.3509886e-38
-0.031799916 -0.092821583 -0.039670698 2.3325856e-38
-0.029951021 -0.092130885 -0.036674969 2.3325856e-38
-0.028106883 -0.091224253 -0.032742731 2.341805e-38
-0.026293769 -0.091224253 -0.032742731 2.341805e-38
-0.024491001 -0.092130885 -0.036674969 2.341805e-38
-0.022667546 -0.091224253 -0.032742731 2.341805e-38
-0.020854432 -0.091224253 -0.032742731 2.3509886e-38
-0.019041322 -0.091224253 -0.032742731 2.3233299e-38
-0.017228208 -0.091224253 -0.032742731 2.3509883e-38
-0.015415098 -0.091224253 -0.032742731 2.3509883e-38
-0.013601985 -0.091224253 -0.032742731 2.2035109e-38
-0.088604428 -0.10951753 -0.10368108 2.3507702e-38
-0.086666934 -0.10951753 -0.10368108 2.3139276e-38
-0.084729441 -0.10951753 -0.10368108 2.3509869e-38
-0.082791947 -0.10951753 -0.10368108 2.3509883e-38
-0.080641866 -0.10859399 -0.099705689 2.341805e-38
-0.078507207 -0.10767709 -0.095758907 2.3509527e-38
-0.076429211 -0.10695927 -0.092669122 2.341805e-38
-0.074317463 -0.10602666 -0.088654749 2.3509886e-38
-0.072270043 -0.10534529 -0.085721843 2.341805e-38
-0.070228413 -0.10464053 -0.082688205 2.3509886e-38
-0.068029769 -0.10302909 -0.075751774 2.341805e-38
-0.065728627 -0.10070263 -0.065737598 2.3509883e-38
-0.06385766 -0.10070263 -0.065737598 2.3509883e-38
-0.061720718 -0.099063456 -0.058681838 2.3509886e-38
-0.059862126 -0.099063456 -0.058681838 2.3509886e-38
-0.057799291 -0.097675636 -0.052708022 2.3509886e-38
-0.055951171 -0.097675636 -0.052708022 2.3509886e-38
-0.053978648 -0.096733689 -0.048653476 2.3509527e-38
-0.05205261 -0.096050888 -0.045714371 2.3509527e-38
-0.050216757 -0.096050888 -0.045714371 2.3509527e-38
-0.04830385 -0.095346853 -0.042683832 2.3509527e-38
-0.046473309 -0.095346853 -0.042683832 2.3509527e-38
-0.044576727 -0.094646841 -0.039670698 2.3509527e-38
-0.042751469 -0.094646841 -0.039670698 2.3509527e-38
-0.040926211 -0.094646841 -0.039670698 2.3509527e-38
-0.039051052 -0.093950883 -0.036674969 2.3509886e-38
-0.037231047 -0.093950883 -0.036674969 2.3509886e-38
-0.035411038 -0.093950883 -0.036674969 2.3233302e-38
-0.033591032 -0.093950883 -0.036674969 2.3509886e-38
-0.031733107 -0.093037367 -0.032742731 2.341805e-38
-0.029895838 -0.092326149 -0.029681318 2.341805e-38
-0.028088097 -0.092326149 -0.029681318 2.341805e-38
-0.026280351 -0.092326149 -0.029681318 2.304927e-38
-0.024472605 -0.092326149 -0.029681318 2.2864879e-38
-0.022667546 -0.093037367 -0.032742731 2.2864879e-38
-0.020854432 -0.093037367 -0.032742731 2.341805e-38
-0.019041322 -0.093037367 -0.032742731 2.3049624e-38
-0.017228208 -0.093037367 -0.032742731 2.3418047e-38
-0.015415098 -0.093037367 -0.032742731 2.3234015e-38
-0.013601985 -0.093037367 -0.032742731 1.9545827e-38
-0.088604428 -0.11145501 -0.10368108 2.3509139e-38
-0.086433433 -0.11052449 -0.099705689 2.3509856e-38
-0.084502913 -0.11052449 -0.099705689 2.3509863e-38
-0.082572393 -0.11052449 -0.099705689 2.3509883e-38
-0.080430806 -0.10960068 -0.095758907 2.341805e-38
-0.078347392 -0.10887744 -0.092669122 2.341805e-38
-0.076429211 -0.10887744 -0.092669122 2.341805e-38
-0.074176051 -0.1072513 -0.085721843 2.341805e-38
-0.072270043 -0.1072513 -0.085721843 2.341805e-38
-0.070052184 -0.10561861 -0.078746669 2.341805e-38
-0.067857705 -0.10398008 -0.071746461 2.341805e-38
-0.065728627 -0.10257359 -0.065737598 2.3418047e-38
-0.06369815 -0.10162716 -0.061694257 2.3418047e-38
-0.061720718 -0.10092205 -0.058681838 2.3509886e-38
-0.059754465 -0.10022092 -0.055686466 2.3509886e-38
-0.057799291 -0.099523753 -0.052708022 2.3509886e-38
-0.055819657 -0.098574698 -0.048653476 2.3509886e-38
-0.053888466 -0.097886756 -0.045714371 2.3509527e-38
-0.051964939 -0.097177386 -0.042683832 2.3509527e-38
-0.050134394 -0.097177386 -0.042683832 2.3509527e-38
-0.04830385 -0.097177386 -0.042683832 2.3509527e-38
-0.046401989 -0.096472099 -0.039670698 2.3509527e-38
-0.044576727 -0.096472099 -0.039670698 2.3509527e-38
-0.042691067 -0.095770895 -0.036674969 2.3509527e-38
-0.040871061 -0.095770895 -0.036674969 2.3509527e-38
-0.038835213 -0.092737779 -0.0237168 2.3509886e-38
-0.037037928 -0.092737779 -0.0237168 2.3509886e-38
-0.035280429 -0.093446046 -0.026742689 2.3509886e-38
-0.033477839 -0.093446046 -0.026742689 2.3509886e-38
-0.031675246 -0.093446046 -0.026742689 2.341805e-38
-0.029872656 -0.093446046 -0.026742689 2.341805e-38
-0.028051492 -0.092737779 -0.0237168 2.3233662e-38
-0.026254207 -0.092737779 -0.0237168 2.3233662e-38
-0.024456918 -0.092737779 -0.0237168 2.341805e-38
-0.022662286 -0.093446046 -0.026742689 2.341805e-38
-0.020859692 -0.093446046 -0.026742689 2.2865232e-38
-0.019057103 -0.093446046 -0.026742689 1.8532038e-38
-0.017241627 -0.094133899 -0.029681318 1.6042756e-38
-0.015415098 -0.094850481 -0.032742731 1.5397383e-38
-0.013601985 -0.094850481 -0.032742731 1.3921892e-38
-0.086433433 -0.11245503 -0.099705689 2.3508769e-38
-0.084502913 -0.11245503 -0.099705689 2.3509139e-38
-0.082354404 -0.11152427 -0.095758907 2.350988e-38
-0.080265574 -0.11079563 -0.092669122 2.341805e-38
-0.07813976 -0.10984896 -0.088654749 2.3234379e-38
-0.076228611 -0.10984896 -0.088654749 2.3234379e-38
-0.074176051 -0.10915731 -0.085721843 2.3234379e-38
-0.072129093 -0.1084419 -0.082688205 2.3234379e-38
-0.069918282 -0.10680611 -0.075751774 2.3234379e-38
-0.067857705 -0.10586159 -0.071746461 2.3234379e-38
-0.065728627 -0.10444455 -0.065737598 2.3234379e-38
-0.06369815 -0.10349102 -0.061694257 2.3234379e-38
-0.061720718 -0.10278064 -0.058681838 2.3418047e-38
-0.059647407 -0.10137187 -0.052708022 2.3509883e-38
-0.057660665 -0.10041572 -0.048653476 2.3509883e-38
-0.055724323 -0.099722609 -0.045714371 2.3509883e-38
-0.053888466 -0.099722609 -0.045714371 2.3509527e-38
-0.051877767 -0.098297372 -0.039670698 2.3509527e-38
-0.050052509 -0.098297372 -0.039670698 2.3509527e-38
-0.048227251 -0.098297372 -0.039670698 2.3509527e-38
-0.046095982 -0.09524864 -0.026742689 2.3509527e-38
-0.044227071 -0.094535068 -0.0237168 2.3509527e-38
-0.042429786 -0.094535068 -0.0237168 2.3509527e-38
-0.040577117 -0.093825653 -0.020708553 2.3509527e-38
-0.038785107 -0.093825653 -0.020708553 2.3509886e-38
-0.036993094 -0.093825653 -0.020708553 2.3509886e-38
-0.035240639 -0.094535068 -0.0237168 2.341769e-38
-0.033443354 -0.094535068 -0.0237168 2.3233299e-38
-0.031646065 -0.094535068 -0.0237168 2.3141822e-38
-0.02984878 -0.094535068 -0.0237168 2.341805e-38
-0.028051492 -0.094535068 -0.0237168 2.341805e-38
-0.026254207 -0.094535068 -0.0237168 2.341805e-38
-0.024456918 -0.094535068 -0.0237168 2.341805e-38
-0.022659633 -0.094535068 -0.0237168 2.3234018e-38
-0.020862345 -0.094535068 -0.0237168 2.1482298e-38
-0.019072972 -0.093825653 -0.020708553 1.6227144e-38
-0.017280959 -0.093825653 -0.020708553 1.336908e-38
-0.015415098 -0.096663594 -0.032742731 1.3553828e-38
-0.013601985 -0.096663594 -0.032742731 1.3921892e-38
0.067817278 -0.086747125 0.00930769 1.3833016e-39
0.069556661 -0.086747125 0.00930769 1.291106e-39
0.071013547 -0.086036935 0.012319215 1.1067147e-39
-0.082183756 -0.1127138 -0.092669122 2.3509879e-38
-0.080050901 -0.11176009 -0.088654749 2.341805e-38
-0.07813976 -0.11176009 -0.088654749 2.341805e-38
-0.076082058 -0.11106332 -0.085721843 2.3234379e-38
-0.074176051 -0.11106332 -0.085721843 2.3234379e-38
-0.071945958 -0.10940616 -0.078746669 2.3234379e-38
-0.069918282 -0.10869466 -0.075751774 2.3234379e-38
-0.067857705 -0.10774307 -0.071746461 2.3234379e-38
-0.065728627 -0.10631551 -0.065737598 2.3234379e-38
-0.06369815 -0.10535492 -0.061694257 2.3234379e-38
-0.061607804 -0.1039276 -0.055686466 2.3418047e-38
-0.059647407 -0.10322 -0.052708022 2.3418047e-38
-0.057660665 -0.10225673 -0.048653476 2.3509883e-38
-0.055724323 -0.10155846 -0.045714371 2.3509883e-38
-0.053795479 -0.10083848 -0.042683832 2.3509524e-38
-0.051791102 -0.099410906 -0.036674969 2.3509524e-38
-0.049971092 -0.099410906 -0.036674969 2.3509527e-38
-0.048151087 -0.099410906 -0.036674969 2.3509527e-38
-0.04602436 -0.096332356 -0.0237168 2.3509527e-38
-0.044161141 -0.095617667 -0.020708553 2.3509527e-38
-0.04230883 -0.094907165 -0.01771795 2.3509527e-38
-0.040522061 -0.094907165 -0.01771795 2.3509527e-38
-0.038735293 -0.094907165 -0.01771795 2.3509886e-38
-0.036948524 -0.094907165 -0.01771795 2.3509886e-38
-0.035161756 -0.094907165 -0.01771795 2.3509886e-38
-0.033374988 -0.094907165 -0.01771795 2.3509886e-38
-0.031617057 -0.095617667 -0.020708553 2.341805e-38
-0.029825043 -0.095617667 -0.020708553 2.341805e-38
-0.028033033 -0.095617667 -0.020708553 2.2588648e-38
-0.026241019 -0.095617667 -0.020708553 2.0191562e-38
-0.024441142 -0.094907165 -0.01771795 1.6780324e-38
-0.022654373 -0.094907165 -0.01771795 1.4106647e-38
-0.020867605 -0.094907165 -0.01771795 1.5028601e-38
-0.019080836 -0.094907165 -0.01771795 1.3738219e-38
-0.017280959 -0.095617667 -0.020708553 1.5121154e-38
0.060859744 -0.088486508 0.00930769 2.7623376e-40
0.06259913 -0.088486508 0.00930769 6.4573655e-40
0.064338513 -0.088486508 0.00930769 7.3793218e-40
0.066077895 -0.088486508 0.00930769 9.2232344e-40
0.067817278 -0.088486508 0.00930769 1.1067147e-39
-0.084101938 -0.114632 -0.092669122 2.3509495e-38
-0.082183756 -0.114632 -0.092669122 2.3509876e-38
-0.080050901 -0.11367123 -0.088654749 2.3509886e-38
-0.077988051 -0.11296929 -0.085721843 2.2403541e-38
-0.076082058 -0.11296929 -0.085721843 2.341805e-38
-0.074029781 -0.11224325 -0.082688205 2.3142542e-38
-0.071945958 -0.11129995 -0.078746669 2.3234379e-38
-0.069739208 -0.10962458 -0.071746461 2.2497892e-38
-0.067725852 -0.10888995 -0.068676941 2.3142544e-38
-0.065562025 -0.10721879 -0.061694257 2.3234379e-38
-0.063579313 -0.10649781 -0.058681838 2.3234379e-38
-0.061495528 -0.1050681 -0.052708022 2.341805e-38
-0.059501674 -0.10409774 -0.048653476 2.341805e-38
-0.057560176 -0.10339431 -0.045714371 2.3509883e-38
-0.05562602 -0.10266902 -0.042683832 2.3509883e-38
-0.053703025 -0.10194789 -0.039670698 2.3509524e-38
-0.051791102 -0.10123092 -0.036674969 2.3509524e-38
-0.049971092 -0.10123092 -0.036674969 2.2679406e-38
-0.048151087 -0.10123092 -0.036674969 2.3509527e-38
-0.045953155 -0.09740968 -0.020708553 2.2955993e-38
-0.044095598 -0.096693933 -0.01771795 2.3509527e-38
-0.04230883 -0.096693933 -0.01771795 2.3416971e-38
-0.040467329 -0.095982388 -0.01474487 2.3509527e-38
-0.038685769 -0.095982388 -0.01474487 2.341769e-38
-0.036904216 -0.095982388 -0.01474487 2.3509886e-38
-0.035122659 -0.095982388 -0.01474487 2.3509886e-38
-0.033341102 -0.095982388 -0.01474487 2.2680125e-38
-0.031559546 -0.095982388 -0.01474487 2.341805e-38
-0.029801451 -0.096693933 -0.01771795 2.3326213e-38
-0.027996436 -0.095982388 -0.01474487 2.2957431e-38
-0.026214879 -0.095982388 -0.01474487 1.9453997e-38
-0.024425283 -0.095250636 -0.011687391 1.3553476e-38
-0.022649087 -0.095250636 -0.011687391 1.4659821e-38
-0.020872891 -0.095250636 -0.011687391 1.4936044e-38
-0.019088656 -0.095982388 -0.01474487 1.4843845e-38
0.05042344 -0.09022589 0.00930769 1.1978271e-39
0.052162822 -0.09022589 0.00930769 2.1197834e-39
0.053902205 -0.09022589 0.00930769 2.6729572e-39
0.055641588 -0.09022589 0.00930769 2.2119819e-39
0.057380978 -0.09022589 0.00930769 2.0275906e-39
0.059120361 -0.09022589 0.00930769 1.8431993e-39
0.060859744 -0.09022589 0.00930769 1.0137988e-39
0.06259913 -0.09022589 0.00930769 1.5676928e-39
0.064338513 -0.09022589 0.00930769 1.0152393e-39
0.066077895 -0.09022589 0.00930769 9.2304371e-40
0.067817278 -0.09022589 0.00930769 1.3840219e-39
0.069279455 -0.089505136 0.012319215 2.2137825e-39
0.071013547 -0.089505136 0.012319215 2.8591519e-39
0.072747655 -0.089505136 0.012319215 3.0435432e-39
-0.084101938 -0.11655019 -0.092669122 2.3508416e-38
-0.081962042 -0.11558239 -0.088654749 2.3323685e-38
-0.080050901 -0.11558239 -0.088654749 2.3416248e-38
-0.077988051 -0.1148753 -0.085721843 2.3509883e-38
-0.075930461 -0.11414395 -0.082688205 2.3509886e-38
-0.073839732 -0.11319371 -0.078746669 2.2312061e-38
-0.071806811 -0.11247168 -0.075751774 2.3234379e-38
-0.069739208 -0.11150609 -0.071746461 2.3234379e-38
-0.067599587 -0.11005743 -0.065737598 2.3142544e-38
-0.065562025 -0.10908265 -0.061694257 2.3234379e-38
-0.063579313 -0.1083564 -0.058681838 2.3234379e-38
-0.061342683 -0.10593875 -0.048653476 2.341805e-38
-0.059287105 -0.10449956 -0.042683832 2.341805e-38
-0.057353545 -0.10377313 -0.039670698 2.3509527e-38
-0.055431113 -0.10305093 -0.036674969 2.3509883e-38
-0.053611107 -0.10305093 -0.036674969 2.3509524e-38
-0.051677339 -0.10210292 -0.032742731 2.3509524e-38
-0.049781032 -0.10136487 -0.029681318 2.3509527e-38
-0.047821648 -0.099926919 -0.0237168 2.3509527e-38
-0.045953155 -0.099201679 -0.020708553 2.3509527e-38
-0.044095598 -0.098480701 -0.01771795 2.2955993e-38
-0.042248882 -0.097763941 -0.01474487 2.3509527e-38
-0.040467329 -0.097763941 -0.01474487 2.3509527e-38
-0.038634844 -0.09702684 -0.011687391 2.2772321e-38
-0.036858648 -0.09702684 -0.011687391 2.3509886e-38
-0.035042487 -0.09629415 -0.0086482689 1.8162539e-38
-0.033271622 -0.09629415 -0.0086482689 1.3091779e-38
-0.031500757 -0.09629415 -0.0086482689 1.0971999e-38
-0.029753868 -0.09702684 -0.011687391 8.7593037e-39
-0.027959023 -0.09629415 -0.0086482689 8.2061299e-39
-0.026188157 -0.09629415 -0.0086482689 9.4046731e-39
-0.024409607 -0.09559007 -0.0057277605 9.2202819e-39
-0.022643864 -0.09559007 -0.0057277605 1.1617365e-38
-0.020872891 -0.09702684 -0.011687391 1.2354563e-38
-0.019096699 -0.09702684 -0.011687391 1.3276157e-38
0.048326079 -0.090749919 0.014348872 1.2998868e-38
0.050056625 -0.090749919 0.014348872 1.2169107e-38
0.051938411 -0.091239244 0.012319215 1.1984716e-38
0.053672519 -0.091239244 0.012319215 1.2076911e-38
0.055406619 -0.091239244 0.012319215 1.1800327e-38
0.057380978 -0.091965273 0.00930769 1.216911e-38
0.059120361 -0.091965273 0.00930769 1.2445697e-38
0.06111208 -0.092695728 0.0062778071 1.1800687e-38
0.06259913 -0.091965273 0.00930769 1.0234082e-38
0.064338513 -0.091965273 0.00930769 9.5894329e-39
0.065811239 -0.091239244 0.012319215 9.0362591e-39
0.067545347 -0.091239244 0.012319215 8.8518679e-39
0.069279455 -0.091239244 0.012319215 8.8518679e-39
0.071013547 -0.091239244 0.012319215 8.6674766e-39
0.072747655 -0.091239244 0.012319215 8.0221072e-39
-0.08387319 -0.11749353 -0.088654749 2.1847457e-38
-0.081800058 -0.11678131 -0.085721843 2.3509156e-38
-0.079894058 -0.11678131 -0.085721843 2.2953828e-38
-0.077831142 -0.11604463 -0.082688205 2.3509521e-38
-0.075733505 -0.11508749 -0.078746669 2.3509524e-38
-0.073695324 -0.1143602 -0.075751774 2.2772318e-38
-0.07162071 -0.11338757 -0.071746461 2.3418047e-38
-0.069601968 -0.11264218 -0.068676941 2.3234379e-38
-0.067425899 -0.11094652 -0.061694257 2.3234379e-38
-0.065437905 -0.11021499 -0.058681838 2.3234379e-38
-0.063461147 -0.10948761 -0.055686466 2.3234379e-38
-0.061231889 -0.10706602 -0.045714371 2.341805e-38
-0.059178803 -0.10559841 -0.039670698 2.341805e-38
-0.057251122 -0.10487093 -0.036674969 2.3509527e-38
-0.055303566 -0.10391603 -0.032742731 2.3509527e-38
-0.053396519 -0.10317262 -0.029681318 2.3509524e-38
-0.051503759 -0.10245901 -0.026742689 2.3509524e-38
-0.049618933 -0.10172421 -0.0237168 2.314074e-38
-0.047669135 -0.10026747 -0.01771795 2.2587566e-38
-0.045882367 -0.10026747 -0.01771795 2.314074e-38
-0.044030439 -0.099545494 -0.01474487 2.3509883e-38
-0.042248882 -0.099545494 -0.01474487 2.1573414e-38
-0.04041104 -0.098803028 -0.011687391 2.3232936e-38
-0.038634844 -0.098803028 -0.011687391 2.3509883e-38
-0.036813356 -0.098065019 -0.0086482689 1.9822058e-38
-0.035004083 -0.097355813 -0.0057277605 1.1432255e-38
-0.033238336 -0.097355813 -0.0057277605 6.4536913e-39
-0.031472594 -0.097355813 -0.0057277605 5.4402582e-39
-0.029706847 -0.097355813 -0.0057277605 4.0573238e-39
-0.027922668 -0.096626461 -0.0027242824 3.4119544e-39
-0.026162189 -0.096626461 -0.0027242824 5.993432e-39
-0.024393857 -0.095901415 0.00026143342 7.0075839e-39
-0.022638611 -0.095901415 0.00026143342 7.5603948e-39
-0.020872891 -0.098803028 -0.011687391 9.8649184e-39
-0.019096699 -0.098803028 -0.011687391 1.207689e-38
0.007666572 -0.085698128 0.042278536 1.6039507e-38
0.0093481457 -0.085698128 0.042278536 1.5855119e-38
0.011029719 -0.085698128 0.042278536 1.5487057e-38
0.012711297 -0.085698128 0.042278536 1.5118996e-38
0.035684571 -0.090298802 0.023332961 8.2968934e-39
0.037399363 -0.090298802 0.023332961 9.9564148e-39
0.039114159 -0.090298802 0.023332961 1.1247154e-38
0.040828947 -0.090298802 0.023332961 1.1247151e-38
0.042543743 -0.090298802 0.023332961 1.1339346e-38
0.04446375 -0.091037035 0.020292945 1.3091061e-38
0.046389084 -0.091756567 0.017329879 1.373643e-38
0.0481144 -0.091756567 0.017329879 1.3920821e-38
0.049839716 -0.091756567 0.017329879 1.2537887e-38
0.051938411 -0.092973351 0.012319215 1.189252e-38
0.053672519 -0.092973351 0.012319215 1.1800325e-38
0.055406619 -0.092973351 0.012319215 1.1892523e-38
0.057140727 -0.092973351 0.012319215 1.2630088e-38
0.058874827 -0.092973351 0.012319215 1.3091066e-38
0.060859744 -0.093704656 0.00930769 1.2538253e-38
0.06259913 -0.093704656 0.00930769 1.2262385e-38
0.064338513 -0.093704656 0.00930769 1.1432624e-38
0.065811239 -0.092973351 0.012319215 1.0234081e-38
0.067545347 -0.092973351 0.012319215 8.9433418e-39
0.069279455 -0.092973351 0.012319215 7.652603e-39
0.071013547 -0.092973351 0.012319215 6.1774729e-39
0.072747655 -0.092973351 0.012319215 4.6101472e-39
0.074774809 -0.093704656 0.00930769 3.5959953e-39
0.076514192 -0.093704656 0.00930769 3.2272128e-39
0.078559048 -0.094440416 0.0062778071 2.4896477e-39
0.080303736 -0.094440416 0.0062778071 1.6598871e-39
-0.08353319 -0.11794533 -0.082688205 1.3826079e-38
-0.081632517 -0.11794533 -0.082688205 2.3506992e-38
-0.079521053 -0.11698125 -0.078746669 2.3506279e-38
-0.077627279 -0.11698125 -0.078746669 2.3508442e-38
-0.075583853 -0.11624874 -0.075751774 2.3509521e-38
-0.073502205 -0.11526908 -0.071746461 2.3509521e-38
-0.071478091 -0.1145183 -0.068676941 2.3509883e-38
-0.069470547 -0.11379938 -0.065737598 2.2865235e-38
-0.067425899 -0.11281042 -0.061694257 2.3234379e-38
-0.065437905 -0.11207359 -0.058681838 2.3234379e-38
-0.063183695 -0.10962076 -0.048653476 2.3234379e-38
-0.061117649 -0.10816063 -0.042683832 2.341805e-38
-0.059071127 -0.10669093 -0.036674969 2.341805e-38
-0.057251122 -0.10669093 -0.036674969 2.3509527e-38
-0.055303566 -0.10572915 -0.032742731 2.3509527e-38
-0.053396519 -0.10498036 -0.029681318 2.3509527e-38
-0.051416218 -0.10352151 -0.0237168 2.3509524e-38
-0.049618933 -0.10352151 -0.0237168 2.3509883e-38
-0.047669135 -0.10205424 -0.01771795 2.2587566e-38
-0.045811996 -0.10132705 -0.01474487 2.3509883e-38
-0.044030439 -0.10132705 -0.01474487 2.2864153e-38
-0.042187236 -0.10057923 -0.011687391 2.3509883e-38
-0.04041104 -0.10057923 -0.011687391 2.3509883e-38
-0.038584221 -0.099835888 -0.0086482689 2.3233296e-38
-0.03676983 -0.099121556 -0.0057277605 5.8083219e-39
-0.034964588 -0.098386943 -0.0027242824 6.2693e-39
-0.033204108 -0.098386943 -0.0027242824 5.0707568e-39
-0.031443629 -0.098386943 -0.0027242824 6.6388014e-39
-0.02968315 -0.098386943 -0.0027242824 7.0075839e-39
-0.027904347 -0.097656667 0.00026143342 6.8231927e-39
-0.026135661 -0.096906602 0.0033280328 7.2841708e-39
-0.024378035 -0.096185118 0.0062778071 5.5324539e-39
-0.022633336 -0.096185118 0.0062778071 4.0569594e-39
-0.020888641 -0.096185118 0.0062778071 5.3466094e-39
-0.00056620594 -0.089333788 0.034289308 1.5671812e-38
0.0011293767 -0.089333788 0.034289308 1.5579974e-38
0.0043853531 -0.088117093 0.039263733 1.5672167e-38
0.0060722148 -0.088117093 0.039263733 1.5947312e-38
0.007666572 -0.087379694 0.042278536 1.557781e-38
0.0093481457 -0.087379694 0.042278536 1.5946596e-38
0.011029719 -0.087379694 0.042278536 1.6684524e-38
0.012711297 -0.087379694 0.042278536 1.6685604e-38
0.018085204 -0.089333788 0.034289308 1.5488866e-38
0.019780789 -0.089333788 0.034289308 1.456691e-38
0.021476369 -0.089333788 0.034289308 1.3276534e-38
0.025010843 -0.090060756 0.031317122 1.3460565e-38
0.026711639 -0.090060756 0.031317122 1.4382521e-38
0.028567106 -0.090792179 0.028326698 1.4198127e-38
0.030273143 -0.090792179 0.028326698 1.4105213e-38
0.032093324 -0.091297671 0.026260026 1.4566193e-38
0.033802986 -0.091297671 0.026260026 1.4750588e-38
0.035512645 -0.091297671 0.026260026 1.5211566e-38
0.037399363 -0.092013597 0.023332961 1.3828631e-38
0.039114159 -0.092013597 0.023332961 1.2906675e-38
0.040828947 -0.092013597 0.023332961 1.1800325e-38
0.042543743 -0.092013597 0.023332961 1.0325192e-38
0.044258539 -0.092013597 0.023332961 9.3110398e-39
0.046183873 -0.092757151 0.020292945 7.2827359e-39
0.047903996 -0.092757151 0.020292945 5.3466277e-39
0.049624119 -0.092757151 0.020292945 4.1480845e-39
0.05156504 -0.093481898 0.017329879 3.3183266e-39
0.053672519 -0.094707444 0.012319215 2.6729572e-39
0.055641588 -0.095444039 0.00930769 1.6588081e-39
0.057140727 -0.094707444 0.012319215 1.1978299e-39
0.058874827 -0.094707444 0.012319215 7.3685178e-40
0.060859744 -0.095444039 0.00930769 9.1841101e-41
0.06259913 -0.095444039 0.00930769 9.1842503e-41
0.064338513 -0.095444039 0.00930769 2.8025969e-45
0.066077895 -0.095444039 0.00930769 5.6051939e-45
0.067817278 -0.095444039 0.00930769 9.2558566e-41
0.069556661 -0.095444039 0.00930769 4.6134389e-40
0.071013547 -0.094707444 0.012319215 5.5353672e-40
0.072747655 -0.094707444 0.012319215 3.6914826e-40
0.074481763 -0.094707444 0.012319215 9.2558566e-41
0.076215871 -0.094707444 0.012319215 4.6134389e-40
0.078253575 -0.095444039 0.00930769 3.629363e-43
0.079475887 -0.094211012 0.014348872 5.6051939e-45
0.080895446 -0.093481898 0.017329879 4.6134109e-40
0.082620762 -0.093481898 0.017329879 1.7520827e-39
0.084346078 -0.093481898 0.017329879 2.7662318e-39
0.086071394 -0.093481898 0.017329879 3.1350172e-39
-0.08353319 -0.119846 -0.082688205 3.4076202e-39
-0.081414826 -0.11887501 -0.078746669 1.7327724e-38
-0.079360895 -0.11813726 -0.075751774 2.3508435e-38
-0.077472366 -0.11813726 -0.075751774 2.3228609e-38
-0.075583853 -0.11813726 -0.075751774 2.3509158e-38
-0.073212482 -0.11567034 -0.065737598 2.3509521e-38
-0.071341515 -0.11567034 -0.065737598 2.3509524e-38
-0.06915509 -0.11393218 -0.058681838 2.2956712e-38
-0.067296498 -0.11393218 -0.058681838 2.341805e-38
-0.065314479 -0.1131943 -0.055686466 2.3234379e-38
-0.06294819 -0.10999118 -0.042683832 2.3234379e-38
-0.061004061 -0.10924892 -0.039670698 2.341805e-38
-0.059071127 -0.10851096 -0.036674969 2.341805e-38
-0.057116676 -0.10754226 -0.032742731 2.3509527e-38
-0.055204261 -0.10678811 -0.029681318 2.3509527e-38
-0.053306352 -0.10606419 -0.026742689 2.3509168e-38
-0.051329192 -0.10457774 -0.020708553 2.3509527e-38
-0.049537182 -0.10457774 -0.020708553 2.3048545e-38
-0.047593549 -0.1031086 -0.01474487 2.3509883e-38
-0.045811996 -0.1031086 -0.01474487 2.3509883e-38
-0.043963429 -0.10235542 -0.011687391 2.2126588e-38
-0.042187236 -0.10235542 -0.011687391 2.3509883e-38
-0.040355086 -0.10160676 -0.0086482689 2.3509883e-38
-0.038535576 -0.1008873 -0.0057277605 1.5673254e-38
-0.03676983 -0.1008873 -0.0057277605 6.5458869e-39
-0.034964588 -0.10014741 -0.0027242824 5.6239306e-39
-0.033204108 -0.10014741 -0.0027242824 6.7302782e-39
-0.031414837 -0.099411905 0.00026143342 6.9153883e-39
-0.029659592 -0.099411905 0.00026143342 6.1778233e-39
-0.027885526 -0.098656476 0.0033280328 6.730997e-39
-0.02610945 -0.097183421 0.00930769 6.5466058e-39
-0.024370067 -0.097183421 0.00930769 4.8870844e-39
-0.022633336 -0.09792982 0.0062778071 5.0711114e-39
-0.020888641 -0.09792982 0.0062778071 4.6083241e-39
-0.0022617886 -0.091029361 0.034289308 1.5027525e-38
-0.00056620594 -0.091029361 0.034289308 1.5857285e-38
0.0010572793 -0.090279013 0.037335284 1.7516804e-38
0.0027475199 -0.090279013 0.037335284 1.8069978e-38
0.0043853531 -0.089803949 0.039263733 1.71473e-38
0.0060722148 -0.089803949 0.039263733 1.9358553e-38
0.0077590747 -0.089803949 0.039263733 1.769831e-38
0.0094459364 -0.089803949 0.039263733 1.7145139e-38
0.011132798 -0.089803949 0.039263733 1.7975263e-38
0.012819658 -0.089803949 0.039263733 1.7330974e-38
0.014694038 -0.091029361 0.034289308 1.5210837e-38
0.016389623 -0.091029361 0.034289308 1.4013017e-38
0.018085204 -0.091029361 0.034289308 1.4382521e-38
0.019780789 -0.091029361 0.034289308 1.2354217e-38
0.021476369 -0.091029361 0.034289308 1.2907035e-38
0.02331005 -0.091761544 0.031317122 1.511973e-38
0.025010843 -0.091761544 0.031317122 1.4751304e-38
0.026711639 -0.091761544 0.031317122 1.567326e-38
0.028567106 -0.092498213 0.028326698 1.5212282e-38
0.030273143 -0.092498213 0.028326698 1.5395951e-38
0.032093324 -0.093007326 0.026260026 1.5395954e-38
0.033802986 -0.093007326 0.026260026 1.2722284e-38
0.035512645 -0.093007326 0.026260026 1.0970209e-38
0.037399363 -0.093728393 0.023332961 7.2827415e-39
0.039114159 -0.093728393 0.023332961 5.4388289e-39
0.040828947 -0.093728393 0.023332961 4.7934567e-39
0.042543743 -0.093728393 0.023332961 3.9636932e-39
0.044258539 -0.093728393 0.023332961 2.6729544e-39
0.045973327 -0.093728393 0.023332961 9.1835496e-41
0.047903996 -0.094477281 0.020292945 9.1835496e-41
0.049624119 -0.094477281 0.020292945 9.1835496e-41
0.051344242 -0.094477281 0.020292945 9.1835496e-41
0.053290356 -0.095207214 0.017329879 4.6026209e-40
0.055248264 -0.095941558 0.014348872 1.83678e-40
0.056978803 -0.095941558 0.014348872 3.6806926e-40
0.058874827 -0.096441552 0.012319215 6.4429882e-40
0.060859744 -0.097183421 0.00930769 9.1841101e-41
0.06259913 -0.097183421 0.00930769 4.6098095e-40
0.064338513 -0.097183421 0.00930769 1.8439126e-40
0.066077895 -0.097183421 0.00930769 2.8025969e-45
0.067817278 -0.097183421 0.00930769 0
0.069556661 -0.097183421 0.00930769 2.8025969e-45
0.071013547 -0.096441552 0.012319215 0
0.072747655 -0.096441552 0.012319215 2.8025969e-45
0.074481763 -0.096441552 0.012319215 0
0.076215871 -0.096441552 0.012319215 2.7658969e-40
0.077949964 -0.096441552 0.012319215 2.7658689e-40
0.079475887 -0.095941558 0.014348872 6.4537221e-40
0.080895446 -0.095207214 0.017329879 1.5673257e-39
0.082620762 -0.095207214 0.017329879 2.5814804e-39
0.084346078 -0.095207214 0.017329879 3.4112383e-39
-0.081414826 -0.1207688 -0.078746669 1.004319e-38
-0.079360895 -0.12002577 -0.075751774 2.3508075e-38
-0.077265203 -0.11903207 -0.071746461 2.3508435e-38
-0.075230323 -0.11827053 -0.068676941 2.3508437e-38
-0.073017523 -0.11653815 -0.061694257 2.3506642e-38
-0.071153648 -0.11653815 -0.061694257 2.3509521e-38
-0.069021165 -0.11504765 -0.055686466 2.3417327e-38
-0.067167826 -0.11504765 -0.055686466 2.3509886e-38
-0.064778738 -0.11182173 -0.042683832 2.341805e-38
-0.062711142 -0.11033095 -0.036674969 2.3234379e-38
-0.060891133 -0.11033095 -0.036674969 2.341805e-38
-0.05892979 -0.10935538 -0.032742731 2.341805e-38
-0.057012007 -0.10859586 -0.029681318 2.3509527e-38
-0.055108942 -0.10786678 -0.026742689 2.3509527e-38
-0.053121205 -0.10636975 -0.020708553 2.3509168e-38
-0.051242672 -0.10562779 -0.01771795 2.3509168e-38
-0.049455903 -0.10562779 -0.01771795 2.323258e-38
-0.047593549 -0.10489015 -0.01474487 2.3417327e-38
-0.045811996 -0.10489015 -0.01474487 2.3509883e-38
-0.043963429 -0.10413162 -0.011687391 2.3509883e-38
-0.042187236 -0.10413162 -0.011687391 2.314074e-38
-0.040355086 -0.10337763 -0.0086482689 5.8079617e-39
-0.038535576 -0.10265306 -0.0057277605 6.7302782e-39
-0.03676983 -0.10265306 -0.0057277605 6.1771044e-39
-0.034964588 -0.10190789 -0.0027242824 7.283452e-39
-0.033170082 -0.10116716 0.00026143342 8.6663864e-39
-0.031414837 -0.10116716 0.00026143342 7.0997796e-39
-0.029588215 -0.098922804 0.00930769 5.255867e-39
-0.027848832 -0.098922804 0.00930769 5.7168451e-39
-0.026087351 -0.097672105 0.014348872 5.7168451e-39
-0.024348967 -0.09693253 0.017329879 5.7168451e-39
-0.022623651 -0.09693253 0.017329879 7.7440658e-39
-0.020898331 -0.09693253 0.017329879 6.2671252e-39
-0.019238628 -0.090742856 0.042278536 8.8482371e-39
-0.017557051 -0.090742856 0.042278536 1.0414488e-38
-0.015875477 -0.090742856 0.042278536 1.2350961e-38
-0.0091095334 -0.091490805 0.039263733 1.5025727e-38
-0.0074226726 -0.091490805 0.039263733 1.7146948e-38
-0.0057358118 -0.091490805 0.039263733 1.7700122e-38
-0.00404895 -0.091490805 0.039263733 1.7977429e-38
-0.0023232056 -0.091969252 0.037335284 1.7700842e-38
-0.00063296314 -0.091969252 0.037335284 1.7700842e-38
0.0010572793 -0.091969252 0.037335284 1.8254732e-38
0.0027475199 -0.091969252 0.037335284 1.68718e-38
0.0044377623 -0.091969252 0.037335284 1.401337e-38
0.0061280048 -0.091969252 0.037335284 1.0507054e-38
0.0078182472 -0.091969252 0.037335284 8.3858352e-39
0.0095084896 -0.091969252 0.037335284 6.9110681e-39
0.011132798 -0.091490805 0.039263733 6.8195927e-39
0.012819658 -0.091490805 0.039263733 5.7128892e-39
0.014579217 -0.091969252 0.037335284 3.0410167e-39
0.016389623 -0.092724949 0.034289308 2.0265088e-39
0.018085204 -0.092724949 0.034289308 2.4885659e-39
0.019908462 -0.093462333 0.031317122 1.6591682e-39
0.021609258 -0.093462333 0.031317122 1.2903857e-39
0.02331005 -0.093462333 0.031317122 1.1981901e-39
0.025010843 -0.093462333 0.031317122 5.6051939e-45
0.026711639 -0.093462333 0.031317122 9.1842503e-41
0.028567106 -0.094204247 0.028326698 2.8025969e-45
0.030273143 -0.094204247 0.028326698 8.2904461e-40
0.031979181 -0.094204247 0.028326698 4.6026209e-40
0.033685219 -0.094204247 0.028326698 1.6588081e-39
0.035512645 -0.094716981 0.026260026 1.0130813e-39
0.037222307 -0.094716981 0.026260026 9.1841101e-41
0.038931966 -0.094716981 0.026260026 9.1838299e-41
0.040828947 -0.095443189 0.023332961 5.5245491e-40
0.042543743 -0.095443189 0.023332961 8.290418e-40
0.044258539 -0.095443189 0.023332961 9.2159336e-40
0.045973327 -0.095443189 0.023332961 9.1835496e-41
0.047688123 -0.095443189 0.023332961 6.4500647e-40
0.049402911 -0.095443189 0.023332961 1.8402972e-40
0.051344242 -0.096197397 0.020292945 4.6025928e-40
0.053064365 -0.096197397 0.020292945 3.6806365e-40
0.055015672 -0.09693253 0.017329879 9.1838299e-41
0.056740988 -0.09693253 0.017329879 9.1841101e-41
0.058709349 -0.097672105 0.014348872 1.836794e-40
0.060859744 -0.098922804 0.00930769 9.1841101e-41
0.06259913 -0.098922804 0.00930769 2.8025969e-45
0.064338513 -0.098922804 0.00930769 0
0.066077895 -0.098922804 0.00930769 0
0.067817278 -0.098922804 0.00930769 0
0.069279455 -0.09817566 0.012319215 0
0.071013547 -0.09817566 0.012319215 1.8439126e-40
0.072747655 -0.09817566 0.012319215 2.7658689e-40
0.074481763 -0.09817566 0.012319215 3.6878252e-40
0.076014794 -0.097672105 0.014348872 0
0.077745341 -0.097672105 0.014348872 2.7658689e-40
0.079475887 -0.097672105 0.014348872 9.219563e-40
0.080895446 -0.09693253 0.017329879 1.6595213e-39
0.082620762 -0.09693253 0.017329879 2.5814776e-39
0.084346078 -0.09693253 0.017329879 3.1346514e-39
0.086398073 -0.097672105 0.014348872 3.4112383e-39
-0.077265203 -0.12091358 -0.071746461 2.3508075e-38
-0.075083442 -0.11941226 -0.065737598 2.3508435e-38
-0.072872274 -0.11764936 -0.058681838 2.3506999e-38
-0.071013682 -0.11764936 -0.058681838 2.3509163e-38
-0.069021165 -0.11690097 -0.055686466 2.3509524e-38
-0.066739455 -0.11440946 -0.045714371 2.341769e-38
-0.064654581 -0.11289944 -0.039670698 2.341805e-38
-0.062711142 -0.11215095 -0.036674969 2.341805e-38
-0.0607429 -0.11116849 -0.032742731 2.341805e-38
-0.058819752 -0.11040358 -0.029681318 2.341805e-38
-0.056911536 -0.10966937 -0.026742689 2.3509527e-38
-0.055010796 -0.10891335 -0.0237168 2.3509527e-38
-0.053121205 -0.10816176 -0.020708553 2.3509168e-38
-0.051242672 -0.10741456 -0.01771795 2.3509168e-38
-0.049455903 -0.10741456 -0.01771795 2.3509527e-38
-0.047593549 -0.10667174 -0.01474487 2.3509883e-38
-0.045739625 -0.10590781 -0.011687391 2.2771958e-38
-0.043963429 -0.10590781 -0.011687391 2.3509883e-38
-0.042125955 -0.10514848 -0.0086482689 1.8991937e-38
-0.040301323 -0.1044188 -0.0057277605 4.9782011e-39
-0.038485549 -0.10366838 -0.0027242824 7.6522345e-39
-0.036725067 -0.10366838 -0.0027242824 7.5600388e-39
-0.034925327 -0.10292239 0.00026143342 7.6522345e-39
-0.033170082 -0.10292239 0.00026143342 8.3897995e-39
-0.031414837 -0.10292239 0.00026143342 7.6529533e-39
-0.029588215 -0.10066219 0.00930769 6.6388014e-39
-0.027830351 -0.099909768 0.012319215 5.7168451e-39
-0.026074287 -0.098657846 0.017329879 5.0714757e-39
-0.024333179 -0.09715797 0.023332961 5.6246495e-39
-0.02261401 -0.095910296 0.028326698 6.5455226e-39
-0.020910595 -0.095163137 0.031317122 8.0181205e-39
-0.019217614 -0.094420537 0.034289308 9.3084964e-39
-0.017557051 -0.092424423 0.042278536 1.0690355e-38
-0.015875477 -0.092424423 0.042278536 1.1428643e-38
-0.014193903 -0.092424423 0.042278536 1.032266e-38
-0.012512328 -0.092424423 0.042278536 1.0784003e-38
-0.010830753 -0.092424423 0.042278536 1.29967e-38
-0.0091491779 -0.092424423 0.042278536 1.5671096e-38
-0.0074226726 -0.093177676 0.039263733 2.0281599e-38
-0.0057358118 -0.093177676 0.039263733 2.0281244e-38
-0.00404895 -0.093177676 0.039263733 1.991354e-38
-0.0023232056 -0.09365949 0.037335284 1.8254019e-38
-0.00063296314 -0.09365949 0.037335284 1.5120086e-38
0.0010116315 -0.093177676 0.039263733 1.1248586e-38
0.0026984932 -0.093177676 0.039263733 6.3618614e-39
0.0044377623 -0.09365949 0.037335284 1.9357453e-39
0.0062161246 -0.094420537 0.034289308 2.8544604e-39
0.0079117073 -0.094420537 0.034289308 2.5775106e-39
0.0096072918 -0.094420537 0.034289308 2.209091e-39
0.011198732 -0.09365949 0.037335284 2.02542e-39
0.012888975 -0.09365949 0.037335284 1.4718903e-39
0.014579217 -0.09365949 0.037335284 3.6734339e-40
0.016389623 -0.094420537 0.034289308 3.6734619e-40
0.018085204 -0.094420537 0.034289308 6.4465615e-40
0.019780789 -0.094420537 0.034289308 7.0064923e-45
0.021609258 -0.095163137 0.031317122 7.0064923e-45
0.02331005 -0.095163137 0.031317122 7.0064923e-45
0.025010843 -0.095163137 0.031317122 5.6051939e-45
0.026711639 -0.095163137 0.031317122 8.2940754e-40
0.028567106 -0.095910296 0.028326698 2.8025969e-45
0.030273143 -0.095910296 0.028326698 4.6026209e-40
0.031979181 -0.095910296 0.028326698 9.1838299e-41
0.033685219 -0.095910296 0.028326698 9.1841101e-41
0.035512645 -0.096426651 0.026260026 9.1842503e-41
0.037222307 -0.096426651 0.026260026 9.1841101e-41
0.038931966 -0.096426651 0.026260026 8.2904461e-40
0.040828947 -0.09715797 0.023332961 1.3822156e-39
0.042543743 -0.09715797 0.023332961 9.2123743e-40
0.044258539 -0.09715797 0.023332961 1.1981803e-39
0.045973327 -0.09715797 0.023332961 6.4500367e-40
0.047688123 -0.09715797 0.023332961 4.6061241e-40
0.049402911 -0.09715797 0.023332961 9.1835496e-41
0.051117707 -0.09715797 0.023332961 9.1835496e-41
0.053064365 -0.097917527 0.020292945 9.1835496e-41
0.055015672 -0.098657846 0.017329879 9.1838299e-41
0.056740988 -0.098657846 0.017329879 6.4465615e-40
0.058709349 -0.099402651 0.014348872 1.1974726e-39
0.060608935 -0.099909768 0.012319215 9.2124304e-40
0.062343039 -0.099909768 0.012319215 0
0.064338513 -0.10066219 0.00930769 0
0.066077895 -0.10066219 0.00930769 0
0.067817278 -0.10066219 0.00930769 0
0.069279455 -0.099909768 0.012319215 0
0.071013547 -0.099909768 0.012319215 9.2194229e-41
0.072747655 -0.099909768 0.012319215 1.8438846e-40
0.074481763 -0.099909768 0.012319215 1.8438846e-40
0.076014794 -0.099402651 0.014348872 1.8438846e-40
0.077745341 -0.099402651 0.014348872 1.8438846e-40
0.079475887 -0.099402651 0.014348872 5.5317098e-40
0.080895446 -0.098657846 0.017329879 1.3829316e-39
0.082620762 -0.098657846 0.017329879 2.4892792e-39
0.084667526 -0.099402651 0.014348872 3.4112355e-39
0.086398073 -0.099402651 0.014348872 4.0566049e-39
0.087796725 -0.098657846 0.017329879 4.2409962e-39
-0.074432351 -0.11800493 -0.052708022 2.3508074e-38
-0.072584234 -0.11800493 -0.052708022 2.35088e-38
-0.070874505 -0.11875431 -0.055686466 2.3509161e-38
-0.068888001 -0.11800493 -0.052708022 2.3509523e-38
-0.066609271 -0.11548282 -0.042683832 2.341805e-38
-0.064531147 -0.11397095 -0.036674969 2.3234379e-38
-0.062556013 -0.1129816 -0.032742731 2.3234379e-38
-0.0607429 -0.1129816 -0.032742731 2.341805e-38
-0.058819752 -0.11221133 -0.029681318 2.341805e-38
-0.056808081 -0.11071064 -0.0237168 2.3509527e-38
-0.054913215 -0.10995375 -0.020708553 2.3509527e-38
-0.053121205 -0.10995375 -0.020708553 2.3508809e-38
-0.051242672 -0.10920133 -0.01771795 2.3509168e-38
-0.049455903 -0.10920133 -0.01771795 2.3139664e-38
-0.047593549 -0.10845329 -0.01474487 2.3509883e-38
-0.045739625 -0.107684 -0.011687391 2.3509527e-38
-0.043963429 -0.107684 -0.011687391 4.6094186e-39
-0.042125955 -0.10691936 -0.0086482689 3.7796579e-39
-0.040301323 -0.10618456 -0.0057277605 5.8079617e-39
-0.038485549 -0.10542886 -0.0027242824 6.6377224e-39
-0.036725067 -0.10542886 -0.0027242824 8.4819951e-39
-0.034925327 -0.10467763 0.00026143342 8.5741908e-39
-0.033135131 -0.10390608 0.0033280328 8.021017e-39
-0.031327602 -0.10240157 0.00930769 8.2061271e-39
-0.029564455 -0.10164386 0.012319215 7.9295402e-39
-0.027817897 -0.1011332 0.014348872 5.255867e-39
-0.026061296 -0.099637643 0.020292945 4.4261063e-39
-0.024333179 -0.098872766 0.023332961 5.5324539e-39
-0.02261401 -0.09761633 0.028326698 4.8860012e-39
-0.020910595 -0.096863925 0.031317122 4.4228553e-39
-0.019217614 -0.096116111 0.034289308 4.3302981e-39
-0.017543837 -0.094864532 0.039263733 4.6987233e-39
-0.015875477 -0.094106004 0.042278536 4.3299436e-39
-0.014193903 -0.094106004 0.042278536 2.5785924e-39
-0.012512328 -0.094106004 0.042278536 6.4284847e-40
-0.010830753 -0.094106004 0.042278536 8.2759987e-40
-0.0091491779 -0.094106004 0.042278536 2.3949284e-39
-0.0074676033 -0.094106004 0.042278536 1.3811394e-39
-0.0057860287 -0.094106004 0.042278536 2.7587083e-40
-0.00404895 -0.094864532 0.039263733 9.1841101e-41
-0.0023620902 -0.094864532 0.039263733 2.8025969e-45
-0.00063296314 -0.095349744 0.037335284 2.8025969e-45
0.0010116315 -0.094864532 0.039263733 7.1886611e-43
0.0026984932 -0.094864532 0.039263733 7.1886611e-43
0.0044377623 -0.095349744 0.037335284 9.1835496e-41
0.0062161246 -0.096116111 0.034289308 5.5101298e-40
0.0079117073 -0.096116111 0.034289308 1.5640775e-39
0.0096072918 -0.096116111 0.034289308 2.3934822e-39
0.011302873 -0.096116111 0.034289308 1.6566375e-39
0.012998457 -0.096116111 0.034289308 6.4356594e-40
0.014694038 -0.096116111 0.034289308 3.6734198e-40
0.016389623 -0.096116111 0.034289308 1.83678e-40
0.018085204 -0.096116111 0.034289308 7.0064923e-45
0.019780789 -0.096116111 0.034289308 5.5353672e-40
0.021609258 -0.096863925 0.031317122 7.2447131e-43
0.02331005 -0.096863925 0.031317122 9.328584e-41
0.025155034 -0.09761633 0.028326698 9.3288643e-41
0.026861072 -0.09761633 0.028326698 8.3084808e-40
0.028567106 -0.09761633 0.028326698 7.0064923e-45
0.030273143 -0.09761633 0.028326698 1.013803e-39
0.032093324 -0.098136306 0.026260026 1.2903899e-39
0.033802986 -0.098136306 0.026260026 1.1981915e-39
0.035512645 -0.098136306 0.026260026 8.3012641e-40
0.037222307 -0.098136306 0.026260026 5.6051939e-45
0.038931966 -0.098136306 0.026260026 5.5317658e-40
0.040828947 -0.098872766 0.023332961 4.6098095e-40
0.042543743 -0.098872766 0.023332961 2.8025969e-45
0.044258539 -0.098872766 0.023332961 4.6097815e-40
0.045973327 -0.098872766 0.023332961 7.3684617e-40
0.047688123 -0.098872766 0.023332961 1.4744112e-39
0.049402911 -0.098872766 0.023332961 4.6025928e-40
0.051117707 -0.098872766 0.023332961 9.1838299e-41
0.053064365 -0.099637643 0.020292945 1.836752e-40
0.054784488 -0.099637643 0.020292945 9.1838299e-41
0.056504611 -0.099637643 0.020292945 2.7623376e-40
0.058466312 -0.10038316 0.017329879 2.7623376e-40
0.060608935 -0.10164386 0.012319215 5.6051939e-45
0.062343039 -0.10164386 0.012319215 0
0.064077146 -0.10164386 0.012319215 0
0.066077895 -0.10240157 0.00930769 9.219563e-41
0.067817278 -0.10240157 0.00930769 1.8439126e-40
0.069279455 -0.10164386 0.012319215 2.7658689e-40
0.071013547 -0.10164386 0.012319215 1.8439126e-40
0.072747655 -0.10164386 0.012319215 9.219563e-41
0.074481763 -0.10164386 0.012319215 0
0.076215871 -0.10164386 0.012319215 0
0.077949964 -0.10164386 0.012319215 0
0.079475887 -0.1011332 0.014348872 0
0.080895446 -0.10038316 0.017329879 1.8438846e-40
0.082620762 -0.10038316 0.017329879 1.5673229e-39
0.084346078 -0.10038316 0.017329879 2.9502574e-39
0.086071394 -0.10038316 0.017329879 3.780018e-39
0.087796725 -0.10038316 0.017329879 4.0569608e-39
-0.074432351 -0.11985306 -0.052708022 2.3509511e-38
-0.072584234 -0.11985306 -0.052708022 2.3506276e-38
-0.070736118 -0.11985306 -0.052708022 2.3509158e-38
-0.068575315 -0.11808117 -0.045714371 2.3509879e-38
-0.066479839 -0.11654995 -0.039670698 2.2958867e-38
-0.064369127 -0.11479472 -0.032742731 2.2867034e-38
-0.06243524 -0.11401908 -0.029681318 2.2315298e-38
-0.060627498 -0.11401908 -0.029681318 2.3234379e-38
-0.058605369 -0.11250792 -0.0237168 2.3049273e-38
-0.056808081 -0.11250792 -0.0237168 2.3234379e-38
-0.054913215 -0.11174576 -0.020708553 2.3509527e-38
-0.053029444 -0.1109881 -0.01771795 2.3506295e-38
-0.051156662 -0.11023484 -0.01474487 2.3508092e-38
-0.049375106 -0.11023484 -0.01474487 2.3508451e-38
-0.047593549 -0.11023484 -0.01474487 2.2494295e-38
-0.045811996 -0.11023484 -0.01474487 1.8621722e-38
-0.043963429 -0.10946019 -0.011687391 1.4736909e-39
-0.042187236 -0.10946019 -0.011687391 2.8566254e-39
-0.040355086 -0.10869022 -0.0086482689 5.8998014e-39
-0.038485549 -0.10718934 -0.0027242824 5.5310189e-39
-0.036725067 -0.10718934 -0.0027242824 7.8359097e-39
-0.034925327 -0.1064329 0.00026143342 8.3897995e-39
-0.033135131 -0.10565595 0.0033280328 8.2976039e-39
-0.031327602 -0.10414095 0.00930769 8.0217331e-39
-0.029564455 -0.10337795 0.012319215 7.6529505e-39
-0.027817897 -0.10286374 0.014348872 7.0075811e-39
-0.026047971 -0.10058756 0.023332961 5.8090379e-39
-0.024320047 -0.099322364 0.028326698 4.4261035e-39
-0.022611387 -0.098564714 0.031317122 3.5959813e-39
-0.020913199 -0.097811699 0.034289308 3.6874595e-39
-0.019230697 -0.096551389 0.039263733 2.3956416e-39
-0.017557051 -0.09578757 0.042278536 1.7502722e-39
-0.015875477 -0.09578757 0.042278536 1.4736881e-39
-0.014193903 -0.09578757 0.042278536 1.8367239e-40
-0.012512328 -0.09578757 0.042278536 9.1838299e-41
-0.010830753 -0.09578757 0.042278536 9.1841101e-41
-0.0091491779 -0.09578757 0.042278536 9.1841101e-41
-0.0074676033 -0.09578757 0.042278536 9.1841101e-41
-0.0057860287 -0.09578757 0.042278536 9.1842503e-41
-0.0041044531 -0.09578757 0.042278536 1.8439406e-40
-0.0023620902 -0.096551389 0.039263733 2.8025969e-45
-0.00067522842 -0.096551389 0.039263733 0
0.0010116315 -0.096551389 0.039263733 0
0.0026984932 -0.096551389 0.039263733 1.8438846e-40
0.0044377623 -0.097039983 0.037335284 5.5352691e-40
0.0062161246 -0.097811699 0.034289308 2.7550649e-40
0.0079117073 -0.097811699 0.034289308 6.4356594e-40
0.0096072918 -0.097811699 0.034289308 8.2759987e-40
0.011302873 -0.097811699 0.034289308 1.8421077e-39
0.012998457 -0.097811699 0.034289308 1.5658698e-39
0.014694038 -0.097811699 0.034289308 1.0130603e-39
0.016389623 -0.097811699 0.034289308 7.0064923e-45
0.018085204 -0.097811699 0.034289308 4.6206836e-40
0.019908462 -0.098564714 0.031317122 5.5568491e-40
0.021609258 -0.098564714 0.031317122 1.5712788e-39
0.02331005 -0.098564714 0.031317122 2.2163105e-39
0.025155034 -0.099322364 0.028326698 3.2622228e-42
0.026861072 -0.099322364 0.028326698 3.7203353e-40
0.028567106 -0.099322364 0.028326698 1.293271e-39
0.030273143 -0.099322364 0.028326698 1.8513255e-40
0.032093324 -0.099845976 0.026260026 1.2914801e-39
0.033802986 -0.099845976 0.026260026 7.3937412e-40
0.035512645 -0.099845976 0.026260026 7.2307001e-43
0.037222307 -0.099845976 0.026260026 1.8048724e-42
0.038931966 -0.099845976 0.026260026 7.3865245e-40
0.040828947 -0.10058756 0.023332961 7.0064923e-45
0.042543743 -0.10058756 0.023332961 9.2196751e-40
0.044258539 -0.10058756 0.023332961 9.220684e-41
0.045973327 -0.10058756 0.023332961 8.2941175e-40
0.047688123 -0.10058756 0.023332961 1.2903899e-39
0.049402911 -0.10058756 0.023332961 1.8404234e-40
0.051117707 -0.10058756 0.023332961 9.1846707e-41
0.052832503 -0.10058756 0.023332961 7.0064923e-45
0.054784488 -0.10135777 0.020292945 6.4501768e-40
0.056504611 -0.10135777 0.020292945 5.6051939e-45
0.058466312 -0.10210848 0.017329879 5.6051939e-45
0.060439896 -0.10286374 0.014348872 9.2558566e-41
0.062170438 -0.10286374 0.014348872 2.8025969e-45
0.064077146 -0.10337795 0.012319215 9.2198432e-41
0.065811239 -0.10337795 0.012319215 1.8439406e-40
0.067545347 -0.10337795 0.012319215 1.8439406e-40
0.069279455 -0.10337795 0.012319215 5.6051939e-45
0.071013547 -0.10337795 0.012319215 5.6051939e-45
0.072747655 -0.10337795 0.012319215 5.6051939e-45
0.074481763 -0.10337795 0.012319215 1.8403813e-40
0.076215871 -0.10337795 0.012319215 5.6051939e-45
0.077949964 -0.10337795 0.012319215 3.6842939e-40
0.079475887 -0.10286374 0.014348872 2.8025969e-45
0.080895446 -0.10210848 0.017329879 0
0.082620762 -0.10210848 0.017329879 8.2976067e-40
0.084346078 -0.10210848 0.017329879 5.2551481e-39
0.086071394 -0.10210848 0.017329879 4.9785612e-39
0.087796725 -0.10210848 0.017329879 4.517939e-39
-0.072584234 -0.12170117 -0.052708022 2.3509153e-38
-0.070411168 -0.11991702 -0.045714371 2.3508794e-38
-0.068305098 -0.11837523 -0.039670698 2.3325843e-38
-0.066351153 -0.11761098 -0.036674969 2.3142537e-38
-0.064242981 -0.11582683 -0.029681318 2.2499684e-38
-0.062199939 -0.11430521 -0.0237168 2.2867034e-38
-0.060289253 -0.11353777 -0.020708553 2.2498971e-38
-0.058497243 -0.11353777 -0.020708553 2.3142544e-38
-0.056705229 -0.11353777 -0.020708553 2.341805e-38
-0.054816213 -0.11277486 -0.01771795 2.2955999e-38
-0.053029444 -0.11277486 -0.01771795 2.3508451e-38
-0.051156662 -0.11201639 -0.01474487 2.3508092e-38
-0.049375106 -0.11201639 -0.01474487 2.3508809e-38
-0.047593549 -0.11201639 -0.01474487 4.6079864e-39
-0.045811996 -0.11201639 -0.01474487 1.7499219e-39
-0.043963429 -0.11123641 -0.011687391 1.1967481e-39
-0.042187236 -0.11123641 -0.011687391 3.0410167e-39
-0.040355086 -0.11046107 -0.0086482689 4.3317555e-39
-0.038535576 -0.10971604 -0.0057277605 5.8998014e-39
-0.036725067 -0.10894983 -0.0027242824 5.6232146e-39
-0.034925327 -0.10818814 0.00026143342 6.0845486e-39
-0.033135131 -0.10740583 0.0033280328 6.6380825e-39
-0.031327602 -0.10588033 0.00930769 7.5603948e-39
-0.029564455 -0.10511206 0.012319215 8.2061243e-39
-0.027817897 -0.10459428 0.014348872 8.0217331e-39
-0.026047971 -0.10230236 0.023332961 6.7309942e-39
-0.024320047 -0.1010284 0.028326698 5.0718302e-39
-0.022611387 -0.10026552 0.031317122 3.7807341e-39
-0.020913199 -0.099507287 0.034289308 3.8722137e-39
-0.019238628 -0.097469151 0.042278536 2.489282e-39
-0.017557051 -0.097469151 0.042278536 2.0283039e-39
-0.015875477 -0.097469151 0.042278536 1.8439154e-39
-0.014193903 -0.097469151 0.042278536 7.3756784e-40
-0.012512328 -0.097469151 0.042278536 5.6051939e-45
-0.010830753 -0.097469151 0.042278536 1.8403813e-40
-0.0091491779 -0.097469151 0.042278536 1.8403813e-40
-0.0074676033 -0.097469151 0.042278536 5.6051939e-45
-0.0057860287 -0.097469151 0.042278536 1.8403813e-40
-0.0041044531 -0.097469151 0.042278536 2.7658969e-40
-0.0023620902 -0.09823826 0.039263733 9.219563e-41
-0.00067522842 -0.09823826 0.039263733 0
0.0010116315 -0.09823826 0.039263733 0
0.0026984932 -0.09823826 0.039263733 2.7694142e-40
0.0044377623 -0.098730221 0.037335284 6.4572113e-40
0.0062161246 -0.099507287 0.034289308 1.5673145e-39
0.0079117073 -0.099507287 0.034289308 1.2907276e-39
0.0096072918 -0.099507287 0.034289308 1.3807736e-39
0.011302873 -0.099507287 0.034289308 2.4874771e-39
0.012998457 -0.099507287 0.034289308 2.5793e-39
0.014694038 -0.099507287 0.034289308 3.2253911e-39
0.016389623 -0.099507287 0.034289308 3.410525e-39
0.018085204 -0.099507287 0.034289308 5.9930831e-39
0.019908462 -0.10026552 0.031317122 1.2264884e-38
0.021609258 -0.10026552 0.031317122 1.7060142e-38
0.02331005 -0.10026552 0.031317122 1.6046734e-38
0.025010843 -0.10026552 0.031317122 3.6921664e-39
0.026861072 -0.1010284 0.028326698 7.328791e-43
