# .PCD v0.7 - Point Cloud Data file format
VERSION 0.7
FIELDS x y z rgb
SIZE 4 4 4 4
TYPE F F F F
COUNT 1 1 1 1
WIDTH 972
HEIGHT 1
VIEWPOINT 0 0 0 1 0 0 0
POINTS 972
DATA ascii
-0.086604103 -0.11683889 0.01957313 9.1835496e-41
-0.08488398 -0.11683889 0.01957313 9.1835496e-41
-0.082990624 -0.11602069 0.022613145 3.7789278e-39
-0.081275836 -0.11602069 0.022613145 3.9618659e-39
-0.079561047 -0.11602069 0.022613145 1.2878493e-39
-0.077694856 -0.11523293 0.02554021 4.8823761e-39
-0.075881921 -0.1146767 0.027606882 9.584356e-39
-0.074031688 -0.11387186 0.030597307 9.9524197e-39
-0.0723309 -0.11387186 0.030597307 1.08733e-38
-0.070497222 -0.11307193 0.033569492 1.0320126e-38
-0.068670787 -0.11225216 0.036615469 5.7103459e-39
-0.066980548 -0.11225216 0.036615469 9.9513477e-39
-0.065290302 -0.11225216 0.036615469 1.1980375e-38
-0.063600063 -0.11225216 0.036615469 1.3271113e-38
-0.061909825 -0.11225216 0.036615469 1.4562571e-38
-0.060219582 -0.11225216 0.036615469 1.6683794e-38
-0.05852934 -0.11225216 0.036615469 1.8344034e-38
-0.056779925 -0.11173315 0.038543917 1.7883775e-38
-0.055005848 -0.11092176 0.04155872 2.0004643e-38
-0.053242851 -0.11011542 0.044554688 1.9175978e-38
-0.05156653 -0.11011542 0.044554688 3.1339466e-39
-0.049890205 -0.11011542 0.044554688 9.8090893e-45
-0.048168361 -0.10955642 0.046631731 1.1989089e-39
-0.046435911 -0.10875858 0.049596108 1.8442755e-39
-0.044712551 -0.10794173 0.052631177 6.4716447e-40
-0.043050393 -0.10794173 0.052631177 5.5496604e-40
-0.041388229 -0.10794173 0.052631177 1.1081384e-39
-0.039700381 -0.10741599 0.054584719 2.7873508e-40
-0.038007416 -0.10660769 0.057588018 5.5531777e-40
-0.036353946 -0.10660769 0.057588018 9.2302129e-40
-0.034676928 -0.10580449 0.060572363 7.3827129e-40
-0.018213917 -0.10526402 0.062580444 7.3506652e-40
-0.016569201 -0.10526402 0.062580444 8.2724954e-40
-0.014898077 -0.10580449 0.060572363 3.6734198e-40
-0.013249839 -0.10580449 0.060572363 5.5101298e-40
-0.011601602 -0.10580449 0.060572363 1.4471474e-38
-0.0098984214 -0.10660769 0.057588018 1.7698695e-38
-0.0082449513 -0.10660769 0.057588018 1.8806118e-38
-0.0065914812 -0.10660769 0.057588018 2.0650379e-38
-0.0049380111 -0.10660769 0.057588018 2.0651102e-38
-0.0029531894 -0.11011542 0.044554688 2.2402837e-38
-0.0012768684 -0.11011542 0.044554688 2.1387967e-38
0.0004861271 -0.11092176 0.04155872 2.1941121e-38
0.0023193778 -0.11225216 0.036615469 2.0834406e-38
0.0040096203 -0.11225216 0.036615469 2.0742929e-38
0.0056998627 -0.11225216 0.036615469 1.9544386e-38
0.0073901052 -0.11225216 0.036615469 1.6501573e-38
0.0091951685 -0.11307193 0.033569492 7.28201e-39
0.010890753 -0.11307193 0.033569492 4.6094186e-39
0.012708799 -0.11387186 0.030597307 9.1835496e-41
0.014538051 -0.1146767 0.027606882 9.1835496e-41
0.016336489 -0.11523293 0.02554021 0
0.018182151 -0.11602069 0.022613145 0
0.020043522 -0.11683889 0.01957313 3.5873241e-43
0.022162091 -0.11898489 0.011599399 3.5873241e-43
0.023791216 -0.11843865 0.013629057 2.8025969e-45
0.025521759 -0.11843865 0.013629057 2.8025969e-45
0.027364403 -0.11898489 0.011599399 2.8025969e-45
0.029270113 -0.1197954 0.0085878745 2.8025969e-45
0.031187464 -0.12061088 0.0055579916 2.8025969e-45
0.033110593 -0.12140475 0.0026082173 2.8025969e-45
0.035237174 -0.12303366 -0.0034440979 2.8025969e-45
0.037376773 -0.12462802 -0.0093680844 2.8025969e-45
0.039347459 -0.12544595 -0.012407206 2.8025969e-45
0.041123655 -0.12544595 -0.012407206 2.8025969e-45
0.042899851 -0.12544595 -0.012407206 2.8025969e-45
0.044893157 -0.12626885 -0.015464686 2.8025969e-45
0.04667471 -0.12626885 -0.015464686 2.8025969e-45
0.048677813 -0.12706901 -0.018437766 2.8025969e-45
0.050922114 -0.12868352 -0.024436615 2.8025969e-45
0.05295549 -0.1294979 -0.027462505 2.8025969e-45
0.054758083 -0.1294979 -0.027462505 2.8025969e-45
0.056800254 -0.13028879 -0.030401133 2.8025969e-45
0.058862977 -0.13111271 -0.033462547 2.8025969e-45
0.061265208 -0.13297729 -0.040390514 2.8025969e-45
0.063351981 -0.13378824 -0.043403648 9.1838299e-41
0.065450855 -0.13460387 -0.046434186 9.1838299e-41
0.067286707 -0.13460387 -0.046434186 9.1838299e-41
0.069393121 -0.13539489 -0.049373291 2.8025969e-45
0.071614452 -0.13648613 -0.053427838 2.8025969e-45
0.07374718 -0.13728772 -0.056406282 2.8025969e-45
0.075600527 -0.13728772 -0.056406282 2.8025969e-45
0.077750601 -0.13809387 -0.059401654 2.8025969e-45
0.08032053 -0.13999285 -0.066457413 2.8025969e-45
0.08219149 -0.13999285 -0.066457413 2.8025969e-45
0.08406245 -0.13999285 -0.066457413 2.8025969e-45
0.086245216 -0.14078392 -0.069396757 2.8025969e-45
0.088452317 -0.14161004 -0.072466277 2.8025969e-45
0.090333812 -0.14161004 -0.072466277 2.8025969e-45
0.092661254 -0.14268802 -0.07647159 2.8025969e-45
0.094888456 -0.14349405 -0.079466484 2.8025969e-45
0.09678223 -0.14349405 -0.079466484 2.8025969e-45
0.09913557 -0.14455487 -0.08340802 1.8439406e-40
0.10103626 -0.14455487 -0.08340802 2.8025969e-45
0.10293695 -0.14455487 -0.08340802 2.8025969e-45
0.10520729 -0.14537133 -0.086441658 2.8025969e-45
0.10711329 -0.14537133 -0.086441658 9.219563e-41
-0.10887875 -0.12398534 -0.00045838207 1.2354928e-38
-0.1071235 -0.12398534 -0.00045838207 1.0787605e-38
-0.10536826 -0.12398534 -0.00045838207 1.3836505e-39
-0.10361301 -0.12398534 -0.00045838207 1.8511013e-40
-0.10162925 -0.12315463 0.0026082173 5.5389265e-40
-0.099444292 -0.12153481 0.0085878745 8.2976347e-40
-0.097491063 -0.120719 0.011599399 7.3756784e-40
-0.095756955 -0.120719 0.011599399 2.7658969e-40
-0.093885846 -0.12016918 0.013629057 1.3829373e-39
-0.0921553 -0.12016918 0.013629057 1.5666068e-39
-0.090233974 -0.11936165 0.016610064 9.1835496e-41
-0.088508658 -0.11936165 0.016610064 3.6841958e-40
-0.086604103 -0.11855899 0.01957313 1.1981803e-39
-0.08470542 -0.11773549 0.022613145 1.8402972e-40
-0.082990624 -0.11773549 0.022613145 4.5989495e-40
-0.081275836 -0.11773549 0.022613145 6.4284847e-40
-0.079561047 -0.11773549 0.022613145 1.0112667e-39
-0.077694856 -0.11694257 0.02554021 5.0667701e-39
-0.075881921 -0.11638273 0.027606882 7.6475317e-39
-0.074031688 -0.11557265 0.030597307 6.4479095e-39
-0.072192803 -0.11476754 0.033569492 6.539745e-39
-0.070497222 -0.11476754 0.033569492 7.9226795e-39
-0.068670787 -0.1139424 0.036615469 7.3691484e-39
-0.066980548 -0.1139424 0.036615469 1.0688191e-38
-0.065290302 -0.1139424 0.036615469 1.0964781e-38
-0.063600063 -0.1139424 0.036615469 1.1702709e-38
-0.061909825 -0.1139424 0.036615469 1.4561852e-38
-0.060219582 -0.1139424 0.036615469 1.6775989e-38
-0.05852934 -0.1139424 0.036615469 1.48406e-38
-0.056779925 -0.11341999 0.038543917 1.5947309e-38
-0.055005848 -0.11260332 0.04155872 1.8806099e-38
-0.053242851 -0.11179174 0.044554688 1.90827e-38
-0.05156653 -0.11179174 0.044554688 5.0696891e-39
-0.049890205 -0.11179174 0.044554688 6.4465615e-40
-0.048168361 -0.11122911 0.046631731 6.4537221e-40
-0.046435911 -0.11042608 0.049596108 4.6169421e-40
-0.044712551 -0.1096039 0.052631177 7.1746481e-43
-0.043050393 -0.1096039 0.052631177 1.8654085e-40
-0.041388229 -0.1096039 0.052631177 1.2006872e-39
-0.039700381 -0.1090747 0.054584719 4.6312354e-40
-0.038007416 -0.10826115 0.057588018 6.4751199e-40
-0.036353946 -0.10826115 0.057588018 9.2337722e-40
-0.034676928 -0.10745271 0.060572363 5.546003e-40
-0.016569201 -0.10690875 0.062580444 3.6734899e-40
-0.014898077 -0.10745271 0.060572363 3.6734198e-40
-0.013249839 -0.10745271 0.060572363 5.5101298e-40
-0.011601602 -0.10745271 0.060572363 1.4103047e-38
-0.0098431306 -0.1090747 0.054584719 1.7791247e-38
-0.0082449513 -0.10826115 0.057588018 1.8898313e-38
-0.0065914812 -0.10826115 0.057588018 2.0097205e-38
-0.0045585977 -0.11260332 0.04155872 2.2218428e-38
-0.0028770221 -0.11260332 0.04155872 2.1665272e-38
-0.0011954485 -0.11260332 0.04155872 2.0558206e-38
0.00057334546 -0.11341999 0.038543917 2.0189404e-38
0.0023193778 -0.1139424 0.036615469 1.7884865e-38
0.0040096203 -0.1139424 0.036615469 1.5118996e-38
0.0056998627 -0.1139424 0.036615469 1.5579974e-38
0.0073901052 -0.1139424 0.036615469 1.1892149e-38
0.0091951685 -0.11476754 0.033569492 6.0838242e-39
0.010890753 -0.11476754 0.033569492 3.8707717e-39
0.012708799 -0.11557265 0.030597307 1.7513512e-39
0.014538051 -0.11638273 0.027606882 9.1835496e-41
0.016336489 -0.11694257 0.02554021 9.1835496e-41
0.018323399 -0.11855899 0.01957313 9.1835496e-41
0.020043522 -0.11855899 0.01957313 0
0.022162091 -0.120719 0.011599399 0
0.023791216 -0.12016918 0.013629057 0
0.025521759 -0.12016918 0.013629057 0
0.027364403 -0.120719 0.011599399 9.219563e-41
0.029098507 -0.120719 0.011599399 3.5873241e-43
0.031187464 -0.12235557 0.0055579916 3.5873241e-43
0.033110593 -0.12315463 0.0026082173 3.5873241e-43
0.035237174 -0.12479414 -0.0034440979 3.5873241e-43
0.037376773 -0.12639888 -0.0093680844 2.8025969e-45
0.039347459 -0.12722217 -0.012407206 2.8025969e-45
0.041123655 -0.12722217 -0.012407206 5.6051939e-45
0.042899851 -0.12722217 -0.012407206 5.6051939e-45
0.044893157 -0.1280504 -0.015464686 5.6051939e-45
0.04667471 -0.1280504 -0.015464686 5.6051939e-45
0.048677813 -0.12885578 -0.018437766 2.8025969e-45
0.050692674 -0.1296659 -0.021428369 2.8025969e-45
0.052719403 -0.13048081 -0.024436615 3.5873241e-43
0.054758083 -0.13130049 -0.027462505 3.5873241e-43
0.056800254 -0.13209651 -0.030401133 3.5873241e-43
0.05919046 -0.13399105 -0.037394784 3.5873241e-43
0.061265208 -0.13480256 -0.040390514 0
0.063351981 -0.13561879 -0.043403648 0
0.065450855 -0.13643973 -0.046434186 0
0.067286707 -0.13643973 -0.046434186 0
0.069122575 -0.13643973 -0.046434186 0
0.071614452 -0.13833423 -0.053427838 0
0.073462568 -0.13833423 -0.053427838 0
0.075600527 -0.13914107 -0.056406282 0
0.077750601 -0.13995247 -0.059401654 0
0.079912893 -0.14076851 -0.062414072 0
0.08219149 -0.14186381 -0.066457413 0
0.08406245 -0.14186381 -0.066457413 0
0.086245216 -0.14266007 -0.069396757 0
0.088121332 -0.14266007 -0.069396757 0
0.090333812 -0.14349155 -0.072466277 0
0.092215307 -0.14349155 -0.072466277 0
0.094549768 -0.14457656 -0.07647159 2.8025969e-45
0.09678223 -0.14538784 -0.079466484 2.8025969e-45
0.09913557 -0.14645557 -0.08340802 2.7658969e-40
0.10103626 -0.14645557 -0.08340802 2.8025969e-45
0.10330129 -0.14727734 -0.086441658 9.2198432e-41
0.10520729 -0.14727734 -0.086441658 2.8025969e-45
0.10711329 -0.14727734 -0.086441658 0
-0.10862873 -0.1249045 0.0026082173 1.2262732e-38
-0.10687885 -0.1249045 0.0026082173 1.0511018e-38
-0.105129 -0.1249045 0.0026082173 1.5680418e-39
-0.10337912 -0.1249045 0.0026082173 4.6169702e-40
-0.10140944 -0.12410025 0.0055579916 4.6169702e-40
-0.099225156 -0.12245311 0.011599399 7.3756784e-40
-0.097491063 -0.12245311 0.011599399 9.219591e-40
-0.095616378 -0.12189974 0.013629057 6.4537221e-40
-0.093885846 -0.12189974 0.013629057 4.6098095e-40
-0.0921553 -0.12189974 0.013629057 8.2904461e-40
-0.090233974 -0.12108697 0.016610064 3.6806365e-40
-0.088508658 -0.12108697 0.016610064 9.1835496e-41
-0.086604103 -0.12027912 0.01957313 4.6061521e-40
-0.08470542 -0.11945029 0.022613145 9.2159056e-40
-0.082990624 -0.11945029 0.022613145 1.381847e-39
-0.081275836 -0.11945029 0.022613145 1.7495393e-39
-0.079561047 -0.11945029 0.022613145 2.4867386e-39
-0.077694856 -0.11865224 0.02554021 4.0533455e-39
-0.075881921 -0.11808877 0.027606882 4.8820272e-39
-0.074031688 -0.11727346 0.030597307 4.6047214e-39
-0.072192803 -0.11646311 0.033569492 5.6181531e-39
-0.070497222 -0.11646311 0.033569492 7.6457353e-39
-0.068670787 -0.11563264 0.036615469 8.9364741e-39
-0.066980548 -0.11563264 0.036615469 8.5676944e-39
-0.065290302 -0.11563264 0.036615469 9.4896535e-39
-0.063600063 -0.11563264 0.036615469 9.0290382e-39
-0.061909825 -0.11563264 0.036615469 8.4769435e-39
-0.060219582 -0.11563264 0.036615469 7.740819e-39
-0.058466785 -0.11510687 0.038543917 3.4079845e-39
-0.056779925 -0.11510687 0.038543917 4.4228581e-39
-0.055005848 -0.11428489 0.04155872 4.9767577e-39
-0.053242851 -0.11346807 0.044554688 5.1608001e-39
-0.05156653 -0.11346807 0.044554688 2.7551209e-40
-0.049841046 -0.11290176 0.046631731 6.4357715e-40
-0.048103392 -0.11209355 0.049596108 5.5245491e-40
-0.046435911 -0.11209355 0.049596108 4.6133128e-40
-0.044712551 -0.11126606 0.052631177 9.2302409e-40
-0.043050393 -0.11126606 0.052631177 2.2137601e-39
-0.041388229 -0.11126606 0.052631177 1.6616625e-39
-0.039700381 -0.11073343 0.054584719 9.2409748e-40
-0.038007416 -0.10991462 0.057588018 8.3225918e-40
-0.036353946 -0.10991462 0.057588018 7.3898876e-40
-0.034676928 -0.10910095 0.060572363 5.546003e-40
-0.016569201 -0.10855345 0.062580444 3.6734619e-40
-0.014924483 -0.10855345 0.062580444 3.6734198e-40
-0.013279766 -0.10855345 0.062580444 5.5101298e-40
-0.011601602 -0.10910095 0.060572363 1.1982548e-38
-0.0098984214 -0.10991462 0.057588018 1.7791245e-38
-0.0082449513 -0.10991462 0.057588018 1.8345139e-38
-0.006525659 -0.11073343 0.054584719 1.788451e-38
-0.0046295123 -0.11346807 0.044554688 1.6133516e-38
-0.0029531894 -0.11346807 0.044554688 1.0878384e-38
-0.0011954485 -0.11428489 0.04155872 7.6515366e-39
0.0004861271 -0.11428489 0.04155872 4.7019799e-39
0.0022602053 -0.11510687 0.038543917 6.0845458e-39
0.0040096203 -0.11563264 0.036615469 5.9001546e-39
0.0056998627 -0.11563264 0.036615469 8.2972409e-39
0.0073901052 -0.11563264 0.036615469 8.5738278e-39
0.0091951685 -0.11646311 0.033569492 7.6518715e-39
0.010890753 -0.11646311 0.033569492 4.3328289e-39
0.012708799 -0.11727346 0.030597307 9.1835496e-41
0.014538051 -0.11808877 0.027606882 1.8402972e-40
0.016336489 -0.11865224 0.02554021 1.8402972e-40
0.018323399 -0.12027912 0.01957313 1.8402972e-40
0.020043522 -0.12027912 0.01957313 9.1835496e-41
0.022162091 -0.12245311 0.011599399 9.1835496e-41
0.023791216 -0.12189974 0.013629057 9.1835496e-41
0.025521759 -0.12189974 0.013629057 9.1835496e-41
0.027364403 -0.12245311 0.011599399 9.1835496e-41
0.029098507 -0.12245311 0.011599399 0
0.031187464 -0.12410025 0.0055579916 3.5873241e-43
0.033110593 -0.1249045 0.0026082173 3.5873241e-43
0.035237174 -0.12655462 -0.0034440979 3.5873241e-43
0.037376773 -0.12816976 -0.0093680844 2.8025969e-45
0.039347459 -0.12899835 -0.012407206 2.8025969e-45
0.041123655 -0.12899835 -0.012407206 5.6051939e-45
0.043111604 -0.12983195 -0.015464686 5.6051939e-45
0.044893157 -0.12983195 -0.015464686 5.6051939e-45
0.04667471 -0.12983195 -0.015464686 2.8025969e-45
0.048677813 -0.13064255 -0.018437766 2.8025969e-45
0.050692674 -0.13145791 -0.021428369 3.5873241e-43
0.052719403 -0.1322781 -0.024436615 3.5873241e-43
0.054758083 -0.13310309 -0.027462505 3.5873241e-43
0.056800254 -0.13390426 -0.030401133 3.5873241e-43
0.05919046 -0.13581105 -0.037394784 3.5873241e-43
0.061265208 -0.13662781 -0.040390514 0
0.063090466 -0.13662781 -0.040390514 0
0.065182529 -0.13744931 -0.043403648 0
0.067286707 -0.13827558 -0.046434186 0
0.069122575 -0.13827558 -0.046434186 0
0.071234129 -0.1390769 -0.049373291 0
0.073075138 -0.1390769 -0.049373291 0
0.074916147 -0.1390769 -0.049373291 0
0.077453859 -0.14099441 -0.056406282 0
0.079912893 -0.14263238 -0.062414072 0
0.08219149 -0.14373477 -0.066457413 0
0.08406245 -0.14373477 -0.066457413 0
0.086245216 -0.14453618 -0.069396757 0
0.088121332 -0.14453618 -0.069396757 0
0.089997448 -0.14453618 -0.069396757 0
0.092215307 -0.14537306 -0.072466277 0
0.094549768 -0.14646508 -0.07647159 2.8025969e-45
0.09678223 -0.1472816 -0.079466484 2.8025969e-45
0.09913557 -0.14835624 -0.08340802 1.8439406e-40
0.10103626 -0.14835624 -0.08340802 2.8025969e-45
0.10330129 -0.14918335 -0.086441658 2.7658969e-40
0.10520729 -0.14918335 -0.086441658 2.8025969e-45
-0.10838824 -0.12584494 0.0055579916 1.2447126e-38
-0.10664354 -0.12584494 0.0055579916 1.0142235e-38
-0.10489885 -0.12584494 0.0055579916 1.1992593e-39
-0.10315415 -0.12584494 0.0055579916 2.7730576e-40
-0.10118368 -0.12501357 0.0085878745 2.7694983e-40
-0.099225156 -0.12418722 0.011599399 2.7623376e-40
-0.097491063 -0.12418722 0.011599399 3.6842939e-40
-0.095616378 -0.12363027 0.013629057 3.6842939e-40
-0.093885846 -0.12363027 0.013629057 2.8025969e-45
-0.0921553 -0.12363027 0.013629057 4.6026209e-40
-0.090233974 -0.12281232 0.016610064 1.1978243e-39
-0.088508658 -0.12281232 0.016610064 4.6061521e-40
-0.086604103 -0.12199925 0.01957313 9.1835496e-41
-0.08488398 -0.12199925 0.01957313 6.4500647e-40
-0.082990624 -0.12116508 0.022613145 4.6061241e-40
-0.081275836 -0.12116508 0.022613145 1.1052602e-39
-0.079404511 -0.12036191 0.02554021 1.5655166e-39
-0.077694856 -0.12036191 0.02554021 1.5647936e-39
-0.075881921 -0.1197948 0.027606882 1.5640747e-39
-0.074031688 -0.11897425 0.030597307 2.2090812e-39
-0.072192803 -0.11815868 0.033569492 2.6689803e-39
-0.070497222 -0.11815868 0.033569492 2.6686188e-39
-0.068670787 -0.11732288 0.036615469 3.1285179e-39
-0.066980548 -0.11732288 0.036615469 5.8021926e-39
-0.065290302 -0.11732288 0.036615469 8.015608e-39
-0.063600063 -0.11732288 0.036615469 8.7538947e-39
-0.061909825 -0.11732288 0.036615469 8.0170499e-39
-0.060153648 -0.11679374 0.038543917 7.1880109e-39
-0.058466785 -0.11679374 0.038543917 3.1317661e-39
-0.056687422 -0.11596648 0.04155872 2.6718684e-39
-0.055005848 -0.11596648 0.04155872 7.3540424e-40
-0.053242851 -0.11514439 0.044554688 3.6734759e-40
-0.05156653 -0.11514439 0.044554688 3.6734759e-40
-0.049841046 -0.11457445 0.046631731 2.6711621e-39
-0.048103392 -0.11376105 0.049596108 1.2892997e-39
-0.046435911 -0.11376105 0.049596108 2.7622395e-40
-0.044712551 -0.11292823 0.052631177 1.8474719e-40
-0.043050393 -0.11292823 0.052631177 1.0152169e-39
-0.041388229 -0.11292823 0.052631177 1.4349296e-42
-0.039700381 -0.11239217 0.054584719 9.2409748e-40
-0.038041644 -0.11239217 0.054584719 5.5531777e-40
-0.036353946 -0.11156808 0.057588018 2.7873508e-40
-0.014924483 -0.11019818 0.062580444 3.6734198e-40
-0.013279766 -0.11019818 0.062580444 2.5789455e-39
-0.011635049 -0.11019818 0.062580444 1.0599612e-38
-0.0099533638 -0.1107492 0.060572363 1.557855e-38
-0.0082449513 -0.11156808 0.057588018 1.4380726e-38
-0.0065914812 -0.11156808 0.057588018 1.4104487e-38
-0.0047488427 -0.11376105 0.049596108 1.0232996e-38
-0.0030813599 -0.11376105 0.049596108 6.0842109e-39
-0.0012768684 -0.11514439 0.044554688 4.0562672e-39
0.0004861271 -0.11596648 0.04155872 1.5684131e-39
0.0022602053 -0.11679374 0.038543917 5.25659e-39
0.0039470671 -0.11679374 0.038543917 6.9161114e-39
0.0056998627 -0.11732288 0.036615469 6.7317201e-39
0.0073901052 -0.11732288 0.036615469 8.0217359e-39
0.0091951685 -0.11815868 0.033569492 8.1139315e-39
0.010890753 -0.11815868 0.033569492 5.9927131e-39
0.012708799 -0.11897425 0.030597307 1.5673229e-39
0.014538051 -0.1197948 0.027606882 2.7658689e-40
0.016336489 -0.12036191 0.02554021 2.7658409e-40
0.018323399 -0.12199925 0.01957313 2.7622395e-40
0.020043522 -0.12199925 0.01957313 1.8402972e-40
0.02206067 -0.12363027 0.013629057 9.1835496e-41
0.023896195 -0.12418722 0.011599399 9.1835496e-41
0.025630299 -0.12418722 0.011599399 2.7550649e-40
0.027364403 -0.12418722 0.011599399 9.1835496e-41
0.029098507 -0.12418722 0.011599399 3.5873241e-43
0.031009499 -0.12501357 0.0085878745 3.5873241e-43
0.032932159 -0.12584494 0.0055579916 0
0.035051335 -0.12749584 -0.00045838207 0
0.037376773 -0.12994061 -0.0093680844 0
0.039147634 -0.12994061 -0.0093680844 0
0.041123655 -0.13077454 -0.012407206 2.8025969e-45
0.043111604 -0.13161351 -0.015464686 2.8025969e-45
0.044893157 -0.13161351 -0.015464686 2.8025969e-45
0.04667471 -0.13161351 -0.015464686 2.8025969e-45
0.048677813 -0.13242932 -0.018437766 2.8025969e-45
0.050922114 -0.13407536 -0.024436615 0
0.052719403 -0.13407536 -0.024436615 0
0.054758083 -0.13490568 -0.027462505 0
0.056800254 -0.13571201 -0.030401133 0
0.058862977 -0.13655205 -0.033462547 0
0.061265208 -0.13845308 -0.040390514 0
0.063090466 -0.13845308 -0.040390514 0
0.065182529 -0.13927986 -0.043403648 0
0.067013063 -0.13927986 -0.043403648 0
0.069122575 -0.14011143 -0.046434186 0
0.070958428 -0.14011143 -0.046434186 0
0.073075138 -0.14091791 -0.049373291 0
0.074916147 -0.14091791 -0.049373291 0
0.077453859 -0.14284773 -0.056406282 0
0.079912893 -0.14449625 -0.062414072 0
0.08219149 -0.14560573 -0.066457413 0
0.08406245 -0.14560573 -0.066457413 0
0.086245216 -0.1464123 -0.069396757 0
0.088121332 -0.1464123 -0.069396757 0
0.089997448 -0.1464123 -0.069396757 0
0.092215307 -0.14725454 -0.072466277 0
0.094549768 -0.14835359 -0.07647159 2.8025969e-45
0.09678223 -0.14917539 -0.079466484 2.8025969e-45
-0.10838824 -0.12758966 0.0055579916 1.1340779e-38
-0.10664354 -0.12758966 0.0055579916 9.1280834e-39
-0.10466244 -0.12675296 0.0085878745 1.8511013e-40
-0.10292306 -0.12675296 0.0085878745 2.8025969e-45
-0.10095926 -0.12592132 0.011599399 9.2558566e-41
-0.099225156 -0.12592132 0.011599399 2.7623376e-40
-0.097491063 -0.12592132 0.011599399 2.7623376e-40
-0.095616378 -0.12536083 0.013629057 6.4501628e-40
-0.093885846 -0.12536083 0.013629057 6.4501628e-40
-0.0921553 -0.12536083 0.013629057 1.836752e-40
-0.090233974 -0.12453763 0.016610064 6.4465335e-40
-0.088324226 -0.12371938 0.01957313 7.3684617e-40
-0.086604103 -0.12371938 0.01957313 8.2939773e-40
-0.08488398 -0.12371938 0.01957313 1.2903759e-39
-0.082990624 -0.12287988 0.022613145 9.1835496e-41
-0.081275836 -0.12287988 0.022613145 5.5317658e-40
-0.079404511 -0.12207155 0.02554021 1.3829344e-39
-0.077694856 -0.12207155 0.02554021 1.29002e-39
-0.075881921 -0.12150083 0.027606882 1.1049056e-39
-0.074031688 -0.12067504 0.030597307 1.9332244e-39
-0.072192803 -0.11985429 0.033569492 2.0246997e-39
-0.070361033 -0.11901312 0.036615469 1.3789674e-39
-0.068670787 -0.11901312 0.036615469 1.2856969e-39
-0.066980548 -0.11901312 0.036615469 1.102026e-39
-0.065214232 -0.11848058 0.038543917 1.4700854e-39
-0.063527368 -0.11848058 0.038543917 1.932144e-39
-0.061840508 -0.11848058 0.038543917 2.8544618e-39
-0.060153648 -0.11848058 0.038543917 3.6845854e-39
-0.058368996 -0.11764805 0.04155872 2.4878401e-39
-0.056687422 -0.11764805 0.04155872 2.5800385e-39
-0.055005848 -0.11764805 0.04155872 1.3811394e-39
-0.053242851 -0.11682071 0.044554688 1.9325195e-39
-0.05156653 -0.11682071 0.044554688 1.3793457e-39
-0.049841046 -0.11624713 0.046631731 2.209105e-39
-0.048103392 -0.11542852 0.049596108 1.2885808e-39
-0.046435911 -0.11542852 0.049596108 1.3814897e-39
-0.044712551 -0.11459039 0.052631177 6.4500227e-40
-0.043050393 -0.11459039 0.052631177 2.1208484e-39
-0.041388229 -0.11459039 0.052631177 2.3059557e-39
-0.039700381 -0.11405091 0.054584719 8.3082566e-40
-0.038041644 -0.11405091 0.054584719 3.7092931e-40
-0.036353946 -0.11322157 0.057588018 1.8654085e-40
-0.013279766 -0.11184289 0.062580444 5.5101298e-40
-0.011635049 -0.11184289 0.062580444 2.0257745e-39
-0.0099533638 -0.11239742 0.060572363 2.947749e-39
-0.0082449513 -0.11322157 0.057588018 2.5796854e-39
-0.0065914812 -0.11322157 0.057588018 6.4522494e-39
-0.004820683 -0.11459039 0.052631177 6.0849088e-39
-0.0030813599 -0.11542852 0.049596108 6.4529934e-39
-0.0013333159 -0.11624713 0.046631731 6.2700441e-39
0.0003994545 -0.11682071 0.044554688 5.3498759e-39
0.0021677027 -0.11764805 0.04155872 5.4431449e-39
0.0038492763 -0.11764805 0.04155872 3.967296e-39
0.0056339288 -0.11848058 0.038543917 2.5237385e-42
0.0073901052 -0.11901312 0.036615469 2.7874769e-40
0.0090803476 -0.11901312 0.036615469 1.4405348e-42
0.010890753 -0.11985429 0.033569492 9.3637566e-41
0.012708799 -0.12067504 0.030597307 3.61535e-43
0.014538051 -0.12150083 0.027606882 2.7694983e-40
0.016336489 -0.12207155 0.02554021 2.7658689e-40
0.018323399 -0.12371938 0.01957313 2.7658689e-40
0.020043522 -0.12371938 0.01957313 2.7622395e-40
0.02206067 -0.12536083 0.013629057 9.1835496e-41
0.023791216 -0.12536083 0.013629057 9.1835496e-41
0.025630299 -0.12592132 0.011599399 2.7550649e-40
0.027364403 -0.12592132 0.011599399 9.1835496e-41
0.029098507 -0.12592132 0.011599399 3.5873241e-43
0.031009499 -0.12675296 0.0085878745 3.5873241e-43
0.032932159 -0.12758966 0.0055579916 3.5873241e-43
0.035051335 -0.12925108 -0.00045838207 0
0.037189867 -0.13090499 -0.006447576 0
0.039147634 -0.1317115 -0.0093680844 0
0.041123655 -0.13255073 -0.012407206 2.8025969e-45
0.042899851 -0.13255073 -0.012407206 2.8025969e-45
0.044893157 -0.13339506 -0.015464686 2.8025969e-45
0.04667471 -0.13339506 -0.015464686 2.8025969e-45
0.048677813 -0.13421609 -0.018437766 0
0.050922114 -0.13587265 -0.024436615 0
0.052719403 -0.13587265 -0.024436615 0
0.054758083 -0.13670824 -0.027462505 3.5873241e-43
0.056560673 -0.13670824 -0.027462505 3.5873241e-43
0.058862977 -0.13836516 -0.033462547 3.5873241e-43
0.061010472 -0.13945107 -0.037394784 0
0.063090466 -0.14027832 -0.040390514 0
0.065182529 -0.14111041 -0.043403648 0
0.067013063 -0.14111041 -0.043403648 0
0.069122575 -0.14194728 -0.046434186 0
0.070958428 -0.14194728 -0.046434186 0
0.073075138 -0.14275892 -0.049373291 0
0.074916147 -0.14275892 -0.049373291 0
0.077453859 -0.14470108 -0.056406282 0
0.079609193 -0.14552824 -0.059401654 0
0.081776761 -0.14636014 -0.062414072 0
0.08406245 -0.14747669 -0.066457413 0
0.086245216 -0.14828841 -0.069396757 0
0.088121332 -0.14828841 -0.069396757 0
0.089997448 -0.14828841 -0.069396757 0
0.092215307 -0.14913605 -0.072466277 0
-0.10838824 -0.12933435 0.0055579916 1.1340779e-38
-0.10664354 -0.12933435 0.0055579916 9.4968687e-39
-0.10466244 -0.12849234 0.0085878745 4.6169702e-40
-0.10292306 -0.12849234 0.0085878745 2.8025969e-45
-0.10095926 -0.12765543 0.011599399 6.4573235e-40
-0.099225156 -0.12765543 0.011599399 1.1059944e-39
-0.097346924 -0.12709136 0.013629057 9.2160317e-40
-0.095616378 -0.12709136 0.013629057 6.4501628e-40
-0.093885846 -0.12709136 0.013629057 1.0137988e-39
-0.0921553 -0.12709136 0.013629057 9.1838299e-41
-0.090233974 -0.12626295 0.016610064 1.836752e-40
-0.088324226 -0.12543948 0.01957313 5.5245491e-40
-0.086604103 -0.12543948 0.01957313 2.7586802e-40
-0.08470542 -0.12459467 0.022613145 9.2159336e-40
-0.082990624 -0.12459467 0.022613145 0
-0.081275836 -0.12459467 0.022613145 3.6994279e-43
-0.079404511 -0.12378122 0.02554021 8.3156975e-40
-0.077587955 -0.1232069 0.027606882 1.1985544e-39
-0.075732492 -0.12237583 0.030597307 5.5282065e-40
-0.073888384 -0.12154986 0.033569492 9.2016124e-40
-0.072192803 -0.12154986 0.033569492 1.3807764e-39
-0.070361033 -0.12070335 0.036615469 1.7484772e-39
-0.068670787 -0.12070335 0.036615469 1.9325083e-39
-0.066901088 -0.12016745 0.038543917 2.9459414e-39
-0.065095291 -0.11932962 0.04155872 9.1835636e-40
-0.063413717 -0.11932962 0.04155872 5.5101298e-40
-0.061732147 -0.11932962 0.04155872 8.2760267e-40
-0.060050569 -0.11932962 0.04155872 9.2016124e-40
-0.058271818 -0.11849703 0.044554688 1.6591682e-39
-0.056595497 -0.11849703 0.044554688 1.3825827e-39
-0.054919176 -0.11849703 0.044554688 2.0272333e-39
-0.053242851 -0.11849703 0.044554688 1.6559354e-39
-0.05156653 -0.11849703 0.044554688 1.1942356e-39
-0.049890205 -0.11849703 0.044554688 1.7477667e-39
-0.048168361 -0.11791982 0.046631731 2.2094609e-39
-0.046435911 -0.11709599 0.049596108 2.8566226e-39
-0.044712551 -0.11625256 0.052631177 4.6061241e-40
-0.043050393 -0.11625256 0.052631177 2.7694142e-40
-0.041388229 -0.11625256 0.052631177 9.3270426e-41
-0.039700381 -0.11570965 0.054584719 9.2302409e-40
-0.038041644 -0.11570965 0.054584719 8.3082846e-40
-0.036353946 -0.11487503 0.057588018 5.5496464e-40
-0.013279766 -0.11348762 0.062580444 1.1038196e-39
-0.011635049 -0.11348762 0.062580444 2.6711439e-39
-0.0099533638 -0.11404566 0.060572363 2.210184e-39
-0.0083051259 -0.11404566 0.060572363 4.2392067e-39
-0.0065914812 -0.11487503 0.057588018 7.9273794e-39
-0.004820683 -0.11625256 0.052631177 7.6522345e-39
-0.0030813599 -0.11709599 0.049596108 7.0983629e-39
-0.0013333159 -0.11791982 0.046631731 5.6250348e-39
0.0003994545 -0.11849703 0.044554688 4.1524173e-39
0.0020757755 -0.11849703 0.044554688 2.6790795e-39
0.0038492763 -0.11932962 0.04155872 1.1113936e-39
0.0056339288 -0.12016745 0.038543917 1.4447387e-42
0.0073901052 -0.12070335 0.036615469 3.9642734e-42
0.0090803476 -0.12070335 0.036615469 1.4433374e-42
0.010890753 -0.12154986 0.033569492 7.2307001e-43
0.012708799 -0.12237583 0.030597307 2.1636048e-42
0.014538051 -0.1232069 0.027606882 1.084605e-42
0.016336489 -0.12378122 0.02554021 1.0818024e-42
0.018182151 -0.12459467 0.022613145 9.2558566e-41
0.020043522 -0.12543948 0.01957313 9.219563e-41
0.02206067 -0.12709136 0.013629057 9.2198432e-41
0.023791216 -0.12709136 0.013629057 9.219563e-41
0.025521759 -0.12709136 0.013629057 1.8367239e-40
0.027364403 -0.12765543 0.011599399 1.8402972e-40
0.029270113 -0.12849234 0.0085878745 3.5873241e-43
0.031009499 -0.12849234 0.0085878745 3.5873241e-43
0.033110593 -0.13015409 0.0026082173 3.5873241e-43
0.035051335 -0.13100632 -0.00045838207 0
0.036997657 -0.13183604 -0.0034440979 0
0.039147634 -0.13348235 -0.0093680844 0
0.041123655 -0.13432692 -0.012407206 2.8025969e-45
0.042899851 -0.13432692 -0.012407206 2.8025969e-45
0.044893157 -0.13517661 -0.015464686 2.8025969e-45
0.04667471 -0.13517661 -0.015464686 2.8025969e-45
0.048677813 -0.13600285 -0.018437766 0
0.050922114 -0.13766994 -0.024436615 0
0.052719403 -0.13766994 -0.024436615 0
0.054758083 -0.13851084 -0.027462505 3.5873241e-43
0.056560673 -0.13851084 -0.027462505 3.5873241e-43
0.058608003 -0.13932751 -0.030401133 3.5873241e-43
0.061010472 -0.14127107 -0.037394784 3.5873241e-43
0.062830471 -0.14127107 -0.037394784 3.5873241e-43
0.064915739 -0.1421036 -0.040390514 3.5873241e-43
0.067013063 -0.14294095 -0.043403648 3.5873241e-43
0.069122575 -0.14378314 -0.046434186 0
0.071234129 -0.14459993 -0.049373291 0
0.073075138 -0.14459993 -0.049373291 0
0.074916147 -0.14459993 -0.049373291 0
0.077453859 -0.14655443 -0.056406282 0
0.079609193 -0.14738683 -0.059401654 0
0.081776761 -0.14822401 -0.062414072 0
0.08406245 -0.14934768 -0.066457413 0
-0.11063399 -0.13276155 -0.00045838207 1.2907385e-38
-0.10814121 -0.13023172 0.0085878745 1.3368364e-38
-0.10640182 -0.13023172 0.0085878745 1.1708842e-38
-0.10442746 -0.12938951 0.011599399 2.1204995e-39
-0.10269337 -0.12938951 0.011599399 1.0141519e-39
-0.10095926 -0.12938951 0.011599399 1.5673257e-39
-0.099225156 -0.12938951 0.011599399 1.7517198e-39
-0.097346924 -0.12882192 0.013629057 1.3829373e-39
-0.095616378 -0.12882192 0.013629057 1.198546e-39
-0.093885846 -0.12882192 0.013629057 1.936111e-39
-0.0921553 -0.12882192 0.013629057 1.29002e-39
-0.090233974 -0.12798826 0.016610064 2.6729544e-39
-0.088324226 -0.12715961 0.01957313 2.3963675e-39
-0.086604103 -0.12715961 0.01957313 9.1835496e-41
-0.08470542 -0.12630944 0.022613145 2.7622395e-40
-0.082990624 -0.12630944 0.022613145 5.5389265e-40
-0.081275836 -0.12630944 0.022613145 3.705916e-40
-0.079404511 -0.12549089 0.02554021 1.293271e-39
-0.077587955 -0.12491293 0.027606882 1.8450028e-39
-0.075732492 -0.12407662 0.030597307 1.0145191e-39
-0.073888384 -0.12324543 0.033569492 4.6062502e-40
-0.072192803 -0.12324543 0.033569492 9.2016124e-40
-0.070361033 -0.12239362 0.036615469 1.196388e-39
-0.068670787 -0.12239362 0.036615469 1.1031134e-39
-0.066901088 -0.12185432 0.038543917 8.2652647e-40
-0.065095291 -0.12101121 0.04155872 5.5101578e-40
-0.063413717 -0.12101121 0.04155872 1.1038364e-39
-0.061732147 -0.12101121 0.04155872 1.934316e-39
-0.059948139 -0.12017335 0.044554688 6.4429882e-40
-0.058271818 -0.12017335 0.044554688 2.2123434e-39
-0.056595497 -0.12017335 0.044554688 2.765981e-40
-0.054919176 -0.12017335 0.044554688 9.2160738e-40
-0.053242851 -0.12017335 0.044554688 1.7488513e-39
-0.05156653 -0.12017335 0.044554688 1.7481282e-39
-0.049890205 -0.12017335 0.044554688 1.5637356e-39
-0.048168361 -0.1195925 0.046631731 1.3807793e-39
-0.046435911 -0.11876349 0.049596108 2.4878429e-39
-0.044712551 -0.11791472 0.052631177 4.6061521e-40
-0.043050393 -0.11791472 0.052631177 5.5352691e-40
-0.041388229 -0.11791472 0.052631177 4.6204874e-40
-0.039726071 -0.11791472 0.052631177 1.2914521e-39
-0.038041644 -0.11736839 0.054584719 1.2003354e-39
-0.036353946 -0.1165285 0.057588018 1.2003383e-39
-0.034676928 -0.11569391 0.060572363 7.3900417e-40
-0.013279766 -0.11513235 0.062580444 6.4356594e-40
-0.011635049 -0.11513235 0.062580444 5.0689534e-39
-0.0099533638 -0.11569391 0.060572363 4.8842132e-39
-0.0083051259 -0.11569391 0.060572363 6.8206815e-39
-0.0065914812 -0.1165285 0.057588018 5.4380974e-39
-0.0048669232 -0.11736839 0.054584719 2.9498972e-39
-0.0030813599 -0.11876349 0.049596108 1.1981943e-39
-0.0013333159 -0.1195925 0.046631731 1.8512834e-40
0.0003994545 -0.12017335 0.044554688 7.300765e-43
0.0020757755 -0.12017335 0.044554688 2.8852735e-42
0.0038492763 -0.12101121 0.04155872 1.8062737e-42
0.0056339288 -0.12185432 0.038543917 1.8062737e-42
0.0073901052 -0.12239362 0.036615469 3.2440059e-42
0.0090803476 -0.12239362 0.036615469 1.8034711e-42
0.010890753 -0.12324543 0.033569492 7.2447131e-43
0.012832013 -0.12491293 0.027606882 2.7839176e-40
0.014538051 -0.12491293 0.027606882 3.643376e-43
0.016336489 -0.12549089 0.02554021 3.643376e-43
0.018182151 -0.12630944 0.022613145 2.8025969e-45
0.020043522 -0.12715961 0.01957313 3.629363e-43
0.02206067 -0.12882192 0.013629057 1.8439406e-40
0.023791216 -0.12882192 0.013629057 1.8439406e-40
0.025521759 -0.12882192 0.013629057 3.6806365e-40
0.027364403 -0.12938951 0.011599399 3.6841958e-40
0.029270113 -0.13023172 0.0085878745 3.5873241e-43
0.031009499 -0.13023172 0.0085878745 3.5873241e-43
0.033110593 -0.13190396 0.0026082173 3.5873241e-43
0.035051335 -0.13276155 -0.00045838207 0
0.036997657 -0.13359652 -0.0034440979 0
0.039147634 -0.13525321 -0.0093680844 0
0.040918503 -0.13525321 -0.0093680844 0
0.042899851 -0.13610314 -0.012407206 0
0.044893157 -0.13695817 -0.015464686 0
0.04667471 -0.13695817 -0.015464686 0
0.048677813 -0.13778962 -0.018437766 0
0.050922114 -0.13946722 -0.024436615 0
0.052719403 -0.13946722 -0.024436615 0
0.054758083 -0.14031343 -0.027462505 0
0.056560673 -0.14031343 -0.027462505 3.5873241e-43
0.058608003 -0.14113526 -0.030401133 0
0.060676076 -0.14199139 -0.033462547 2.8025969e-45
0.062830471 -0.14309107 -0.037394784 2.8025969e-45
0.064650483 -0.14309107 -0.037394784 5.6051939e-45
0.067013063 -0.1447715 -0.043403648 2.8025969e-45
0.069122575 -0.14561899 -0.046434186 2.8025969e-45
0.071234129 -0.14644094 -0.049373291 2.8025969e-45
0.073075138 -0.14644094 -0.049373291 2.8025969e-45
0.074916147 -0.14644094 -0.049373291 2.8025969e-45
0.077453859 -0.14840777 -0.056406282 0
0.079609193 -0.14924543 -0.059401654 0
-0.11063399 -0.13451682 -0.00045838207 1.2629357e-38
-0.10887875 -0.13451682 -0.00045838207 1.4104487e-38
-0.10640182 -0.13197111 0.0085878745 1.2444965e-38
-0.10442746 -0.13112362 0.011599399 1.6580794e-39
-0.10269337 -0.13112362 0.011599399 9.1835496e-41
-0.10095926 -0.13112362 0.011599399 1.3825715e-39
-0.099225156 -0.13112362 0.011599399 1.8435497e-39
-0.097346924 -0.13055246 0.013629057 9.2159336e-40
-0.095616378 -0.13055246 0.013629057 2.1201366e-39
-0.093885846 -0.13055246 0.013629057 1.8435497e-39
-0.0921553 -0.13055246 0.013629057 2.0279409e-39
-0.090233974 -0.12971358 0.016610064 2.2123322e-39
-0.088324226 -0.12887974 0.01957313 1.6591584e-39
-0.086604103 -0.12887974 0.01957313 7.371993e-40
-0.08470542 -0.12802424 0.022613145 8.301138e-40
-0.082990624 -0.12802424 0.022613145 1.5680418e-39
-0.081114173 -0.12720053 0.02554021 7.3972584e-40
-0.079404511 -0.12720053 0.02554021 9.2376117e-40
-0.077587955 -0.12661897 0.027606882 8.3120541e-40
-0.075732492 -0.12577744 0.030597307 3.6914826e-40
-0.073888384 -0.12494104 0.033569492 9.2198432e-41
-0.072192803 -0.12494104 0.033569492 5.5137872e-40
-0.070361033 -0.12408386 0.036615469 9.198011e-40
-0.068670787 -0.12408386 0.036615469 1.0116408e-39
-0.066980548 -0.12408386 0.036615469 8.2724954e-40
-0.065214232 -0.12354116 0.038543917 8.2724954e-40
-0.063413717 -0.12269278 0.04155872 9.1944657e-40
-0.06162446 -0.12184967 0.044554688 1.0123611e-39
-0.059948139 -0.12184967 0.044554688 6.4430162e-40
-0.058271818 -0.12184967 0.044554688 2.7623797e-40
-0.056531765 -0.12126519 0.046631731 5.5282486e-40
-0.054859087 -0.12126519 0.046631731 1.013803e-39
-0.053186402 -0.12126519 0.046631731 1.8421217e-39
-0.051513724 -0.12126519 0.046631731 1.0123597e-39
-0.049841046 -0.12126519 0.046631731 6.4357715e-40
-0.048103392 -0.12043096 0.049596108 7.3685178e-40
-0.046374716 -0.11957689 0.052631177 7.3684898e-40
-0.044712551 -0.11957689 0.052631177 9.2198432e-41
-0.043050393 -0.11957689 0.052631177 2.8025969e-45
-0.041359115 -0.11902712 0.054584719 2.7730576e-40
-0.039700381 -0.11902712 0.054584719 9.2231923e-40
-0.038041644 -0.11902712 0.054584719 2.7802883e-40
-0.036353946 -0.11818196 0.057588018 1.4419361e-42
-0.034676928 -0.11734213 0.060572363 2.1608022e-42
-0.011635049 -0.11677705 0.062580444 2.2112532e-39
-0.0099903317 -0.11677705 0.062580444 2.948821e-39
-0.0083051259 -0.11734213 0.060572363 2.3956472e-39
-0.0065914812 -0.11818196 0.057588018 1.2892941e-39
-0.0048669232 -0.11902712 0.054584719 8.2831593e-40
-0.0031585218 -0.11957689 0.052631177 8.2832154e-40
-0.0014138771 -0.12043096 0.049596108 6.4465335e-40
0.00033936556 -0.12126519 0.046631731 3.657389e-43
0.0020757755 -0.12184967 0.044554688 7.2447131e-43
0.0037520984 -0.12184967 0.044554688 7.2447131e-43
0.0056339288 -0.12354116 0.038543917 7.2447131e-43
0.0073901052 -0.12408386 0.036615469 7.2447131e-43
0.0090803476 -0.12408386 0.036615469 7.2447131e-43
0.010890753 -0.12494104 0.033569492 3.657389e-43
0.012832013 -0.12661897 0.027606882 3.629363e-43
0.014538051 -0.12661897 0.027606882 3.629363e-43
0.016336489 -0.12720053 0.02554021 3.629363e-43
0.018323399 -0.12887974 0.01957313 9.2198432e-41
0.020043522 -0.12887974 0.01957313 9.2198432e-41
0.02206067 -0.13055246 0.013629057 9.2198432e-41
0.023791216 -0.13055246 0.013629057 9.2198432e-41
0.025521759 -0.13055246 0.013629057 9.2198432e-41
0.027364403 -0.13112362 0.011599399 9.219563e-41
0.029270113 -0.13197111 0.0085878745 9.1835496e-41
0.031187464 -0.13282375 0.0055579916 9.1835496e-41
0.033110593 -0.13365383 0.0026082173 9.1835496e-41
0.035051335 -0.13451682 -0.00045838207 9.1835496e-41
0.036997657 -0.13535701 -0.0034440979 9.1835496e-41
0.03895561 -0.13620223 -0.006447576 9.1835496e-41
0.040918503 -0.13702409 -0.0093680844 9.1835496e-41
0.042899851 -0.13787933 -0.012407206 9.1835496e-41
0.044893157 -0.13873972 -0.015464686 9.1835496e-41
0.04667471 -0.13873972 -0.015464686 9.1835496e-41
0.04845627 -0.13873972 -0.015464686 9.1835496e-41
0.050692674 -0.14041798 -0.021428369 9.1835496e-41
0.052719403 -0.14126451 -0.024436615 9.1838299e-41
0.054758083 -0.14211603 -0.027462505 9.1838299e-41
0.056560673 -0.14211603 -0.027462505 9.1841101e-41
0.058608003 -0.14294298 -0.030401133 7.0064923e-45
0.060676076 -0.14380451 -0.033462547 9.8090893e-45
0.062489189 -0.14380451 -0.033462547 9.8090893e-45
0.064650483 -0.14491107 -0.037394784 1.2611686e-44
0.066740997 -0.14575411 -0.040390514 9.8090893e-45
0.068843611 -0.14660202 -0.043403648 7.0064923e-45
0.070958428 -0.14745484 -0.046434186 7.0064923e-45
0.072794281 -0.14745484 -0.046434186 5.6051939e-45
0.074630134 -0.14745484 -0.046434186 5.6051939e-45
-0.1103786 -0.13540371 0.0026082173 1.1799234e-38
-0.10862873 -0.13540371 0.0026082173 1.3274366e-38
-0.10640182 -0.13371049 0.0085878745 1.1983627e-38
-0.10442746 -0.13285773 0.011599399 1.4736853e-39
-0.10269337 -0.13285773 0.011599399 2.7550649e-40
-0.10095926 -0.13285773 0.011599399 6.4392467e-40
-0.099225156 -0.13285773 0.011599399 1.0127072e-39
-0.097491063 -0.13285773 0.011599399 2.7622395e-40
-0.095616378 -0.13228302 0.013629057 1.3825687e-39
-0.093885846 -0.13228302 0.013629057 1.1981774e-39
-0.0921553 -0.13228302 0.013629057 1.4747643e-39
-0.090233974 -0.1314389 0.016610064 1.8435469e-39
-0.088324226 -0.13059987 0.01957313 1.4747643e-39
-0.086420216 -0.12973903 0.022613145 8.301138e-40
-0.08470542 -0.12973903 0.022613145 1.0145051e-39
-0.082990624 -0.12973903 0.022613145 1.752433e-39
-0.081114173 -0.1289102 0.02554021 1.0155911e-39
-0.079404511 -0.1289102 0.02554021 1.1999851e-39
-0.077587955 -0.128325 0.027606882 1.2911018e-39
-0.075732492 -0.12747823 0.030597307 7.3792798e-40
-0.073888384 -0.12663661 0.033569492 4.6026209e-40
-0.072192803 -0.12663661 0.033569492 4.6026209e-40
-0.070361033 -0.1257741 0.036615469 9.1944517e-40
-0.068670787 -0.1257741 0.036615469 9.1944517e-40
-0.066980548 -0.1257741 0.036615469 7.3505531e-40
-0.065214232 -0.12522803 0.038543917 6.4285968e-40
-0.063413717 -0.12437434 0.04155872 6.4357855e-40
-0.06162446 -0.12352599 0.044554688 7.3541825e-40
-0.059877124 -0.12293784 0.046631731 4.5991036e-40
-0.058204442 -0.12293784 0.046631731 1.836822e-40
-0.056531765 -0.12293784 0.046631731 3.684336e-40
-0.054859087 -0.12293784 0.046631731 9.2160457e-40
-0.053186402 -0.12293784 0.046631731 5.5246052e-40
-0.051513724 -0.12293784 0.046631731 4.6026489e-40
-0.049841046 -0.12293784 0.046631731 3.6842939e-40
-0.048103392 -0.12209846 0.049596108 5.5282065e-40
-0.046374716 -0.12123902 0.052631177 4.6062502e-40
-0.044712551 -0.12123902 0.052631177 2.7623376e-40
-0.043050393 -0.12123902 0.052631177 2.7695263e-40
-0.041359115 -0.12068586 0.054584719 6.4573515e-40
-0.039700381 -0.12068586 0.054584719 5.5353952e-40
-0.038041644 -0.12068586 0.054584719 1.4447387e-42
-0.036353946 -0.11983545 0.057588018 1.084605e-42
-0.034676928 -0.11899038 0.060572363 1.4447387e-42
-0.011635049 -0.11842178 0.062580444 4.6025928e-40
-0.0099903317 -0.11842178 0.062580444 1.01271e-39
-0.0083051259 -0.11899038 0.060572363 6.4392747e-40
-0.0065914812 -0.11983545 0.057588018 4.5917748e-40
-0.0048669232 -0.12068586 0.054584719 4.5917748e-40
-0.0031585218 -0.12123902 0.052631177 5.5137171e-40
-0.0014138771 -0.12209846 0.049596108 3.6734198e-40
0.00033936556 -0.12293784 0.046631731 1.8367239e-40
0.0020120451 -0.12293784 0.046631731 9.2198432e-41
0.0037520984 -0.12352599 0.044554688 9.2198432e-41
0.0056339288 -0.12522803 0.038543917 9.2198432e-41
0.0074995877 -0.12663661 0.033569492 9.2198432e-41
0.0091951685 -0.12663661 0.033569492 9.2198432e-41
0.011008003 -0.12747823 0.030597307 9.2198432e-41
0.012832013 -0.128325 0.027606882 9.2198432e-41
0.014626828 -0.1289102 0.02554021 9.2198432e-41
0.016467359 -0.12973903 0.022613145 9.2198432e-41
0.018323399 -0.13059987 0.01957313 9.2198432e-41
0.020043522 -0.13059987 0.01957313 9.2198432e-41
0.021911711 -0.1314389 0.016610064 9.2198432e-41
0.023791216 -0.13228302 0.013629057 9.2198432e-41
0.025521759 -0.13228302 0.013629057 9.2198432e-41
0.027364403 -0.13285773 0.011599399 9.2198432e-41
0.029270113 -0.13371049 0.0085878745 9.1835496e-41
0.031187464 -0.13456844 0.0055579916 9.1835496e-41
0.033110593 -0.13540371 0.0026082173 9.1835496e-41
0.035051335 -0.13627206 -0.00045838207 9.1835496e-41
0.036997657 -0.13711749 -0.0034440979 9.1835496e-41
0.03895561 -0.13796796 -0.006447576 9.1835496e-41
0.040918503 -0.13879494 -0.0093680844 9.1835496e-41
0.042899851 -0.13965552 -0.012407206 9.1835496e-41
0.044893157 -0.14052127 -0.015464686 9.1835496e-41
0.04667471 -0.14052127 -0.015464686 9.1835496e-41
0.04845627 -0.14052127 -0.015464686 9.1835496e-41
0.050692674 -0.14220999 -0.021428369 9.1835496e-41
0.052719403 -0.1430618 -0.024436615 9.1838299e-41
0.054758083 -0.14391862 -0.027462505 9.1841101e-41
0.056560673 -0.14391862 -0.027462505 9.1842503e-41
0.058608003 -0.14475073 -0.030401133 9.1845305e-41
0.060676076 -0.14561762 -0.033462547 9.8090893e-45
0.062489189 -0.14561762 -0.033462547 9.8090893e-45
0.064302303 -0.14561762 -0.033462547 9.8090893e-45
0.066740997 -0.14757936 -0.040390514 9.8090893e-45
0.068843611 -0.14843257 -0.043403648 7.0064923e-45
0.070958428 -0.14929073 -0.046434186 5.6051939e-45
0.072794281 -0.14929073 -0.046434186 5.6051939e-45
0.074630134 -0.14929073 -0.046434186 5.6051939e-45
-0.11238924 -0.1380273 -0.00045838207 1.0601407e-38
-0.10988059 -0.13544987 0.0085878745 1.1154584e-38
-0.10814121 -0.13544987 0.0085878745 1.2168378e-38
-0.10640182 -0.13544987 0.0085878745 1.1246422e-38
-0.10442746 -0.13459183 0.011599399 1.7502722e-39
-0.10269337 -0.13459183 0.011599399 2.7550649e-40
-0.10095926 -0.13459183 0.011599399 1.8402972e-40
-0.099225156 -0.13459183 0.011599399 3.6841818e-40
-0.097346924 -0.13401355 0.013629057 3.6841818e-40
-0.095616378 -0.13401355 0.013629057 8.2939493e-40
-0.093885846 -0.13401355 0.013629057 5.5352691e-40
-0.0921553 -0.13401355 0.013629057 7.3791817e-40
-0.090233974 -0.13316421 0.016610064 1.1988963e-39
-0.088324226 -0.13231997 0.01957313 1.1067007e-39
-0.086420216 -0.13145383 0.022613145 7.3791817e-40
-0.08470542 -0.13145383 0.022613145 9.2230943e-40
-0.082990624 -0.13145383 0.022613145 1.4758461e-39
-0.081114173 -0.13061987 0.02554021 9.2339543e-40
-0.079293989 -0.13003103 0.027606882 1.292178e-39
-0.077587955 -0.13003103 0.027606882 1.4758489e-39
-0.075732492 -0.12917902 0.030597307 1.0148708e-39
-0.073888384 -0.12833218 0.033569492 7.3684898e-40
-0.072192803 -0.12833218 0.033569492 6.4465335e-40
-0.070361033 -0.12746434 0.036615469 8.2760547e-40
-0.068670787 -0.12746434 0.036615469 7.3540984e-40
-0.066980548 -0.12746434 0.036615469 6.4285828e-40
-0.065214232 -0.1269149 0.038543917 4.5918449e-40
-0.063413717 -0.12605591 0.04155872 4.5918589e-40
-0.06162446 -0.12520231 0.044554688 5.5138292e-40
-0.059877124 -0.12461053 0.046631731 1.836794e-40
-0.058204442 -0.12461053 0.046631731 9.1842503e-41
-0.056531765 -0.12461053 0.046631731 2.7623516e-40
-0.054859087 -0.12461053 0.046631731 8.2940894e-40
-0.053186402 -0.12461053 0.046631731 7.3721191e-40
-0.051513724 -0.12461053 0.046631731 1.0137988e-39
-0.049841046 -0.12461053 0.046631731 9.2160317e-40
-0.048103392 -0.12376593 0.049596108 2.7623376e-40
-0.046435911 -0.12376593 0.049596108 5.6051939e-45
-0.044712551 -0.12290119 0.052631177 5.6051939e-45
-0.043050393 -0.12290119 0.052631177 4.6062502e-40
-0.041359115 -0.1223446 0.054584719 5.5353952e-40
-0.039700381 -0.1223446 0.054584719 7.3793078e-40
-0.038041644 -0.1223446 0.054584719 3.6914826e-40
-0.036353946 -0.12148891 0.057588018 1.84757e-40
-0.034676928 -0.12063862 0.060572363 1.85836e-40
-0.011635049 -0.12006648 0.062580444 9.1835496e-41
-0.0099903317 -0.12006648 0.062580444 2.7550649e-40
-0.0083051259 -0.12063862 0.060572363 2.7550649e-40
-0.0065914812 -0.12148891 0.057588018 2.7550649e-40
-0.0048669232 -0.1223446 0.054584719 4.5953621e-40
-0.0031585218 -0.12290119 0.052631177 5.5101298e-40
-0.0014963606 -0.12290119 0.052631177 2.7550649e-40
0.00025360566 -0.12376593 0.049596108 1.8367239e-40
0.0020120451 -0.12461053 0.046631731 9.2198432e-41
0.0038492763 -0.12605591 0.04155872 9.2198432e-41
0.0056339288 -0.1269149 0.038543917 9.2198432e-41
0.0074995877 -0.12833218 0.033569492 9.2198432e-41
0.0091951685 -0.12833218 0.033569492 9.2198432e-41
0.011008003 -0.12917902 0.030597307 9.2198432e-41
0.012832013 -0.13003103 0.027606882 9.2198432e-41
0.014626828 -0.13061987 0.02554021 9.2198432e-41
0.016467359 -0.13145383 0.022613145 9.2198432e-41
0.018182151 -0.13145383 0.022613145 9.2198432e-41
0.020043522 -0.13231997 0.01957313 9.2198432e-41
0.021911711 -0.13316421 0.016610064 9.2198432e-41
0.023791216 -0.13401355 0.013629057 9.2198432e-41
0.025521759 -0.13401355 0.013629057 9.2198432e-41
0.02753073 -0.13544987 0.0085878745 9.2198432e-41
0.029270113 -0.13544987 0.0085878745 9.1838299e-41
0.031187464 -0.13631313 0.0055579916 9.1835496e-41
0.032932159 -0.13631313 0.0055579916 9.1835496e-41
0.035051335 -0.1380273 -0.00045838207 9.1835496e-41
0.036997657 -0.13887797 -0.0034440979 9.1835496e-41
0.03895561 -0.13973372 -0.006447576 9.1835496e-41
0.040918503 -0.14056583 -0.0093680844 9.1835496e-41
0.042899851 -0.1414317 -0.012407206 9.1835496e-41
0.044893157 -0.14230286 -0.015464686 9.1835496e-41
0.04667471 -0.14230286 -0.015464686 9.1835496e-41
0.048677813 -0.14314993 -0.018437766 9.1835496e-41
0.050922114 -0.14485909 -0.024436615 9.1835496e-41
0.052719403 -0.14485909 -0.024436615 9.1838299e-41
0.054758083 -0.14572121 -0.027462505 9.1841101e-41
0.056560673 -0.14572121 -0.027462505 9.1841101e-41
0.058608003 -0.14655848 -0.030401133 9.1841101e-41
0.060415752 -0.14655848 -0.030401133 2.8025969e-45
0.062489189 -0.14743073 -0.033462547 0
0.064302303 -0.14743073 -0.033462547 0
0.066740997 -0.14940463 -0.040390514 0
-0.11238924 -0.13978253 -0.00045838207 1.1707755e-38
-0.11063399 -0.13978253 -0.00045838207 1.1154584e-38
-0.10814121 -0.13718925 0.0085878745 1.1523009e-38
