# .PCD v0.7 - Point Cloud Data file format
VERSION 0.7
FIELDS x y z rgb
SIZE 4 4 4 4
TYPE F F F F
COUNT 1 1 1 1
WIDTH 970
HEIGHT 1
VIEWPOINT 0 0 0 1 0 0 0
POINTS 970
DATA ascii
0.12016042 -0.14334334 -0.076544799 9.1835496e-41
0.1225684 -0.14439236 -0.08052019 9.1835496e-41
0.12487522 -0.1451921 -0.083550967 4.3324757e-39
0.12681802 -0.1451921 -0.083550967 5.6232146e-39
-0.11077744 -0.12748651 -0.0095818415 1.3091777e-38
-0.10867178 -0.1266733 -0.0065204278 7.6522401e-39
-0.10658839 -0.12589271 -0.0035817996 3.411604e-39
-0.1047858 -0.12589271 -0.0035817996 5.6051939e-45
-0.10298321 -0.12589271 -0.0035817996 2.7695263e-40
-0.10091269 -0.12508895 -0.00055591017 2.7730576e-40
-0.098854318 -0.12428986 0.0024523363 5.5388984e-40
-0.097062305 -0.12428986 0.0024523363 1.1070636e-39
-0.095270291 -0.12428986 0.0024523363 1.6602402e-39
-0.093234465 -0.12349547 0.0054429397 0
-0.091210514 -0.12270571 0.0084160194 2.7550649e-40
-0.089190394 -0.12189357 0.011473499 3.2243149e-39
-0.087414205 -0.12189357 0.011473499 3.684563e-39
-0.085411549 -0.12108628 0.014512621 4.6979876e-39
-0.083428174 -0.1203105 0.017433129 8.0170275e-39
-0.081449151 -0.11951269 0.020436607 9.0322584e-39
-0.079481885 -0.11871959 0.023422323 8.8489532e-39
-0.077726647 -0.11871959 0.023422323 8.2965025e-39
-0.075769767 -0.11790501 0.026488923 6.6373441e-39
-0.073831126 -0.11712147 0.029438697 1.0601756e-38
-0.071897835 -0.11631663 0.03246858 9.7719955e-39
-0.069976285 -0.11551671 0.035480104 1.2721893e-38
-0.068122968 -0.11497755 0.037509762 1.3458019e-38
-0.066392422 -0.11497755 0.037509762 1.124497e-38
-0.064661875 -0.11497755 0.037509762 1.0323025e-38
-0.062771916 -0.11418571 0.040490769 2.3949256e-39
-0.060893346 -0.11339863 0.043453835 1.9346691e-39
-0.059021313 -0.1125911 0.046493851 9.1841101e-41
-0.057165388 -0.11181359 0.049420916 1.8404234e-40
-0.055455726 -0.11181359 0.049420916 8.2977468e-40
-0.053519968 -0.11047028 0.054478012 5.5391226e-40
-0.051819168 -0.11047028 0.054478012 7.4128689e-43
-0.04999591 -0.10968079 0.057450198 7.3848429e-43
-0.04830033 -0.10968079 0.057450198 4.6171523e-40
-0.046489924 -0.10887168 0.060496174 9.1849509e-41
-0.044799682 -0.10887168 0.060496174 9.1845305e-41
-0.043043505 -0.10835941 0.062424622 4.5918309e-40
-0.041356642 -0.10835941 0.062424622 1.4729721e-39
-0.039669782 -0.10835941 0.062424622 2.3016509e-39
-0.037895706 -0.10755859 0.065439425 2.7644242e-39
-0.036214128 -0.10755859 0.065439425 1.3854442e-39
-0.034532554 -0.10755859 0.065439425 1.4349296e-42
-0.032850977 -0.10755859 0.065439425 1.0916115e-42
-0.031169403 -0.10755859 0.065439425 1.8090763e-42
-0.029548619 -0.10835941 0.062424622 3.5873241e-43
-0.027861755 -0.10835941 0.062424622 7.3647763e-40
-0.026174895 -0.10835941 0.062424622 6.4284847e-40
-0.024516776 -0.10887168 0.060496174 9.8595402e-39
-0.022866588 -0.10968079 0.057450198 1.9907416e-38
-0.021171004 -0.10968079 0.057450198 2.3507716e-38
-0.019475423 -0.10968079 0.057450198 2.2858732e-38
-0.017803289 -0.11047028 0.054478012 2.3509144e-38
-0.016102497 -0.11047028 0.054478012 2.2771958e-38
-0.014401702 -0.11047028 0.054478012 2.1483387e-38
-0.012700908 -0.11047028 0.054478012 2.157917e-38
-0.011000114 -0.11047028 0.054478012 2.0012198e-38
-0.0092948861 -0.11181359 0.049420916 1.9269957e-38
-0.0075775273 -0.1125911 0.046493851 1.7701194e-38
-0.0058627352 -0.1125911 0.046493851 1.6594848e-38
-0.0041292869 -0.11339863 0.043453835 1.696363e-38
-0.0024091639 -0.11339863 0.043453835 1.6133872e-38
-0.00066046696 -0.11418571 0.040490769 9.4032354e-39
0.0010648509 -0.11418571 0.040490769 8.204695e-39
0.0027901698 -0.11418571 0.040490769 7.3684898e-40
0.0045599146 -0.11497755 0.037509762 1.3822184e-39
0.00629046 -0.11497755 0.037509762 1.2900228e-39
0.008058371 -0.11551671 0.035480104 1.7510009e-39
0.0098531973 -0.11631663 0.03246858 1.474414e-39
0.011658985 -0.11712147 0.029438697 2.7586802e-40
0.013403682 -0.11712147 0.029438697 9.1835496e-41
0.015148377 -0.11712147 0.029438697 9.1835496e-41
0.016973238 -0.11790501 0.026488923 9.1835496e-41
0.0188982 -0.11951269 0.020436607 9.1835496e-41
0.020658681 -0.11951269 0.020436607 9.1835496e-41
0.022611316 -0.12108628 0.014512621 9.1835496e-41
0.024486087 -0.12189357 0.011473499 1.8367239e-40
0.026262283 -0.12189357 0.011473499 1.8367239e-40
0.028038479 -0.12189357 0.011473499 1.8367239e-40
0.029935293 -0.12270571 0.0084160194 2.7587083e-40
0.03171685 -0.12270571 0.0084160194 2.7587083e-40
0.033498403 -0.12270571 0.0084160194 9.1838299e-41
0.035279959 -0.12270571 0.0084160194 9.1838299e-41
0.037199654 -0.12349547 0.0054429397 9.1841101e-41
0.038986422 -0.12349547 0.0054429397 9.1841101e-41
0.040922634 -0.12428986 0.0024523363 1.83678e-40
0.042714644 -0.12428986 0.0024523363 9.1841101e-41
0.044667527 -0.12508895 -0.00055591017 9.1841101e-41
0.046631936 -0.12589271 -0.0035817996 9.1838299e-41
0.048434526 -0.12589271 -0.0035817996 1.8439406e-40
0.050409723 -0.1266733 -0.0065204278 0
0.052402653 -0.12748651 -0.0095818415 9.219563e-41
0.054460526 -0.12853102 -0.013514079 1.2907388e-39
0.056472242 -0.12932678 -0.016509809 1.3829344e-39
0.058297507 -0.12932678 -0.016509809 2.7658689e-40
0.060122766 -0.12932678 -0.016509809 0
0.061948024 -0.12932678 -0.016509809 9.219563e-41
0.063773282 -0.12932678 -0.016509809 9.219563e-41
0.065817788 -0.13012715 -0.019522943 9.219563e-41
0.067874156 -0.13093217 -0.022553481 0
0.070243418 -0.13278987 -0.029547133 0
0.072091535 -0.13278987 -0.029547133 0
0.073939651 -0.13278987 -0.029547133 0
0.076030612 -0.13358103 -0.032525577 9.219563e-41
0.078721032 -0.13625093 -0.042576708 9.219563e-41
0.080592006 -0.13625093 -0.042576708 9.219563e-41
0.082462966 -0.13625093 -0.042576708 9.219563e-41
0.084333926 -0.13625093 -0.042576708 9.219563e-41
0.086470306 -0.13703169 -0.045516051 9.219563e-41
0.088346422 -0.13703169 -0.045516051 9.219563e-41
0.090510473 -0.13784705 -0.048585571 9.219563e-41
0.092774704 -0.13891099 -0.052590884 9.219563e-41
0.094663218 -0.13891099 -0.052590884 9.219563e-41
0.096551746 -0.13891099 -0.052590884 9.219563e-41
0.09844026 -0.13891099 -0.052590884 9.219563e-41
0.10063598 -0.13970654 -0.055585779 9.219563e-41
0.10294095 -0.14075352 -0.059527315 9.219563e-41
0.10484162 -0.14075352 -0.059527315 9.219563e-41
0.10674231 -0.14075352 -0.059527315 9.219563e-41
0.10897543 -0.14155935 -0.062560953 9.219563e-41
0.11165492 -0.14340474 -0.069508232 9.219563e-41
0.11392252 -0.14422549 -0.072598018 9.1835496e-41
0.11584613 -0.14422549 -0.072598018 1.8367239e-40
0.1182299 -0.14527388 -0.076544799 2.7586802e-40
0.12063091 -0.14632986 -0.08052019 9.1835496e-41
0.12341598 -0.14820443 -0.087577261 9.1835496e-41
0.12536584 -0.14820443 -0.087577261 3.8714976e-39
0.1273157 -0.14820443 -0.087577261 5.6232146e-39
-0.11259055 -0.1292996 -0.0095818415 1.2999936e-38
-0.11077744 -0.1292996 -0.0095818415 1.2630801e-38
-0.10867178 -0.12848105 -0.0065204278 7.6522401e-39
-0.10658839 -0.12769531 -0.0035817996 4.1484502e-39
-0.1047858 -0.12769531 -0.0035817996 9.1842503e-41
-0.10298321 -0.12769531 -0.0035817996 5.6051939e-45
-0.10091269 -0.12688623 -0.00055591017 4.6169702e-40
-0.099115402 -0.12688623 -0.00055591017 8.3047393e-40
-0.097062305 -0.12608187 0.0024523363 1.8510732e-40
-0.095270291 -0.12608187 0.0024523363 7.272739e-43
-0.093234465 -0.12528224 0.0054429397 1.847584e-40
-0.091210514 -0.1244873 0.0084160194 3.6841958e-40
-0.089190394 -0.12366976 0.011473499 7.3576017e-40
-0.087414205 -0.12366976 0.011473499 1.2874906e-39
-0.085411549 -0.12285714 0.014512621 2.1168813e-39
-0.083428174 -0.12207626 0.017433129 3.3147043e-39
-0.081449151 -0.12127317 0.020436607 3.8689542e-39
-0.079481885 -0.12047486 0.023422323 6.3585992e-39
-0.07751964 -0.11965488 0.026488923 7.0979621e-39
-0.075769767 -0.11965488 0.026488923 8.2968696e-39
-0.073831126 -0.11886616 0.029438697 9.0344346e-39
-0.071897835 -0.11805601 0.03246858 8.9415201e-39
-0.069976285 -0.11725079 0.035480104 8.8486028e-39
-0.068242192 -0.11725079 0.035480104 9.4014109e-39
-0.066392422 -0.11670811 0.037509762 1.0230816e-38
-0.064661875 -0.11670811 0.037509762 8.1099672e-39
-0.062771916 -0.11591102 0.040490769 4.3303107e-39
-0.060893346 -0.11511876 0.043453835 4.5917888e-40
-0.059021313 -0.1143059 0.046493851 2.7550929e-40
-0.057165388 -0.11352326 0.049420916 6.4501768e-40
-0.055455726 -0.11352326 0.049420916 9.2209643e-41
-0.053519968 -0.11217107 0.054478012 1.6815582e-44
-0.051819168 -0.11217107 0.054478012 6.4610789e-40
-0.04999591 -0.11137636 0.057450198 2.7732537e-40
-0.04830033 -0.11137636 0.057450198 1.5414283e-44
-0.046489924 -0.11056192 0.060496174 1.2611686e-44
-0.044799682 -0.11056192 0.060496174 2.755163e-40
-0.043043505 -0.11004628 0.062424622 7.3577278e-40
-0.041356642 -0.11004628 0.062424622 4.5917888e-40
-0.039669782 -0.11004628 0.062424622 6.4284847e-40
-0.037895706 -0.10924016 0.065439425 2.9488154e-39
-0.036214128 -0.10924016 0.065439425 5.5568491e-40
-0.034532554 -0.10924016 0.065439425 2.8754644e-42
-0.032850977 -0.10924016 0.065439425 7.342804e-43
-0.031169403 -0.10924016 0.065439425 1.2611686e-44
-0.02948783 -0.10924016 0.065439425 4.6097535e-40
-0.027861755 -0.11004628 0.062424622 2.7550649e-40
-0.026174895 -0.11004628 0.062424622 1.7477611e-39
-0.024516776 -0.11056192 0.060496174 8.2914956e-39
-0.022866588 -0.11137636 0.057450198 1.9814861e-38
-0.021171004 -0.11137636 0.057450198 2.2395968e-38
-0.019475423 -0.11137636 0.057450198 2.119921e-38
-0.017803289 -0.11217107 0.054478012 2.2031491e-38
-0.016102497 -0.11217107 0.054478012 2.166561e-38
-0.014401702 -0.11217107 0.054478012 1.9455083e-38
-0.012700908 -0.11217107 0.054478012 1.9089888e-38
-0.011000114 -0.11217107 0.054478012 1.7338525e-38
-0.0092948861 -0.11352326 0.049420916 1.4844567e-38
-0.0075775273 -0.1143059 0.046493851 1.0233704e-38
-0.0058627352 -0.1143059 0.046493851 8.0206527e-39
-0.0041292869 -0.11511876 0.043453835 1.1155305e-38
-0.0024091639 -0.11511876 0.043453835 1.2999221e-38
-0.00066046696 -0.11591102 0.040490769 9.0348088e-39
0.0010648509 -0.11591102 0.040490769 4.6090626e-39
0.0027901698 -0.11591102 0.040490769 3.9636932e-39
0.0045154877 -0.11591102 0.040490769 3.4105222e-39
0.00629046 -0.11670811 0.037509762 1.5666096e-39
0.0080210045 -0.11670811 0.037509762 9.1838299e-41
0.0099142883 -0.11886616 0.029438697 9.1838299e-41
0.011658985 -0.11886616 0.029438697 9.1835496e-41
0.013403682 -0.11886616 0.029438697 9.1835496e-41
0.015148377 -0.11886616 0.029438697 9.1835496e-41
0.016973238 -0.11965488 0.026488923 4.6061521e-40
0.0188982 -0.12127317 0.020436607 3.6806365e-40
0.020658681 -0.12127317 0.020436607 1.8367239e-40
0.022709895 -0.12366976 0.011473499 9.1835496e-41
0.024486087 -0.12366976 0.011473499 9.1835496e-41
0.026372179 -0.1244873 0.0084160194 1.8367239e-40
0.028153736 -0.1244873 0.0084160194 1.8367239e-40
0.029935293 -0.1244873 0.0084160194 9.1838299e-41
0.03171685 -0.1244873 0.0084160194 9.1838299e-41
0.033498403 -0.1244873 0.0084160194 2.7587083e-40
0.035412885 -0.12528224 0.0054429397 1.836752e-40
0.037199654 -0.12528224 0.0054429397 1.83678e-40
0.039130621 -0.12608187 0.0024523363 1.83678e-40
0.040922634 -0.12608187 0.0024523363 9.1841101e-41
0.042714644 -0.12608187 0.0024523363 9.1841101e-41
0.044667527 -0.12688623 -0.00055591017 9.1841101e-41
0.046631936 -0.12769531 -0.0035817996 9.1838299e-41
0.048434526 -0.12769531 -0.0035817996 2.8025969e-45
0.050409723 -0.12848105 -0.0065204278 0
0.052402653 -0.1292996 -0.0095818415 0
0.054460526 -0.13035102 -0.013514079 0
0.056472242 -0.13115202 -0.016509809 9.219563e-41
0.058297507 -0.13115202 -0.016509809 9.219563e-41
0.060122766 -0.13115202 -0.016509809 9.219563e-41
0.061948024 -0.13115202 -0.016509809 9.219563e-41
0.063773282 -0.13115202 -0.016509809 9.219563e-41
0.065817788 -0.13195769 -0.019522943 9.219563e-41
0.067874156 -0.13276802 -0.022553481 9.219563e-41
0.070243418 -0.134638 -0.029547133 9.219563e-41
0.072091535 -0.134638 -0.029547133 9.219563e-41
0.073939651 -0.134638 -0.029547133 9.219563e-41
0.076030612 -0.13543437 -0.032525577 9.219563e-41
0.078384295 -0.13704078 -0.038533367 9.219563e-41
0.080248177 -0.13704078 -0.038533367 0
0.082462966 -0.13812189 -0.042576708 0
0.08459419 -0.13890781 -0.045516051 0
0.086470306 -0.13890781 -0.045516051 0
0.088346422 -0.13890781 -0.045516051 0
0.090510473 -0.13972856 -0.048585571 0
0.092774704 -0.14079951 -0.052590884 0
0.094663218 -0.14079951 -0.052590884 0
0.096551746 -0.14079951 -0.052590884 0
0.09844026 -0.14079951 -0.052590884 0
0.10063598 -0.1416003 -0.055585779 0
0.10294095 -0.1426542 -0.059527315 0
0.10484162 -0.1426542 -0.059527315 0
0.10674231 -0.1426542 -0.059527315 0
0.10897543 -0.14346536 -0.062560953 0
0.11165492 -0.14532293 -0.069508232 0
0.11392252 -0.14614908 -0.072598018 9.1835496e-41
0.11584613 -0.14614908 -0.072598018 4.6025928e-40
0.1182299 -0.14720438 -0.076544799 1.8367239e-40
0.12016042 -0.14720438 -0.076544799 3.6806365e-40
0.1229324 -0.14907773 -0.083550967 9.1835496e-41
-0.11259055 -0.13111271 -0.0095818415 1.2170175e-38
-0.11077744 -0.13111271 -0.0095818415 1.2999584e-38
-0.10867178 -0.13028879 -0.0065204278 7.928827e-39
-0.10686405 -0.13028879 -0.0065204278 4.4250385e-39
-0.1050563 -0.13028879 -0.0065204278 5.5282065e-40
-0.10298321 -0.1294979 -0.0035817996 5.5353672e-40
-0.10118061 -0.1294979 -0.0035817996 9.2267516e-40
-0.099115402 -0.12868352 -0.00055591017 9.2266956e-40
-0.097318128 -0.12868352 -0.00055591017 7.1746481e-43
-0.095270291 -0.12787388 0.0024523363 2.7804004e-40
-0.093234465 -0.12706901 0.0054429397 3.6987553e-40
-0.091210514 -0.12626885 0.0084160194 5.5245491e-40
-0.089190394 -0.12544595 0.011473499 7.3576017e-40
-0.087414205 -0.12544595 0.011473499 1.0109079e-39
-0.085411549 -0.12462802 0.014512621 1.3789674e-39
-0.083428174 -0.12384202 0.017433129 1.9310622e-39
-0.081449151 -0.12303366 0.020436607 2.024334e-39
-0.079481885 -0.1222301 0.023422323 6.4284847e-40
-0.07751964 -0.12140475 0.026488923 6.4392467e-40
-0.075769767 -0.12140475 0.026488923 1.6584283e-39
-0.073831126 -0.12061088 0.029438697 2.7647787e-39
-0.071897835 -0.1197954 0.03246858 3.2250408e-39
-0.069976285 -0.11898489 0.035480104 3.7774887e-39
-0.068242192 -0.11898489 0.035480104 5.5291944e-39
-0.066508085 -0.11898489 0.035480104 7.6486191e-39
-0.064661875 -0.11843865 0.037509762 9.400706e-39
-0.062931329 -0.11843865 0.037509762 6.7273971e-39
-0.061046604 -0.11763634 0.040490769 2.9481022e-39
-0.059021313 -0.11602069 0.046493851 1.1045525e-39
-0.057165388 -0.11523293 0.049420916 9.2088571e-40
-0.055455726 -0.11523293 0.049420916 5.5282486e-40
-0.053519968 -0.11387186 0.054478012 1.8440808e-40
-0.051819168 -0.11387186 0.054478012 8.2977748e-40
-0.04999591 -0.11307193 0.057450198 5.5319059e-40
-0.04830033 -0.11307193 0.057450198 1.5414283e-44
-0.046489924 -0.11225216 0.060496174 3.684336e-40
-0.044799682 -0.11225216 0.060496174 2.755163e-40
-0.043043505 -0.11173315 0.062424622 2.7587363e-40
-0.041356642 -0.11173315 0.062424622 2.7550649e-40
-0.039669782 -0.11173315 0.062424622 7.3540424e-40
-0.037895706 -0.11092176 0.065439425 3.4108726e-39
-0.036214128 -0.11092176 0.065439425 1.1088587e-39
-0.034532554 -0.11092176 0.065439425 9.5795566e-41
-0.032850977 -0.11092176 0.065439425 2.1748152e-42
-0.031169403 -0.11092176 0.065439425 9.2932713e-41
-0.02948783 -0.11092176 0.065439425 9.219535e-40
-0.027806256 -0.11092176 0.065439425 2.7550649e-40
-0.026174895 -0.11173315 0.062424622 1.4711742e-39
-0.024488036 -0.11173315 0.062424622 7.0929496e-39
-0.022826534 -0.11225216 0.060496174 1.5297275e-38
-0.021171004 -0.11307193 0.057450198 1.5204709e-38
-0.019475423 -0.11307193 0.057450198 1.1057691e-38
-0.017803289 -0.11387186 0.054478012 9.216298e-39
-0.016102497 -0.11387186 0.054478012 6.3611355e-39
-0.014401702 -0.11387186 0.054478012 2.6754781e-39
-0.012700908 -0.11387186 0.054478012 3.232242e-39
-0.011000114 -0.11387186 0.054478012 3.9690812e-39
-0.0092948861 -0.11523293 0.049420916 6.1781778e-39
-0.0075775273 -0.11602069 0.046493851 7.6522261e-39
-0.0058494098 -0.11683889 0.043453835 7.6518701e-39
-0.0041292869 -0.11683889 0.043453835 7.5596745e-39
-0.0024091639 -0.11683889 0.043453835 9.1270044e-39
-0.00066046696 -0.11763634 0.040490769 9.5879826e-39
0.0010648509 -0.11763634 0.040490769 7.2827359e-39
0.0027901698 -0.11763634 0.040490769 4.7934539e-39
0.0045154877 -0.11763634 0.040490769 2.3963703e-39
0.00629046 -0.11843865 0.037509762 1.1056315e-39
0.0080210045 -0.11843865 0.037509762 9.1838299e-41
0.0099142883 -0.12061088 0.029438697 9.1838299e-41
0.011658985 -0.12061088 0.029438697 1.8367239e-40
0.013403682 -0.12061088 0.029438697 9.1835496e-41
0.015148377 -0.12061088 0.029438697 9.1835496e-41
0.017056579 -0.1222301 0.023422323 4.6061521e-40
0.0188982 -0.12303366 0.020436607 9.1835496e-41
0.020750837 -0.12384202 0.017433129 9.1835496e-41
0.022709895 -0.12544595 0.011473499 9.1835496e-41
0.024486087 -0.12544595 0.011473499 9.1835496e-41
0.026372179 -0.12626885 0.0084160194 9.1835496e-41
0.028153736 -0.12626885 0.0084160194 9.1835496e-41
0.029935293 -0.12626885 0.0084160194 9.1838299e-41
0.03171685 -0.12626885 0.0084160194 1.836752e-40
0.033498403 -0.12626885 0.0084160194 1.836752e-40
0.035412885 -0.12706901 0.0054429397 1.836752e-40
0.037199654 -0.12706901 0.0054429397 1.83678e-40
0.039130621 -0.12787388 0.0024523363 1.83678e-40
0.040922634 -0.12787388 0.0024523363 9.1841101e-41
0.042714644 -0.12787388 0.0024523363 9.1841101e-41
0.044667527 -0.12868352 -0.00055591017 9.1841101e-41
0.046631936 -0.1294979 -0.0035817996 9.1838299e-41
0.048434526 -0.1294979 -0.0035817996 4.6098095e-40
0.050409723 -0.13028879 -0.0065204278 3.6878252e-40
0.052402653 -0.13111271 -0.0095818415 3.6878252e-40
0.054460526 -0.13217102 -0.013514079 2.7658689e-40
0.056472242 -0.13297729 -0.016509809 2.7658689e-40
0.058297507 -0.13297729 -0.016509809 1.8439126e-40
0.060122766 -0.13297729 -0.016509809 1.8439126e-40
0.061948024 -0.13297729 -0.016509809 1.8439126e-40
0.063773282 -0.13297729 -0.016509809 9.219563e-41
0.065817788 -0.13378824 -0.019522943 9.219563e-41
0.067874156 -0.13460387 -0.022553481 9.219563e-41
0.069934174 -0.13539489 -0.025492586 9.219563e-41
0.071775183 -0.13539489 -0.025492586 9.219563e-41
0.073616192 -0.13539489 -0.025492586 9.219563e-41
0.076030612 -0.13728772 -0.032525577 9.219563e-41
0.078133419 -0.13809387 -0.035520948 9.219563e-41
0.080248177 -0.13890465 -0.038533367 0
0.082462966 -0.13999285 -0.042576708 0
0.08459419 -0.14078392 -0.045516051 0
0.086470306 -0.14078392 -0.045516051 0
0.088346422 -0.14078392 -0.045516051 0
0.090510473 -0.14161004 -0.048585571 0
0.092774704 -0.14268802 -0.052590884 0
0.094663218 -0.14268802 -0.052590884 0
0.096551746 -0.14268802 -0.052590884 0
0.09844026 -0.14268802 -0.052590884 0
0.10063598 -0.14349405 -0.055585779 0
0.10294095 -0.14455487 -0.059527315 0
0.10484162 -0.14455487 -0.059527315 0
0.10674231 -0.14455487 -0.059527315 0
0.10929683 -0.14616071 -0.065493859 0
0.11120796 -0.14616071 -0.065493859 0
0.1135731 -0.1472411 -0.069508232 9.1835496e-41
0.11549129 -0.1472411 -0.069508232 2.7586802e-40
0.11776972 -0.14807267 -0.072598018 9.1835496e-41
0.11969332 -0.14807267 -0.072598018 3.6806365e-40
-0.1129801 -0.13399105 -0.013514079 1.2261652e-38
-0.11077744 -0.13292582 -0.0095818415 1.2630801e-38
-0.10867178 -0.13209651 -0.0065204278 7.5600445e-39
-0.10686405 -0.13209651 -0.0065204278 4.2406472e-39
-0.1050563 -0.13209651 -0.0065204278 6.4501628e-40
-0.10324855 -0.13209651 -0.0065204278 7.3756784e-40
-0.10118061 -0.13130049 -0.0035817996 1.0141491e-39
-0.099115402 -0.13048081 -0.00055591017 7.3863563e-40
-0.097318128 -0.13048081 -0.00055591017 3.5873241e-43
-0.095270291 -0.1296659 0.0024523363 1.8584721e-40
-0.093234465 -0.12885578 0.0054429397 9.365298e-41
-0.091447696 -0.12885578 0.0054429397 3.6878532e-40
-0.089190394 -0.12722217 0.011473499 6.4392467e-40
-0.087414205 -0.12722217 0.011473499 1.1034637e-39
-0.085411549 -0.12639888 0.014512621 1.2871389e-39
-0.083428174 -0.12560774 0.017433129 1.2864228e-39
-0.081449151 -0.12479414 0.020436607 1.1027476e-39
-0.079481885 -0.12398534 0.023422323 1.3804051e-39
-0.07751964 -0.12315463 0.026488923 8.279544e-40
-0.075769767 -0.12315463 0.026488923 8.2831593e-40
-0.073831126 -0.12235557 0.029438697 8.2831873e-40
-0.072086424 -0.12235557 0.029438697 3.6734198e-40
-0.070158452 -0.12153481 0.03246858 5.5101298e-40
-0.068242192 -0.120719 0.035480104 1.564432e-39
-0.066508085 -0.120719 0.035480104 3.4083418e-39
-0.064773977 -0.120719 0.035480104 5.16007e-39
-0.062931329 -0.12016918 0.037509762 4.7920148e-39
-0.061046604 -0.11936165 0.040490769 3.4090803e-39
-0.059021313 -0.11773549 0.046493851 1.9343132e-39
-0.057306517 -0.11773549 0.046493851 1.8421217e-39
-0.055359703 -0.11638273 0.051487587 1.3818667e-39
-0.053519968 -0.11557265 0.054478012 6.4430162e-40
-0.051819168 -0.11557265 0.054478012 4.602733e-40
-0.04999591 -0.11476754 0.057450198 6.4466456e-40
-0.04830033 -0.11476754 0.057450198 1.8404234e-40
-0.046489924 -0.1139424 0.060496174 6.4430162e-40
-0.044799682 -0.1139424 0.060496174 2.755163e-40
-0.043109439 -0.1139424 0.060496174 9.1841101e-41
-0.041356642 -0.11341999 0.062424622 9.1838299e-41
-0.039669782 -0.11341999 0.062424622 9.2051717e-40
-0.037895706 -0.11260332 0.065439425 3.9640491e-39
-0.036214128 -0.11260332 0.065439425 2.0300961e-39
-0.034532554 -0.11260332 0.065439425 8.3192147e-40
-0.032850977 -0.11260332 0.065439425 3.7023847e-40
-0.031169403 -0.11260332 0.065439425 4.6171523e-40
-0.02948783 -0.11260332 0.065439425 1.290736e-39
-0.027806256 -0.11260332 0.065439425 7.3647763e-40
-0.026174895 -0.11341999 0.062424622 1.1023917e-39
-0.024488036 -0.11341999 0.062424622 5.2497559e-39
-0.022826534 -0.1139424 0.060496174 1.1333223e-38
-0.021171004 -0.11476754 0.057450198 9.7658858e-39
-0.019475423 -0.11476754 0.057450198 4.4206847e-39
-0.017803289 -0.11557265 0.054478012 2.5789343e-39
-0.016102497 -0.11557265 0.054478012 2.3963675e-39
-0.014401702 -0.11557265 0.054478012 2.306697e-39
-0.012700908 -0.11557265 0.054478012 4.429709e-39
-0.011002736 -0.11638273 0.051487587 5.1676272e-39
-0.0092948861 -0.11694257 0.049420916 6.0859822e-39
-0.0075775273 -0.11773549 0.046493851 8.0199296e-39
-0.0058494098 -0.11855899 0.043453835 8.112128e-39
-0.0041292869 -0.11855899 0.043453835 7.1901717e-39
-0.0024091639 -0.11855899 0.043453835 7.2820128e-39
-0.00066046696 -0.11936165 0.040490769 7.1898172e-39
0.0010648509 -0.11936165 0.040490769 5.8990812e-39
0.0027901698 -0.11936165 0.040490769 4.8845733e-39
0.0045599146 -0.12016918 0.037509762 1.3811422e-39
0.00629046 -0.12016918 0.037509762 7.3577278e-40
0.008058371 -0.120719 0.035480104 4.5918309e-40
0.0099142883 -0.12235557 0.029438697 6.4357435e-40
0.011723634 -0.12315463 0.026488923 5.5137872e-40
0.013473503 -0.12315463 0.026488923 2.7550649e-40
0.015223371 -0.12315463 0.026488923 2.7550649e-40
0.017056579 -0.12398534 0.023422323 5.5173465e-40
0.0188982 -0.12479414 0.020436607 9.1835496e-41
0.020750837 -0.12560774 0.017433129 9.1835496e-41
0.022611316 -0.12639888 0.014512621 2.7586802e-40
0.024486087 -0.12722217 0.011473499 1.8367239e-40
0.026262283 -0.12722217 0.011473499 9.1835496e-41
0.028153736 -0.1280504 0.0084160194 9.1835496e-41
0.029935293 -0.1280504 0.0084160194 9.1838299e-41
0.03171685 -0.1280504 0.0084160194 2.7587083e-40
0.033498403 -0.1280504 0.0084160194 9.1838299e-41
0.035412885 -0.12885578 0.0054429397 9.1838299e-41
0.037199654 -0.12885578 0.0054429397 9.1841101e-41
0.039130621 -0.1296659 0.0024523363 9.1841101e-41
0.040922634 -0.1296659 0.0024523363 1.83678e-40
0.042714644 -0.1296659 0.0024523363 1.83678e-40
0.044667527 -0.13048081 -0.00055591017 1.83678e-40
0.046631936 -0.13130049 -0.0035817996 1.836752e-40
0.048434526 -0.13130049 -0.0035817996 6.4537221e-40
0.050409723 -0.13209651 -0.0065204278 6.4536941e-40
0.052402653 -0.13292582 -0.0095818415 5.5317378e-40
0.054460526 -0.13399105 -0.013514079 3.6878252e-40
0.056280531 -0.13399105 -0.013514079 2.7658689e-40
0.058297507 -0.13480256 -0.016509809 1.8439126e-40
0.060122766 -0.13480256 -0.016509809 9.219563e-41
0.061948024 -0.13480256 -0.016509809 0
0.063773282 -0.13480256 -0.016509809 9.219563e-41
0.065817788 -0.13561879 -0.019522943 9.219563e-41
0.067648329 -0.13561879 -0.019522943 9.219563e-41
0.069710009 -0.13643973 -0.022553481 9.219563e-41
0.071545869 -0.13643973 -0.022553481 9.219563e-41
0.073616192 -0.13723589 -0.025492586 9.219563e-41
0.075787768 -0.13833423 -0.029547133 9.219563e-41
0.077883944 -0.13914107 -0.032525577 9.219563e-41
0.079992011 -0.13995247 -0.035520948 0
0.082462966 -0.14186381 -0.042576708 0
0.084333926 -0.14186381 -0.042576708 0
0.086470306 -0.14266007 -0.045516051 0
0.088346422 -0.14266007 -0.045516051 0
0.090510473 -0.14349155 -0.048585571 0
0.092391968 -0.14349155 -0.048585571 0
0.094663218 -0.14457656 -0.052590884 0
0.096551746 -0.14457656 -0.052590884 0
0.098742202 -0.14538784 -0.055585779 0
0.10063598 -0.14538784 -0.055585779 0
0.10294095 -0.14645557 -0.059527315 0
0.10484162 -0.14645557 -0.059527315 0
0.10674231 -0.14645557 -0.059527315 0
0.10929683 -0.14807184 -0.065493859 0
0.11120796 -0.14807184 -0.065493859 0
0.1135731 -0.1491593 -0.069508232 9.1835496e-41
0.11549129 -0.1491593 -0.069508232 9.1835496e-41
0.11776972 -0.1499963 -0.072598018 9.1835496e-41
0.11969332 -0.1499963 -0.072598018 3.6841958e-40
0.12161691 -0.1499963 -0.072598018 4.6061521e-40
-0.1129801 -0.13581105 -0.013514079 1.2538239e-38
-0.11116008 -0.13581105 -0.013514079 1.1893236e-38
-0.10896432 -0.13473894 -0.0095818415 7.0068707e-39
-0.10686405 -0.13390426 -0.0065204278 3.9640604e-39
-0.1050563 -0.13390426 -0.0065204278 5.5282065e-40
-0.10324855 -0.13390426 -0.0065204278 5.5317658e-40
-0.10118061 -0.13310309 -0.0035817996 8.2975787e-40
-0.099115402 -0.1322781 -0.00055591017 9.2302689e-40
-0.097062305 -0.13145791 0.0024523363 1.8583039e-40
-0.095270291 -0.13145791 0.0024523363 3.7023987e-40
-0.093234465 -0.13064255 0.0054429397 9.365298e-41
-0.091210514 -0.12983195 0.0084160194 3.6878532e-40
-0.089428961 -0.12983195 0.0084160194 8.2831593e-40
-0.087414205 -0.12899835 0.011473499 1.3796974e-39
-0.085193917 -0.1273735 0.017433129 1.5633726e-39
-0.083209634 -0.12655462 0.020436607 1.4708225e-39
-0.081237137 -0.12574057 0.023422323 1.2867886e-39
-0.079481885 -0.12574057 0.023422323 1.1967383e-39
-0.07751964 -0.1249045 0.026488923 1.1052602e-39
-0.075769767 -0.1249045 0.026488923 8.290418e-40
-0.073831126 -0.12410025 0.029438697 6.4465615e-40
-0.072086424 -0.12410025 0.029438697 4.5919009e-40
-0.070158452 -0.12327419 0.03246858 5.5101858e-40
-0.068242192 -0.12245311 0.035480104 1.3796848e-39
-0.066508085 -0.12245311 0.035480104 1.9335733e-39
-0.064773977 -0.12245311 0.035480104 1.1963824e-39
-0.062931329 -0.12189974 0.037509762 2.0265088e-39
-0.061046604 -0.12108697 0.040490769 2.0265116e-39
-0.059021313 -0.11945029 0.046493851 1.6577291e-39
-0.057306517 -0.11945029 0.046493851 1.9343174e-39
-0.055359703 -0.11808877 0.051487587 1.5655348e-39
-0.053519968 -0.11727346 0.054478012 7.3577418e-40
-0.051691495 -0.11646311 0.057450198 5.5138292e-40
-0.04999591 -0.11646311 0.057450198 9.2016544e-40
-0.04830033 -0.11646311 0.057450198 4.5918729e-40
-0.046489924 -0.11563264 0.060496174 8.2796841e-40
-0.044799682 -0.11563264 0.060496174 2.7587363e-40
-0.043109439 -0.11563264 0.060496174 1.836752e-40
-0.041356642 -0.11510687 0.062424622 2.7587083e-40
-0.039669782 -0.11510687 0.062424622 8.2976347e-40
-0.037895706 -0.11428489 0.065439425 3.7800208e-39
-0.036214128 -0.11428489 0.065439425 2.7658661e-39
-0.034532554 -0.11428489 0.065439425 1.1067105e-39
-0.032850977 -0.11428489 0.065439425 5.5319059e-40
-0.031169403 -0.11428489 0.065439425 5.5319059e-40
-0.02948783 -0.11428489 0.065439425 1.2903759e-39
-0.027806256 -0.11428489 0.065439425 1.0130645e-39
-0.026124679 -0.11428489 0.065439425 8.2652367e-40
-0.024488036 -0.11510687 0.062424622 3.4991179e-39
-0.022826534 -0.11563264 0.060496174 8.5684314e-39
-0.021171004 -0.11646311 0.057450198 1.0596365e-38
-0.019475423 -0.11646311 0.057450198 8.9389894e-39
-0.017803289 -0.11727346 0.054478012 8.1103161e-39
-0.016102497 -0.11727346 0.054478012 8.6656703e-39
-0.014401702 -0.11727346 0.054478012 8.4838042e-39
-0.012700908 -0.11727346 0.054478012 6.8267982e-39
-0.011002736 -0.11808877 0.051487587 3.5995826e-39
-0.0092948861 -0.11865224 0.049420916 2.7662206e-39
-0.0075775273 -0.11945029 0.046493851 2.1194093e-39
-0.0058627352 -0.11945029 0.046493851 1.2896514e-39
-0.0041292869 -0.12027912 0.043453835 1.6580766e-39
-0.0024091639 -0.12027912 0.043453835 1.8424707e-39
-0.00066046696 -0.12108697 0.040490769 5.5173465e-40
0.0010648509 -0.12108697 0.040490769 2.7550929e-40
0.0028293701 -0.12189974 0.037509762 1.1045525e-39
0.0045599146 -0.12189974 0.037509762 9.2016404e-40
0.00629046 -0.12189974 0.037509762 5.5138152e-40
0.008058371 -0.12245311 0.035480104 4.5918589e-40
0.0099142883 -0.12410025 0.029438697 7.3576998e-40
0.011723634 -0.1249045 0.026488923 7.3576998e-40
0.013473503 -0.1249045 0.026488923 3.6734619e-40
0.015301334 -0.12574057 0.023422323 2.7550929e-40
0.017137721 -0.12655462 0.020436607 3.6734339e-40
0.0188982 -0.12655462 0.020436607 3.6806365e-40
0.020750837 -0.1273735 0.017433129 6.4465054e-40
0.022611316 -0.12816976 0.014512621 8.290418e-40
0.024486087 -0.12899835 0.011473499 5.5245491e-40
0.026262283 -0.12899835 0.011473499 9.1835496e-41
0.028153736 -0.12983195 0.0084160194 9.1835496e-41
0.029935293 -0.12983195 0.0084160194 9.1838299e-41
0.03171685 -0.12983195 0.0084160194 2.7587083e-40
0.033498403 -0.12983195 0.0084160194 9.1838299e-41
0.035412885 -0.13064255 0.0054429397 9.1838299e-41
0.037199654 -0.13064255 0.0054429397 9.1841101e-41
0.039130621 -0.13145791 0.0024523363 9.1841101e-41
0.040922634 -0.13145791 0.0024523363 1.83678e-40
0.042714644 -0.13145791 0.0024523363 1.83678e-40
0.044667527 -0.1322781 -0.00055591017 1.83678e-40
0.046631936 -0.13310309 -0.0035817996 2.7587083e-40
0.048434526 -0.13310309 -0.0035817996 3.6878532e-40
0.050409723 -0.13390426 -0.0065204278 3.6878252e-40
0.052402653 -0.13473894 -0.0095818415 2.7658689e-40
0.054460526 -0.13581105 -0.013514079 1.8439126e-40
0.056280531 -0.13581105 -0.013514079 9.219563e-41
0.058297507 -0.13662781 -0.016509809 0
0.060122766 -0.13662781 -0.016509809 0
0.061948024 -0.13662781 -0.016509809 0
0.063773282 -0.13662781 -0.016509809 9.219563e-41
0.065817788 -0.13744931 -0.019522943 9.219563e-41
0.067648329 -0.13744931 -0.019522943 9.219563e-41
0.069710009 -0.13827558 -0.022553481 9.219563e-41
0.071545869 -0.13827558 -0.022553481 9.219563e-41
0.073616192 -0.1390769 -0.025492586 9.219563e-41
0.075787768 -0.14018236 -0.029547133 9.219563e-41
0.077883944 -0.14099441 -0.032525577 9.219563e-41
0.079992011 -0.14181106 -0.035520948 0
0.082462966 -0.14373477 -0.042576708 0
0.084333926 -0.14373477 -0.042576708 0
0.086470306 -0.14453618 -0.045516051 0
0.088346422 -0.14453618 -0.045516051 0
0.090222538 -0.14453618 -0.045516051 0
0.092391968 -0.14537306 -0.048585571 0
0.094273463 -0.14537306 -0.048585571 0
0.096154973 -0.14537306 -0.048585571 0
0.098742202 -0.1472816 -0.055585779 0
0.10063598 -0.1472816 -0.055585779 0
0.10294095 -0.14835624 -0.059527315 0
0.10516343 -0.14918335 -0.062560953 0
0.10706942 -0.14918335 -0.062560953 0
0.10897543 -0.14918335 -0.062560953 0
0.11120796 -0.14998297 -0.065493859 0
0.11311911 -0.14998297 -0.065493859 9.1835496e-41
-0.1129801 -0.13763104 -0.013514079 1.1892871e-38
-0.11116008 -0.13763104 -0.013514079 1.1800322e-38
-0.10896432 -0.13655205 -0.0095818415 7.0983474e-39
-0.10715121 -0.13655205 -0.0095818415 4.1484516e-39
-0.10533811 -0.13655205 -0.0095818415 6.4501628e-40
-0.10324855 -0.13571201 -0.0065204278 4.6097815e-40
-0.10118061 -0.13490568 -0.0035817996 6.4572254e-40
-0.099115402 -0.13407536 -0.00055591017 1.2910877e-39
-0.097062305 -0.13324992 0.0024523363 1.1992593e-39
-0.095270291 -0.13324992 0.0024523363 9.2341365e-40
-0.093234465 -0.13242932 0.0054429397 5.5463113e-40
-0.091210514 -0.13161351 0.0084160194 5.5388984e-40
-0.089190394 -0.13077454 0.011473499 6.4500227e-40
-0.087182418 -0.12994061 0.014512621 1.1041896e-39
-0.085193917 -0.12913923 0.017433129 1.4715414e-39
-0.083209634 -0.12831511 0.020436607 1.3789926e-39
-0.081237137 -0.12749584 0.023422323 1.1949573e-39
-0.079269499 -0.12665437 0.026488923 2.7550649e-40
-0.07751964 -0.12665437 0.026488923 3.6841818e-40
-0.075769767 -0.12665437 0.026488923 2.7658969e-40
-0.073831126 -0.12584494 0.029438697 9.8090893e-45
-0.072086424 -0.12584494 0.029438697 5.5175286e-40
-0.070158452 -0.12501357 0.03246858 1.7495702e-39
-0.068242192 -0.12418722 0.035480104 2.0264948e-39
-0.066508085 -0.12418722 0.035480104 1.4736769e-39
-0.064661875 -0.12363027 0.037509762 1.8439154e-39
-0.062931329 -0.12363027 0.037509762 1.8435637e-39
-0.061046604 -0.12281232 0.040490769 1.1981915e-39
-0.059021313 -0.12116508 0.046493851 1.0130813e-39
-0.057306517 -0.12116508 0.046493851 1.288948e-39
-0.055359703 -0.1197948 0.051487587 8.2724954e-40
-0.053519968 -0.11897425 0.054478012 6.4285268e-40
-0.051691495 -0.11815868 0.057450198 1.2875046e-39
-0.04999591 -0.11815868 0.057450198 1.1945873e-39
-0.04830033 -0.11815868 0.057450198 6.4284987e-40
-0.046604745 -0.11815868 0.057450198 8.2760547e-40
-0.044799682 -0.11732288 0.060496174 4.5918309e-40
-0.043109439 -0.11732288 0.060496174 5.5245772e-40
-0.041356642 -0.11679374 0.062424622 6.4537221e-40
-0.039669782 -0.11679374 0.062424622 7.3792798e-40
-0.037895706 -0.11596648 0.065439425 3.2268498e-39
-0.036214128 -0.11596648 0.065439425 2.9488182e-39
-0.034532554 -0.11596648 0.065439425 1.1967481e-39
-0.032850977 -0.11596648 0.065439425 3.673616e-40
-0.031169403 -0.11596648 0.065439425 2.7552471e-40
-0.02948783 -0.11596648 0.065439425 8.2939773e-40
-0.027806256 -0.11596648 0.065439425 1.1052573e-39
-0.026124679 -0.11596648 0.065439425 8.2652087e-40
-0.024516776 -0.11732288 0.060496174 2.3934864e-39
-0.022826534 -0.11732288 0.060496174 5.895477e-39
-0.021171004 -0.11815868 0.057450198 9.6758482e-39
-0.019475423 -0.11815868 0.057450198 1.0414841e-38
-0.017803289 -0.11897425 0.054478012 9.2173826e-39
-0.016102497 -0.11897425 0.054478012 7.8359125e-39
-0.014401702 -0.11897425 0.054478012 6.270393e-39
-0.012700908 -0.11897425 0.054478012 3.5070381e-39
-0.011002736 -0.1197948 0.051487587 6.4860641e-40
-0.0092948861 -0.12036191 0.049420916 5.5352551e-40
-0.0075775273 -0.12116508 0.046493851 1.1052573e-39
-0.0058627352 -0.12116508 0.046493851 3.6770072e-40
-0.0041292869 -0.12199925 0.043453835 2.7550649e-40
-0.0023857858 -0.12281232 0.040490769 2.7550649e-40
-0.00063171983 -0.12363027 0.037509762 4.5953902e-40
0.0010988247 -0.12363027 0.037509762 4.5918309e-40
0.0028293701 -0.12363027 0.037509762 7.3577278e-40
0.0045599146 -0.12363027 0.037509762 1.1045567e-39
0.006324267 -0.12418722 0.035480104 5.5138292e-40
0.008058371 -0.12418722 0.035480104 2.7551349e-40
0.0099737663 -0.12665437 0.026488923 4.5918589e-40
0.011723634 -0.12665437 0.026488923 7.3577278e-40
0.013473503 -0.12665437 0.026488923 6.4357715e-40
0.015301334 -0.12749584 0.023422323 3.6734899e-40
0.017137721 -0.12831511 0.020436607 2.7550929e-40
0.0188982 -0.12831511 0.020436607 3.6806365e-40
0.020750837 -0.12913923 0.017433129 6.4465054e-40
0.022611316 -0.12994061 0.014512621 8.290418e-40
0.024382181 -0.12994061 0.014512621 5.5245491e-40
0.026262283 -0.13077454 0.011473499 9.1835496e-41
0.028038479 -0.13077454 0.011473499 9.1835496e-41
0.029935293 -0.13161351 0.0084160194 9.1838299e-41
0.03171685 -0.13161351 0.0084160194 2.7587083e-40
0.033498403 -0.13161351 0.0084160194 9.1838299e-41
0.035412885 -0.13242932 0.0054429397 9.1838299e-41
0.037338607 -0.13324992 0.0024523363 9.1841101e-41
0.039130621 -0.13324992 0.0024523363 9.1841101e-41
0.040922634 -0.13324992 0.0024523363 1.83678e-40
0.042714644 -0.13324992 0.0024523363 1.83678e-40
0.044667527 -0.13407536 -0.00055591017 1.83678e-40
0.046631936 -0.13490568 -0.0035817996 2.7587083e-40
0.048434526 -0.13490568 -0.0035817996 2.8025969e-45
0.050409723 -0.13571201 -0.0065204278 0
0.052217469 -0.13571201 -0.0065204278 0
0.054460526 -0.13763104 -0.013514079 0
0.056280531 -0.13763104 -0.013514079 0
0.058100536 -0.13763104 -0.013514079 0
0.060122766 -0.13845308 -0.016509809 0
0.061948024 -0.13845308 -0.016509809 0
0.063773282 -0.13845308 -0.016509809 9.219563e-41
0.06559854 -0.13845308 -0.016509809 9.219563e-41
0.067874156 -0.14011143 -0.022553481 9.219563e-41
0.069710009 -0.14011143 -0.022553481 9.219563e-41
0.071545869 -0.14011143 -0.022553481 9.219563e-41
0.073616192 -0.14091791 -0.025492586 9.219563e-41
0.075787768 -0.14203046 -0.029547133 9.219563e-41
0.077883944 -0.14284773 -0.032525577 9.219563e-41
0.079992011 -0.14366965 -0.035520948 0
0.082462966 -0.14560573 -0.042576708 0
0.084333926 -0.14560573 -0.042576708 0
0.086204886 -0.14560573 -0.042576708 0
0.088346422 -0.1464123 -0.045516051 0
0.090222538 -0.1464123 -0.045516051 0
0.092098653 -0.1464123 -0.045516051 0
0.094273463 -0.14725454 -0.048585571 0
0.096154973 -0.14725454 -0.048585571 0
0.098742202 -0.14917539 -0.055585779 0
0.10063598 -0.14917539 -0.055585779 0
-0.11116008 -0.13945107 -0.013514079 1.161593e-38
-0.10896432 -0.13836516 -0.0095818415 6.7295677e-39
-0.10715121 -0.13836516 -0.0095818415 3.6874735e-39
-0.1050563 -0.13751976 -0.0065204278 3.6842939e-40
-0.10324855 -0.13751976 -0.0065204278 9.219563e-41
-0.10091269 -0.13587265 -0.00055591017 1.8474719e-40
-0.099115402 -0.13587265 -0.00055591017 8.3010959e-40
-0.097062305 -0.13504194 0.0024523363 8.3047673e-40
-0.095270291 -0.13504194 0.0024523363 3.7023987e-40
-0.093234465 -0.13421609 0.0054429397 1.8584721e-40
-0.091210514 -0.13339506 0.0084160194 1.8510592e-40
-0.089190394 -0.13255073 0.011473499 4.6097114e-40
-0.087182418 -0.1317115 0.014512621 9.197983e-40
-0.085193917 -0.13090499 0.017433129 1.3793457e-39
-0.082992375 -0.12925108 0.023422323 1.6555837e-39
-0.081237137 -0.12925108 0.023422323 1.5644629e-39
-0.079269499 -0.12840421 0.026488923 1.4736909e-39
-0.07751964 -0.12840421 0.026488923 1.3832876e-39
-0.075575829 -0.12758966 0.029438697 8.3012641e-40
-0.073831126 -0.12758966 0.029438697 9.2209643e-41
-0.071897835 -0.12675296 0.03246858 4.5992157e-40
-0.070158452 -0.12675296 0.03246858 1.2896738e-39
-0.068242192 -0.12592132 0.035480104 1.4740399e-39
-0.066508085 -0.12592132 0.035480104 4.6097114e-40
-0.064661875 -0.12536083 0.037509762 1.1067147e-39
-0.062931329 -0.12536083 0.037509762 1.014889e-39
-0.061046604 -0.12453763 0.040490769 8.2977468e-40
-0.059021313 -0.12287988 0.046493851 9.2088851e-40
-0.057306517 -0.12287988 0.046493851 1.2889466e-39
-0.055455726 -0.12207155 0.049420916 1.0109177e-39
-0.053653661 -0.12150083 0.051487587 7.3468537e-40
-0.051819168 -0.12067504 0.054478012 1.4708113e-39
-0.050118376 -0.12067504 0.054478012 1.4697323e-39
-0.04830033 -0.11985429 0.057450198 9.1835496e-40
-0.046604745 -0.11985429 0.057450198 1.1031078e-39
-0.044909164 -0.11985429 0.057450198 7.3540704e-40
-0.043109439 -0.11901312 0.060496174 8.2904461e-40
-0.041356642 -0.11848058 0.062424622 7.3792798e-40
-0.039669782 -0.11848058 0.062424622 5.5461852e-40
-0.037895706 -0.11764805 0.065439425 2.7662318e-39
-0.036214128 -0.11764805 0.065439425 2.4871212e-39
-0.034532554 -0.11764805 0.065439425 9.187221e-40
-0.032850977 -0.11764805 0.065439425 4.591943e-40
-0.031169403 -0.11764805 0.065439425 2.755191e-40
-0.02948783 -0.11764805 0.065439425 2.7622395e-40
-0.027806256 -0.11764805 0.065439425 1.0130617e-39
-0.026174895 -0.11848058 0.062424622 7.3540424e-40
-0.024516776 -0.11901312 0.060496174 1.6562815e-39
-0.022826534 -0.11901312 0.060496174 1.5633614e-39
-0.021171004 -0.11985429 0.057450198 2.3012768e-39
-0.019475423 -0.11985429 0.057450198 1.7491792e-39
-0.017803289 -0.12067504 0.054478012 8.2831313e-40
-0.016102497 -0.12067504 0.054478012 5.5282065e-40
-0.014401702 -0.12067504 0.054478012 9.3288643e-41
-0.012700908 -0.12067504 0.054478012 2.1636048e-42
-0.011002736 -0.12150083 0.051487587 9.5435432e-41
-0.0092923213 -0.12287988 0.046493851 1.8474719e-40
-0.0075775273 -0.12287988 0.046493851 1.6584311e-39
-0.0058627352 -0.12287988 0.046493851 1.7506296e-39
-0.0041111037 -0.12453763 0.040490769 9.2051156e-40
-0.0023857858 -0.12453763 0.040490769 6.4392747e-40
-0.00063171983 -0.12536083 0.037509762 3.6734339e-40
0.0010988247 -0.12536083 0.037509762 2.7551209e-40
0.0028293701 -0.12536083 0.037509762 6.4357715e-40
0.0045599146 -0.12536083 0.037509762 1.1045567e-39
0.006324267 -0.12592132 0.035480104 5.5138292e-40
0.008058371 -0.12592132 0.035480104 2.7551349e-40
0.0099737663 -0.12840421 0.026488923 2.7551349e-40
0.011723634 -0.12840421 0.026488923 5.5138292e-40
0.013473503 -0.12840421 0.026488923 6.4357715e-40
0.015301334 -0.12925108 0.023422323 4.5918589e-40
0.017137721 -0.13007559 0.020436607 2.7551209e-40
0.0188982 -0.13007559 0.020436607 9.1838299e-41
0.020750837 -0.13090499 0.017433129 9.1835496e-41
0.022611316 -0.1317115 0.014512621 2.7586802e-40
0.024382181 -0.1317115 0.014512621 1.8367239e-40
0.026262283 -0.13255073 0.011473499 9.1835496e-41
0.028038479 -0.13255073 0.011473499 9.1835496e-41
0.029935293 -0.13339506 0.0084160194 9.1838299e-41
0.03171685 -0.13339506 0.0084160194 2.7587083e-40
0.033498403 -0.13339506 0.0084160194 9.1838299e-41
0.035412885 -0.13421609 0.0054429397 9.1838299e-41
0.037338607 -0.13504194 0.0024523363 9.1841101e-41
0.039130621 -0.13504194 0.0024523363 9.1841101e-41
0.040922634 -0.13504194 0.0024523363 1.83678e-40
0.042870242 -0.13587265 -0.00055591017 1.83678e-40
0.044667527 -0.13587265 -0.00055591017 1.83678e-40
0.046631936 -0.13670824 -0.0035817996 1.836752e-40
0.048434526 -0.13670824 -0.0035817996 2.8025969e-45
0.050409723 -0.13751976 -0.0065204278 0
0.052217469 -0.13751976 -0.0065204278 0
0.054460526 -0.13945107 -0.013514079 0
0.056280531 -0.13945107 -0.013514079 9.219563e-41
0.058100536 -0.13945107 -0.013514079 9.219563e-41
0.060122766 -0.14027832 -0.016509809 1.8439126e-40
0.061948024 -0.14027832 -0.016509809 1.8439126e-40
0.063773282 -0.14027832 -0.016509809 9.219563e-41
0.06559854 -0.14027832 -0.016509809 9.219563e-41
0.067874156 -0.14194728 -0.022553481 9.219563e-41
0.069934174 -0.14275892 -0.025492586 9.219563e-41
0.071775183 -0.14275892 -0.025492586 9.219563e-41
0.073616192 -0.14275892 -0.025492586 9.219563e-41
0.075787768 -0.14387859 -0.029547133 9.219563e-41
0.077883944 -0.14470108 -0.032525577 9.219563e-41
0.079992011 -0.14552824 -0.035520948 0
0.082462966 -0.14747669 -0.042576708 0
0.084333926 -0.14747669 -0.042576708 0
0.086204886 -0.14747669 -0.042576708 0
0.088346422 -0.14828841 -0.045516051 0
0.090222538 -0.14828841 -0.045516051 0
0.092098653 -0.14828841 -0.045516051 0
0.094273463 -0.14913605 -0.048585571 0
0.096154973 -0.14913605 -0.048585571 0
-0.1129801 -0.14127107 -0.013514079 1.106311e-38
-0.11116008 -0.14127107 -0.013514079 1.1247151e-38
-0.10896432 -0.14017828 -0.0095818415 5.9920027e-39
-0.10715121 -0.14017828 -0.0095818415 2.9491896e-39
-0.1050563 -0.13932751 -0.0065204278 9.1841101e-41
-0.10324855 -0.13932751 -0.0065204278 1.8439126e-40
-0.10091269 -0.13766994 -0.00055591017 1.8474719e-40
-0.098854318 -0.13683395 0.0024523363 4.6168861e-40
-0.097062305 -0.13683395 0.0024523363 9.2911693e-41
-0.095021233 -0.13600285 0.0054429397 3.7414669e-43
-0.093234465 -0.13600285 0.0054429397 3.7134409e-43
-0.091210514 -0.13517661 0.0084160194 9.3270426e-41
-0.089190394 -0.13432692 0.011473499 3.6877691e-40
-0.087182418 -0.13348235 0.014512621 7.3540424e-40
-0.085193917 -0.13267075 0.017433129 1.2871501e-39
-0.082992375 -0.13100632 0.023422323 1.6555837e-39
-0.081237137 -0.13100632 0.023422323 1.7488569e-39
-0.079269499 -0.13015409 0.026488923 7.3684617e-40
-0.07751964 -0.13015409 0.026488923 3.6913565e-40
-0.075575829 -0.12933435 0.029438697 1.84757e-40
-0.073831126 -0.12933435 0.029438697 4.6099216e-40
-0.071897835 -0.12849234 0.03246858 4.6064324e-40
-0.070158452 -0.12849234 0.03246858 2.7588484e-40
-0.068242192 -0.12765543 0.035480104 6.442834e-40
-0.066508085 -0.12765543 0.035480104 8.2974946e-40
-0.064661875 -0.12709136 0.037509762 3.685415e-43
-0.062771916 -0.12626295 0.040490769 8.3121802e-40
-0.060893346 -0.12543948 0.043453835 1.1070846e-39
-0.059021313 -0.12459467 0.046493851 8.2941175e-40
-0.057306517 -0.12459467 0.046493851 1.2882277e-39
-0.055455726 -0.12378122 0.049420916 1.3789786e-39
-0.053653661 -0.1232069 0.051487587 1.1020288e-39
-0.051819168 -0.12237583 0.054478012 1.3778912e-39
-0.050118376 -0.12237583 0.054478012 1.5615636e-39
-0.04830033 -0.12154986 0.057450198 1.3778912e-39
-0.046604745 -0.12154986 0.057450198 1.6559186e-39
-0.044799682 -0.12070335 0.060496174 9.197955e-40
-0.043109439 -0.12070335 0.060496174 7.3684617e-40
-0.041356642 -0.12016745 0.062424622 7.3792798e-40
-0.039577279 -0.11932962 0.065439425 5.5461852e-40
-0.037895706 -0.11932962 0.065439425 2.9506259e-39
-0.036214128 -0.11932962 0.065439425 1.8406728e-39
-0.034532554 -0.11932962 0.065439425 7.3468677e-40
-0.032850977 -0.11932962 0.065439425 8.2653908e-40
-0.031169403 -0.11932962 0.065439425 3.673546e-40
-0.02948783 -0.11932962 0.065439425 2.7550649e-40
-0.027806256 -0.11932962 0.065439425 7.3755383e-40
-0.026174895 -0.12016745 0.062424622 7.361231e-40
-0.024516776 -0.12070335 0.060496174 1.1041868e-39
-0.022826534 -0.12070335 0.060496174 2.3020055e-39
-0.021171004 -0.12154986 0.057450198 1.7484632e-39
-0.019475423 -0.12154986 0.057450198 8.279544e-40
-0.017803289 -0.12237583 0.054478012 3.6734198e-40
-0.016102497 -0.12237583 0.054478012 6.4501628e-40
-0.014401702 -0.12237583 0.054478012 2.7732397e-40
-0.012700908 -0.12237583 0.054478012 3.685415e-43
-0.011004549 -0.12378122 0.049420916 3.643376e-43
-0.0092948861 -0.12378122 0.049420916 3.5873241e-43
-0.0075775273 -0.12459467 0.046493851 2.7550649e-40
-0.0058627352 -0.12459467 0.046493851 6.4392467e-40
-0.0041111037 -0.12626295 0.040490769 1.1970984e-39
-0.0023622653 -0.12709136 0.037509762 1.2892969e-39
-0.00063171983 -0.12709136 0.037509762 2.7550649e-40
0.0010988247 -0.12709136 0.037509762 2.7551209e-40
0.0028293701 -0.12709136 0.037509762 1.2889466e-39
0.0045599146 -0.12709136 0.037509762 4.5918729e-40
0.006324267 -0.12765543 0.035480104 3.673532e-40
0.008058371 -0.12765543 0.035480104 2.755163e-40
0.0099142883 -0.12933435 0.029438697 2.7551349e-40
0.011723634 -0.13015409 0.026488923 2.7551349e-40
0.013473503 -0.13015409 0.026488923 4.5918729e-40
0.015301334 -0.13100632 0.023422323 3.6735039e-40
0.017137721 -0.13183604 0.020436607 2.7551209e-40
0.0188982 -0.13183604 0.020436607 9.1838299e-41
0.020750837 -0.13267075 0.017433129 9.1835496e-41
0.022516582 -0.13267075 0.017433129 9.1835496e-41
0.024382181 -0.13348235 0.014512621 9.1835496e-41
0.026262283 -0.13432692 0.011473499 9.1835496e-41
0.028038479 -0.13432692 0.011473499 9.1835496e-41
0.029935293 -0.13517661 0.0084160194 9.1838299e-41
0.03171685 -0.13517661 0.0084160194 1.836752e-40
0.033498403 -0.13517661 0.0084160194 1.836752e-40
0.035412885 -0.13600285 0.0054429397 1.836752e-40
0.037199654 -0.13600285 0.0054429397 1.83678e-40
0.039130621 -0.13683395 0.0024523363 1.83678e-40
0.040922634 -0.13683395 0.0024523363 9.1841101e-41
0.042870242 -0.13766994 -0.00055591017 9.1841101e-41
0.044667527 -0.13766994 -0.00055591017 9.1841101e-41
0.046464816 -0.13766994 -0.00055591017 9.1838299e-41
0.048434526 -0.13851084 -0.0035817996 2.8025969e-45
0.050409723 -0.13932751 -0.0065204278 0
0.052217469 -0.13932751 -0.0065204278 9.219563e-41
0.054215766 -0.14017828 -0.0095818415 9.219563e-41
0.056280531 -0.14127107 -0.013514079 9.219563e-41
0.058100536 -0.14127107 -0.013514079 1.8439126e-40
0.060122766 -0.1421036 -0.016509809 1.8439126e-40
0.061948024 -0.1421036 -0.016509809 1.8439126e-40
0.063773282 -0.1421036 -0.016509809 9.219563e-41
0.06559854 -0.1421036 -0.016509809 9.219563e-41
0.067874156 -0.14378314 -0.022553481 9.219563e-41
0.069934174 -0.14459993 -0.025492586 9.219563e-41
0.071775183 -0.14459993 -0.025492586 9.219563e-41
0.073616192 -0.14459993 -0.025492586 9.219563e-41
0.075787768 -0.1457267 -0.029547133 9.219563e-41
0.077883944 -0.14655443 -0.032525577 9.219563e-41
0.079992011 -0.14738683 -0.035520948 0
0.082112044 -0.14822401 -0.038533367 0
0.084333926 -0.14934768 -0.042576708 0
-0.1129801 -0.14309107 -0.013514079 1.106311e-38
-0.11116008 -0.14309107 -0.013514079 1.1062757e-38
-0.10896432 -0.14199139 -0.0095818415 5.5310245e-39
