# .PCD v0.7 - Point Cloud Data file format
VERSION 0.7
FIELDS x y z rgb
SIZE 4 4 4 4
TYPE F F F F
COUNT 1 1 1 1
WIDTH 990
HEIGHT 1
VIEWPOINT 0 0 0 1 0 0 0
POINTS 990
DATA ascii
-0.027050793 -0.13421609 0.008379139 2.7694142e-40
-0.025277056 -0.13339506 0.011352219 9.2552961e-41
-0.023495499 -0.13339506 0.011352219 1.8474719e-40
-0.021713944 -0.13339506 0.011352219 2.7658409e-40
-0.019961871 -0.13255073 0.014409699 2.7658409e-40
-0.018185677 -0.13255073 0.014409699 2.7586802e-40
-0.016409483 -0.13255073 0.014409699 9.1835496e-41
-0.014633287 -0.13255073 0.014409699 1.8367239e-40
-0.012907714 -0.1317115 0.01744882 2.7586802e-40
-0.011190614 -0.13090499 0.020369329 5.5137872e-40
-0.0094854273 -0.13007559 0.023372807 5.5137872e-40
-0.0077903848 -0.12925108 0.026358522 4.5918309e-40
-0.0061077252 -0.12840421 0.029425122 3.6734619e-40
-0.0044328514 -0.12758966 0.032374896 3.6734619e-40
-0.0026881546 -0.12758966 0.032374896 2.7587083e-40
-0.00094345771 -0.12758966 0.032374896 3.6806926e-40
0.00070827082 -0.12675296 0.035404779 1.8403813e-40
0.0024476536 -0.12675296 0.035404779 1.8439406e-40
0.00418704 -0.12675296 0.035404779 1.8439406e-40
0.0059264228 -0.12675296 0.035404779 3.6806646e-40
0.007552281 -0.12592132 0.038416304 4.6026209e-40
0.0092063136 -0.12536083 0.040445961 3.6806365e-40
0.01093686 -0.12536083 0.040445961 1.8367239e-40
0.012539349 -0.12453763 0.043426968 3.6734339e-40
0.014264669 -0.12453763 0.043426968 3.6734339e-40
0.015711065 -0.12287988 0.04943005 6.4320861e-40
0.017284725 -0.12207155 0.052357115 8.2759987e-40
0.018994384 -0.12207155 0.052357115 7.3540424e-40
0.020597149 -0.12150083 0.054423787 3.6734198e-40
0.022303186 -0.12150083 0.054423787 3.6734198e-40
0.024009224 -0.12150083 0.054423787 4.5953621e-40
0.025544856 -0.12067504 0.057414211 9.2194229e-41
0.027245652 -0.12067504 0.057414211 9.2911693e-41
0.028766658 -0.11985429 0.060386397 1.8511013e-40
0.030462239 -0.11985429 0.060386397 2.7730576e-40
0.031839475 -0.11848058 0.065360822 2.7694983e-40
0.033526339 -0.11848058 0.065360822 1.847542e-40
0.035213195 -0.11848058 0.065360822 1.8403813e-40
0.036900058 -0.11848058 0.065360822 9.1842503e-41
0.038372837 -0.11764805 0.068375625 9.1842503e-41
0.040054411 -0.11764805 0.068375625 2.7623376e-40
0.041960642 -0.11848058 0.065360822 1.1978271e-39
0.043647505 -0.11848058 0.065360822 1.3822184e-39
0.045334361 -0.11848058 0.065360822 4.6025928e-40
0.047021225 -0.11848058 0.065360822 9.1835496e-41
0.048865311 -0.11901312 0.063432373 1.8402972e-40
0.050809234 -0.11985429 0.060386397 0
0.052504815 -0.11985429 0.060386397 3.5873241e-43
0.054458361 -0.12067504 0.057414211 3.5873241e-43
0.056606915 -0.12207155 0.052357115 9.219563e-41
0.058580887 -0.12287988 0.04943005 0
0.060575511 -0.12371938 0.046390034 9.1838299e-41
0.062295642 -0.12371938 0.046390034 9.1838299e-41
0.064015761 -0.12371938 0.046390034 7.3577278e-40
0.066024214 -0.12453763 0.043426968 1.8421203e-39
0.067749545 -0.12453763 0.043426968 1.0123597e-39
0.069775388 -0.12536083 0.040445961 1.83678e-40
0.071714118 -0.12592132 0.038416304 9.1838299e-41
0.074078485 -0.12758966 0.032374896 0
0.076136082 -0.12840421 0.029425122 0
0.078216627 -0.12925108 0.026358522 3.5873241e-43
0.08029905 -0.13007559 0.023372807 3.5873241e-43
0.082393929 -0.13090499 0.020369329 7.1746481e-43
0.084489956 -0.1317115 0.01744882 0
0.086260825 -0.1317115 0.01744882 0
0.088031679 -0.1317115 0.01744882 0
0.090162233 -0.13255073 0.014409699 0
0.092305645 -0.13339506 0.011352219 0
0.094087198 -0.13339506 0.011352219 0
0.096236259 -0.13421609 0.008379139 0
0.098397925 -0.13504194 0.0053885356 0
0.10057235 -0.13587265 0.0023802891 1.8439126e-40
0.10275957 -0.13670824 -0.00064560026 1.8439126e-40
0.10456216 -0.13670824 -0.00064560026 0
0.10636476 -0.13670824 -0.00064560026 0
0.10816735 -0.13670824 -0.00064560026 0
0.10996994 -0.13670824 -0.00064560026 3.9644121e-39
0.11177254 -0.13670824 -0.00064560026 6.6380854e-39
-0.081182435 -0.14934768 -0.039640509 9.1835496e-41
-0.079123601 -0.14822401 -0.035597168 1.8367239e-40
-0.077259734 -0.14822401 -0.035597168 1.836752e-40
-0.075266451 -0.14738683 -0.032584749 2.7587083e-40
-0.073284432 -0.14655443 -0.029589377 9.1838299e-41
-0.071313605 -0.1457267 -0.026610933 9.1838299e-41
-0.069465488 -0.1457267 -0.026610933 1.83678e-40
-0.067471631 -0.14459993 -0.022556387 1.83678e-40
-0.065630622 -0.14459993 -0.022556387 1.83678e-40
-0.063789614 -0.14459993 -0.022556387 1.83678e-40
-0.061948605 -0.14459993 -0.022556387 9.1841101e-41
-0.060107592 -0.14459993 -0.022556387 9.1841101e-41
-0.058266584 -0.14459993 -0.022556387 2.7623376e-40
-0.056425575 -0.14459993 -0.022556387 5.6051939e-45
-0.054584567 -0.14459993 -0.022556387 5.6051939e-45
-0.052679144 -0.14378314 -0.019617282 2.7623376e-40
-0.050721426 -0.1421036 -0.013573609 2.7623376e-40
-0.048896167 -0.1421036 -0.013573609 5.6051939e-45
-0.047070909 -0.1421036 -0.013573609 2.8025969e-45
-0.045201004 -0.14127107 -0.01057788 2.7658969e-40
-0.043380994 -0.14127107 -0.01057788 3.6878532e-40
-0.041516174 -0.14017828 -0.0066456422 3.6878532e-40
-0.039673541 -0.13932751 -0.0035842285 2.7658689e-40
-0.037865795 -0.13932751 -0.0035842285 1.8439126e-40
-0.036040019 -0.13851084 -0.00064560026 9.219563e-41
-0.034224164 -0.13766994 0.0023802891 1.8439126e-40
-0.032426875 -0.13766994 0.0023802891 3.6878252e-40
-0.030626953 -0.13683395 0.0053885356 4.6097535e-40
-0.028837562 -0.13600285 0.008379139 2.7658409e-40
-0.027050793 -0.13600285 0.008379139 2.7694142e-40
-0.025277056 -0.13517661 0.011352219 2.7694142e-40
-0.023495499 -0.13517661 0.011352219 1.8474719e-40
-0.021713944 -0.13517661 0.011352219 9.2194229e-41
-0.019961871 -0.13432692 0.014409699 0
-0.018185677 -0.13432692 0.014409699 9.1835496e-41
-0.016409483 -0.13432692 0.014409699 1.8402972e-40
-0.01467858 -0.13348235 0.01744882 4.6025928e-40
-0.012907714 -0.13348235 0.01744882 5.5245491e-40
-0.011190614 -0.13267075 0.020369329 8.2796561e-40
-0.0095456298 -0.13100632 0.026358522 6.4357435e-40
-0.0078575946 -0.13015409 0.029425122 3.6734619e-40
-0.0061775465 -0.12933435 0.032374896 3.6734619e-40
-0.0044328514 -0.12933435 0.032374896 4.5918589e-40
-0.0026881546 -0.12933435 0.032374896 4.6026489e-40
-0.00094345771 -0.12933435 0.032374896 2.7587363e-40
0.00070827082 -0.12849234 0.035404779 1.8403813e-40
0.0024476536 -0.12849234 0.035404779 1.8403813e-40
0.00418704 -0.12849234 0.035404779 2.7623376e-40
0.0059264228 -0.12849234 0.035404779 5.5245772e-40
0.007552281 -0.12765543 0.038416304 4.6026209e-40
0.0092063136 -0.12709136 0.040445961 2.7586802e-40
0.01093686 -0.12709136 0.040445961 1.8367239e-40
0.012539349 -0.12626295 0.043426968 3.6734339e-40
0.01413219 -0.12543948 0.046390034 3.6734339e-40
0.015711065 -0.12459467 0.04943005 7.3540424e-40
0.017284725 -0.12378122 0.052357115 1.0119911e-39
0.018994384 -0.12378122 0.052357115 9.2015143e-40
0.020597149 -0.1232069 0.054423787 3.6734198e-40
0.022303186 -0.1232069 0.054423787 5.5101298e-40
0.024009224 -0.1232069 0.054423787 3.6734198e-40
0.025544856 -0.12237583 0.057414211 0
0.027245652 -0.12237583 0.057414211 9.2911693e-41
0.028946444 -0.12237583 0.057414211 2.7730576e-40
0.030462239 -0.12154986 0.060386397 2.7730576e-40
0.031839475 -0.12016745 0.065360822 9.2558566e-41
0.033526339 -0.12016745 0.065360822 3.629363e-43
0.03500969 -0.11932962 0.068375625 9.1842503e-41
0.036691263 -0.11932962 0.068375625 1.8403813e-40
0.038372837 -0.11932962 0.068375625 3.6842939e-40
0.040054411 -0.11932962 0.068375625 6.4501628e-40
0.041960642 -0.12016745 0.065360822 1.5666096e-39
0.043647505 -0.12016745 0.065360822 1.6588053e-39
0.045334361 -0.12016745 0.065360822 4.6025928e-40
0.047021225 -0.12016745 0.065360822 9.1835496e-41
0.048865311 -0.12070335 0.063432373 2.7622395e-40
0.050809234 -0.12154986 0.060386397 0
0.052504815 -0.12154986 0.060386397 3.5873241e-43
0.054458361 -0.12237583 0.057414211 1.0761972e-42
0.056606915 -0.12378122 0.052357115 9.2914496e-41
0.058316585 -0.12378122 0.052357115 3.5873241e-43
0.060295682 -0.12459467 0.04943005 2.8025969e-45
0.062010478 -0.12459467 0.04943005 3.6842939e-40
0.064015761 -0.12543948 0.046390034 1.105277e-39
0.066024214 -0.12626295 0.043426968 1.3818639e-39
0.067749545 -0.12626295 0.043426968 1.1978299e-39
0.069775388 -0.12709136 0.040445961 5.5246052e-40
0.071714118 -0.12765543 0.038416304 1.836752e-40
0.074078485 -0.12933435 0.032374896 9.219563e-41
0.076461375 -0.13100632 0.026358522 1.8439126e-40
0.078538567 -0.13183604 0.023372807 3.5873241e-43
0.080628186 -0.13267075 0.020369329 3.5873241e-43
0.082393929 -0.13267075 0.020369329 3.5873241e-43
0.084489956 -0.13348235 0.01744882 0
0.086260825 -0.13348235 0.01744882 0
0.088031679 -0.13348235 0.01744882 0
0.090162233 -0.13432692 0.014409699 0
0.092305645 -0.13517661 0.011352219 0
0.094087198 -0.13517661 0.011352219 0
0.096236259 -0.13600285 0.008379139 0
0.098023027 -0.13600285 0.008379139 0
0.10057235 -0.13766994 0.0023802891 1.8439126e-40
0.10275957 -0.13851084 -0.00064560026 9.219563e-41
0.10456216 -0.13851084 -0.00064560026 0
0.10636476 -0.13851084 -0.00064560026 0
0.10816735 -0.13851084 -0.00064560026 0
0.10996994 -0.13851084 -0.00064560026 3.9644121e-39
0.11177254 -0.13851084 -0.00064560026 6.730281e-39
-0.075266451 -0.14924543 -0.032584749 2.7587363e-40
-0.073284432 -0.14840777 -0.029589377 9.1841101e-41
-0.071313605 -0.14757483 -0.026610933 9.1841101e-41
-0.069465488 -0.14757483 -0.026610933 1.83678e-40
-0.067617364 -0.14757483 -0.026610933 1.83678e-40
-0.065630622 -0.14644094 -0.022556387 1.83678e-40
-0.063789614 -0.14644094 -0.022556387 1.83678e-40
-0.061948605 -0.14644094 -0.022556387 9.1841101e-41
-0.060107592 -0.14644094 -0.022556387 9.1841101e-41
-0.058266584 -0.14644094 -0.022556387 9.1843904e-41
-0.056425575 -0.14644094 -0.022556387 7.0064923e-45
-0.054584567 -0.14644094 -0.022556387 7.0064923e-45
-0.052679144 -0.14561899 -0.019617282 9.1843904e-41
-0.050782181 -0.1447715 -0.016586743 9.1842503e-41
-0.048896167 -0.14392884 -0.013573609 5.6051939e-45
-0.047070909 -0.14392884 -0.013573609 2.8025969e-45
-0.045201004 -0.14309107 -0.01057788 9.2198432e-41
-0.043380994 -0.14309107 -0.01057788 6.4537221e-40
-0.041516174 -0.14199139 -0.0066456422 1.8439126e-40
-0.039673541 -0.14113526 -0.0035842285 0
-0.037842609 -0.14031343 -0.00064560026 0
-0.036040019 -0.14031343 -0.00064560026 9.219563e-41
-0.034224164 -0.13946722 0.0023802891 1.8439126e-40
-0.032426875 -0.13946722 0.0023802891 0
-0.030626953 -0.13862596 0.0053885356 0
-0.028837562 -0.13778962 0.008379139 0
-0.027050793 -0.13778962 0.008379139 1.8510592e-40
-0.025277056 -0.13695817 0.011352219 4.6133128e-40
-0.023495499 -0.13695817 0.011352219 2.7694142e-40
-0.021713944 -0.13695817 0.011352219 0
-0.019961871 -0.13610314 0.014409699 0
-0.018185677 -0.13610314 0.014409699 9.1835496e-41
-0.016409483 -0.13610314 0.014409699 3.6841958e-40
-0.01467858 -0.13525321 0.01744882 7.3684617e-40
-0.012907714 -0.13525321 0.01744882 8.290418e-40
-0.011190614 -0.13443647 0.020369329 9.2016124e-40
-0.0095456298 -0.13276155 0.026358522 7.3576998e-40
-0.0078575946 -0.13190396 0.029425122 4.5918309e-40
-0.0061775465 -0.13107903 0.032374896 4.5918168e-40
-0.0044328514 -0.13107903 0.032374896 6.4285828e-40
-0.0026881546 -0.13107903 0.032374896 7.3577278e-40
-0.00094345771 -0.13107903 0.032374896 2.7587363e-40
0.00070827082 -0.13023172 0.035404779 1.8439406e-40
0.0024476536 -0.13023172 0.035404779 2.7623376e-40
0.00418704 -0.13023172 0.035404779 3.6878532e-40
0.005818177 -0.12938951 0.038416304 5.5245772e-40
0.007552281 -0.12938951 0.038416304 5.5245772e-40
0.0092063136 -0.12882192 0.040445961 2.7586802e-40
0.010814033 -0.12798826 0.043426968 9.1835496e-41
0.012412068 -0.12715961 0.046390034 1.8367239e-40
0.013996273 -0.12630944 0.04943005 3.6734339e-40
0.015711065 -0.12630944 0.04943005 6.4393028e-40
0.017284725 -0.12549089 0.052357115 1.1049084e-39
0.018994384 -0.12549089 0.052357115 1.01271e-39
0.020704046 -0.12549089 0.052357115 3.6734198e-40
0.022303186 -0.12491293 0.054423787 3.6734198e-40
0.024009224 -0.12491293 0.054423787 2.7550649e-40
0.025544856 -0.12407662 0.057414211 0
0.027245652 -0.12407662 0.057414211 9.2914496e-41
0.028766658 -0.12324543 0.060386397 2.7730576e-40
0.030462239 -0.12324543 0.060386397 1.8511013e-40
0.031839475 -0.12185432 0.065360822 2.8025969e-45
0.033526339 -0.12185432 0.065360822 2.8025969e-45
0.03500969 -0.12101121 0.068375625 1.8403813e-40
0.036691263 -0.12101121 0.068375625 4.6062502e-40
0.038372837 -0.12101121 0.068375625 5.6051939e-45
0.040054411 -0.12101121 0.068375625 2.7623376e-40
0.041960642 -0.12185432 0.065360822 1.2900228e-39
0.043647505 -0.12185432 0.065360822 1.1978271e-39
0.045334361 -0.12185432 0.065360822 9.1835496e-41
0.047021225 -0.12185432 0.065360822 9.1835496e-41
0.048865311 -0.12239362 0.063432373 2.7586802e-40
0.050809234 -0.12324543 0.060386397 1.8438846e-40
0.052504815 -0.12324543 0.060386397 3.5873241e-43
0.054458361 -0.12407662 0.057414211 3.6949858e-40
0.056423929 -0.12491293 0.054423787 2.7730576e-40
0.058129963 -0.12491293 0.054423787 3.5873241e-43
0.06002624 -0.12549089 0.052357115 2.8025969e-45
0.062010478 -0.12630944 0.04943005 4.6062502e-40
0.064015761 -0.12715961 0.046390034 5.5246052e-40
0.066024214 -0.12798826 0.043426968 9.1841101e-41
0.067749545 -0.12798826 0.043426968 2.7587363e-40
0.069775388 -0.12882192 0.040445961 9.1838299e-41
0.071714118 -0.12938951 0.038416304 2.8025969e-45
0.074078485 -0.13107903 0.032374896 0
0.076461375 -0.13276155 0.026358522 1.8511013e-40
0.078538567 -0.13359652 0.023372807 9.2911693e-41
0.080628186 -0.13443647 0.020369329 7.1746481e-43
0.082393929 -0.13443647 0.020369329 9.2911693e-41
0.084489956 -0.13525321 0.01744882 0
0.086260825 -0.13525321 0.01744882 2.8025969e-45
0.088386044 -0.13610314 0.014409699 2.8025969e-45
0.090162233 -0.13610314 0.014409699 2.8025969e-45
0.091938421 -0.13610314 0.014409699 2.8025969e-45
0.094087198 -0.13695817 0.011352219 0
0.095868751 -0.13695817 0.011352219 0
0.098023027 -0.13778962 0.008379139 0
0.10057235 -0.13946722 0.0023802891 9.219563e-41
0.10275957 -0.14031343 -0.00064560026 9.219563e-41
0.10456216 -0.14031343 -0.00064560026 0
0.10675377 -0.14113526 -0.0035842285 9.219563e-41
0.10856152 -0.14113526 -0.0035842285 0
0.11036925 -0.14113526 -0.0035842285 3.9644121e-39
0.112177 -0.14113526 -0.0035842285 6.5458897e-39
-0.069465488 -0.14942293 -0.026610933 1.836794e-40
-0.067617364 -0.14942293 -0.026610933 1.836794e-40
-0.065769248 -0.14942293 -0.026610933 1.836794e-40
-0.063921124 -0.14942293 -0.026610933 1.836794e-40
-0.061948605 -0.14828195 -0.022556387 1.83678e-40
-0.060107592 -0.14828195 -0.022556387 1.836794e-40
-0.058266584 -0.14828195 -0.022556387 1.8368641e-40
-0.056425575 -0.14828195 -0.022556387 1.8368641e-40
-0.054584567 -0.14828195 -0.022556387 9.1849509e-41
-0.052679144 -0.14745484 -0.019617282 9.8090893e-45
-0.050721426 -0.14575411 -0.013573609 7.0064923e-45
-0.048896167 -0.14575411 -0.013573609 5.6051939e-45
-0.047070909 -0.14575411 -0.013573609 2.8025969e-45
-0.045201004 -0.14491107 -0.01057788 0
-0.043380994 -0.14491107 -0.01057788 9.219563e-41
-0.041516174 -0.14380451 -0.0066456422 9.2194229e-41
-0.039673541 -0.14294298 -0.0035842285 1.8438846e-40
-0.037842609 -0.14211603 -0.00064560026 9.2194229e-41
-0.036040019 -0.14211603 -0.00064560026 0
-0.034224164 -0.14126451 0.0023802891 0
-0.032426875 -0.14126451 0.0023802891 9.2198432e-41
-0.030626953 -0.14041798 0.0053885356 2.7658689e-40
-0.028837562 -0.13957639 0.008379139 3.6949858e-40
-0.027050793 -0.13957639 0.008379139 1.8618352e-40
-0.025264025 -0.13957639 0.008379139 2.7730015e-40
-0.023495499 -0.13873972 0.011352219 1.8510592e-40
-0.021713944 -0.13873972 0.011352219 9.2911693e-41
-0.019961871 -0.13787933 0.014409699 0
-0.018185677 -0.13787933 0.014409699 9.1835496e-41
-0.016409483 -0.13787933 0.014409699 9.1835496e-41
-0.01467858 -0.13702409 0.01744882 2.7550649e-40
-0.012907714 -0.13702409 0.01744882 3.6734339e-40
-0.011190614 -0.13620223 0.020369329 6.4321421e-40
-0.0094854273 -0.13535701 0.023372807 7.3540984e-40
-0.0078575946 -0.13365383 0.029425122 7.3505391e-40
-0.0061775465 -0.13282375 0.032374896 8.2652927e-40
-0.0044328514 -0.13282375 0.032374896 7.3469238e-40
-0.0026881546 -0.13282375 0.032374896 4.5918449e-40
-0.00094345771 -0.13282375 0.032374896 9.1838299e-41
0.00070827082 -0.13197111 0.035404779 0
0.0024476536 -0.13197111 0.035404779 9.2198432e-41
0.00418704 -0.13197111 0.035404779 1.8439126e-40
0.005818177 -0.13112362 0.038416304 2.7658689e-40
0.007552281 -0.13112362 0.038416304 2.7658689e-40
0.0092063136 -0.13055246 0.040445961 1.8439406e-40
0.010814033 -0.12971358 0.043426968 9.2198432e-41
0.012412068 -0.12887974 0.046390034 9.2198432e-41
0.013996273 -0.12802424 0.04943005 1.836752e-40
0.015711065 -0.12802424 0.04943005 2.7587083e-40
0.017284725 -0.12720053 0.052357115 2.7587083e-40
0.018994384 -0.12720053 0.052357115 2.7587083e-40
0.020704046 -0.12720053 0.052357115 2.7587083e-40
0.022303186 -0.12661897 0.054423787 1.836752e-40
0.024009224 -0.12661897 0.054423787 1.836752e-40
0.025544856 -0.12577744 0.057414211 5.5317658e-40
0.027245652 -0.12577744 0.057414211 5.5317658e-40
0.028766658 -0.12494104 0.060386397 3.6878532e-40
0.030462239 -0.12494104 0.060386397 1.8439406e-40
0.031839475 -0.12354116 0.065360822 2.8025969e-45
0.033526339 -0.12354116 0.065360822 9.2198432e-41
0.03500969 -0.12269278 0.068375625 3.6878532e-40
0.036691263 -0.12269278 0.068375625 6.4537221e-40
0.038372837 -0.12269278 0.068375625 6.4537221e-40
0.040054411 -0.12269278 0.068375625 2.8025969e-45
0.041960642 -0.12354116 0.065360822 1.0141547e-39
0.043647505 -0.12354116 0.065360822 1.936111e-39
0.045334361 -0.12354116 0.065360822 4.6098095e-40
0.047175072 -0.12408386 0.063432373 2.8025969e-45
0.048865311 -0.12408386 0.063432373 1.8439406e-40
0.050809234 -0.12494104 0.060386397 0
0.052504815 -0.12494104 0.060386397 2.7658689e-40
0.054458361 -0.12577744 0.057414211 2.7658689e-40
0.056423929 -0.12661897 0.054423787 1.8439126e-40
0.058129963 -0.12661897 0.054423787 9.219563e-41
0.06002624 -0.12720053 0.052357115 0
0.061735909 -0.12720053 0.052357115 2.8025969e-45
0.063725263 -0.12802424 0.04943005 9.2198432e-41
0.065735891 -0.12887974 0.046390034 9.2198432e-41
0.067749545 -0.12971358 0.043426968 9.2198432e-41
0.069474861 -0.12971358 0.043426968 9.219563e-41
0.071714118 -0.13112362 0.038416304 9.219563e-41
0.074386209 -0.13365383 0.029425122 9.219563e-41
0.076461375 -0.13451682 0.026358522 9.219563e-41
0.078538567 -0.13535701 0.023372807 9.219563e-41
0.080628186 -0.13620223 0.020369329 9.2194229e-41
0.082393929 -0.13620223 0.020369329 9.219563e-41
0.084489956 -0.13702409 0.01744882 5.6051939e-45
0.086260825 -0.13702409 0.01744882 5.6051939e-45
0.088386044 -0.13787933 0.014409699 5.6051939e-45
0.090162233 -0.13787933 0.014409699 5.6051939e-45
0.091938421 -0.13787933 0.014409699 5.6051939e-45
0.094087198 -0.13873972 0.011352219 2.8025969e-45
0.095868751 -0.13873972 0.011352219 2.8025969e-45
0.098023027 -0.13957639 0.008379139 2.8025969e-45
0.10057235 -0.14126451 0.0023802891 4.6097815e-40
0.10275957 -0.14211603 -0.00064560026 0
0.10456216 -0.14211603 -0.00064560026 9.219563e-41
0.10675377 -0.14294298 -0.0035842285 9.219563e-41
0.10856152 -0.14294298 -0.0035842285 1.8439406e-40
0.11036925 -0.14294298 -0.0035842285 1.8439154e-39
-0.052679144 -0.14929073 -0.019617282 7.0064923e-45
-0.050721426 -0.14757936 -0.013573609 5.6051939e-45
-0.048896167 -0.14757936 -0.013573609 2.8025969e-45
-0.047070909 -0.14757936 -0.013573609 0
-0.045201004 -0.14673109 -0.01057788 0
-0.043380994 -0.14673109 -0.01057788 5.5317098e-40
-0.041516174 -0.14561762 -0.0066456422 5.5317098e-40
-0.039673541 -0.14475073 -0.0035842285 4.6097535e-40
-0.037842609 -0.14391862 -0.00064560026 2.7658689e-40
-0.036040019 -0.14391862 -0.00064560026 9.219563e-41
-0.034224164 -0.1430618 0.0023802891 2.8025969e-45
-0.032426875 -0.1430618 0.0023802891 5.6051939e-45
-0.030626953 -0.14220999 0.0053885356 9.2198432e-41
-0.028837562 -0.14136316 0.008379139 2.7730576e-40
-0.027050793 -0.14136316 0.008379139 1.7950633e-42
-0.025264025 -0.14136316 0.008379139 1.4391335e-42
-0.023495499 -0.14052127 0.011352219 1.0789998e-42
-0.021713944 -0.14052127 0.011352219 7.1886611e-43
-0.019961871 -0.13965552 0.014409699 0
-0.018185677 -0.13965552 0.014409699 9.1835496e-41
-0.016409483 -0.13965552 0.014409699 9.1835496e-41
-0.01467858 -0.13879494 0.01744882 2.7550649e-40
-0.012907714 -0.13879494 0.01744882 3.6734339e-40
-0.011190614 -0.13796796 0.020369329 5.5101858e-40
-0.0094854273 -0.13711749 0.023372807 7.3540984e-40
-0.0077903848 -0.13627206 0.026358522 9.187221e-40
-0.0061077252 -0.13540371 0.029425122 8.2652647e-40
-0.0043578576 -0.13540371 0.029425122 7.3468957e-40
-0.0026881546 -0.13456844 0.032374896 4.5918168e-40
-0.00094345771 -0.13456844 0.032374896 9.1835496e-41
0.00070827082 -0.13371049 0.035404779 0
0.0024476536 -0.13371049 0.035404779 9.219563e-41
0.004084073 -0.13285773 0.038416304 1.8439126e-40
0.005818177 -0.13285773 0.038416304 2.7658689e-40
0.007552281 -0.13285773 0.038416304 1.8439126e-40
0.0092063136 -0.13228302 0.040445961 1.8439406e-40
0.010814033 -0.1314389 0.043426968 9.2198432e-41
0.012412068 -0.13059987 0.046390034 9.2198432e-41
0.013996273 -0.12973903 0.04943005 9.2198432e-41
0.015711065 -0.12973903 0.04943005 1.8403813e-40
0.017284725 -0.1289102 0.052357115 1.8403813e-40
0.018994384 -0.1289102 0.052357115 1.8403813e-40
0.020704046 -0.1289102 0.052357115 1.8403813e-40
0.022303186 -0.128325 0.054423787 9.1842503e-41
0.024009224 -0.128325 0.054423787 9.1842503e-41
0.025544856 -0.12747823 0.057414211 3.6878532e-40
0.027245652 -0.12747823 0.057414211 3.6878532e-40
0.028766658 -0.12663661 0.060386397 2.7658969e-40
0.030462239 -0.12663661 0.060386397 1.8439406e-40
0.032157823 -0.12663661 0.060386397 2.8025969e-45
0.033526339 -0.12522803 0.065360822 2.8025969e-45
0.035213195 -0.12522803 0.065360822 1.8439406e-40
0.036691263 -0.12437434 0.068375625 3.6878532e-40
0.038372837 -0.12437434 0.068375625 1.0141547e-39
0.040054411 -0.12437434 0.068375625 9.2198432e-41
0.041960642 -0.12522803 0.065360822 1.1063504e-39
0.043647505 -0.12522803 0.065360822 2.0283067e-39
0.045484826 -0.1257741 0.063432373 9.219591e-40
0.047175072 -0.1257741 0.063432373 3.6878532e-40
0.049113654 -0.12663661 0.060386397 7.3756784e-40
0.050809234 -0.12663661 0.060386397 3.6878532e-40
0.052757561 -0.12747823 0.057414211 1.8439126e-40
0.054458361 -0.12747823 0.057414211 1.8439126e-40
0.05615915 -0.12747823 0.057414211 9.219563e-41
0.058129963 -0.128325 0.054423787 9.219563e-41
0.059836011 -0.128325 0.054423787 9.219563e-41
0.061735909 -0.1289102 0.052357115 9.219563e-41
0.063725263 -0.12973903 0.04943005 9.219563e-41
0.065735891 -0.13059987 0.046390034 9.219563e-41
0.067749545 -0.1314389 0.043426968 9.219563e-41
0.069474861 -0.1314389 0.043426968 9.219563e-41
0.071714118 -0.13285773 0.038416304 9.219563e-41
0.074386209 -0.13540371 0.029425122 9.219563e-41
0.076461375 -0.13627206 0.026358522 9.219563e-41
0.078538567 -0.13711749 0.023372807 9.219563e-41
0.080628186 -0.13796796 0.020369329 9.219563e-41
0.082393929 -0.13796796 0.020369329 9.2198432e-41
0.084489956 -0.13879494 0.01744882 5.6051939e-45
0.08660984 -0.13965552 0.014409699 7.0064923e-45
0.088386044 -0.13965552 0.014409699 7.0064923e-45
0.090162233 -0.13965552 0.014409699 5.6051939e-45
0.092305645 -0.14052127 0.011352219 5.6051939e-45
0.094087198 -0.14052127 0.011352219 2.8025969e-45
0.096236259 -0.14136316 0.008379139 2.8025969e-45
0.098023027 -0.14136316 0.008379139 2.8025969e-45
0.10057235 -0.1430618 0.0023802891 2.7658689e-40
0.10275957 -0.14391862 -0.00064560026 0
0.10456216 -0.14391862 -0.00064560026 0
0.10675377 -0.14475073 -0.0035842285 0
0.10856152 -0.14475073 -0.0035842285 9.2198432e-41
0.11036925 -0.14475073 -0.0035842285 1.7517198e-39
-0.050721426 -0.14940463 -0.013573609 9.1835496e-41
-0.048896167 -0.14940463 -0.013573609 9.1835496e-41
-0.047070909 -0.14940463 -0.013573609 9.1835496e-41
-0.045201004 -0.14855109 -0.01057788 9.1835496e-41
-0.043380994 -0.14855109 -0.01057788 6.4500647e-40
-0.041516174 -0.14743073 -0.0066456422 6.4500647e-40
-0.039673541 -0.14655848 -0.0035842285 5.5245491e-40
-0.037842609 -0.14572121 -0.00064560026 3.6806646e-40
-0.036040019 -0.14572121 -0.00064560026 1.83678e-40
-0.034224164 -0.14485909 0.0023802891 9.1842503e-41
-0.032426875 -0.14485909 0.0023802891 9.1845305e-41
-0.030626953 -0.14400201 0.0053885356 9.1846707e-41
-0.028837562 -0.14314993 0.008379139 9.256277e-41
-0.027050793 -0.14314993 0.008379139 9.2561369e-41
-0.025277056 -0.14230286 0.011352219 3.671402e-43
-0.023495499 -0.14230286 0.011352219 3.657389e-43
-0.021713944 -0.14230286 0.011352219 9.1842503e-41
-0.019961871 -0.1414317 0.014409699 5.6051939e-45
-0.018185677 -0.1414317 0.014409699 9.1838299e-41
-0.016409483 -0.1414317 0.014409699 9.1838299e-41
-0.01467858 -0.14056583 0.01744882 9.1838299e-41
-0.012907714 -0.14056583 0.01744882 1.836752e-40
-0.011190614 -0.13973372 0.020369329 4.5953902e-40
-0.0094854273 -0.13887797 0.023372807 5.5173465e-40
-0.0077903848 -0.1380273 0.026358522 6.4321141e-40
-0.0061775465 -0.13631313 0.032374896 6.4321141e-40
-0.0044328514 -0.13631313 0.032374896 5.5101578e-40
-0.0026881546 -0.13631313 0.032374896 4.5917888e-40
-0.00094345771 -0.13631313 0.032374896 9.1835496e-41
0.00070827082 -0.13544987 0.035404779 0
0.0024476536 -0.13544987 0.035404779 9.219563e-41
0.004084073 -0.13459183 0.038416304 1.8439126e-40
0.005818177 -0.13459183 0.038416304 1.8439126e-40
0.007475771 -0.13401355 0.040445961 1.8439126e-40
0.0092063136 -0.13401355 0.040445961 9.2198432e-41
0.010814033 -0.13316421 0.043426968 9.2198432e-41
0.012412068 -0.13231997 0.046390034 9.2198432e-41
0.01413219 -0.13231997 0.046390034 9.2198432e-41
0.015711065 -0.13145383 0.04943005 1.8403813e-40
0.017284725 -0.13061987 0.052357115 1.8403813e-40
0.018994384 -0.13061987 0.052357115 1.8403813e-40
0.020704046 -0.13061987 0.052357115 1.8403813e-40
0.022413705 -0.13061987 0.052357115 9.1842503e-41
0.024009224 -0.13003103 0.054423787 9.1842503e-41
0.025715262 -0.13003103 0.054423787 9.2198432e-41
0.027245652 -0.12917902 0.057414211 1.8439406e-40
0.028766658 -0.12833218 0.060386397 2.7658969e-40
0.030462239 -0.12833218 0.060386397 1.8439406e-40
0.032157823 -0.12833218 0.060386397 2.8025969e-45
0.033653133 -0.12746434 0.063432373 2.8025969e-45
0.035213195 -0.1269149 0.065360822 9.2198432e-41
0.036900058 -0.1269149 0.065360822 1.8439406e-40
0.038586922 -0.1269149 0.065360822 6.4537221e-40
0.040273778 -0.1269149 0.065360822 2.8025969e-45
0.041960642 -0.1269149 0.065360822 8.2976347e-40
0.043794587 -0.12746434 0.063432373 1.7517198e-39
0.045484826 -0.12746434 0.063432373 7.3756784e-40
0.047175072 -0.12746434 0.063432373 3.6878532e-40
0.049113654 -0.12833218 0.060386397 7.3756784e-40
0.050809234 -0.12833218 0.060386397 1.8439406e-40
0.052757561 -0.12917902 0.057414211 9.219563e-41
0.054458361 -0.12917902 0.057414211 9.219563e-41
0.05615915 -0.12917902 0.057414211 0
0.058129963 -0.13003103 0.054423787 0
0.059836011 -0.13003103 0.054423787 0
0.061735909 -0.13061987 0.052357115 9.219563e-41
0.063725263 -0.13145383 0.04943005 1.8439126e-40
0.065735891 -0.13231997 0.046390034 1.8439126e-40
0.067749545 -0.13316421 0.043426968 9.219563e-41
0.069775388 -0.13401355 0.040445961 9.219563e-41
0.071714118 -0.13459183 0.038416304 9.219563e-41
0.074078485 -0.13631313 0.032374896 9.219563e-41
0.076136082 -0.13715358 0.029425122 9.219563e-41
0.078216627 -0.1380273 0.026358522 9.219563e-41
0.080628186 -0.13973372 0.020369329 9.219563e-41
0.082393929 -0.13973372 0.020369329 9.2198432e-41
0.084489956 -0.14056583 0.01744882 5.6051939e-45
0.08660984 -0.1414317 0.014409699 5.6051939e-45
0.088742524 -0.14230286 0.011352219 5.6051939e-45
0.090524092 -0.14230286 0.011352219 5.6051939e-45
0.092305645 -0.14230286 0.011352219 5.6051939e-45
0.094087198 -0.14230286 0.011352219 2.8025969e-45
0.096236259 -0.14314993 0.008379139 2.8025969e-45
0.098023027 -0.14314993 0.008379139 0
0.10095699 -0.14572121 -0.00064560026 9.219563e-41
0.10275957 -0.14572121 -0.00064560026 0
0.10456216 -0.14572121 -0.00064560026 0
0.10675377 -0.14655848 -0.0035842285 0
0.10897213 -0.14743073 -0.0066456422 0
0.11078525 -0.14743073 -0.0066456422 1.6595213e-39
-0.041516174 -0.14924385 -0.0066456422 1.8367239e-40
-0.039673541 -0.14836623 -0.0035842285 2.7587083e-40
-0.037842609 -0.14752381 -0.00064560026 1.83678e-40
-0.036040019 -0.14752381 -0.00064560026 9.1842503e-41
-0.034224164 -0.14665638 0.0023802891 9.1845305e-41
-0.032426875 -0.14665638 0.0023802891 1.8368501e-40
-0.03062959 -0.14665638 0.0023802891 3.6771753e-40
-0.028837562 -0.1449367 0.008379139 1.2611686e-44
-0.027050793 -0.1449367 0.008379139 1.2611686e-44
-0.025277056 -0.14408441 0.011352219 1.2611686e-44
-0.023495499 -0.14408441 0.011352219 9.8090893e-45
-0.021713944 -0.14408441 0.011352219 9.8090893e-45
-0.019961871 -0.14320792 0.014409699 7.0064923e-45
-0.018185677 -0.14320792 0.014409699 9.1842503e-41
-0.016449448 -0.14233668 0.01744882 9.1841101e-41
-0.01467858 -0.14233668 0.01744882 9.1838299e-41
-0.012907714 -0.14233668 0.01744882 9.1838299e-41
-0.011190614 -0.14149947 0.020369329 3.6734339e-40
-0.0094854273 -0.14063846 0.023372807 4.5953902e-40
-0.0077903848 -0.13978253 0.026358522 5.5173465e-40
-0.0061775465 -0.13805781 0.032374896 4.5953621e-40
-0.0044328514 -0.13805781 0.032374896 5.5101298e-40
-0.0026881546 -0.13805781 0.032374896 3.6734198e-40
-0.0010311138 -0.13718925 0.035404779 9.1835496e-41
0.00070827082 -0.13718925 0.035404779 0
0.0023499727 -0.13632594 0.038416304 9.219563e-41
0.004084073 -0.13632594 0.038416304 9.219563e-41
0.005818177 -0.13632594 0.038416304 9.219563e-41
0.007475771 -0.13574408 0.040445961 9.219563e-41
0.0092063136 -0.13574408 0.040445961 9.2198432e-41
0.010814033 -0.13488953 0.043426968 9.2198432e-41
0.012412068 -0.1340401 0.046390034 9.2198432e-41
0.01413219 -0.1340401 0.046390034 9.2198432e-41
0.015852313 -0.1340401 0.046390034 1.8403813e-40
0.017425857 -0.13316862 0.04943005 1.8403813e-40
0.018994384 -0.13232954 0.052357115 1.8403813e-40
0.020704046 -0.13232954 0.052357115 1.8403813e-40
0.022413705 -0.13232954 0.052357115 9.1842503e-41
0.024009224 -0.13173707 0.054423787 9.1842503e-41
0.025715262 -0.13173707 0.054423787 2.8025969e-45
0.027245652 -0.1308798 0.057414211 1.8439406e-40
0.028766658 -0.13002776 0.060386397 2.7658969e-40
0.030462239 -0.13002776 0.060386397 2.7658969e-40
0.032157823 -0.13002776 0.060386397 1.8439406e-40
0.033853404 -0.13002776 0.060386397 9.2198432e-41
0.035213195 -0.12860174 0.065360822 2.8025969e-45
0.036900058 -0.12860174 0.065360822 9.2198432e-41
0.038586922 -0.12860174 0.065360822 9.2198432e-41
0.040273778 -0.12860174 0.065360822 2.8025969e-45
0.042104341 -0.12915458 0.063432373 1.2907416e-39
0.043794587 -0.12915458 0.063432373 2.1205023e-39
0.045484826 -0.12915458 0.063432373 7.3756784e-40
0.047418065 -0.13002776 0.060386397 9.2198432e-41
0.049113654 -0.13002776 0.060386397 3.6878532e-40
0.050809234 -0.13002776 0.060386397 2.8025969e-45
0.052757561 -0.1308798 0.057414211 0
0.054458361 -0.1308798 0.057414211 0
0.05615915 -0.1308798 0.057414211 0
0.058129963 -0.13173707 0.054423787 0
0.059836011 -0.13173707 0.054423787 0
0.062010478 -0.13316862 0.04943005 9.219563e-41
0.064015761 -0.1340401 0.046390034 1.8439126e-40
0.066024214 -0.13488953 0.043426968 1.8439126e-40
0.067749545 -0.13488953 0.043426968 9.219563e-41
0.069775388 -0.13574408 0.040445961 9.219563e-41
0.072023004 -0.13718925 0.035404779 9.219563e-41
0.074078485 -0.13805781 0.032374896 9.219563e-41
0.075823173 -0.13805781 0.032374896 9.219563e-41
0.078216627 -0.13978253 0.026358522 9.219563e-41
0.08029905 -0.14063846 0.023372807 9.219563e-41
0.082393929 -0.14149947 0.020369329 9.219563e-41
0.084159672 -0.14149947 0.020369329 2.8025969e-45
0.08660984 -0.14320792 0.014409699 2.8025969e-45
0.088742524 -0.14408441 0.011352219 5.6051939e-45
0.090524092 -0.14408441 0.011352219 2.8025969e-45
0.092305645 -0.14408441 0.011352219 2.8025969e-45
0.094087198 -0.14408441 0.011352219 2.8025969e-45
0.096236259 -0.1449367 0.008379139 0
0.098775059 -0.14665638 0.0023802891 0
0.10095699 -0.14752381 -0.00064560026 0
0.10313828 -0.14836623 -0.0035842285 0
0.10494602 -0.14836623 -0.0035842285 0
0.10675377 -0.14836623 -0.0035842285 0
0.10897213 -0.14924385 -0.0066456422 9.219563e-41
0.11078525 -0.14924385 -0.0066456422 1.7517142e-39
-0.037842609 -0.1493264 -0.00064560026 1.83678e-40
-0.036040019 -0.1493264 -0.00064560026 9.1845305e-41
-0.034224164 -0.14845367 0.0023802891 9.1848108e-41
-0.032426875 -0.14845367 0.0023802891 1.8368501e-40
-0.03062959 -0.14845367 0.0023802891 3.673616e-40
-0.028837562 -0.14672346 0.008379139 1.5414283e-44
-0.027050793 -0.14672346 0.008379139 1.5414283e-44
-0.025277056 -0.14586596 0.011352219 1.5414283e-44
-0.023495499 -0.14586596 0.011352219 1.2611686e-44
-0.021713944 -0.14586596 0.011352219 9.1848108e-41
-0.019961871 -0.14498411 0.014409699 1.836822e-40
-0.018185677 -0.14498411 0.014409699 1.836794e-40
-0.016449448 -0.14410757 0.01744882 1.83678e-40
-0.01467858 -0.14410757 0.01744882 9.1838299e-41
-0.012956358 -0.1432652 0.020369329 9.1838299e-41
-0.011190614 -0.1432652 0.020369329 1.8367239e-40
-0.0094854273 -0.14239894 0.023372807 1.8367239e-40
-0.0077903848 -0.14153777 0.026358522 2.7622395e-40
-0.0061077252 -0.1406533 0.029425122 2.7622395e-40
-0.0044328514 -0.13980253 0.032374896 3.6734198e-40
-0.0026881546 -0.13980253 0.032374896 1.8402972e-40
-0.0010311138 -0.13892864 0.035404779 9.219563e-41
0.00070827082 -0.13892864 0.035404779 9.219563e-41
0.0023499727 -0.13806005 0.038416304 0
0.004084073 -0.13806005 0.038416304 0
0.005818177 -0.13806005 0.038416304 0
0.007552281 -0.13806005 0.038416304 0
0.0092063136 -0.13747464 0.040445961 2.8025969e-45
0.010814033 -0.13661484 0.043426968 2.8025969e-45
0.012539349 -0.13661484 0.043426968 9.2198432e-41
0.01413219 -0.13576023 0.046390034 9.2198432e-41
0.015852313 -0.13576023 0.046390034 1.8403813e-40
0.017425857 -0.13488342 0.04943005 1.8403813e-40
0.018994384 -0.13403918 0.052357115 1.8403813e-40
0.020704046 -0.13403918 0.052357115 1.8403813e-40
0.022303186 -0.1334431 0.054423787 9.1842503e-41
0.024009224 -0.1334431 0.054423787 9.1842503e-41
0.025544856 -0.13258059 0.057414211 9.2198432e-41
0.027245652 -0.13258059 0.057414211 2.7658969e-40
0.028766658 -0.13172336 0.060386397 3.6878532e-40
0.030462239 -0.13172336 0.060386397 4.6098095e-40
0.032157823 -0.13172336 0.060386397 2.7658969e-40
0.033653133 -0.13084482 0.063432373 1.8439406e-40
0.035343371 -0.13084482 0.063432373 9.2198432e-41
0.036900058 -0.13028862 0.065360822 9.2198432e-41
0.038586922 -0.13028862 0.065360822 9.2198432e-41
0.040273778 -0.13028862 0.065360822 6.4537221e-40
0.042104341 -0.13084482 0.063432373 2.7658717e-39
0.043794587 -0.13084482 0.063432373 3.3190455e-39
0.045484826 -0.13084482 0.063432373 1.198546e-39
0.047418065 -0.13172336 0.060386397 9.2198432e-41
0.049113654 -0.13172336 0.060386397 4.6098095e-40
0.050809234 -0.13172336 0.060386397 9.2198432e-41
0.052757561 -0.13258059 0.057414211 0
0.054458361 -0.13258059 0.057414211 0
0.056423929 -0.1334431 0.054423787 0
0.058129963 -0.1334431 0.054423787 0
0.059836011 -0.1334431 0.054423787 0
0.062010478 -0.13488342 0.04943005 9.219563e-41
0.064015761 -0.13576023 0.046390034 1.8439126e-40
0.066024214 -0.13661484 0.043426968 1.8439126e-40
0.068044841 -0.13747464 0.040445961 9.219563e-41
0.06998001 -0.13806005 0.038416304 9.219563e-41
0.072333783 -0.13980253 0.032374896 9.219563e-41
0.074078485 -0.13980253 0.032374896 9.219563e-41
0.075823173 -0.13980253 0.032374896 9.219563e-41
0.077885956 -0.1406533 0.029425122 9.219563e-41
0.08029905 -0.14239894 0.023372807 9.219563e-41
0.082393929 -0.1432652 0.020369329 9.219563e-41
0.084159672 -0.1432652 0.020369329 0
0.086260825 -0.14410757 0.01744882 0
0.088386044 -0.14498411 0.014409699 2.8025969e-45
0.090524092 -0.14586596 0.011352219 0
0.092305645 -0.14586596 0.011352219 0
0.094087198 -0.14586596 0.011352219 0
0.096236259 -0.14672346 0.008379139 0
0.098775059 -0.14845367 0.0023802891 0
0.10095699 -0.1493264 -0.00064560026 0
-0.028837562 -0.14851023 0.008379139 1.2611686e-44
-0.027050793 -0.14851023 0.008379139 1.2611686e-44
-0.025264025 -0.14851023 0.008379139 9.1849509e-41
-0.023495499 -0.14764751 0.011352219 9.1846707e-41
-0.021713944 -0.14764751 0.011352219 1.836822e-40
-0.019961871 -0.1467603 0.014409699 1.836794e-40
-0.018185677 -0.1467603 0.014409699 1.836794e-40
-0.016449448 -0.14587842 0.01744882 1.83678e-40
-0.01467858 -0.14587842 0.01744882 9.1838299e-41
-0.012956358 -0.14503096 0.020369329 9.1835496e-41
-0.011190614 -0.14503096 0.020369329 9.1835496e-41
-0.0094854273 -0.14415942 0.023372807 9.1835496e-41
-0.0077903848 -0.14329304 0.026358522 1.8402972e-40
-0.0061077252 -0.14240317 0.029425122 9.2552961e-41
-0.0043578576 -0.14240317 0.029425122 1.8402972e-40
-0.0026881546 -0.14154722 0.032374896 1.8438846e-40
-0.0010311138 -0.14066802 0.035404779 9.219563e-41
0.00070827082 -0.14066802 0.035404779 9.219563e-41
0.0023499727 -0.13979416 0.038416304 0
0.004084073 -0.13979416 0.038416304 0
0.005818177 -0.13979416 0.038416304 0
0.007552281 -0.13979416 0.038416304 0
0.0092063136 -0.13920517 0.040445961 2.8025969e-45
0.010814033 -0.13834016 0.043426968 2.8025969e-45
0.012539349 -0.13834016 0.043426968 9.2198432e-41
0.01413219 -0.13748036 0.046390034 9.2198432e-41
0.015852313 -0.13748036 0.046390034 1.8403813e-40
0.017425857 -0.13659821 0.04943005 1.8403813e-40
0.018994384 -0.13574885 0.052357115 1.8403813e-40
0.020704046 -0.13574885 0.052357115 1.8403813e-40
0.022303186 -0.13514914 0.054423787 9.1842503e-41
0.024009224 -0.13514914 0.054423787 9.1842503e-41
0.025544856 -0.13428138 0.057414211 9.2198432e-41
0.027071074 -0.13341893 0.060386397 2.7658969e-40
0.028766658 -0.13341893 0.060386397 4.6098095e-40
0.030462239 -0.13341893 0.060386397 4.6098095e-40
0.032157823 -0.13341893 0.060386397 2.7658969e-40
0.033653133 -0.13253506 0.063432373 1.8439406e-40
0.035343371 -0.13253506 0.063432373 9.2198432e-41
0.036900058 -0.13197549 0.065360822 9.2198432e-41
0.038586922 -0.13197549 0.065360822 9.2198432e-41
0.040273778 -0.13197549 0.065360822 1.1063504e-39
0.042104341 -0.13253506 0.063432373 3.5034367e-39
0.043794587 -0.13253506 0.063432373 3.7800236e-39
0.045484826 -0.13253506 0.063432373 1.198546e-39
0.047418065 -0.13341893 0.060386397 2.8025969e-45
0.049113654 -0.13341893 0.060386397 3.6878532e-40
0.050809234 -0.13341893 0.060386397 9.2198432e-41
0.052757561 -0.13428138 0.057414211 0
0.054458361 -0.13428138 0.057414211 0
0.056423929 -0.13514914 0.054423787 0
0.058129963 -0.13514914 0.054423787 0
0.06002624 -0.13574885 0.052357115 0
0.062010478 -0.13659821 0.04943005 0
0.064015761 -0.13748036 0.046390034 9.219563e-41
0.066024214 -0.13834016 0.043426968 9.219563e-41
0.068044841 -0.13920517 0.040445961 9.219563e-41
0.06998001 -0.13979416 0.038416304 9.219563e-41
0.072023004 -0.14066802 0.035404779 9.219563e-41
0.074078485 -0.14154722 0.032374896 9.219563e-41
0.075823173 -0.14154722 0.032374896 9.219563e-41
0.077885956 -0.14240317 0.029425122 9.219563e-41
0.08029905 -0.14415942 0.023372807 9.219563e-41
0.082059532 -0.14415942 0.023372807 9.219563e-41
0.084159672 -0.14503096 0.020369329 0
0.086260825 -0.14587842 0.01744882 0
0.088386044 -0.1467603 0.014409699 0
0.090162233 -0.1467603 0.014409699 0
0.092305645 -0.14764751 0.011352219 0
0.094087198 -0.14764751 0.011352219 0
0.096236259 -0.14851023 0.008379139 0
-0.025277056 -0.14942907 0.011352219 2.7587363e-40
-0.023495499 -0.14942907 0.011352219 2.7587083e-40
-0.021738067 -0.14853649 0.014409699 2.7587083e-40
-0.019961871 -0.14853649 0.014409699 2.7587083e-40
-0.018185677 -0.14853649 0.014409699 1.8439406e-40
-0.016449448 -0.14764927 0.01744882 1.8439406e-40
-0.014722105 -0.14679669 0.020369329 0
-0.013006387 -0.1459199 0.023372807 0
-0.011245906 -0.1459199 0.023372807 0
-0.0094854273 -0.1459199 0.023372807 0
-0.0077903848 -0.14504828 0.026358522 0
-0.0061077252 -0.14415304 0.029425122 7.1746481e-43
-0.0043578576 -0.14415304 0.029425122 9.2194229e-41
-0.0026881546 -0.14329191 0.032374896 1.8438846e-40
-0.0010311138 -0.1424074 0.035404779 1.8439126e-40
0.00070827082 -0.1424074 0.035404779 9.219563e-41
0.0023499727 -0.14152823 0.038416304 0
0.004084073 -0.14152823 0.038416304 0
0.005818177 -0.14152823 0.038416304 0
0.007552281 -0.14152823 0.038416304 0
0.0092063136 -0.14093573 0.040445961 2.8025969e-45
0.010814033 -0.14006548 0.043426968 2.8025969e-45
0.012539349 -0.14006548 0.043426968 9.2198432e-41
0.01413219 -0.13920046 0.046390034 9.2198432e-41
0.015852313 -0.13920046 0.046390034 1.8403813e-40
0.017425857 -0.13831301 0.04943005 1.8403813e-40
0.018994384 -0.13745852 0.052357115 1.8403813e-40
0.020704046 -0.13745852 0.052357115 1.8403813e-40
0.022303186 -0.13685517 0.054423787 9.1842503e-41
0.024009224 -0.13685517 0.054423787 9.1842503e-41
0.025544856 -0.1359822 0.057414211 9.2198432e-41
0.027071074 -0.13511451 0.060386397 1.8439406e-40
0.028766658 -0.13511451 0.060386397 2.7658969e-40
0.030462239 -0.13511451 0.060386397 2.7658969e-40
0.032157823 -0.13511451 0.060386397 9.2198432e-41
0.033653133 -0.13422529 0.063432373 2.8025969e-45
0.035343371 -0.13422529 0.063432373 2.8025969e-45
0.036900058 -0.13366233 0.065360822 9.2198432e-41
0.038586922 -0.13366233 0.065360822 9.2198432e-41
0.040273778 -0.13366233 0.065360822 1.0141547e-39
0.042104341 -0.13422529 0.063432373 3.3190455e-39
0.043794587 -0.13422529 0.063432373 3.4112411e-39
0.045484826 -0.13422529 0.063432373 9.219591e-40
0.047175072 -0.13422529 0.063432373 2.8025969e-45
0.048865311 -0.13422529 0.063432373 2.7658969e-40
0.050809234 -0.13511451 0.060386397 2.8025969e-45
0.052757561 -0.1359822 0.057414211 9.219563e-41
0.054458361 -0.1359822 0.057414211 0
0.056423929 -0.13685517 0.054423787 0
0.058129963 -0.13685517 0.054423787 0
0.06002624 -0.13745852 0.052357115 0
0.062295642 -0.13920046 0.046390034 0
0.064298898 -0.14006548 0.043426968 0
0.066314295 -0.14093573 0.040445961 0
0.068044841 -0.14093573 0.040445961 9.219563e-41
0.06998001 -0.14152823 0.038416304 9.219563e-41
0.072023004 -0.1424074 0.035404779 9.219563e-41
0.074078485 -0.14329191 0.032374896 9.219563e-41
0.075823173 -0.14329191 0.032374896 9.219563e-41
0.077885956 -0.14415304 0.029425122 9.219563e-41
0.079971865 -0.14504828 0.026358522 9.219563e-41
0.082059532 -0.1459199 0.023372807 9.219563e-41
0.084159672 -0.14679669 0.020369329 0
0.085925415 -0.14679669 0.020369329 0
0.088031679 -0.14764927 0.01744882 0
0.090162233 -0.14853649 0.014409699 0
0.092305645 -0.14942907 0.011352219 0
0.094087198 -0.14942907 0.011352219 0
-0.018220313 -0.14942016 0.01744882 1.8438846e-40
-0.016487852 -0.14856245 0.020369329 1.8438846e-40
-0.014722105 -0.14856245 0.020369329 0
-0.013006387 -0.14768039 0.023372807 0
-0.011245906 -0.14768039 0.023372807 0
-0.0094854273 -0.14768039 0.023372807 0
-0.0077903848 -0.14680351 0.026358522 3.5873241e-43
-0.0061077252 -0.14590292 0.029425122 3.5873241e-43
-0.0043578576 -0.14590292 0.029425122 7.1886611e-43
-0.0026881546 -0.14503662 0.032374896 9.2914496e-41
-0.00094345771 -0.14503662 0.032374896 1.8439126e-40
0.00070827082 -0.14414679 0.035404779 9.219563e-41
0.0023499727 -0.14326234 0.038416304 0
0.004084073 -0.14326234 0.038416304 0
0.005818177 -0.14326234 0.038416304 0
0.007552281 -0.14326234 0.038416304 0
0.0092063136 -0.14266627 0.040445961 2.8025969e-45
0.010814033 -0.14179079 0.043426968 2.8025969e-45
0.012412068 -0.14092059 0.046390034 9.2198432e-41
0.01413219 -0.14092059 0.046390034 9.2198432e-41
0.015852313 -0.14092059 0.046390034 1.8403813e-40
0.017425857 -0.14002781 0.04943005 1.8403813e-40
0.018994384 -0.13916816 0.052357115 1.8403813e-40
0.020704046 -0.13916816 0.052357115 1.8403813e-40
0.022413705 -0.13916816 0.052357115 9.1842503e-41
0.024009224 -0.13856123 0.054423787 9.1842503e-41
0.025544856 -0.13768299 0.057414211 2.8025969e-45
0.027245652 -0.13768299 0.057414211 9.2198432e-41
0.028766658 -0.13681011 0.060386397 1.8439406e-40
0.030462239 -0.13681011 0.060386397 9.2198432e-41
0.032157823 -0.13681011 0.060386397 2.8025969e-45
0.033853404 -0.13681011 0.060386397 2.8025969e-45
0.035343371 -0.13591556 0.063432373 2.8025969e-45
0.036900058 -0.1353492 0.065360822 2.8025969e-45
0.038586922 -0.1353492 0.065360822 3.6878532e-40
0.040273778 -0.1353492 0.065360822 1.1063504e-39
0.041960642 -0.1353492 0.065360822 3.0424586e-39
0.043794587 -0.13591556 0.063432373 3.1346542e-39
0.045484826 -0.13591556 0.063432373 8.2976347e-40
0.047175072 -0.13591556 0.063432373 2.8025969e-45
0.048865311 -0.13591556 0.063432373 4.6098095e-40
0.050809234 -0.13681011 0.060386397 2.8025969e-45
0.053011857 -0.13856123 0.054423787 9.219563e-41
0.054717895 -0.13856123 0.054423787 9.219563e-41
0.056606915 -0.13916816 0.052357115 0
0.058316585 -0.13916816 0.052357115 0
0.060295682 -0.14002781 0.04943005 0
0.062295642 -0.14092059 0.046390034 0
0.064298898 -0.14179079 0.043426968 0
0.066314295 -0.14266627 0.040445961 0
0.068044841 -0.14266627 0.040445961 9.219563e-41
0.06998001 -0.14326234 0.038416304 9.219563e-41
0.071714118 -0.14326234 0.038416304 9.219563e-41
0.073762402 -0.14414679 0.035404779 9.219563e-41
0.075823173 -0.14503662 0.032374896 9.219563e-41
0.077885956 -0.14590292 0.029425122 9.219563e-41
0.079971865 -0.14680351 0.026358522 9.219563e-41
0.082059532 -0.14768039 0.023372807 9.219563e-41
0.084159672 -0.14856245 0.020369329 0
0.085925415 -0.14856245 0.020369329 0
0.088031679 -0.14942016 0.01744882 0
-0.014766867 -0.14944084 0.023372807 3.5873241e-43
-0.013006387 -0.14944084 0.023372807 0
-0.011245906 -0.14944084 0.023372807 7.1746481e-43
-0.0094854273 -0.14944084 0.023372807 9.2914496e-41
-0.0077903848 -0.14855875 0.026358522 1.8511013e-40
-0.0061077252 -0.14765279 0.029425122 1.847542e-40
-0.0043578576 -0.14765279 0.029425122 1.847542e-40
-0.0026079901 -0.14765279 0.029425122 1.847542e-40
-0.00094345771 -0.14678131 0.032374896 0
0.00070827082 -0.14588617 0.035404779 1.8439126e-40
0.0024476536 -0.14588617 0.035404779 2.7658689e-40
0.004084073 -0.14499645 0.038416304 1.8439126e-40
0.005818177 -0.14499645 0.038416304 0
0.007552281 -0.14499645 0.038416304 0
0.0092063136 -0.14439683 0.040445961 2.8025969e-45
0.010814033 -0.14351611 0.043426968 2.8025969e-45
0.012412068 -0.14264072 0.046390034 2.8025969e-45
0.01413219 -0.14264072 0.046390034 9.2198432e-41
0.015852313 -0.14264072 0.046390034 9.1842503e-41
0.017425857 -0.1417426 0.04943005 5.6051939e-45
0.018994384 -0.14087783 0.052357115 5.6051939e-45
0.020704046 -0.14087783 0.052357115 5.6051939e-45
0.022413705 -0.14087783 0.052357115 5.6051939e-45
0.024009224 -0.14026727 0.054423787 9.1842503e-41
0.025715262 -0.14026727 0.054423787 1.8439406e-40
0.027245652 -0.13938378 0.057414211 2.7658969e-40
0.028946444 -0.13938378 0.057414211 2.7658969e-40
0.030647241 -0.13938378 0.057414211 1.8439406e-40
0.032157823 -0.13850568 0.060386397 2.8025969e-45
0.033853404 -0.13850568 0.060386397 9.2198432e-41
0.035343371 -0.1376058 0.063432373 2.7658969e-40
0.036900058 -0.13703607 0.065360822 4.6098095e-40
0.038586922 -0.13703607 0.065360822 5.5317658e-40
0.040273778 -0.13703607 0.065360822 1.0141547e-39
0.041960642 -0.13703607 0.065360822 2.950263e-39
0.043794587 -0.1376058 0.063432373 1.6595241e-39
0.045484826 -0.1376058 0.063432373 1.198546e-39
0.047175072 -0.1376058 0.063432373 2.8025969e-45
0.048865311 -0.1376058 0.063432373 4.6098095e-40
0.051056765 -0.13938378 0.057414211 2.8025969e-45
0.053011857 -0.14026727 0.054423787 9.219563e-41
0.054717895 -0.14026727 0.054423787 9.219563e-41
0.056866091 -0.1417426 0.04943005 9.219563e-41
0.058580887 -0.1417426 0.04943005 9.219563e-41
0.060295682 -0.1417426 0.04943005 9.219563e-41
0.062295642 -0.14264072 0.046390034 9.219563e-41
0.064298898 -0.14351611 0.043426968 9.219563e-41
0.066314295 -0.14439683 0.040445961 9.219563e-41
0.068044841 -0.14439683 0.040445961 0
0.06998001 -0.14499645 0.038416304 0
0.071714118 -0.14499645 0.038416304 0
0.073762402 -0.14588617 0.035404779 0
0.075823173 -0.14678131 0.032374896 0
0.077567875 -0.14678131 0.032374896 0
0.079635814 -0.14765279 0.029425122 0
0.082059532 -0.14944084 0.023372807 0
-0.0043578576 -0.14940263 0.029425122 3.657389e-43
