# .PCD v0.7 - Point Cloud Data file format
VERSION 0.7
FIELDS x y z rgb
SIZE 4 4 4 4
TYPE F F F F
COUNT 1 1 1 1
WIDTH 963
HEIGHT 1
VIEWPOINT 0 0 0 1 0 0 0
POINTS 963
DATA ascii
0.062331114 -0.11855899 0.0612069 1.1989061e-39
0.064051241 -0.11855899 0.0612069 1.8442755e-39
0.066007741 -0.11936165 0.058243833 9.3640369e-41
0.067733064 -0.11936165 0.058243833 3.643376e-43
0.06945838 -0.11936165 0.058243833 7.2166871e-43
0.071865879 -0.12153481 0.050221644 9.1835496e-41
0.073868223 -0.12235557 0.047191761 2.7550649e-40
0.075874098 -0.12315463 0.044241987 9.1835496e-41
0.078441672 -0.12560774 0.035186194 9.1835496e-41
0.080476262 -0.12639888 0.032265685 1.8439406e-40
0.082532205 -0.12722217 0.029226564 2.7694983e-40
0.084308393 -0.12722217 0.029226564 9.2561369e-41
0.086671419 -0.12885578 0.023196004 7.2447131e-43
0.089052461 -0.13048081 0.017197154 7.2447131e-43
0.09084975 -0.13048081 0.017197154 7.2447131e-43
0.0929574 -0.13130049 0.014171265 7.2166871e-43
0.094759993 -0.13130049 0.014171265 7.2166871e-43
0.096874304 -0.13209651 0.011232637 3.5873241e-43
0.099012159 -0.13292582 0.0081712231 3.5873241e-43
0.10125618 -0.13399105 0.0042389855 3.5873241e-43
0.10408261 -0.13643973 -0.0048004165 0
0.10625084 -0.13723589 -0.0077395216 9.1846707e-41
0.10855749 -0.13833423 -0.011794068 9.8090893e-45
0.1104056 -0.13833423 -0.011794068 5.6051939e-45
0.11225373 -0.13833423 -0.011794068 0
0.11445957 -0.13914107 -0.014772512 1.5673229e-39
0.1163129 -0.13914107 -0.014772512 6.8228297e-39
-0.12811849 -0.14998297 -0.047740795 9.4032354e-39
-0.12620734 -0.14998297 -0.047740795 6.6373665e-39
-0.1242962 -0.14998297 -0.047740795 2.7586802e-40
-0.12238506 -0.14998297 -0.047740795 2.7586802e-40
-0.12047391 -0.14998297 -0.047740795 0
-0.11827736 -0.14918335 -0.044807889 9.219563e-41
-0.11637136 -0.14918335 -0.044807889 1.8439126e-40
-0.1141808 -0.14835624 -0.041774251 1.8439126e-40
-0.11191729 -0.1472816 -0.037832715 9.2914496e-41
-0.11002352 -0.1472816 -0.037832715 1.8439126e-40
-0.10812975 -0.1472816 -0.037832715 3.5873241e-43
-0.10623597 -0.1472816 -0.037832715 3.5873241e-43
-0.10408752 -0.14646508 -0.03483782 3.5873241e-43
-0.10219901 -0.14646508 -0.03483782 0
-0.10031048 -0.14646508 -0.03483782 0
-0.098102428 -0.14537306 -0.030832507 2.8025969e-45
-0.096220933 -0.14537306 -0.030832507 9.219563e-41
-0.094339438 -0.14537306 -0.030832507 9.2198432e-41
-0.092457943 -0.14537306 -0.030832507 9.219563e-41
-0.090576433 -0.14537306 -0.030832507 9.2198432e-41
-0.088476978 -0.14453618 -0.027762987 9.219563e-41
-0.086600862 -0.14453618 -0.027762987 9.2198432e-41
-0.084526323 -0.14373477 -0.024823643 9.219563e-41
-0.082655363 -0.14373477 -0.024823643 9.2198432e-41
-0.080784403 -0.14373477 -0.024823643 0
-0.078661762 -0.14263238 -0.020780303 2.8025969e-45
-0.076797895 -0.14263238 -0.020780303 0
-0.074934013 -0.14263238 -0.020780303 2.8025969e-45
-0.072898485 -0.14181106 -0.017767884 2.8025969e-45
-0.071039893 -0.14181106 -0.017767884 3.6878532e-40
-0.069021113 -0.14099441 -0.014772512 3.6878532e-40
-0.067167781 -0.14099441 -0.014772512 4.6026209e-40
-0.065165602 -0.14018236 -0.011794068 2.7658969e-40
-0.063121989 -0.1390769 -0.0077395216 2.7658969e-40
-0.061280981 -0.1390769 -0.0077395216 2.7658969e-40
-0.059439972 -0.1390769 -0.0077395216 2.7587083e-40
-0.057472706 -0.13827558 -0.0048004165 2.7587083e-40
-0.055636853 -0.13827558 -0.0048004165 5.5245772e-40
-0.053800996 -0.13827558 -0.0048004165 5.5245772e-40
-0.05196514 -0.13827558 -0.0048004165 5.5245772e-40
-0.050020356 -0.13744931 -0.001769878 4.6026209e-40
-0.048189815 -0.13744931 -0.001769878 4.6026209e-40
-0.046261538 -0.13662781 0.001243256 3.6806646e-40
-0.044344358 -0.13581105 0.0042389855 5.5137872e-40
-0.042524353 -0.13581105 0.0042389855 3.6806646e-40
-0.040704343 -0.13581105 0.0042389855 3.6950139e-40
-0.038884338 -0.13581105 0.0042389855 2.7730576e-40
-0.037064329 -0.13581105 0.0042389855 2.7730576e-40
-0.035244323 -0.13581105 0.0042389855 2.7730576e-40
-0.033345029 -0.13473894 0.0081712231 2.7730576e-40
-0.031531919 -0.13473894 0.0081712231 2.7730576e-40
-0.029618867 -0.13310309 0.014171265 3.6878252e-40
-0.027816273 -0.13310309 0.014171265 4.6097815e-40
-0.02601368 -0.13310309 0.014171265 3.6878252e-40
-0.02421109 -0.13310309 0.014171265 9.219563e-41
-0.022408497 -0.13310309 0.014171265 9.1835496e-41
-0.020582031 -0.1322781 0.017197154 2.7586802e-40
-0.018784743 -0.1322781 0.017197154 2.7586802e-40
-0.01697427 -0.13145791 0.020205401 1.8367239e-40
-0.015182258 -0.13145791 0.020205401 3.6806365e-40
-0.013387623 -0.13064255 0.023196004 6.4536941e-40
-0.011600855 -0.13064255 0.023196004 9.2267516e-40
-0.0098140864 -0.13064255 0.023196004 3.7022165e-40
-0.0080273179 -0.13064255 0.023196004 9.3634763e-41
-0.0062587932 -0.12983195 0.026169084 1.8583039e-40
-0.0044772374 -0.12983195 0.026169084 3.7022446e-40
-0.0026956815 -0.12983195 0.026169084 1.858332e-40
-0.0009141257 -0.12983195 0.026169084 3.629363e-43
0.00086743105 -0.12983195 0.026169084 2.8025969e-45
0.0026034201 -0.12899835 0.029226564 3.657389e-43
0.0043796161 -0.12899835 0.029226564 9.2561369e-41
0.0061558103 -0.12899835 0.029226564 2.7623376e-40
0.0078707272 -0.12816976 0.032265685 1.8403813e-40
0.0095775863 -0.1273735 0.035186194 9.1842503e-41
0.011272239 -0.12655462 0.038189672 5.6051939e-45
0.013032719 -0.12655462 0.038189672 7.0064923e-45
0.014712057 -0.12574057 0.041175388 9.1843904e-41
0.016467303 -0.12574057 0.041175388 3.6806926e-40
0.018222548 -0.12574057 0.041175388 1.83678e-40
0.019977789 -0.12574057 0.041175388 9.1841101e-41
0.021733034 -0.12574057 0.041175388 2.7587363e-40
0.023488279 -0.12574057 0.041175388 5.5246052e-40
0.025127925 -0.1249045 0.044241987 6.4465615e-40
0.026877794 -0.1249045 0.044241987 4.6026209e-40
0.028506123 -0.12410025 0.047191761 2.7587083e-40
0.030250818 -0.12410025 0.047191761 4.6026209e-40
0.031995513 -0.12410025 0.047191761 4.6026209e-40
0.033599433 -0.12327419 0.050221644 3.6806365e-40
0.035193611 -0.12245311 0.053233169 2.7586802e-40
0.036927711 -0.12245311 0.053233169 2.7586802e-40
0.038661815 -0.12245311 0.053233169 2.7586802e-40
0.040395919 -0.12245311 0.053233169 2.7586802e-40
0.042017926 -0.12189974 0.055262826 2.7587083e-40
0.043748472 -0.12189974 0.055262826 7.3721191e-40
0.045479015 -0.12189974 0.055262826 3.6842939e-40
0.047029238 -0.12108697 0.058243833 9.1842503e-41
0.048754558 -0.12108697 0.058243833 2.7658969e-40
0.050290253 -0.12027912 0.0612069 9.2123743e-40
0.052010376 -0.12027912 0.0612069 1.0134331e-39
0.053730499 -0.12027912 0.0612069 7.361231e-40
0.055450622 -0.12027912 0.0612069 2.7550649e-40
0.057170745 -0.12027912 0.0612069 9.1835496e-41
0.058890868 -0.12027912 0.0612069 5.5281084e-40
0.060610991 -0.12027912 0.0612069 0
0.062331114 -0.12027912 0.0612069 1.014868e-39
0.064051241 -0.12027912 0.0612069 1.3836533e-39
0.066245556 -0.12189974 0.055262826 3.5873241e-43
0.067976102 -0.12189974 0.055262826 7.2026741e-43
0.069706649 -0.12189974 0.055262826 3.61535e-43
0.071865879 -0.12327419 0.050221644 0
0.073868223 -0.12410025 0.047191761 9.1835496e-41
0.075874098 -0.1249045 0.044241987 9.1835496e-41
0.078441672 -0.1273735 0.035186194 0
0.080476262 -0.12816976 0.032265685 2.7694983e-40
0.082532205 -0.12899835 0.029226564 3.7022446e-40
0.084308393 -0.12899835 0.029226564 2.7803163e-40
0.086382113 -0.12983195 0.026169084 1.4447387e-42
0.088754453 -0.13145791 0.020205401 1.084605e-42
0.090546466 -0.13145791 0.020205401 7.2447131e-43
0.092647038 -0.1322781 0.017197154 7.2447131e-43
0.094759993 -0.13310309 0.014171265 3.629363e-43
0.096874304 -0.13390426 0.011232637 3.5873241e-43
0.099012159 -0.13473894 0.0081712231 0
0.10125618 -0.13581105 0.0042389855 0
0.10408261 -0.13827558 -0.0048004165 0
0.10591846 -0.13827558 -0.0048004165 9.1846707e-41
0.10809185 -0.1390769 -0.0077395216 9.8090893e-45
0.1104056 -0.14018236 -0.011794068 5.6051939e-45
0.11260622 -0.14099441 -0.014772512 9.219563e-41
0.11410183 -0.14018236 -0.011794068 1.1985404e-39
0.11594997 -0.14018236 -0.011794068 6.0852647e-39
-0.11002352 -0.14917539 -0.037832715 3.6806365e-40
-0.10812975 -0.14917539 -0.037832715 9.219563e-41
-0.10623597 -0.14917539 -0.037832715 0
-0.10408752 -0.14835359 -0.03483782 0
-0.10219901 -0.14835359 -0.03483782 0
-0.10031048 -0.14835359 -0.03483782 0
-0.098102428 -0.14725454 -0.030832507 0
-0.096220933 -0.14725454 -0.030832507 9.2194229e-41
-0.094339438 -0.14725454 -0.030832507 9.219563e-41
-0.092457943 -0.14725454 -0.030832507 9.2194229e-41
-0.090576433 -0.14725454 -0.030832507 9.219563e-41
-0.088476978 -0.1464123 -0.027762987 9.2194229e-41
-0.086600862 -0.1464123 -0.027762987 9.219563e-41
-0.084526323 -0.14560573 -0.024823643 9.2194229e-41
-0.082655363 -0.14560573 -0.024823643 9.219563e-41
-0.080784403 -0.14560573 -0.024823643 0
-0.078661762 -0.14449625 -0.020780303 0
-0.076797895 -0.14449625 -0.020780303 0
-0.074934013 -0.14449625 -0.020780303 0
-0.072898485 -0.14366965 -0.017767884 0
-0.071039893 -0.14366965 -0.017767884 3.6806365e-40
-0.069021113 -0.14284773 -0.014772512 3.6806365e-40
-0.067167781 -0.14284773 -0.014772512 5.5173465e-40
-0.065165602 -0.14203046 -0.011794068 2.7586802e-40
-0.063121989 -0.14091791 -0.0077395216 2.7586802e-40
-0.061280981 -0.14091791 -0.0077395216 1.8367239e-40
-0.059439972 -0.14091791 -0.0077395216 1.8367239e-40
-0.057472706 -0.14011143 -0.0048004165 1.8367239e-40
-0.055636853 -0.14011143 -0.0048004165 6.4465054e-40
-0.053800996 -0.14011143 -0.0048004165 6.4465054e-40
-0.05196514 -0.14011143 -0.0048004165 4.6097815e-40
-0.050020356 -0.13927986 -0.001769878 3.6878252e-40
-0.048086796 -0.13845308 0.001243256 2.7658689e-40
-0.046261538 -0.13845308 0.001243256 1.8439126e-40
-0.044344358 -0.13763104 0.0042389855 2.7586802e-40
-0.042524353 -0.13763104 0.0042389855 9.219563e-41
-0.040704343 -0.13763104 0.0042389855 1.8511013e-40
-0.038960502 -0.13845308 0.001243256 1.4391335e-42
-0.037064329 -0.13763104 0.0042389855 1.8511013e-40
-0.035244323 -0.13763104 0.0042389855 1.8511013e-40
-0.033345029 -0.13655205 0.0081712231 1.8511013e-40
-0.031531919 -0.13655205 0.0081712231 1.8511013e-40
-0.029618867 -0.13490568 0.014171265 2.7658689e-40
-0.027816273 -0.13490568 0.014171265 2.7658689e-40
-0.02601368 -0.13490568 0.014171265 1.8439126e-40
-0.02421109 -0.13490568 0.014171265 0
-0.022408497 -0.13490568 0.014171265 9.1835496e-41
-0.020582031 -0.13407536 0.017197154 4.6025928e-40
-0.018784743 -0.13407536 0.017197154 4.6025928e-40
-0.01697427 -0.13324992 0.020205401 9.1835496e-41
-0.015182258 -0.13324992 0.020205401 2.7550649e-40
-0.013387623 -0.13242932 0.023196004 9.1835496e-41
-0.011600855 -0.13242932 0.023196004 2.7730295e-40
-0.0098219058 -0.13161351 0.026169084 2.7838195e-40
-0.008040349 -0.13161351 0.026169084 3.7057758e-40
-0.0062587932 -0.13161351 0.026169084 1.8618632e-40
-0.0044772374 -0.13161351 0.026169084 9.3634763e-41
-0.0026956815 -0.13161351 0.026169084 1.4391335e-42
-0.0009141257 -0.13161351 0.026169084 1.8511013e-40
0.00086743105 -0.13161351 0.026169084 1.8511013e-40
0.0026489869 -0.13161351 0.026169084 3.629363e-43
0.0043796161 -0.13077454 0.029226564 9.2558566e-41
0.0061558103 -0.13077454 0.029226564 2.7658969e-40
0.0078118397 -0.12913923 0.035186194 1.8439406e-40
0.0095117586 -0.12831511 0.038189672 9.2198432e-41
0.011272239 -0.12831511 0.038189672 2.8025969e-45
0.012956812 -0.12749584 0.041175388 5.6051939e-45
0.014712057 -0.12749584 0.041175388 9.1842503e-41
0.016467303 -0.12749584 0.041175388 3.6806926e-40
0.018222548 -0.12749584 0.041175388 1.83678e-40
0.019977789 -0.12749584 0.041175388 9.1841101e-41
0.021733034 -0.12749584 0.041175388 2.7587363e-40
0.023488279 -0.12749584 0.041175388 5.5245772e-40
0.025127925 -0.12665437 0.044241987 6.4465335e-40
0.026877794 -0.12665437 0.044241987 4.6026209e-40
0.02862766 -0.12665437 0.044241987 1.836752e-40
0.030250818 -0.12584494 0.047191761 2.7586802e-40
0.031995513 -0.12584494 0.047191761 2.7586802e-40
0.033599433 -0.12501357 0.050221644 1.8367239e-40
0.035193611 -0.12418722 0.053233169 1.8367239e-40
0.036927711 -0.12418722 0.053233169 1.8367239e-40
0.038661815 -0.12418722 0.053233169 1.8367239e-40
0.040395919 -0.12418722 0.053233169 1.8367239e-40
0.042017926 -0.12363027 0.055262826 1.836752e-40
0.043748472 -0.12363027 0.055262826 2.7623376e-40
0.045303922 -0.12281232 0.058243833 1.8403813e-40
0.047029238 -0.12281232 0.058243833 1.8403813e-40
0.048754558 -0.12281232 0.058243833 2.7658969e-40
0.050290253 -0.12199925 0.0612069 5.5245491e-40
0.052010376 -0.12199925 0.0612069 5.5245491e-40
0.053730499 -0.12199925 0.0612069 4.5953621e-40
0.055450622 -0.12199925 0.0612069 2.7550649e-40
0.057170745 -0.12199925 0.0612069 9.1835496e-41
0.058890868 -0.12199925 0.0612069 9.2159056e-40
0.060610991 -0.12199925 0.0612069 2.7694142e-40
0.062331114 -0.12199925 0.0612069 9.2266956e-40
0.064282425 -0.12281232 0.058243833 1.1070636e-39
0.066245556 -0.12363027 0.055262826 7.1746481e-43
0.067976102 -0.12363027 0.055262826 1.0775985e-42
0.069706649 -0.12363027 0.055262826 1.8583039e-40
0.071865879 -0.12501357 0.050221644 4.6097535e-40
0.073868223 -0.12584494 0.047191761 9.2194229e-41
0.075874098 -0.12665437 0.044241987 0
0.078705393 -0.12994061 0.032265685 3.5873241e-43
0.080476262 -0.12994061 0.032265685 2.7694983e-40
0.082532205 -0.13077454 0.029226564 2.7803163e-40
0.08460056 -0.13161351 0.026169084 1.8547867e-40
0.086382113 -0.13161351 0.026169084 1.0860063e-42
0.088754453 -0.13324992 0.020205401 1.0860063e-42
0.090546466 -0.13324992 0.020205401 7.2447131e-43
0.092647038 -0.13407536 0.017197154 7.2447131e-43
0.094759993 -0.13490568 0.014171265 3.629363e-43
0.096874304 -0.13571201 0.011232637 0
0.099012159 -0.13655205 0.0081712231 9.1835496e-41
0.10125618 -0.13763104 0.0042389855 9.1835496e-41
0.10408261 -0.14011143 -0.0048004165 9.1835496e-41
0.10591846 -0.14011143 -0.0048004165 9.8090893e-45
0.10809185 -0.14091791 -0.0077395216 9.8090893e-45
0.1104056 -0.14203046 -0.011794068 9.1842503e-41
0.11260622 -0.14284773 -0.014772512 0
0.11410183 -0.14203046 -0.011794068 3.6877972e-40
0.11594997 -0.14203046 -0.011794068 4.6101346e-39
0.11779808 -0.14203046 -0.011794068 5.255867e-39
-0.098102428 -0.14913605 -0.030832507 9.2194229e-41
-0.096220933 -0.14913605 -0.030832507 9.2194229e-41
-0.094339438 -0.14913605 -0.030832507 1.8438846e-40
-0.092457943 -0.14913605 -0.030832507 9.2194229e-41
-0.090576433 -0.14913605 -0.030832507 9.2194229e-41
-0.088476978 -0.14828841 -0.027762987 9.2194229e-41
-0.086600862 -0.14828841 -0.027762987 9.2194229e-41
-0.084526323 -0.14747669 -0.024823643 9.2194229e-41
-0.082655363 -0.14747669 -0.024823643 9.2194229e-41
-0.080784403 -0.14747669 -0.024823643 9.2194229e-41
-0.078661762 -0.14636014 -0.020780303 9.2194229e-41
-0.076797895 -0.14636014 -0.020780303 9.2194229e-41
-0.074934013 -0.14636014 -0.020780303 9.2194229e-41
-0.072898485 -0.14552824 -0.017767884 1.8402972e-40
-0.071039893 -0.14552824 -0.017767884 6.4393028e-40
-0.069021113 -0.14470108 -0.014772512 6.4393028e-40
-0.067013718 -0.14387859 -0.011794068 6.4393028e-40
-0.065165602 -0.14387859 -0.011794068 5.5173465e-40
-0.063121989 -0.14275892 -0.0077395216 5.5173465e-40
-0.061280981 -0.14275892 -0.0077395216 3.6806365e-40
-0.059439972 -0.14275892 -0.0077395216 3.6806365e-40
-0.057472706 -0.14194728 -0.0048004165 3.6806365e-40
-0.055636853 -0.14194728 -0.0048004165 5.5245491e-40
-0.053800996 -0.14194728 -0.0048004165 5.5245491e-40
-0.0518509 -0.14111041 -0.001769878 3.6878252e-40
-0.050020356 -0.14111041 -0.001769878 2.7658689e-40
-0.048086796 -0.14027832 0.001243256 1.8439126e-40
-0.046261538 -0.14027832 0.001243256 9.219563e-41
-0.044344358 -0.13945107 0.0042389855 9.219563e-41
-0.042524353 -0.13945107 0.0042389855 3.5873241e-43
-0.040704343 -0.13945107 0.0042389855 7.1886611e-43
-0.038960502 -0.14027832 0.001243256 7.1886611e-43
-0.037064329 -0.13945107 0.0042389855 1.8511013e-40
-0.035244323 -0.13945107 0.0042389855 2.7730576e-40
-0.033424318 -0.13945107 0.0042389855 2.7730576e-40
-0.031531919 -0.13836516 0.0081712231 1.8511013e-40
-0.029667813 -0.13751976 0.011232637 9.219563e-41
-0.027860068 -0.13751976 0.011232637 9.219563e-41
-0.02601368 -0.13670824 0.014171265 0
-0.02421109 -0.13670824 0.014171265 0
-0.022379316 -0.13587265 0.017197154 9.1835496e-41
-0.020582031 -0.13587265 0.017197154 4.6025928e-40
-0.018784743 -0.13587265 0.017197154 4.6025928e-40
-0.01697427 -0.13504194 0.020205401 1.8367239e-40
-0.015182258 -0.13504194 0.020205401 2.7550649e-40
-0.013387623 -0.13421609 0.023196004 9.1835496e-41
-0.011600855 -0.13421609 0.023196004 3.5873241e-43
-0.0098219058 -0.13339506 0.026169084 9.3990693e-41
-0.008040349 -0.13339506 0.026169084 3.7057758e-40
-0.0062587932 -0.13339506 0.026169084 1.8618632e-40
-0.0044772374 -0.13339506 0.026169084 1.0789998e-42
-0.0026956815 -0.13339506 0.026169084 1.0789998e-42
-0.0009141257 -0.13339506 0.026169084 3.6950139e-40
0.00086743105 -0.13339506 0.026169084 3.6950139e-40
0.0026034201 -0.13255073 0.029226564 3.629363e-43
0.0043796161 -0.13255073 0.029226564 9.2558566e-41
0.0060998602 -0.1317115 0.032265685 2.7658969e-40
0.0078118397 -0.13090499 0.035186194 1.8439406e-40
0.0095117586 -0.13007559 0.038189672 9.2198432e-41
0.011272239 -0.13007559 0.038189672 2.8025969e-45
0.012956812 -0.12925108 0.041175388 5.6051939e-45
0.014712057 -0.12925108 0.041175388 9.1842503e-41
0.016467303 -0.12925108 0.041175388 9.1841101e-41
0.018222548 -0.12925108 0.041175388 9.1841101e-41
0.019977789 -0.12925108 0.041175388 9.1841101e-41
0.021733034 -0.12925108 0.041175388 1.83678e-40
0.023488279 -0.12925108 0.041175388 2.7587083e-40
0.025127925 -0.12840421 0.044241987 2.7587083e-40
0.026877794 -0.12840421 0.044241987 1.836752e-40
0.02862766 -0.12840421 0.044241987 9.1838299e-41
0.030250818 -0.12758966 0.047191761 1.8367239e-40
0.031995513 -0.12758966 0.047191761 1.8367239e-40
0.033599433 -0.12675296 0.050221644 9.1835496e-41
0.035338815 -0.12675296 0.050221644 9.1835496e-41
0.036927711 -0.12592132 0.053233169 9.1835496e-41
0.038661815 -0.12592132 0.053233169 9.1835496e-41
0.040395919 -0.12592132 0.053233169 1.8367239e-40
0.042130023 -0.12592132 0.053233169 1.836752e-40
0.043748472 -0.12536083 0.055262826 5.6051939e-45
0.045303922 -0.12453763 0.058243833 9.1843904e-41
0.047029238 -0.12453763 0.058243833 2.7623376e-40
0.048754558 -0.12453763 0.058243833 2.7658969e-40
0.050290253 -0.12371938 0.0612069 2.7586802e-40
0.052010376 -0.12371938 0.0612069 9.1835496e-41
0.053730499 -0.12371938 0.0612069 2.7550649e-40
0.055450622 -0.12371938 0.0612069 2.7550649e-40
0.057170745 -0.12371938 0.0612069 9.1835496e-41
0.05866966 -0.12287988 0.064246915 1.1063363e-39
0.060384456 -0.12287988 0.064246915 5.5352551e-40
0.062331114 -0.12371938 0.0612069 1.0152225e-39
0.064282425 -0.12453763 0.058243833 1.1996138e-39
0.066407479 -0.12592132 0.053233169 1.0761972e-42
0.06814158 -0.12592132 0.053233169 9.4706757e-41
0.069875687 -0.12592132 0.053233169 6.4716447e-40
0.07212352 -0.12758966 0.047191761 9.2267236e-40
0.073868223 -0.12758966 0.047191761 5.5388984e-40
0.075874098 -0.12840421 0.044241987 1.8511013e-40
0.078705393 -0.1317115 0.032265685 1.0818024e-42
0.080756001 -0.13255073 0.029226564 1.084605e-42
0.082532205 -0.13255073 0.029226564 1.4447387e-42
0.08460056 -0.13339506 0.026169084 7.258726e-43
0.086382113 -0.13339506 0.026169084 3.657389e-43
0.088458188 -0.13421609 0.023196004 7.258726e-43
0.090546466 -0.13504194 0.020205401 7.258726e-43
0.0929574 -0.13670824 0.014171265 3.657389e-43
0.095066555 -0.13751976 0.011232637 9.1842503e-41
0.097199045 -0.13836516 0.0081712231 9.1838299e-41
0.099436171 -0.13945107 0.0042389855 9.1835496e-41
0.10158446 -0.14027832 0.001243256 2.7550649e-40
0.10408261 -0.14194728 -0.0048004165 2.7550929e-40
0.10625084 -0.14275892 -0.0077395216 9.1845305e-41
0.10855749 -0.14387859 -0.011794068 9.8090893e-45
0.11075289 -0.14470108 -0.014772512 9.1842503e-41
0.11260622 -0.14470108 -0.014772512 0
0.11445957 -0.14470108 -0.014772512 0
0.1163129 -0.14470108 -0.014772512 3.5037871e-39
0.11816625 -0.14470108 -0.014772512 4.1495194e-39
-0.082655363 -0.14934768 -0.024823643 9.2194229e-41
-0.080784403 -0.14934768 -0.024823643 9.2194229e-41
-0.078661762 -0.14822401 -0.020780303 2.7622395e-40
-0.076797895 -0.14822401 -0.020780303 2.7622395e-40
-0.074757077 -0.14738683 -0.017767884 3.6841958e-40
-0.072898485 -0.14738683 -0.017767884 3.6841958e-40
-0.07087446 -0.14655443 -0.014772512 6.4393028e-40
-0.069021113 -0.14655443 -0.014772512 7.3540704e-40
-0.067013718 -0.1457267 -0.011794068 7.3540704e-40
-0.065165602 -0.1457267 -0.011794068 6.4393028e-40
-0.063121989 -0.14459993 -0.0077395216 6.4393028e-40
-0.061280981 -0.14459993 -0.0077395216 6.4393028e-40
-0.059439972 -0.14459993 -0.0077395216 5.5245491e-40
-0.057472706 -0.14378314 -0.0048004165 5.5245491e-40
-0.055636853 -0.14378314 -0.0048004165 3.6878252e-40
-0.053800996 -0.14378314 -0.0048004165 3.6878252e-40
-0.0518509 -0.14294095 -0.001769878 2.7658689e-40
-0.049912054 -0.1421036 0.001243256 1.8439126e-40
-0.048086796 -0.1421036 0.001243256 7.1886611e-43
-0.046261538 -0.1421036 0.001243256 3.5873241e-43
-0.044344358 -0.14127107 0.0042389855 3.5873241e-43
-0.042524353 -0.14127107 0.0042389855 3.5873241e-43
-0.040704343 -0.14127107 0.0042389855 3.5873241e-43
-0.038960502 -0.1421036 0.001243256 7.1886611e-43
-0.03713524 -0.1421036 0.001243256 1.4391335e-42
-0.035244323 -0.14127107 0.0042389855 1.8583039e-40
-0.033424318 -0.14127107 0.0042389855 3.6950139e-40
-0.031531919 -0.14017828 0.0081712231 1.8511013e-40
-0.029667813 -0.13932751 0.011232637 9.219563e-41
-0.027860068 -0.13932751 0.011232637 0
-0.02601368 -0.13851084 0.014171265 1.8439126e-40
-0.02421109 -0.13851084 0.014171265 9.219563e-41
-0.022379316 -0.13766994 0.017197154 2.7586802e-40
-0.020582031 -0.13766994 0.017197154 4.6025928e-40
-0.018784743 -0.13766994 0.017197154 4.5953902e-40
-0.01697427 -0.13683395 0.020205401 2.7550649e-40
-0.015182258 -0.13683395 0.020205401 3.6734339e-40
-0.013387623 -0.13600285 0.023196004 5.5245491e-40
-0.011600855 -0.13600285 0.023196004 3.5873241e-43
-0.0098140864 -0.13600285 0.023196004 1.793662e-42
-0.008040349 -0.13517661 0.026169084 9.3990693e-41
-0.0062587932 -0.13517661 0.026169084 1.4349296e-42
-0.0044772374 -0.13517661 0.026169084 1.0761972e-42
-0.0026956815 -0.13517661 0.026169084 9.3990693e-41
-0.0009141257 -0.13517661 0.026169084 3.6949858e-40
0.00086743105 -0.13517661 0.026169084 1.8510732e-40
0.0026034201 -0.13432692 0.029226564 7.1886611e-43
0.0043796161 -0.13432692 0.029226564 9.2914496e-41
0.0060998602 -0.13348235 0.032265685 2.7658689e-40
0.0078118397 -0.13267075 0.035186194 1.8439126e-40
0.0095117586 -0.13183604 0.038189672 9.2198432e-41
0.011272239 -0.13183604 0.038189672 2.8025969e-45
0.012956812 -0.13100632 0.041175388 2.8025969e-45
0.014712057 -0.13100632 0.041175388 9.2198432e-41
0.016467303 -0.13100632 0.041175388 9.1841101e-41
0.018222548 -0.13100632 0.041175388 1.83678e-40
0.019977789 -0.13100632 0.041175388 2.7587363e-40
0.021733034 -0.13100632 0.041175388 2.7587363e-40
0.023488279 -0.13100632 0.041175388 9.1838299e-41
0.025127925 -0.13015409 0.044241987 9.1838299e-41
0.026877794 -0.13015409 0.044241987 9.1838299e-41
0.02862766 -0.13015409 0.044241987 9.1838299e-41
0.030250818 -0.12933435 0.047191761 1.8367239e-40
0.031995513 -0.12933435 0.047191761 1.8367239e-40
0.033599433 -0.12849234 0.050221644 1.8367239e-40
0.035338815 -0.12849234 0.050221644 9.1835496e-41
0.036927711 -0.12765543 0.053233169 9.1835496e-41
0.038661815 -0.12765543 0.053233169 1.8367239e-40
0.040395919 -0.12765543 0.053233169 2.7622395e-40
0.042130023 -0.12765543 0.053233169 2.7586802e-40
0.043748472 -0.12709136 0.055262826 2.7623516e-40
0.045479015 -0.12709136 0.055262826 2.7623516e-40
0.047029238 -0.12626295 0.058243833 3.6842939e-40
0.048754558 -0.12626295 0.058243833 2.7658969e-40
0.050290253 -0.12543948 0.0612069 2.7586802e-40
0.052010376 -0.12543948 0.0612069 1.8402972e-40
0.053730499 -0.12543948 0.0612069 2.7550649e-40
0.055450622 -0.12543948 0.0612069 2.7550649e-40
0.057170745 -0.12543948 0.0612069 1.8438846e-40
0.05866966 -0.12459467 0.064246915 1.4751161e-39
0.060384456 -0.12459467 0.064246915 1.1066965e-39
0.062557109 -0.12626295 0.058243833 1.4761979e-39
0.064282425 -0.12626295 0.058243833 1.3840022e-39
0.066407479 -0.12765543 0.053233169 1.4349296e-42
0.06814158 -0.12765543 0.053233169 2.5111268e-42
0.070126496 -0.12849234 0.050221644 4.6277041e-40
0.07212352 -0.12933435 0.047191761 7.382811e-40
0.073868223 -0.12933435 0.047191761 5.5389265e-40
0.076145627 -0.13100632 0.041175388 3.6914546e-40
0.078705393 -0.13348235 0.032265685 1.0818024e-42
0.080756001 -0.13432692 0.029226564 3.643376e-43
0.082532205 -0.13432692 0.029226564 3.643376e-43
0.08460056 -0.13517661 0.026169084 3.657389e-43
0.086382113 -0.13517661 0.026169084 7.2447131e-43
0.088458188 -0.13600285 0.023196004 3.657389e-43
0.090546466 -0.13683395 0.020205401 3.657389e-43
0.0929574 -0.13851084 0.014171265 5.6051939e-45
0.095066555 -0.13932751 0.011232637 5.6051939e-45
0.097199045 -0.14017828 0.0081712231 1.836752e-40
0.099759199 -0.1421036 0.001243256 3.6734339e-40
0.10191465 -0.14294095 -0.001769878 4.5917888e-40
0.10408261 -0.14378314 -0.0048004165 3.6734619e-40
0.10625084 -0.14459993 -0.0077395216 9.1845305e-41
0.10855749 -0.1457267 -0.011794068 9.8090893e-45
0.11075289 -0.14655443 -0.014772512 9.1842503e-41
0.11260622 -0.14655443 -0.014772512 0
0.11445957 -0.14655443 -0.014772512 0
0.1163129 -0.14655443 -0.014772512 3.5959827e-39
0.11816625 -0.14655443 -0.014772512 4.0573238e-39
-0.074757077 -0.14924543 -0.017767884 3.6913565e-40
-0.072898485 -0.14924543 -0.017767884 4.6061521e-40
-0.07087446 -0.14840777 -0.014772512 4.5953902e-40
-0.068861835 -0.14757483 -0.011794068 6.4321141e-40
-0.067013718 -0.14757483 -0.011794068 6.4321141e-40
-0.065165602 -0.14757483 -0.011794068 6.4321421e-40
-0.063121989 -0.14644094 -0.0077395216 6.4357435e-40
-0.061280981 -0.14644094 -0.0077395216 6.4357435e-40
-0.059308566 -0.14561899 -0.0048004165 4.6026209e-40
-0.057472706 -0.14561899 -0.0048004165 5.5245772e-40
-0.055636853 -0.14561899 -0.0048004165 2.7658969e-40
-0.053800996 -0.14561899 -0.0048004165 2.7658969e-40
-0.0518509 -0.1447715 -0.001769878 1.8439406e-40
-0.049912054 -0.14392884 0.001243256 3.629363e-43
-0.048086796 -0.14392884 0.001243256 3.629363e-43
-0.046164364 -0.14309107 0.0042389855 2.8025969e-45
-0.044344358 -0.14309107 0.0042389855 2.8025969e-45
-0.042524353 -0.14309107 0.0042389855 3.5873241e-43
-0.040704343 -0.14309107 0.0042389855 3.5873241e-43
-0.038960502 -0.14392884 0.001243256 7.1886611e-43
-0.03713524 -0.14392884 0.001243256 2.7730576e-40
-0.035244323 -0.14309107 0.0042389855 5.5389265e-40
-0.033424318 -0.14309107 0.0042389855 5.5389265e-40
-0.031604312 -0.14309107 0.0042389855 2.7730295e-40
-0.029718805 -0.14199139 0.0081712231 9.219563e-41
-0.027860068 -0.14113526 0.011232637 0
-0.026052326 -0.14113526 0.011232637 7.3756504e-40
-0.02421109 -0.14031343 0.014171265 5.5317378e-40
-0.022408497 -0.14031343 0.014171265 5.5245491e-40
-0.020605903 -0.14031343 0.014171265 4.6025928e-40
-0.018784743 -0.13946722 0.017197154 9.1838299e-41
-0.016987458 -0.13946722 0.017197154 9.1838299e-41
-0.015190168 -0.13946722 0.017197154 4.5918309e-40
-0.013390246 -0.13862596 0.020205401 8.290418e-40
-0.011600855 -0.13778962 0.023196004 3.5873241e-43
-0.0098140864 -0.13778962 0.023196004 1.4349296e-42
-0.008040349 -0.13695817 0.026169084 1.4349296e-42
-0.0062587932 -0.13695817 0.026169084 7.1746481e-43
-0.0044772374 -0.13695817 0.026169084 1.4349296e-42
-0.0026956815 -0.13695817 0.026169084 2.7837915e-40
-0.0009141257 -0.13695817 0.026169084 2.7730015e-40
0.00086743105 -0.13695817 0.026169084 3.5873241e-43
0.0026034201 -0.13610314 0.029226564 7.1746481e-43
0.0043796161 -0.13610314 0.029226564 9.2911693e-41
0.0060998602 -0.13525321 0.032265685 2.7658409e-40
0.0078118397 -0.13443647 0.035186194 1.8439126e-40
0.0095117586 -0.13359652 0.038189672 9.219563e-41
0.011272239 -0.13359652 0.038189672 2.8025969e-45
0.012956812 -0.13276155 0.041175388 2.8025969e-45
0.014712057 -0.13276155 0.041175388 9.2198432e-41
0.016467303 -0.13276155 0.041175388 1.83678e-40
0.018222548 -0.13276155 0.041175388 3.6806926e-40
0.019977789 -0.13276155 0.041175388 5.5246052e-40
0.021733034 -0.13276155 0.041175388 4.6026489e-40
0.023488279 -0.13276155 0.041175388 1.836752e-40
0.025127925 -0.13190396 0.044241987 9.1838299e-41
0.026877794 -0.13190396 0.044241987 9.1838299e-41
0.02862766 -0.13190396 0.044241987 2.7587083e-40
0.030250818 -0.13107903 0.047191761 2.7586802e-40
0.031995513 -0.13107903 0.047191761 2.7586802e-40
0.033599433 -0.13023172 0.050221644 1.8367239e-40
0.035338815 -0.13023172 0.050221644 1.8367239e-40
0.037078198 -0.13023172 0.050221644 1.8367239e-40
0.038661815 -0.12938951 0.053233169 2.7586802e-40
0.040395919 -0.12938951 0.053233169 3.6841958e-40
0.042130023 -0.12938951 0.053233169 3.6806365e-40
0.043864127 -0.12938951 0.053233169 6.4501628e-40
0.045479015 -0.12882192 0.055262826 4.6062642e-40
0.047029238 -0.12798826 0.058243833 3.6842939e-40
0.048570126 -0.12715961 0.0612069 2.7658969e-40
0.050290253 -0.12715961 0.0612069 4.6025928e-40
0.052010376 -0.12715961 0.0612069 3.6841958e-40
0.053730499 -0.12715961 0.0612069 2.7622395e-40
0.055450622 -0.12715961 0.0612069 9.1835496e-41
0.057170745 -0.12715961 0.0612069 3.6841818e-40
0.05866966 -0.12630944 0.064246915 1.8435455e-39
0.060384456 -0.12630944 0.064246915 1.5676746e-39
0.062557109 -0.12798826 0.058243833 2.0286528e-39
0.064282425 -0.12798826 0.058243833 1.5683935e-39
0.066407479 -0.12938951 0.053233169 1.4349296e-42
0.068387114 -0.13023172 0.050221644 7.1746481e-43
0.070126496 -0.13023172 0.050221644 1.0761972e-42
0.07212352 -0.13107903 0.047191761 2.7730295e-40
0.073868223 -0.13107903 0.047191761 2.7730576e-40
0.076145627 -0.13276155 0.041175388 1.847542e-40
0.078441672 -0.13443647 0.035186194 7.2166871e-43
0.080476262 -0.13525321 0.032265685 3.61535e-43
0.082532205 -0.13610314 0.029226564 3.61535e-43
0.084308393 -0.13610314 0.029226564 1.084605e-42
0.086382113 -0.13695817 0.026169084 1.8048724e-42
0.088458188 -0.13778962 0.023196004 3.643376e-43
0.090244971 -0.13778962 0.023196004 3.643376e-43
0.0929574 -0.14031343 0.014171265 2.8025969e-45
0.095066555 -0.14113526 0.011232637 2.8025969e-45
0.097616173 -0.14309107 0.0042389855 1.836752e-40
0.099759199 -0.14392884 0.001243256 3.6734619e-40
0.10191465 -0.1447715 -0.001769878 3.6734339e-40
0.10408261 -0.14561899 -0.0048004165 2.7587083e-40
0.10670937 -0.14757483 -0.011794068 5.5210319e-40
0.10855749 -0.14757483 -0.011794068 1.8403953e-40
0.11075289 -0.14840777 -0.014772512 9.2198432e-41
0.11260622 -0.14840777 -0.014772512 1.8439126e-40
0.11445957 -0.14840777 -0.014772512 3.6877972e-40
0.1163129 -0.14840777 -0.014772512 4.2409962e-39
0.11816625 -0.14840777 -0.014772512 4.5183019e-39
-0.070709959 -0.14942293 -0.011794068 4.5953902e-40
-0.068861835 -0.14942293 -0.011794068 4.5918168e-40
-0.066804007 -0.14828195 -0.0077395216 3.6734619e-40
-0.064962998 -0.14828195 -0.0077395216 3.6734899e-40
-0.063121989 -0.14828195 -0.0077395216 3.6735039e-40
-0.061280981 -0.14828195 -0.0077395216 3.6735039e-40
-0.059308566 -0.14745484 -0.0048004165 1.836822e-40
-0.057472706 -0.14745484 -0.0048004165 2.755191e-40
-0.055636853 -0.14745484 -0.0048004165 9.8090893e-45
-0.053681441 -0.14660202 -0.001769878 9.8090893e-45
-0.051737312 -0.14575411 0.001243256 3.671402e-43
-0.049912054 -0.14575411 0.001243256 9.256277e-41
-0.048086796 -0.14575411 0.001243256 9.2561369e-41
-0.046164364 -0.14491107 0.0042389855 1.084605e-42
-0.044344358 -0.14491107 0.0042389855 1.084605e-42
-0.042524353 -0.14491107 0.0042389855 1.847542e-40
-0.040704343 -0.14491107 0.0042389855 2.7694983e-40
-0.038960502 -0.14575411 0.001243256 1.847542e-40
-0.03713524 -0.14575411 0.001243256 1.8439126e-40
-0.035244323 -0.14491107 0.0042389855 9.219563e-41
-0.033424318 -0.14491107 0.0042389855 0
-0.031531919 -0.14380451 0.0081712231 3.5873241e-43
-0.029667813 -0.14294298 0.011232637 0
-0.027860068 -0.14294298 0.011232637 3.5873241e-43
-0.02601368 -0.14211603 0.014171265 0
-0.02421109 -0.14211603 0.014171265 5.5317098e-40
-0.022408497 -0.14211603 0.014171265 9.219563e-40
-0.020605903 -0.14211603 0.014171265 6.4537221e-40
-0.018784743 -0.14126451 0.017197154 9.1842503e-41
-0.016987458 -0.14126451 0.017197154 5.6051939e-45
-0.015190168 -0.14126451 0.017197154 4.5990756e-40
-0.013390246 -0.14041798 0.020205401 9.2160317e-40
-0.011600855 -0.13957639 0.023196004 9.2914496e-41
-0.0098140864 -0.13957639 0.023196004 1.7950633e-42
-0.008040349 -0.13873972 0.026169084 1.4349296e-42
-0.0062587932 -0.13873972 0.026169084 1.4349296e-42
-0.0044772374 -0.13873972 0.026169084 1.8618352e-40
-0.0026956815 -0.13873972 0.026169084 5.5496464e-40
-0.0009141257 -0.13873972 0.026169084 1.8618212e-40
0.00086743105 -0.13873972 0.026169084 7.1746481e-43
0.0026034201 -0.13787933 0.029226564 7.1746481e-43
0.0043796161 -0.13787933 0.029226564 1.0761972e-42
0.0060998602 -0.13702409 0.032265685 1.8510592e-40
0.0078118397 -0.13620223 0.035186194 1.8510732e-40
0.0095117586 -0.13535701 0.038189672 9.219563e-41
0.011272239 -0.13535701 0.038189672 0
0.012956812 -0.13451682 0.041175388 9.2198432e-41
0.014712057 -0.13451682 0.041175388 1.8439406e-40
0.016467303 -0.13451682 0.041175388 5.5246052e-40
0.018222548 -0.13451682 0.041175388 2.755163e-40
0.019977789 -0.13451682 0.041175388 2.7587363e-40
0.021733034 -0.13451682 0.041175388 6.4465615e-40
0.023488279 -0.13451682 0.041175388 7.3685178e-40
0.025127925 -0.13365383 0.044241987 3.6806926e-40
0.026877794 -0.13365383 0.044241987 9.1838299e-41
0.02862766 -0.13365383 0.044241987 9.1838299e-41
0.030250818 -0.13282375 0.047191761 4.6025928e-40
0.031995513 -0.13282375 0.047191761 5.5245491e-40
0.033599433 -0.13197111 0.050221644 5.5245491e-40
0.035338815 -0.13197111 0.050221644 4.6025928e-40
0.037078198 -0.13197111 0.050221644 3.6841958e-40
0.038661815 -0.13112362 0.053233169 2.7622395e-40
0.040395919 -0.13112362 0.053233169 3.6841958e-40
0.042130023 -0.13112362 0.053233169 3.6841958e-40
0.043864127 -0.13112362 0.053233169 4.6098095e-40
0.045479015 -0.13055246 0.055262826 9.2198432e-41
0.046850003 -0.12887974 0.0612069 2.8025969e-45
0.048570126 -0.12887974 0.0612069 2.8025969e-45
0.050290253 -0.12887974 0.0612069 9.2198432e-41
0.052010376 -0.12887974 0.0612069 2.7658969e-40
0.053730499 -0.12887974 0.0612069 1.8439406e-40
0.055240076 -0.12802424 0.064246915 2.8025969e-45
0.056954872 -0.12802424 0.064246915 9.2198432e-41
0.05866966 -0.12802424 0.064246915 4.6097815e-40
0.060384456 -0.12802424 0.064246915 3.6877972e-40
0.062331114 -0.12887974 0.0612069 2.5818308e-39
0.064282425 -0.12971358 0.058243833 1.1988949e-39
0.066407479 -0.13112362 0.053233169 4.6204874e-40
0.068387114 -0.13197111 0.050221644 3.6985311e-40
0.070126496 -0.13197111 0.050221644 9.3270426e-41
0.07212352 -0.13282375 0.047191761 3.5873241e-43
0.073868223 -0.13282375 0.047191761 9.2914496e-41
0.076145627 -0.13451682 0.041175388 9.2914496e-41
0.078441672 -0.13620223 0.035186194 9.2914496e-41
0.08020743 -0.13620223 0.035186194 7.1886611e-43
0.082247116 -0.13702409 0.032265685 3.5873241e-43
0.084017985 -0.13702409 0.032265685 9.219563e-41
0.086084597 -0.13787933 0.029226564 1.8439126e-40
0.088163666 -0.13873972 0.026169084 9.219563e-41
0.090244971 -0.13957639 0.023196004 9.219563e-41
0.0929574 -0.14211603 0.014171265 9.219563e-41
0.094759993 -0.14211603 0.014171265 9.219563e-41
0.096874304 -0.14294298 0.011232637 9.219563e-41
0.099759199 -0.14575411 0.001243256 9.219563e-41
0.10191465 -0.14660202 -0.001769878 9.219563e-41
0.10408261 -0.14745484 -0.0048004165 9.2198432e-41
0.10670937 -0.14942293 -0.011794068 5.6051939e-45
-0.061144419 -0.14929073 -0.0048004165 2.755163e-40
-0.059308566 -0.14929073 -0.0048004165 9.1845305e-41
-0.057472706 -0.14929073 -0.0048004165 9.1845305e-41
-0.055636853 -0.14929073 -0.0048004165 9.8090893e-45
-0.053681441 -0.14843257 -0.001769878 7.0064923e-45
-0.051737312 -0.14757936 0.001243256 9.256277e-41
-0.049912054 -0.14757936 0.001243256 9.2561369e-41
-0.048086796 -0.14757936 0.001243256 9.2561369e-41
-0.046164364 -0.14673109 0.0042389855 7.2166871e-43
-0.044344358 -0.14673109 0.0042389855 1.0818024e-42
-0.042524353 -0.14673109 0.0042389855 1.847542e-40
-0.040704343 -0.14673109 0.0042389855 4.6098095e-40
-0.038960502 -0.14757936 0.001243256 3.6878532e-40
-0.03713524 -0.14757936 0.001243256 1.8439126e-40
-0.035244323 -0.14673109 0.0042389855 0
-0.033424318 -0.14673109 0.0042389855 0
-0.031531919 -0.14561762 0.0081712231 3.5873241e-43
-0.029667813 -0.14475073 0.011232637 9.2552961e-41
-0.027860068 -0.14475073 0.011232637 1.8474719e-40
-0.02601368 -0.14391862 0.014171265 3.5873241e-43
-0.02421109 -0.14391862 0.014171265 9.2552961e-41
-0.022408497 -0.14391862 0.014171265 2.7658689e-40
-0.020605903 -0.14391862 0.014171265 1.8439406e-40
-0.018784743 -0.1430618 0.017197154 5.6051939e-45
-0.016987458 -0.1430618 0.017197154 7.0064923e-45
-0.015190168 -0.1430618 0.017197154 1.8403953e-40
-0.013390246 -0.14220999 0.020205401 4.6062642e-40
-0.011600855 -0.14136316 0.023196004 1.847542e-40
-0.0098140864 -0.14136316 0.023196004 1.8583039e-40
-0.0080273179 -0.14136316 0.023196004 1.8618632e-40
-0.0062587932 -0.14052127 0.026169084 1.793662e-42
-0.0044772374 -0.14052127 0.026169084 1.8618352e-40
-0.0026956815 -0.14052127 0.026169084 4.6276901e-40
-0.0009141257 -0.14052127 0.026169084 2.7837775e-40
0.00086743105 -0.14052127 0.026169084 7.1746481e-43
0.0026034201 -0.13965552 0.029226564 1.8546465e-40
0.0043796161 -0.13965552 0.029226564 3.6985311e-40
0.0060998602 -0.13879494 0.032265685 4.6169141e-40
0.0078118397 -0.13796796 0.035186194 3.6949858e-40
0.0095117586 -0.13711749 0.038189672 1.8439126e-40
0.011201567 -0.13627206 0.041175388 2.8025969e-45
0.012956812 -0.13627206 0.041175388 9.1842503e-41
0.014712057 -0.13627206 0.041175388 1.8403813e-40
0.016467303 -0.13627206 0.041175388 6.4429882e-40
0.018222548 -0.13627206 0.041175388 2.755163e-40
0.020074639 -0.13711749 0.038189672 9.1841101e-41
0.021733034 -0.13627206 0.041175388 3.6806926e-40
0.023488279 -0.13627206 0.041175388 4.6026489e-40
0.025243524 -0.13627206 0.041175388 2.7587363e-40
0.026877794 -0.13540371 0.044241987 9.1838299e-41
0.02862766 -0.13540371 0.044241987 9.1838299e-41
0.030250818 -0.13456844 0.047191761 1.8367239e-40
0.031860046 -0.13371049 0.050221644 2.7586802e-40
0.033599433 -0.13371049 0.050221644 4.6025928e-40
0.035193611 -0.13285773 0.053233169 4.6025928e-40
0.036927711 -0.13285773 0.053233169 3.6841958e-40
0.038661815 -0.13285773 0.053233169 2.7622395e-40
0.040395919 -0.13285773 0.053233169 2.7622395e-40
0.042130023 -0.13285773 0.053233169 3.6841958e-40
0.043748472 -0.13228302 0.055262826 0
0.045303922 -0.1314389 0.058243833 0
0.046850003 -0.13059987 0.0612069 2.8025969e-45
0.048570126 -0.13059987 0.0612069 2.8025969e-45
0.050290253 -0.13059987 0.0612069 9.1842503e-41
0.052010376 -0.13059987 0.0612069 1.8403813e-40
0.053525288 -0.12973903 0.064246915 1.8403953e-40
0.055240076 -0.12973903 0.064246915 1.8403953e-40
0.056954872 -0.12973903 0.064246915 1.8403813e-40
0.05866966 -0.12973903 0.064246915 9.2198432e-41
0.060384456 -0.12973903 0.064246915 2.8025969e-45
0.062331114 -0.13059987 0.0612069 2.4892792e-39
0.064282425 -0.1314389 0.058243833 1.4754832e-39
0.066245556 -0.13228302 0.055262826 7.3791676e-40
0.06814158 -0.13285773 0.053233169 2.7694142e-40
0.070126496 -0.13371049 0.050221644 3.5873241e-43
0.07212352 -0.13456844 0.047191761 3.5873241e-43
0.074390389 -0.13627206 0.041175388 7.1886611e-43
0.076145627 -0.13627206 0.041175388 1.8439126e-40
0.078170471 -0.13711749 0.038189672 1.8439126e-40
0.08020743 -0.13796796 0.035186194 9.2194229e-41
0.082247116 -0.13879494 0.032265685 0
0.084017985 -0.13879494 0.032265685 1.8402972e-40
0.086084597 -0.13965552 0.029226564 2.7622395e-40
0.088163666 -0.14052127 0.026169084 1.8402972e-40
0.090244971 -0.14136316 0.023196004 1.8402972e-40
0.0929574 -0.14391862 0.014171265 9.2194229e-41
0.094759993 -0.14391862 0.014171265 9.2194229e-41
0.096874304 -0.14475073 0.011232637 9.219563e-41
0.099759199 -0.14757936 0.001243256 9.219563e-41
0.10191465 -0.14843257 -0.001769878 7.1886611e-43
0.10408261 -0.14929073 -0.0048004165 3.629363e-43
-0.049912054 -0.14940463 0.001243256 9.2914496e-41
-0.048086796 -0.14940463 0.001243256 9.2911693e-41
-0.046164364 -0.14855109 0.0042389855 7.1746481e-43
-0.044344358 -0.14855109 0.0042389855 9.2911693e-41
-0.042524353 -0.14855109 0.0042389855 1.8510592e-40
-0.040704343 -0.14855109 0.0042389855 5.5317378e-40
-0.038960502 -0.14940463 0.001243256 4.6026209e-40
-0.03713524 -0.14940463 0.001243256 1.8367239e-40
-0.035244323 -0.14855109 0.0042389855 9.1835496e-41
-0.033424318 -0.14855109 0.0042389855 9.1835496e-41
-0.031531919 -0.14743073 0.0081712231 1.8402972e-40
-0.029667813 -0.14655848 0.011232637 3.6841818e-40
-0.027860068 -0.14655848 0.011232637 5.5280804e-40
-0.02601368 -0.14572121 0.014171265 1.8402972e-40
-0.02421109 -0.14572121 0.014171265 1.8402972e-40
-0.022408497 -0.14572121 0.014171265 1.8367239e-40
-0.020605903 -0.14572121 0.014171265 1.8367239e-40
-0.018784743 -0.14485909 0.017197154 2.7587083e-40
-0.016987458 -0.14485909 0.017197154 2.7587363e-40
-0.015190168 -0.14485909 0.017197154 3.6771193e-40
-0.013390246 -0.14400201 0.020205401 3.6843079e-40
-0.011598232 -0.14400201 0.020205401 2.7694983e-40
-0.0098140864 -0.14314993 0.023196004 3.7022165e-40
-0.0080273179 -0.14314993 0.023196004 3.7022165e-40
-0.0062587932 -0.14230286 0.026169084 9.3990693e-41
-0.0044772374 -0.14230286 0.026169084 1.8510732e-40
-0.0026956815 -0.14230286 0.026169084 2.7730015e-40
-0.0009141257 -0.14230286 0.026169084 2.7730015e-40
0.00082722493 -0.1414317 0.029226564 1.8510592e-40
0.0026034201 -0.1414317 0.029226564 2.7694142e-40
0.0043289931 -0.14056583 0.032265685 3.6877972e-40
0.0060998602 -0.14056583 0.032265685 4.6097815e-40
0.0078118397 -0.13973372 0.035186194 3.6878532e-40
0.0095117586 -0.13887797 0.038189672 1.8403813e-40
0.011201567 -0.1380273 0.041175388 9.1842503e-41
0.012956812 -0.1380273 0.041175388 2.755163e-40
0.014712057 -0.1380273 0.041175388 3.6771193e-40
0.016467303 -0.1380273 0.041175388 7.3649445e-40
0.018222548 -0.1380273 0.041175388 2.755163e-40
0.019977789 -0.1380273 0.041175388 9.1841101e-41
0.021733034 -0.1380273 0.041175388 9.1841101e-41
0.023488279 -0.1380273 0.041175388 2.7587363e-40
0.025243524 -0.1380273 0.041175388 1.83678e-40
0.026877794 -0.13715358 0.044241987 2.7587083e-40
0.02862766 -0.13715358 0.044241987 5.5245772e-40
0.030250818 -0.13631313 0.047191761 9.1838299e-41
0.031860046 -0.13544987 0.050221644 1.836752e-40
0.033599433 -0.13544987 0.050221644 3.6806365e-40
0.035193611 -0.13459183 0.053233169 4.6025928e-40
0.036927711 -0.13459183 0.053233169 3.6841958e-40
0.038661815 -0.13459183 0.053233169 2.7622395e-40
0.040395919 -0.13459183 0.053233169 1.8402972e-40
0.042130023 -0.13459183 0.053233169 1.8402972e-40
0.043748472 -0.13401355 0.055262826 0
0.045303922 -0.13316421 0.058243833 0
0.047029238 -0.13316421 0.058243833 9.2198432e-41
0.048570126 -0.13231997 0.0612069 1.8439406e-40
0.050290253 -0.13231997 0.0612069 1.8403813e-40
0.052010376 -0.13231997 0.0612069 1.8403813e-40
0.053525288 -0.13145383 0.064246915 1.8403813e-40
0.055240076 -0.13145383 0.064246915 2.7623376e-40
0.056954872 -0.13145383 0.064246915 2.7623376e-40
0.05866966 -0.13145383 0.064246915 2.8025969e-45
0.060384456 -0.13145383 0.064246915 2.8025969e-45
0.062331114 -0.13231997 0.0612069 2.6736705e-39
0.064051241 -0.13231997 0.0612069 1.7520701e-39
0.066007741 -0.13316421 0.058243833 7.3791676e-40
0.06814158 -0.13459183 0.053233169 9.2552961e-41
0.069875687 -0.13459183 0.053233169 3.5873241e-43
0.07212352 -0.13631313 0.047191761 0
0.074390389 -0.1380273 0.041175388 9.219563e-41
0.076145627 -0.1380273 0.041175388 1.8439126e-40
0.078170471 -0.13887797 0.038189672 1.8439126e-40
0.08020743 -0.13973372 0.035186194 0
0.082247116 -0.14056583 0.032265685 0
0.084017985 -0.14056583 0.032265685 9.219563e-41
0.086084597 -0.1414317 0.029226564 1.8439126e-40
0.088163666 -0.14230286 0.026169084 9.219563e-41
0.090244971 -0.14314993 0.023196004 9.219563e-41
0.092647038 -0.14485909 0.017197154 9.219563e-41
0.095066555 -0.14655848 0.011232637 9.219563e-41
0.097616173 -0.14855109 0.0042389855 9.219563e-41
-0.031531919 -0.14924385 0.0081712231 2.7622395e-40
-0.029718805 -0.14924385 0.0081712231 4.6061521e-40
-0.027860068 -0.14836623 0.011232637 5.5280804e-40
-0.02601368 -0.14752381 0.014171265 3.6841818e-40
-0.02421109 -0.14752381 0.014171265 4.6061521e-40
-0.022408497 -0.14752381 0.014171265 4.6061521e-40
-0.020605903 -0.14752381 0.014171265 3.6806365e-40
-0.018784743 -0.14665638 0.017197154 1.836752e-40
-0.016987458 -0.14665638 0.017197154 1.836752e-40
-0.015190168 -0.14665638 0.017197154 2.7587363e-40
-0.013390246 -0.14579402 0.020205401 3.6842939e-40
-0.011598232 -0.14579402 0.020205401 1.847542e-40
-0.0098062204 -0.14579402 0.020205401 2.7802883e-40
-0.0080273179 -0.1449367 0.023196004 4.6241728e-40
-0.0062587932 -0.14408441 0.026169084 1.8583039e-40
-0.0044772374 -0.14408441 0.026169084 7.1746481e-43
-0.0027251653 -0.14320792 0.029226564 3.5873241e-43
-0.00094897021 -0.14320792 0.029226564 9.2911693e-41
0.00082722493 -0.14320792 0.029226564 3.6949858e-40
0.0026034201 -0.14320792 0.029226564 0
0.0043289931 -0.14233668 0.032265685 0
0.0060460931 -0.14149947 0.035186194 2.8025969e-45
0.0078118397 -0.14149947 0.035186194 5.6051939e-45
0.0095117586 -0.14063846 0.038189672 9.1843904e-41
0.011201567 -0.13978253 0.041175388 2.755191e-40
0.012956812 -0.13978253 0.041175388 3.6771473e-40
0.014712057 -0.13978253 0.041175388 5.5210599e-40
0.016467303 -0.13978253 0.041175388 7.3649445e-40
0.018222548 -0.13978253 0.041175388 3.6771193e-40
0.019977789 -0.13978253 0.041175388 1.83678e-40
0.021733034 -0.13978253 0.041175388 2.7587363e-40
0.023488279 -0.13978253 0.041175388 3.6806926e-40
0.025243524 -0.13978253 0.041175388 2.7587363e-40
0.026877794 -0.13890342 0.044241987 4.6026209e-40
0.02862766 -0.13890342 0.044241987 8.2904461e-40
0.030250818 -0.13805781 0.047191761 9.1838299e-41
0.031860046 -0.13718925 0.050221644 2.7587083e-40
0.033599433 -0.13718925 0.050221644 5.5245491e-40
0.035193611 -0.13632594 0.053233169 5.5245491e-40
0.036927711 -0.13632594 0.053233169 4.6061521e-40
0.038661815 -0.13632594 0.053233169 2.7622395e-40
0.040395919 -0.13632594 0.053233169 9.1835496e-41
0.042130023 -0.13632594 0.053233169 9.1835496e-41
0.043748472 -0.13574408 0.055262826 0
0.045303922 -0.13488953 0.058243833 9.219563e-41
0.047029238 -0.13488953 0.058243833 4.6098095e-40
0.048754558 -0.13488953 0.058243833 5.5317658e-40
0.050290253 -0.1340401 0.0612069 3.6842939e-40
0.052010376 -0.1340401 0.0612069 1.8403813e-40
0.053525288 -0.13316862 0.064246915 1.8403813e-40
0.055240076 -0.13316862 0.064246915 2.7623376e-40
0.056954872 -0.13316862 0.064246915 4.6062502e-40
0.05866966 -0.13316862 0.064246915 2.8025969e-45
0.060384456 -0.13316862 0.064246915 0
0.062331114 -0.1340401 0.0612069 3.0424558e-39
0.064051241 -0.1340401 0.0612069 1.8439098e-39
0.066007741 -0.13488953 0.058243833 4.6133128e-40
0.06814158 -0.13632594 0.053233169 3.5873241e-43
0.069875687 -0.13632594 0.053233169 3.5873241e-43
0.07212352 -0.13805781 0.047191761 0
0.074390389 -0.13978253 0.041175388 9.219563e-41
0.076145627 -0.13978253 0.041175388 1.8439126e-40
0.078170471 -0.14063846 0.038189672 9.219563e-41
0.08020743 -0.14149947 0.035186194 0
0.082247116 -0.14233668 0.032265685 0
0.084017985 -0.14233668 0.032265685 0
0.086084597 -0.14320792 0.029226564 1.8439126e-40
0.088163666 -0.14408441 0.026169084 9.219563e-41
0.090244971 -0.1449367 0.023196004 9.219563e-41
0.092647038 -0.14665638 0.017197154 9.219563e-41
0.095066555 -0.14836623 0.011232637 9.219563e-41
-0.02601368 -0.1493264 0.014171265 2.7622395e-40
-0.02421109 -0.1493264 0.014171265 6.4500647e-40
-0.022408497 -0.1493264 0.014171265 9.2159336e-40
-0.020605903 -0.1493264 0.014171265 5.5281084e-40
-0.018784743 -0.14845367 0.017197154 9.1835496e-41
-0.016987458 -0.14845367 0.017197154 9.1838299e-41
-0.015182258 -0.14758603 0.020205401 9.1838299e-41
-0.013390246 -0.14758603 0.020205401 3.6878532e-40
-0.011600855 -0.14672346 0.023196004 3.6914546e-40
-0.0098140864 -0.14672346 0.023196004 5.5389265e-40
