# .PCD v0.7 - Point Cloud Data file format
VERSION 0.7
FIELDS x y z rgb
SIZE 4 4 4 4
TYPE F F F F
COUNT 1 1 1 1
WIDTH 936
HEIGHT 1
VIEWPOINT 0 0 0 1 0 0 0
POINTS 936
DATA ascii
0.032235727 -0.10335754 0.022876125 2.3509886e-38
0.034185592 -0.10335754 0.022876125 2.3509886e-38
0.036135457 -0.10335754 0.022876125 2.3509886e-38
0.038018256 -0.1024504 0.026902419 2.3141103e-38
0.039905265 -0.10176755 0.029933196 2.3509886e-38
0.041842755 -0.10176755 0.029933196 2.3509886e-38
0.043780245 -0.10176755 0.029933196 2.3141103e-38
0.045623638 -0.10087189 0.033908587 2.341769e-38
0.047554158 -0.10087189 0.033908587 2.341769e-38
0.049484678 -0.10087189 0.033908587 2.3509883e-38
0.051415201 -0.10087189 0.033908587 2.2220217e-38
0.053345721 -0.10087189 0.033908587 3.6985311e-40
0.055276241 -0.10087189 0.033908587 1.0761972e-42
0.057206761 -0.10087189 0.033908587 1.2910905e-39
0.059280172 -0.10176755 0.029933196 1.4754818e-39
0.061217662 -0.10176755 0.029933196 3.6881783e-39
-0.064018503 -0.12005 -0.042053003 2.350988e-38
-0.061954793 -0.12005 -0.042053003 2.3509883e-38
-0.060160514 -0.12095623 -0.046044249 2.3509883e-38
-0.05782738 -0.12005 -0.042053003 2.3509886e-38
-0.055763673 -0.12005 -0.042053003 2.3509886e-38
-0.053453218 -0.11914985 -0.038088579 2.3509886e-38
-0.051158261 -0.11825575 -0.034150857 2.3509886e-38
-0.049108412 -0.11825575 -0.034150857 2.341805e-38
-0.046828013 -0.11733709 -0.030104894 2.341805e-38
-0.044563334 -0.11642478 -0.026086945 2.3509886e-38
-0.042527627 -0.11642478 -0.026086945 2.3509886e-38
-0.04049192 -0.11642478 -0.026086945 2.3509886e-38
-0.038456198 -0.11642478 -0.026086945 2.3509886e-38
-0.036420491 -0.11642478 -0.026086945 2.3509886e-38
-0.034199376 -0.11551876 -0.022096653 2.3509886e-38
-0.032170657 -0.11551876 -0.022096653 2.3509886e-38
-0.0299717 -0.11461894 -0.018133659 2.3509886e-38
-0.02794994 -0.11461894 -0.018133659 2.3509886e-38
-0.025928166 -0.11461894 -0.018133659 2.3509886e-38
-0.023753103 -0.11369558 -0.014066953 2.3509886e-38
-0.021738462 -0.11369558 -0.014066953 2.3509886e-38
-0.019723825 -0.11369558 -0.014066953 2.3509886e-38
-0.017709188 -0.11369558 -0.014066953 2.3509886e-38
-0.01557463 -0.11280818 -0.010158677 2.3509886e-38
-0.013566844 -0.11280818 -0.010158677 2.3509886e-38
-0.011559058 -0.11280818 -0.010158677 2.3509886e-38
-0.0095512755 -0.11280818 -0.010158677 2.3509886e-38
-0.0074485578 -0.11189754 -0.0061479993 2.3509886e-38
-0.0053801723 -0.11119686 -0.0030621476 2.3509886e-38
-0.0033848286 -0.11119686 -0.0030621476 2.3509886e-38
-0.0013894849 -0.11119686 -0.0030621476 2.3509886e-38
0.00060585514 -0.11119686 -0.0030621476 2.3509886e-38
0.0026602335 -0.11029746 0.00089905784 2.3509886e-38
0.0046486296 -0.11029746 0.00089905784 2.3509886e-38
0.0066833012 -0.10937552 0.0049593262 2.3509886e-38
0.0086645819 -0.10937552 0.0049593262 2.3509886e-38
0.010676675 -0.10848872 0.0088649802 2.3509886e-38
0.012669547 -0.10780637 0.011870246 2.3509886e-38
0.014638709 -0.10780637 0.011870246 2.3509886e-38
0.016607869 -0.10780637 0.011870246 2.3509886e-38
0.01857703 -0.10780637 0.011870246 2.3509886e-38
0.0205427 -0.1069022 0.015852433 2.3509886e-38
0.022504879 -0.1069022 0.015852433 2.3509886e-38
0.024467058 -0.1069022 0.015852433 2.3509886e-38
0.026429238 -0.1069022 0.015852433 2.3509886e-38
0.028359249 -0.10597645 0.01992951 2.3509886e-38
0.030285865 -0.10530742 0.022876125 2.3509886e-38
0.032235727 -0.10530742 0.022876125 2.3509886e-38
0.034185592 -0.10530742 0.022876125 2.3509886e-38
0.036135457 -0.10530742 0.022876125 2.3509886e-38
0.038018256 -0.1043932 0.026902419 2.3233299e-38
0.039961062 -0.1043932 0.026902419 2.3509886e-38
0.041842755 -0.10370506 0.029933196 2.3509886e-38
0.043780245 -0.10370506 0.029933196 2.3509886e-38
0.045717739 -0.10370506 0.029933196 2.3509886e-38
0.047554158 -0.10280241 0.033908587 2.3233299e-38
0.049484678 -0.10280241 0.033908587 2.3509883e-38
0.051415201 -0.10280241 0.033908587 2.0191192e-38
0.053345721 -0.10280241 0.033908587 7.1746481e-43
0.055276241 -0.10280241 0.033908587 7.1746481e-43
0.057206761 -0.10280241 0.033908587 2.7694142e-40
0.059280172 -0.10370506 0.029933196 4.6132988e-40
0.061217662 -0.10370506 0.029933196 3.0428075e-39
-0.066372633 -0.12302695 -0.046044249 3.5952666e-39
-0.064018503 -0.12211372 -0.042053003 2.3509523e-38
-0.061954793 -0.12211372 -0.042053003 2.3509527e-38
-0.060160514 -0.12302695 -0.046044249 2.3509886e-38
-0.05782738 -0.12211372 -0.042053003 2.3509886e-38
-0.055763673 -0.12211372 -0.042053003 2.3509886e-38
-0.053453218 -0.1212066 -0.038088579 2.3509886e-38
-0.051158261 -0.12030561 -0.034150857 2.3509886e-38
-0.048870768 -0.11937986 -0.030104894 2.3509886e-38
-0.046599057 -0.11846052 -0.026086945 2.3509886e-38
-0.044563334 -0.11846052 -0.026086945 2.3509886e-38
-0.042527627 -0.11846052 -0.026086945 2.3509886e-38
-0.04049192 -0.11846052 -0.026086945 2.3509886e-38
-0.038456198 -0.11846052 -0.026086945 2.3509886e-38
-0.036420491 -0.11846052 -0.026086945 2.3509886e-38
-0.034199376 -0.1175475 -0.022096653 2.3509886e-38
-0.032170657 -0.1175475 -0.022096653 2.3509886e-38
-0.0299717 -0.11664073 -0.018133659 2.3509886e-38
-0.02794994 -0.11664073 -0.018133659 2.3509886e-38
-0.02576774 -0.11571021 -0.014066953 2.3509886e-38
-0.023753103 -0.11571021 -0.014066953 2.3509886e-38
-0.021738462 -0.11571021 -0.014066953 2.3509886e-38
-0.019590199 -0.11481597 -0.010158677 2.3509886e-38
-0.017582417 -0.11481597 -0.010158677 2.3509886e-38
-0.01557463 -0.11481597 -0.010158677 2.3509886e-38
-0.013450816 -0.11389829 -0.0061479993 2.3509886e-38
-0.011450063 -0.11389829 -0.0061479993 2.3509886e-38
-0.0094493069 -0.11389829 -0.0061479993 2.3509886e-38
-0.0073755123 -0.11319222 -0.0030621476 2.3509886e-38
-0.0053801723 -0.11319222 -0.0030621476 2.3509886e-38
-0.0033848286 -0.11319222 -0.0030621476 2.3509886e-38
-0.0013894849 -0.11319222 -0.0030621476 2.3509886e-38
0.00067183748 -0.11228584 0.00089905784 2.3509886e-38
0.0026602335 -0.11228584 0.00089905784 2.3509886e-38
0.0046486296 -0.11228584 0.00089905784 2.3509886e-38
0.0066833012 -0.11135681 0.0049593262 2.3509886e-38
0.0086645819 -0.11135681 0.0049593262 2.3509886e-38
0.010676675 -0.11046316 0.0088649802 2.3509886e-38
0.012669547 -0.10977553 0.011870246 2.3509886e-38
0.014638709 -0.10977553 0.011870246 2.3509886e-38
0.016607869 -0.10977553 0.011870246 2.3509886e-38
0.01857703 -0.10977553 0.011870246 2.3509886e-38
0.0205427 -0.10886435 0.015852433 2.3509886e-38
0.022504879 -0.10886435 0.015852433 2.3509886e-38
0.024467058 -0.10886435 0.015852433 2.3509886e-38
0.026429238 -0.10886435 0.015852433 2.3509886e-38
0.028359249 -0.10793148 0.01992951 2.3509886e-38
0.030285865 -0.10725726 0.022876125 2.3509886e-38
0.032235727 -0.10725726 0.022876125 2.3509886e-38
0.034185592 -0.10725726 0.022876125 2.3509886e-38
0.036135457 -0.10725726 0.022876125 2.3509886e-38
0.038018256 -0.10633601 0.026902419 2.3509886e-38
0.039961062 -0.10633601 0.026902419 2.3141103e-38
0.041842755 -0.10564254 0.029933196 2.3325494e-38
0.043780245 -0.10564254 0.029933196 2.3509886e-38
0.045717739 -0.10564254 0.029933196 2.3509886e-38
0.047655225 -0.10564254 0.029933196 2.3233299e-38
0.049592718 -0.10564254 0.029933196 2.3509883e-38
0.051530208 -0.10564254 0.029933196 1.7333127e-38
0.053467698 -0.10564254 0.029933196 2.7658269e-40
0.055503499 -0.10633601 0.026902419 9.2194229e-41
0.057446305 -0.10633601 0.026902419 9.2194229e-41
0.059389107 -0.10633601 0.026902419 1.8402972e-40
0.061331913 -0.10633601 0.026902419 3.4108712e-39
0.063274719 -0.10633601 0.026902419 2.4878373e-39
-0.068145916 -0.12417741 -0.042053003 0
-0.066082209 -0.12417741 -0.042053003 6.6373665e-39
-0.064018503 -0.12417741 -0.042053003 2.3233299e-38
-0.061954793 -0.12417741 -0.042053003 2.3509886e-38
-0.060160514 -0.12509765 -0.046044249 2.3509886e-38
-0.05782738 -0.12417741 -0.042053003 2.3509886e-38
-0.055763673 -0.12417741 -0.042053003 2.3509886e-38
-0.053453218 -0.12326337 -0.038088579 2.3509886e-38
-0.050913524 -0.1214226 -0.030104894 2.3509886e-38
-0.048870768 -0.1214226 -0.030104894 2.3509886e-38
-0.046599057 -0.12049623 -0.026086945 2.3509886e-38
-0.044563334 -0.12049623 -0.026086945 2.3509886e-38
-0.042527627 -0.12049623 -0.026086945 2.3509886e-38
-0.04049192 -0.12049623 -0.026086945 2.3509886e-38
-0.038256805 -0.1195762 -0.022096653 2.3509886e-38
-0.036228087 -0.1195762 -0.022096653 2.3509886e-38
-0.034199376 -0.1195762 -0.022096653 2.3509886e-38
-0.031993475 -0.11866249 -0.018133659 2.3509886e-38
-0.0299717 -0.11866249 -0.018133659 2.3509886e-38
-0.02794994 -0.11866249 -0.018133659 2.3509886e-38
-0.02576774 -0.11772485 -0.014066953 2.3509886e-38
-0.023753103 -0.11772485 -0.014066953 2.3509886e-38
-0.021597985 -0.11682375 -0.010158677 2.3509886e-38
-0.019590199 -0.11682375 -0.010158677 2.3509886e-38
-0.017582417 -0.11682375 -0.010158677 2.3509886e-38
-0.015451569 -0.11589904 -0.0061479993 2.3509886e-38
-0.013450816 -0.11589904 -0.0061479993 2.3509886e-38
-0.011450063 -0.11589904 -0.0061479993 2.3509886e-38
-0.0094493069 -0.11589904 -0.0061479993 2.3509886e-38
-0.0073755123 -0.11518754 -0.0030621476 2.3509886e-38
-0.0053801723 -0.11518754 -0.0030621476 2.3509886e-38
-0.0033848286 -0.11518754 -0.0030621476 2.3509886e-38
-0.0013894849 -0.11518754 -0.0030621476 2.3509886e-38
0.00067183748 -0.11427425 0.00089905784 2.3509886e-38
0.0026602335 -0.11427425 0.00089905784 2.3509886e-38
0.0046486296 -0.11427425 0.00089905784 2.3509886e-38
0.0066833012 -0.1133381 0.0049593262 2.3509886e-38
0.0086645819 -0.1133381 0.0049593262 2.3509886e-38
0.010676675 -0.11243759 0.0088649802 2.3509886e-38
0.012669547 -0.11174469 0.011870246 2.3509886e-38
0.014638709 -0.11174469 0.011870246 2.3509886e-38
0.016607869 -0.11174469 0.011870246 2.3509886e-38
0.01857703 -0.11174469 0.011870246 2.3509886e-38
0.0205427 -0.11082654 0.015852433 2.3509886e-38
0.022504879 -0.11082654 0.015852433 2.3509886e-38
0.024467058 -0.11082654 0.015852433 2.3509886e-38
0.026429238 -0.11082654 0.015852433 2.3509886e-38
0.028359249 -0.10988651 0.01992951 2.3509886e-38
0.03031428 -0.10988651 0.01992951 2.3509886e-38
0.032235727 -0.10920714 0.022876125 2.3509886e-38
0.034185592 -0.10920714 0.022876125 2.3509886e-38
0.036135457 -0.10920714 0.022876125 2.3233299e-38
0.037967771 -0.10758002 0.029933196 2.3509886e-38
0.039905265 -0.10758002 0.029933196 2.3048907e-38
0.041842755 -0.10758002 0.029933196 2.3233299e-38
0.043780245 -0.10758002 0.029933196 2.3509886e-38
0.045717739 -0.10758002 0.029933196 2.3509886e-38
0.047655225 -0.10758002 0.029933196 2.341769e-38
0.049592718 -0.10758002 0.029933196 2.3509883e-38
0.051617891 -0.10827883 0.026902419 1.3737138e-38
0.053560693 -0.10827883 0.026902419 7.3755383e-40
0.055503499 -0.10827883 0.026902419 2.7550649e-40
0.057446305 -0.10827883 0.026902419 9.2194229e-41
0.059389107 -0.10827883 0.026902419 9.1835496e-41
0.061331913 -0.10827883 0.026902419 4.4250231e-39
0.063274719 -0.10827883 0.026902419 4.4239455e-39
-0.070514038 -0.12716834 -0.046044249 6.4537221e-40
-0.068145916 -0.12624113 -0.042053003 3.5873241e-43
-0.066082209 -0.12624113 -0.042053003 9.4961527e-39
-0.064018503 -0.12624113 -0.042053003 2.3509886e-38
-0.061954793 -0.12624113 -0.042053003 2.3509886e-38
-0.059891086 -0.12624113 -0.042053003 2.3509886e-38
-0.05782738 -0.12624113 -0.042053003 2.3509886e-38
-0.055763673 -0.12624113 -0.042053003 2.3509886e-38
-0.053453218 -0.12532012 -0.038088579 2.3509886e-38
-0.050913524 -0.12346537 -0.030104894 2.3509886e-38
-0.048870768 -0.12346537 -0.030104894 2.3509886e-38
-0.046599057 -0.12253194 -0.026086945 2.3509886e-38
-0.044563334 -0.12253194 -0.026086945 2.3509886e-38
-0.042527627 -0.12253194 -0.026086945 2.3509886e-38
-0.04049192 -0.12253194 -0.026086945 2.3509886e-38
-0.038256805 -0.12160493 -0.022096653 2.3509886e-38
-0.036228087 -0.12160493 -0.022096653 2.3509886e-38
-0.034199376 -0.12160493 -0.022096653 2.3509886e-38
-0.031993475 -0.12068425 -0.018133659 2.3509886e-38
-0.0299717 -0.12068425 -0.018133659 2.3509886e-38
-0.02794994 -0.12068425 -0.018133659 2.3509886e-38
-0.02576774 -0.11973949 -0.014066953 2.3509886e-38
-0.023753103 -0.11973949 -0.014066953 2.3509886e-38
-0.021597985 -0.11883153 -0.010158677 2.3509886e-38
-0.019590199 -0.11883153 -0.010158677 2.3509886e-38
-0.017582417 -0.11883153 -0.010158677 2.3509886e-38
-0.015451569 -0.11789979 -0.0061479993 2.3509886e-38
-0.013361543 -0.1171829 -0.0030621476 2.3509886e-38
-0.0113662 -0.1171829 -0.0030621476 2.3509886e-38
-0.009370856 -0.1171829 -0.0030621476 2.3509886e-38
-0.0073755123 -0.1171829 -0.0030621476 2.3509886e-38
-0.0053801723 -0.1171829 -0.0030621476 2.3509886e-38
-0.0033049583 -0.11626263 0.00089905784 2.3509886e-38
-0.0013165586 -0.11626263 0.00089905784 2.3509886e-38
0.00067183748 -0.11626263 0.00089905784 2.3509886e-38
0.0026602335 -0.11626263 0.00089905784 2.3509886e-38
0.0047020242 -0.11531936 0.0049593262 2.3509886e-38
0.0067278147 -0.11441202 0.0088649802 2.3509886e-38
0.0087022446 -0.11441202 0.0088649802 2.3509886e-38
0.010700386 -0.11371385 0.011870246 2.3509886e-38
0.012669547 -0.11371385 0.011870246 2.3509886e-38
0.014638709 -0.11371385 0.011870246 2.3509886e-38
0.016607869 -0.11371385 0.011870246 2.3509886e-38
0.018580522 -0.11278872 0.015852433 2.3509886e-38
0.0205427 -0.11278872 0.015852433 2.3509886e-38
0.022504879 -0.11278872 0.015852433 2.3509886e-38
0.024467058 -0.11278872 0.015852433 2.3509886e-38
0.026429238 -0.11278872 0.015852433 2.3509886e-38
0.028359249 -0.11184154 0.01992951 2.3509886e-38
0.03031428 -0.11184154 0.01992951 2.3509886e-38
0.032235727 -0.11115701 0.022876125 2.3509886e-38
0.034185592 -0.11115701 0.022876125 2.3509886e-38
0.036135457 -0.11115701 0.022876125 2.3048907e-38
0.037967771 -0.10951753 0.029933196 2.3509886e-38
0.039905265 -0.10951753 0.029933196 2.3233299e-38
0.041842755 -0.10951753 0.029933196 2.3325494e-38
0.043780245 -0.10951753 0.029933196 2.3509886e-38
0.045717739 -0.10951753 0.029933196 2.3325494e-38
0.047655225 -0.10951753 0.029933196 2.3509886e-38
0.049592718 -0.10951753 0.029933196 2.2495371e-38
0.051530208 -0.10951753 0.029933196 9.4028668e-39
0.053560693 -0.11022164 0.026902419 7.3647763e-40
0.055503499 -0.11022164 0.026902419 3.6734198e-40
0.057446305 -0.11022164 0.026902419 2.7550649e-40
0.059389107 -0.11022164 0.026902419 2.7550649e-40
0.061483692 -0.11115701 0.022876125 5.1618679e-39
0.063549802 -0.11184154 0.01992951 6.3604111e-39
0.065504834 -0.11184154 0.01992951 6.1760198e-39
-0.070514038 -0.12923907 -0.046044249 3.61535e-43
-0.068145916 -0.12830482 -0.042053003 2.8025969e-45
-0.066082209 -0.12830482 -0.042053003 1.207799e-38
-0.064018503 -0.12830482 -0.042053003 2.341805e-38
-0.061954793 -0.12830482 -0.042053003 2.3509886e-38
-0.059891086 -0.12830482 -0.042053003 2.3509886e-38
-0.05782738 -0.12830482 -0.042053003 2.3509886e-38
-0.055763673 -0.12830482 -0.042053003 2.3509886e-38
-0.053208124 -0.12645517 -0.034150857 2.3509886e-38
-0.050913524 -0.12550814 -0.030104894 2.3509886e-38
-0.048870768 -0.12550814 -0.030104894 2.3509886e-38
-0.046599057 -0.12456764 -0.026086945 2.3509886e-38
-0.044563334 -0.12456764 -0.026086945 2.3509886e-38
-0.042527627 -0.12456764 -0.026086945 2.3509886e-38
-0.04049192 -0.12456764 -0.026086945 2.3509886e-38
-0.038256805 -0.12363364 -0.022096653 2.3509886e-38
-0.036228087 -0.12363364 -0.022096653 2.3509886e-38
-0.034199376 -0.12363364 -0.022096653 2.3509886e-38
-0.031993475 -0.12270601 -0.018133659 2.3509886e-38
-0.0299717 -0.12270601 -0.018133659 2.3509886e-38
-0.02794994 -0.12270601 -0.018133659 2.3509886e-38
-0.02576774 -0.12175412 -0.014066953 2.3509886e-38
-0.023753103 -0.12175412 -0.014066953 2.3509886e-38
-0.021597985 -0.12083931 -0.010158677 2.3509886e-38
-0.019590199 -0.12083931 -0.010158677 2.3509886e-38
-0.017452322 -0.11990054 -0.0061479993 2.3509886e-38
-0.015451569 -0.11990054 -0.0061479993 2.3509886e-38
-0.013361543 -0.11917825 -0.0030621476 2.3509886e-38
-0.0113662 -0.11917825 -0.0030621476 2.3509886e-38
-0.009370856 -0.11917825 -0.0030621476 2.3509886e-38
-0.0073755123 -0.11917825 -0.0030621476 2.3509886e-38
-0.0052933544 -0.11825104 0.00089905784 2.3509886e-38
-0.0033049583 -0.11825104 0.00089905784 2.3509886e-38
-0.0013165586 -0.11825104 0.00089905784 2.3509886e-38
0.00067183748 -0.11825104 0.00089905784 2.3509886e-38
0.0027207471 -0.11730064 0.0049593262 2.3509886e-38
0.0047020242 -0.11730064 0.0049593262 2.3509886e-38
0.0067278147 -0.11638646 0.0088649802 2.3509886e-38
0.0087312236 -0.115683 0.011870246 2.3509886e-38
0.010700386 -0.115683 0.011870246 2.3509886e-38
0.012669547 -0.115683 0.011870246 2.3509886e-38
0.014638709 -0.115683 0.011870246 2.3509886e-38
0.016607869 -0.115683 0.011870246 2.3509886e-38
0.018580522 -0.11475091 0.015852433 2.3509886e-38
0.0205427 -0.11475091 0.015852433 2.3509886e-38
0.022504879 -0.11475091 0.015852433 2.3509886e-38
0.024467058 -0.11475091 0.015852433 2.3509886e-38
0.026429238 -0.11475091 0.015852433 2.3509886e-38
0.028359249 -0.11379658 0.01992951 2.3509886e-38
0.030285865 -0.11310686 0.022876125 2.3509886e-38
0.032235727 -0.11310686 0.022876125 2.3509886e-38
0.034132645 -0.11216442 0.026902419 2.3509886e-38
0.03607545 -0.11216442 0.026902419 2.3048907e-38
0.037967771 -0.11145501 0.029933196 2.3509886e-38
0.039832078 -0.11052449 0.033908587 2.3325494e-38
0.041762598 -0.11052449 0.033908587 2.3509886e-38
0.043780245 -0.11145501 0.029933196 2.3325494e-38
0.045623638 -0.11052449 0.033908587 2.341769e-38
0.047554158 -0.11052449 0.033908587 2.3509886e-38
0.049484678 -0.11052449 0.033908587 1.9821697e-38
0.051530208 -0.11145501 0.029933196 5.5306504e-39
0.053560693 -0.11216442 0.026902419 6.4356594e-40
0.055503499 -0.11216442 0.026902419 3.6734198e-40
0.057446305 -0.11216442 0.026902419 3.6734198e-40
0.059533827 -0.11310686 0.022876125 3.6734198e-40
0.061594769 -0.11379658 0.01992951 5.5306504e-39
0.063549802 -0.11379658 0.01992951 7.8355411e-39
0.065504834 -0.11379658 0.01992951 8.0199324e-39
-0.070514038 -0.13130976 -0.046044249 3.643376e-43
-0.068145916 -0.13036855 -0.042053003 1.6609661e-39
-0.066082209 -0.13036855 -0.042053003 1.5213721e-38
-0.064018503 -0.13036855 -0.042053003 2.3050349e-38
-0.061954793 -0.13036855 -0.042053003 2.341805e-38
-0.059891086 -0.13036855 -0.042053003 2.341805e-38
-0.05782738 -0.13036855 -0.042053003 2.3509886e-38
-0.055509966 -0.12943362 -0.038088579 2.3509886e-38
-0.053208124 -0.12850504 -0.034150857 2.3509886e-38
-0.050913524 -0.12755089 -0.030104894 2.3509886e-38
-0.048634764 -0.12660335 -0.026086945 2.3509527e-38
-0.046599057 -0.12660335 -0.026086945 2.3509527e-38
-0.044563334 -0.12660335 -0.026086945 2.3509886e-38
-0.042527627 -0.12660335 -0.026086945 2.3509886e-38
-0.04049192 -0.12660335 -0.026086945 2.3509886e-38
-0.038256805 -0.12566237 -0.022096653 2.3509886e-38
-0.036228087 -0.12566237 -0.022096653 2.3509886e-38
-0.034015242 -0.1247278 -0.018133659 2.3509886e-38
-0.031993475 -0.1247278 -0.018133659 2.3509886e-38
-0.0299717 -0.1247278 -0.018133659 2.3509886e-38
-0.027782377 -0.12376876 -0.014066953 2.3509886e-38
-0.02576774 -0.12376876 -0.014066953 2.3509886e-38
-0.023605775 -0.1228471 -0.010158677 2.3509886e-38
-0.021597985 -0.1228471 -0.010158677 2.3509886e-38
-0.019453075 -0.12190129 -0.0061479993 2.3509886e-38
-0.017452322 -0.12190129 -0.0061479993 2.3509886e-38
-0.015451569 -0.12190129 -0.0061479993 2.3509886e-38
-0.013361543 -0.12117358 -0.0030621476 2.3509886e-38
-0.0113662 -0.12117358 -0.0030621476 2.3509886e-38
-0.009370856 -0.12117358 -0.0030621476 2.3509886e-38
-0.0073755123 -0.12117358 -0.0030621476 2.3509886e-38
-0.0052933544 -0.12023942 0.00089905784 2.3509886e-38
-0.0033049583 -0.12023942 0.00089905784 2.3509886e-38
-0.0013165586 -0.12023942 0.00089905784 2.3509886e-38
0.00067183748 -0.12023942 0.00089905784 2.3509886e-38
0.0027207471 -0.11928193 0.0049593262 2.3509886e-38
0.0047020242 -0.11928193 0.0049593262 2.3509886e-38
0.0067278147 -0.11836089 0.0088649802 2.3509886e-38
0.0087312236 -0.11765216 0.011870246 2.3509886e-38
0.010700386 -0.11765216 0.011870246 2.3509886e-38
0.012669547 -0.11765216 0.011870246 2.3509886e-38
0.014656164 -0.11671309 0.015852433 2.3509886e-38
0.016618343 -0.11671309 0.015852433 2.3509886e-38
0.018580522 -0.11671309 0.015852433 2.3509886e-38
0.0205427 -0.11671309 0.015852433 2.3509886e-38
0.022504879 -0.11671309 0.015852433 2.3509886e-38
0.024467058 -0.11671309 0.015852433 2.3509886e-38
0.026429238 -0.11671309 0.015852433 2.3509886e-38
0.028359249 -0.11575161 0.01992951 2.3509886e-38
0.030285865 -0.11505674 0.022876125 2.3509886e-38
0.032235727 -0.11505674 0.022876125 2.3509886e-38
0.034132645 -0.11410724 0.026902419 2.3509886e-38
0.036030285 -0.11339252 0.029933196 2.3233299e-38
0.037901558 -0.11245503 0.033908587 2.3509886e-38
0.039832078 -0.11245503 0.033908587 2.3325494e-38
0.041762598 -0.11245503 0.033908587 2.3509886e-38
0.043693118 -0.11245503 0.033908587 2.3233299e-38
0.045623638 -0.11245503 0.033908587 2.3509886e-38
0.047554158 -0.11245503 0.033908587 2.3233299e-38
0.049484678 -0.11245503 0.033908587 1.6133872e-38
0.051530208 -0.11339252 0.029933196 3.5016291e-39
0.053560693 -0.11410724 0.026902419 9.1907243e-40
0.0556341 -0.11505674 0.022876125 5.5101298e-40
0.057583962 -0.11505674 0.022876125 5.5137171e-40
0.059639737 -0.11575161 0.01992951 3.6734198e-40
0.061594769 -0.11575161 0.01992951 6.0831053e-39
0.063710645 -0.11671309 0.015852433 8.5731062e-39
0.065672815 -0.11671309 0.015852433 8.6653018e-39
-0.068443343 -0.13338046 -0.046044249 4.8881733e-39
-0.066082209 -0.13243224 -0.042053003 1.8348372e-38
-0.064018503 -0.13243224 -0.042053003 2.2958154e-38
-0.061954793 -0.13243224 -0.042053003 2.341805e-38
-0.059891086 -0.13243224 -0.042053003 2.341805e-38
-0.05782738 -0.13243224 -0.042053003 2.3509886e-38
-0.055509966 -0.13149039 -0.038088579 2.3509886e-38
-0.053208124 -0.13055487 -0.034150857 2.3509886e-38
-0.050913524 -0.12959366 -0.030104894 2.3509886e-38
-0.048634764 -0.12863909 -0.026086945 2.3509527e-38
-0.046599057 -0.12863909 -0.026086945 2.3509527e-38
-0.044563334 -0.12863909 -0.026086945 2.3509886e-38
-0.042314243 -0.12769108 -0.022096653 2.3509886e-38
-0.040285524 -0.12769108 -0.022096653 2.3509886e-38
-0.038058776 -0.12674956 -0.018133659 2.3509886e-38
-0.036037009 -0.12674956 -0.018133659 2.3509886e-38
-0.034015242 -0.12674956 -0.018133659 2.3509886e-38
-0.031811651 -0.1257834 -0.014066953 2.3509886e-38
-0.029797014 -0.1257834 -0.014066953 2.3509886e-38
-0.027782377 -0.1257834 -0.014066953 2.3509886e-38
-0.02576774 -0.1257834 -0.014066953 2.3509886e-38
-0.023605775 -0.12485488 -0.010158677 2.3509886e-38
-0.021597985 -0.12485488 -0.010158677 2.3509886e-38
-0.019453075 -0.12390204 -0.0061479993 2.3509886e-38
-0.017352227 -0.12316893 -0.0030621476 2.3509886e-38
-0.015356883 -0.12316893 -0.0030621476 2.3509886e-38
-0.013246946 -0.12222783 0.00089905784 2.3509886e-38
-0.011258546 -0.12222783 0.00089905784 2.3509886e-38
-0.0092701502 -0.12222783 0.00089905784 2.3509886e-38
-0.0072817542 -0.12222783 0.00089905784 2.3509886e-38
-0.0053801723 -0.12316893 -0.0030621476 2.3509886e-38
-0.0033049583 -0.12222783 0.00089905784 2.3509886e-38
-0.0013165586 -0.12222783 0.00089905784 2.3509886e-38
0.00067183748 -0.12222783 0.00089905784 2.3509886e-38
0.0027207471 -0.12126322 0.0049593262 2.3509886e-38
0.0047020242 -0.12126322 0.0049593262 2.3509886e-38
0.006762065 -0.11962132 0.011870246 2.3509886e-38
0.0087312236 -0.11962132 0.011870246 2.3509886e-38
0.010731805 -0.11867525 0.015852433 2.3509886e-38
0.012693984 -0.11867525 0.015852433 2.3509886e-38
0.014656164 -0.11867525 0.015852433 2.3509886e-38
0.016618343 -0.11867525 0.015852433 2.3509886e-38
0.018580522 -0.11867525 0.015852433 2.3509886e-38
0.0205427 -0.11867525 0.015852433 2.3509886e-38
0.022504879 -0.11867525 0.015852433 2.3509886e-38
0.024467058 -0.11867525 0.015852433 2.3509886e-38
0.026429238 -0.11867525 0.015852433 2.3509886e-38
0.028336 -0.11700659 0.022876125 2.3509886e-38
0.030247036 -0.11605005 0.026902419 2.3509886e-38
0.032189842 -0.11605005 0.026902419 2.3509886e-38
0.034092791 -0.11533 0.029933196 2.3509886e-38
0.036030285 -0.11533 0.029933196 2.3509886e-38
0.037901558 -0.11438553 0.033908587 2.3509886e-38
0.039832078 -0.11438553 0.033908587 2.3141103e-38
0.041762598 -0.11438553 0.033908587 2.3509886e-38
0.043693118 -0.11438553 0.033908587 2.3233299e-38
0.045623638 -0.11438553 0.033908587 2.3509886e-38
0.047554158 -0.11438553 0.033908587 2.2864516e-38
0.049484678 -0.11438553 0.033908587 1.3459843e-38
0.051530208 -0.11533 0.029933196 2.4871212e-39
0.053684235 -0.11700659 0.022876125 1.0112681e-39
0.055729676 -0.11770664 0.01992951 5.5101298e-40
0.057684708 -0.11770664 0.01992951 9.1907243e-40
0.059639737 -0.11770664 0.01992951 6.4356594e-40
0.06174846 -0.11867525 0.015852433 6.2674966e-39
0.063710645 -0.11867525 0.015852433 8.4809105e-39
0.065672815 -0.11867525 0.015852433 8.3887149e-39
-0.068145916 -0.13449596 -0.042053003 8.7607456e-39
-0.066082209 -0.13449596 -0.042053003 2.1022046e-38
-0.064018503 -0.13449596 -0.042053003 2.3234379e-38
-0.061954793 -0.13449596 -0.042053003 2.341805e-38
-0.059891086 -0.13449596 -0.042053003 2.341805e-38
-0.057566728 -0.13354714 -0.038088579 2.3509886e-38
-0.055257972 -0.13260473 -0.034150857 2.3509886e-38
-0.053208124 -0.13260473 -0.034150857 2.3509886e-38
-0.050913524 -0.1316364 -0.030104894 2.3509886e-38
-0.048634764 -0.13067479 -0.026086945 2.3509527e-38
-0.046599057 -0.13067479 -0.026086945 2.3509527e-38
-0.044563334 -0.13067479 -0.026086945 2.3509886e-38
-0.042314243 -0.12971978 -0.022096653 2.3509886e-38
-0.040285524 -0.12971978 -0.022096653 2.3509886e-38
-0.038058776 -0.12877132 -0.018133659 2.3509886e-38
-0.036037009 -0.12877132 -0.018133659 2.3509886e-38
-0.034015242 -0.12877132 -0.018133659 2.3509886e-38
-0.031811651 -0.12779804 -0.014066953 2.3509886e-38
-0.029797014 -0.12779804 -0.014066953 2.3509886e-38
-0.027782377 -0.12779804 -0.014066953 2.3509886e-38
-0.025613558 -0.12686269 -0.010158677 2.3509886e-38
-0.023605775 -0.12686269 -0.010158677 2.3509886e-38
-0.021453828 -0.12590279 -0.0061479993 2.3509886e-38
-0.019347571 -0.12516426 -0.0030621476 2.3509886e-38
-0.017223738 -0.12421621 0.00089905784 2.3509886e-38
-0.015235342 -0.12421621 0.00089905784 2.3509886e-38
-0.013246946 -0.12421621 0.00089905784 2.3509886e-38
-0.011258546 -0.12421621 0.00089905784 2.3509886e-38
-0.0092701502 -0.12421621 0.00089905784 2.3509886e-38
-0.0072817542 -0.12421621 0.00089905784 2.3509886e-38
-0.0053801723 -0.12516426 -0.0030621476 2.3509886e-38
-0.0033049583 -0.12421621 0.00089905784 2.3509886e-38
-0.0013165586 -0.12421621 0.00089905784 2.3509886e-38
0.00067183748 -0.12421621 0.00089905784 2.3509886e-38
0.0027207471 -0.12324448 0.0049593262 2.3509886e-38
0.0047020242 -0.12324448 0.0049593262 2.3509886e-38
0.006762065 -0.12159048 0.011870246 2.3509886e-38
0.0087312236 -0.12159048 0.011870246 2.3509886e-38
0.010731805 -0.12063743 0.015852433 2.3509886e-38
0.012693984 -0.12063743 0.015852433 2.3509886e-38
0.014656164 -0.12063743 0.015852433 2.3509886e-38
0.016618343 -0.12063743 0.015852433 2.3509886e-38
0.018580522 -0.12063743 0.015852433 2.3509886e-38
0.020539127 -0.11966167 0.01992951 2.3509886e-38
0.022494158 -0.11966167 0.01992951 2.3509886e-38
0.024449188 -0.11966167 0.01992951 2.3509886e-38
0.026404219 -0.11966167 0.01992951 2.3509886e-38
0.028336 -0.11895646 0.022876125 2.3509886e-38
0.030217811 -0.11726747 0.029933196 2.3509886e-38
0.032155301 -0.11726747 0.029933196 2.3509886e-38
0.034092791 -0.11726747 0.029933196 2.3509886e-38
0.035971038 -0.11631607 0.033908587 2.341769e-38
0.037901558 -0.11631607 0.033908587 2.3509886e-38
0.039832078 -0.11631607 0.033908587 2.3509886e-38
0.041762598 -0.11631607 0.033908587 2.3048907e-38
0.043693118 -0.11631607 0.033908587 2.3509886e-38
0.045623638 -0.11631607 0.033908587 2.2864516e-38
0.047554158 -0.11631607 0.033908587 2.3509886e-38
0.049484678 -0.11631607 0.033908587 1.0509583e-38
0.051530208 -0.11726747 0.029933196 6.4321141e-40
0.053684235 -0.11895646 0.022876125 9.187165e-40
0.055729676 -0.11966167 0.01992951 5.5101298e-40
0.057684708 -0.11966167 0.01992951 1.1956593e-39
0.059786282 -0.12063743 0.015852433 3.6734198e-40
0.061898574 -0.12159048 0.011870246 6.4518878e-39
0.063867733 -0.12159048 0.011870246 7.5589514e-39
0.065836899 -0.12159048 0.011870246 7.927734e-39
-0.070514038 -0.13752188 -0.046044249 1.6616793e-39
-0.068145916 -0.13655965 -0.042053003 1.5121522e-38
-0.066082209 -0.13655965 -0.042053003 2.3234379e-38
-0.064018503 -0.13655965 -0.042053003 2.3234379e-38
-0.061954793 -0.13655965 -0.042053003 2.341805e-38
-0.059623476 -0.13560389 -0.038088579 2.341805e-38
-0.057566728 -0.13560389 -0.038088579 2.3509886e-38
-0.055257972 -0.13465457 -0.034150857 2.3509886e-38
-0.053208124 -0.13465457 -0.034150857 2.3509886e-38
-0.050913524 -0.13367917 -0.030104894 2.3509886e-38
-0.048634764 -0.1327105 -0.026086945 2.3509527e-38
-0.046599057 -0.1327105 -0.026086945 2.3509527e-38
-0.044563334 -0.1327105 -0.026086945 2.3509886e-38
-0.042314243 -0.13174851 -0.022096653 2.3509886e-38
-0.040285524 -0.13174851 -0.022096653 2.3509886e-38
-0.038058776 -0.13079311 -0.018133659 2.3509886e-38
-0.036037009 -0.13079311 -0.018133659 2.3509886e-38
-0.034015242 -0.13079311 -0.018133659 2.3509886e-38
-0.031811651 -0.12981267 -0.014066953 2.3509886e-38
-0.029797014 -0.12981267 -0.014066953 2.3509886e-38
-0.027782377 -0.12981267 -0.014066953 2.3509886e-38
-0.025613558 -0.12887047 -0.010158677 2.3509886e-38
-0.023605775 -0.12887047 -0.010158677 2.3509886e-38
-0.021453828 -0.12790357 -0.0061479993 2.3509886e-38
-0.019347571 -0.12715961 -0.0030621476 2.3509886e-38
-0.017223738 -0.12620462 0.00089905784 2.3509886e-38
-0.015235342 -0.12620462 0.00089905784 2.3509886e-38
-0.013246946 -0.12620462 0.00089905784 2.3509886e-38
-0.011258546 -0.12620462 0.00089905784 2.3509886e-38
-0.009370856 -0.12715961 -0.0030621476 2.3509886e-38
-0.0073755123 -0.12715961 -0.0030621476 2.3509886e-38
-0.0052933544 -0.12620462 0.00089905784 2.3509886e-38
-0.0033049583 -0.12620462 0.00089905784 2.3509886e-38
-0.0013165586 -0.12620462 0.00089905784 2.3509886e-38
0.0007394664 -0.12522577 0.0049593262 2.3509886e-38
0.0027207471 -0.12522577 0.0049593262 2.3509886e-38
0.0047020242 -0.12522577 0.0049593262 2.3509886e-38
0.006762065 -0.12355967 0.011870246 2.3509886e-38
0.0087312236 -0.12355967 0.011870246 2.3509886e-38
0.010731805 -0.12259962 0.015852433 2.3509886e-38
0.012693984 -0.12259962 0.015852433 2.3509886e-38
0.014656164 -0.12259962 0.015852433 2.3509886e-38
0.016618343 -0.12259962 0.015852433 2.3509886e-38
0.018580522 -0.12259962 0.015852433 2.3509886e-38
0.020539127 -0.12161671 0.01992951 2.3509886e-38
0.022494158 -0.12161671 0.01992951 2.3509886e-38
0.024436273 -0.12090631 0.022876125 2.3509886e-38
0.026386136 -0.12090631 0.022876125 2.3509886e-38
0.028336 -0.12090631 0.022876125 2.3509886e-38
0.030217811 -0.11920498 0.029933196 2.3509886e-38
0.032155301 -0.11920498 0.029933196 2.3509886e-38
0.034040514 -0.11824657 0.033908587 2.3509886e-38
0.035971038 -0.11824657 0.033908587 2.3509886e-38
0.037835814 -0.11729507 0.037855368 2.3233299e-38
0.03975942 -0.11729507 0.037855368 2.3509886e-38
0.041683018 -0.11729507 0.037855368 2.3141103e-38
0.043606617 -0.11729507 0.037855368 2.3509886e-38
0.045530219 -0.11729507 0.037855368 2.3233299e-38
0.047453821 -0.11729507 0.037855368 2.3509886e-38
0.049484678 -0.11824657 0.033908587 7.5593228e-39
0.051530208 -0.11920498 0.029933196 5.5101578e-40
0.053684235 -0.12090631 0.022876125 7.3468677e-40
0.055861924 -0.12259962 0.015852433 5.5101298e-40
0.057824101 -0.12259962 0.015852433 5.5137171e-40
0.059786282 -0.12259962 0.015852433 3.6734198e-40
0.061898574 -0.12355967 0.011870246 5.7143228e-39
0.063867733 -0.12355967 0.011870246 7.0057777e-39
0.065836899 -0.12355967 0.011870246 7.8355383e-39
-0.070209622 -0.13862337 -0.042053003 2.4910771e-39
-0.068145916 -0.13862337 -0.042053003 1.890082e-38
-0.065793753 -0.13766064 -0.038088579 2.3418047e-38
-0.06373699 -0.13766064 -0.038088579 2.3234015e-38
-0.061680239 -0.13766064 -0.038088579 2.3509883e-38
-0.059623476 -0.13766064 -0.038088579 2.3509883e-38
-0.057307821 -0.13670443 -0.034150857 2.3509886e-38
-0.055257972 -0.13670443 -0.034150857 2.3509886e-38
-0.053208124 -0.13670443 -0.034150857 2.3509886e-38
-0.050913524 -0.13572191 -0.030104894 2.3509886e-38
-0.048634764 -0.13474621 -0.026086945 2.3509886e-38
-0.046599057 -0.13474621 -0.026086945 2.3509886e-38
-0.044563334 -0.13474621 -0.026086945 2.3509886e-38
-0.042314243 -0.13377722 -0.022096653 2.3509886e-38
-0.040080544 -0.13281487 -0.018133659 2.3509886e-38
-0.038058776 -0.13281487 -0.018133659 2.3509886e-38
-0.036037009 -0.13281487 -0.018133659 2.3509886e-38
-0.033826288 -0.13182731 -0.014066953 2.3509886e-38
-0.031811651 -0.13182731 -0.014066953 2.3509886e-38
-0.029797014 -0.13182731 -0.014066953 2.3509886e-38
-0.027782377 -0.13182731 -0.014066953 2.3509886e-38
-0.025613558 -0.13087825 -0.010158677 2.3509886e-38
-0.023605775 -0.13087825 -0.010158677 2.3509886e-38
-0.021453828 -0.12990431 -0.0061479993 2.3509886e-38
-0.019347571 -0.12915494 -0.0030621476 2.3509886e-38
-0.017352227 -0.12915494 -0.0030621476 2.3509886e-38
-0.015235342 -0.12819304 0.00089905784 2.3509886e-38
-0.013246946 -0.12819304 0.00089905784 2.3509886e-38
-0.011258546 -0.12819304 0.00089905784 2.3509886e-38
-0.009370856 -0.12915494 -0.0030621476 2.3509886e-38
-0.0072817542 -0.12819304 0.00089905784 2.3509886e-38
-0.0052933544 -0.12819304 0.00089905784 2.3509886e-38
-0.0033049583 -0.12819304 0.00089905784 2.3509886e-38
-0.0013165586 -0.12819304 0.00089905784 2.3509886e-38
0.0007394664 -0.12720706 0.0049593262 2.3509886e-38
0.0027207471 -0.12720706 0.0049593262 2.3509886e-38
0.0047020242 -0.12720706 0.0049593262 2.3509886e-38
0.006762065 -0.12552883 0.011870246 2.3509886e-38
0.0087312236 -0.12552883 0.011870246 2.3509886e-38
0.010731805 -0.1245618 0.015852433 2.3509886e-38
0.012693984 -0.1245618 0.015852433 2.3509886e-38
0.014656164 -0.1245618 0.015852433 2.3509886e-38
0.016618343 -0.1245618 0.015852433 2.3509886e-38
0.018584095 -0.12357174 0.01992951 2.3509886e-38
0.020539127 -0.12357174 0.01992951 2.3509886e-38
0.022494158 -0.12357174 0.01992951 2.3509886e-38
0.024436273 -0.12285618 0.022876125 2.3509886e-38
0.026386136 -0.12285618 0.022876125 2.3509886e-38
0.028304232 -0.12187846 0.026902419 2.3509886e-38
0.030217811 -0.12114246 0.029933196 2.3509886e-38
0.032155301 -0.12114246 0.029933196 2.3509886e-38
0.034040514 -0.12017711 0.033908587 2.3509886e-38
0.035971038 -0.12017711 0.033908587 2.3509886e-38
0.037835814 -0.11921866 0.037855368 2.2956712e-38
0.03975942 -0.11921866 0.037855368 2.3509886e-38
0.041683018 -0.11921866 0.037855368 2.3233299e-38
0.043606617 -0.11921866 0.037855368 2.3509886e-38
0.045530219 -0.11921866 0.037855368 2.3509886e-38
0.047453821 -0.11921866 0.037855368 2.3325494e-38
0.049484678 -0.12017711 0.033908587 3.5949107e-39
0.051530208 -0.12114246 0.029933196 4.5918309e-40
0.053899743 -0.1245618 0.015852433 4.5917888e-40
0.055861924 -0.1245618 0.015852433 3.6734198e-40
0.057824101 -0.1245618 0.015852433 3.6734198e-40
0.059786282 -0.1245618 0.015852433 3.6734198e-40
0.061898574 -0.12552883 0.011870246 4.9774766e-39
0.063867733 -0.12552883 0.011870246 6.8213864e-39
0.065836899 -0.12552883 0.011870246 8.4809049e-39
-0.069907263 -0.13971741 -0.038088579 1.0234067e-38
-0.0678505 -0.13971741 -0.038088579 2.3418045e-38
-0.065793753 -0.13971741 -0.038088579 2.350988e-38
-0.06373699 -0.13971741 -0.038088579 2.3509883e-38
-0.061407518 -0.13875429 -0.034150857 2.3509883e-38
-0.059357669 -0.13875429 -0.034150857 2.3509883e-38
-0.057307821 -0.13875429 -0.034150857 2.3509886e-38
-0.054999035 -0.13776468 -0.030104894 2.3509886e-38
-0.052956279 -0.13776468 -0.030104894 2.3509886e-38
-0.050670486 -0.13678192 -0.026086945 2.3509886e-38
-0.048634764 -0.13678192 -0.026086945 2.3509886e-38
-0.046599057 -0.13678192 -0.026086945 2.3509886e-38
-0.044342961 -0.13580595 -0.022096653 2.3509886e-38
-0.042314243 -0.13580595 -0.022096653 2.3509886e-38
-0.040080544 -0.13483663 -0.018133659 2.3509886e-38
-0.038058776 -0.13483663 -0.018133659 2.3509886e-38
-0.036037009 -0.13483663 -0.018133659 2.3509886e-38
-0.033826288 -0.13384195 -0.014066953 2.3509886e-38
-0.031811651 -0.13384195 -0.014066953 2.3509886e-38
-0.029797014 -0.13384195 -0.014066953 2.3509886e-38
-0.027782377 -0.13384195 -0.014066953 2.3509886e-38
-0.025613558 -0.13288604 -0.010158677 2.3509886e-38
-0.023605775 -0.13288604 -0.010158677 2.3509886e-38
-0.021453828 -0.13190506 -0.0061479993 2.3509886e-38
-0.019347571 -0.13115029 -0.0030621476 2.3509886e-38
-0.017352227 -0.13115029 -0.0030621476 2.3509886e-38
-0.015235342 -0.13018142 0.00089905784 2.3509886e-38
-0.013246946 -0.13018142 0.00089905784 2.3509886e-38
-0.011258546 -0.13018142 0.00089905784 2.3509886e-38
-0.009370856 -0.13115029 -0.0030621476 2.3509886e-38
-0.0072817542 -0.13018142 0.00089905784 2.3509886e-38
-0.0052933544 -0.13018142 0.00089905784 2.3509886e-38
-0.0033049583 -0.13018142 0.00089905784 2.3509886e-38
-0.0013165586 -0.13018142 0.00089905784 2.3509886e-38
0.0007394664 -0.12918831 0.0049593262 2.3509886e-38
0.0027207471 -0.12918831 0.0049593262 2.3509886e-38
0.0047020242 -0.12918831 0.0049593262 2.3509886e-38
0.006762065 -0.12749799 0.011870246 2.3509886e-38
0.0087312236 -0.12749799 0.011870246 2.3509886e-38
0.010731805 -0.12652399 0.015852433 2.3509886e-38
0.012693984 -0.12652399 0.015852433 2.3509886e-38
0.014656164 -0.12652399 0.015852433 2.3509886e-38
0.016629064 -0.12552677 0.01992951 2.3509886e-38
0.018584095 -0.12552677 0.01992951 2.3509886e-38
0.020539127 -0.12552677 0.01992951 2.3509886e-38
0.022486407 -0.12480606 0.022876125 2.3509886e-38
0.024436273 -0.12480606 0.022876125 2.3509886e-38
0.026361428 -0.12382124 0.026902419 2.3509886e-38
0.02828032 -0.12307997 0.029933196 2.3509886e-38
0.030217811 -0.12307997 0.029933196 2.3509886e-38
0.032155301 -0.12307997 0.029933196 2.3509886e-38
0.034040514 -0.12210761 0.033908587 2.3509886e-38
0.035971038 -0.12210761 0.033908587 2.3509886e-38
0.037835814 -0.12114228 0.037855368 2.2864516e-38
0.03975942 -0.12114228 0.037855368 2.3509886e-38
0.041683018 -0.12114228 0.037855368 2.341769e-38
0.043606617 -0.12114228 0.037855368 2.3509886e-38
0.045530219 -0.12114228 0.037855368 2.3509886e-38
0.047453821 -0.12114228 0.037855368 2.3233299e-38
0.049484678 -0.12210761 0.033908587 6.4465054e-40
0.051530208 -0.12307997 0.029933196 4.5918309e-40
0.053899743 -0.12652399 0.015852433 3.6734619e-40
0.055861924 -0.12652399 0.015852433 3.6734198e-40
0.057824101 -0.12652399 0.015852433 3.6734198e-40
0.059929416 -0.12749799 0.011870246 2.7550649e-40
0.061898574 -0.12749799 0.011870246 4.5164957e-39
0.063867733 -0.12749799 0.011870246 6.8213864e-39
0.065836899 -0.12749799 0.011870246 9.5872525e-39
-0.071964011 -0.14177416 -0.038088579 1.1525159e-38
-0.069907263 -0.14177416 -0.038088579 1.2446399e-38
-0.0678505 -0.14177416 -0.038088579 2.3418039e-38
-0.065507233 -0.14080413 -0.034150857 2.2679758e-38
-0.063457385 -0.14080413 -0.034150857 2.3233652e-38
-0.061407518 -0.14080413 -0.034150857 2.350988e-38
-0.059357669 -0.14080413 -0.034150857 2.3509883e-38
-0.05704179 -0.13980745 -0.030104894 2.3509886e-38
-0.054999035 -0.13980745 -0.030104894 2.3509886e-38
-0.052956279 -0.13980745 -0.030104894 2.3509886e-38
-0.050670486 -0.13881765 -0.026086945 2.3509886e-38
-0.048634764 -0.13881765 -0.026086945 2.3509886e-38
-0.04637168 -0.13783465 -0.022096653 2.3509886e-38
-0.044342961 -0.13783465 -0.022096653 2.3509886e-38
-0.042102318 -0.13685839 -0.018133659 2.3509886e-38
-0.040080544 -0.13685839 -0.018133659 2.3509886e-38
-0.037855562 -0.13585658 -0.014066953 2.3509886e-38
-0.035840925 -0.13585658 -0.014066953 2.3509886e-38
-0.033826288 -0.13585658 -0.014066953 2.3509886e-38
-0.031636912 -0.13489382 -0.010158677 2.3509886e-38
-0.029629122 -0.13489382 -0.010158677 2.3509886e-38
-0.02762134 -0.13489382 -0.010158677 2.3509886e-38
-0.025613558 -0.13489382 -0.010158677 2.3509886e-38
-0.02345458 -0.13390581 -0.0061479993 2.3509886e-38
-0.021453828 -0.13390581 -0.0061479993 2.3509886e-38
-0.019347571 -0.13314565 -0.0030621476 2.3509886e-38
-0.017223738 -0.13216983 0.00089905784 2.3509886e-38
-0.015235342 -0.13216983 0.00089905784 2.3509886e-38
-0.013246946 -0.13216983 0.00089905784 2.3509886e-38
-0.011258546 -0.13216983 0.00089905784 2.3509886e-38
-0.0092701502 -0.13216983 0.00089905784 2.3509886e-38
-0.0072817542 -0.13216983 0.00089905784 2.3509886e-38
-0.0052933544 -0.13216983 0.00089905784 2.3509886e-38
-0.0033049583 -0.13216983 0.00089905784 2.3509886e-38
-0.0013165586 -0.13216983 0.00089905784 2.3509886e-38
0.0007394664 -0.1311696 0.0049593262 2.3509886e-38
0.0027207471 -0.1311696 0.0049593262 2.3509886e-38
0.0047020242 -0.1311696 0.0049593262 2.3509886e-38
0.0067278147 -0.13020746 0.0088649802 2.3509886e-38
0.0087312236 -0.12946714 0.011870246 2.3509886e-38
0.010731805 -0.12848614 0.015852433 2.3509886e-38
0.012693984 -0.12848614 0.015852433 2.3509886e-38
0.014656164 -0.12848614 0.015852433 2.3509886e-38
0.016629064 -0.1274818 0.01992951 2.3509886e-38
0.018586678 -0.12675591 0.022876125 2.3509886e-38
0.020536544 -0.12675591 0.022876125 2.3509886e-38
0.022486407 -0.12675591 0.022876125 2.3509886e-38
0.024418622 -0.12576406 0.026902419 2.3509886e-38
0.026361428 -0.12576406 0.026902419 2.3509886e-38
0.02828032 -0.12501745 0.029933196 2.3509886e-38
0.030217811 -0.12501745 0.029933196 2.3509886e-38
0.032155301 -0.12501745 0.029933196 2.3509886e-38
0.034040514 -0.12403814 0.033908587 2.3509886e-38
0.035971038 -0.12403814 0.033908587 2.3509886e-38
0.037835814 -0.12306587 0.037855368 2.3141103e-38
0.03975942 -0.12306587 0.037855368 2.3509886e-38
0.041683018 -0.12306587 0.037855368 2.3509886e-38
0.043606617 -0.12306587 0.037855368 2.3325494e-38
0.045530219 -0.12306587 0.037855368 2.3509886e-38
0.047453821 -0.12306587 0.037855368 2.341769e-38
0.049484678 -0.12403814 0.033908587 0
0.051617891 -0.12576406 0.026902419 1.836752e-40
0.054021932 -0.12946714 0.011870246 9.1838299e-41
0.055991091 -0.12946714 0.011870246 2.7550649e-40
0.057960253 -0.12946714 0.011870246 9.1835496e-41
0.059929416 -0.12946714 0.011870246 1.8402972e-40
0.061898574 -0.12946714 0.011870246 3.1346402e-39
0.063867733 -0.12946714 0.011870246 5.8072345e-39
0.065836899 -0.12946714 0.011870246 9.5872525e-39
-0.073706642 -0.14285399 -0.034150857 1.1800302e-38
-0.071656778 -0.14285399 -0.034150857 8.3890652e-39
-0.069907263 -0.14383091 -0.038088579 1.1708108e-38
-0.0678505 -0.14383091 -0.038088579 2.332548e-38
-0.065507233 -0.14285399 -0.034150857 2.3509876e-38
-0.063457385 -0.14285399 -0.034150857 2.3509879e-38
-0.061407518 -0.14285399 -0.034150857 2.3509879e-38
-0.059084561 -0.14185019 -0.030104894 2.350988e-38
-0.05704179 -0.14185019 -0.030104894 2.3509883e-38
-0.054999035 -0.14185019 -0.030104894 2.3509886e-38
-0.052706193 -0.14085336 -0.026086945 2.3509886e-38
-0.050670486 -0.14085336 -0.026086945 2.3509886e-38
-0.048634764 -0.14085336 -0.026086945 2.3509886e-38
-0.04637168 -0.13986339 -0.022096653 2.3509886e-38
-0.044342961 -0.13986339 -0.022096653 2.3509886e-38
-0.042102318 -0.13888018 -0.018133659 2.3509886e-38
-0.039870199 -0.13787122 -0.014066953 2.3509886e-38
-0.037855562 -0.13787122 -0.014066953 2.3509886e-38
-0.035840925 -0.13787122 -0.014066953 2.3509886e-38
-0.033826288 -0.13787122 -0.014066953 2.3509886e-38
-0.031636912 -0.1369016 -0.010158677 2.3509886e-38
-0.029629122 -0.1369016 -0.010158677 2.3509886e-38
-0.02762134 -0.1369016 -0.010158677 2.3509886e-38
-0.025613558 -0.1369016 -0.010158677 2.3509886e-38
-0.02345458 -0.13590656 -0.0061479993 2.3509886e-38
-0.021342911 -0.13514097 -0.0030621476 2.3509886e-38
-0.019347571 -0.13514097 -0.0030621476 2.3509886e-38
-0.017223738 -0.13415821 0.00089905784 2.3509886e-38
-0.015235342 -0.13415821 0.00089905784 2.3509886e-38
-0.013246946 -0.13415821 0.00089905784 2.3509886e-38
-0.011258546 -0.13415821 0.00089905784 2.3509886e-38
-0.0092701502 -0.13415821 0.00089905784 2.3509886e-38
-0.0072817542 -0.13415821 0.00089905784 2.3509886e-38
-0.0052933544 -0.13415821 0.00089905784 2.3509886e-38
-0.0033049583 -0.13415821 0.00089905784 2.3509886e-38
-0.0013165586 -0.13415821 0.00089905784 2.3509886e-38
0.0007394664 -0.13315089 0.0049593262 2.3509886e-38
0.0027789511 -0.1321819 0.0088649802 2.3509886e-38
0.0047533847 -0.1321819 0.0088649802 2.3509886e-38
0.006762065 -0.1314363 0.011870246 2.3509886e-38
0.0087312236 -0.1314363 0.011870246 2.3509886e-38
0.010731805 -0.13044833 0.015852433 2.3509886e-38
0.012693984 -0.13044833 0.015852433 2.3509886e-38
0.014656164 -0.13044833 0.015852433 2.3509886e-38
0.016629064 -0.12943684 0.01992951 2.3509886e-38
0.018586678 -0.12870578 0.022876125 2.3509886e-38
0.020536544 -0.12870578 0.022876125 2.3509886e-38
0.022475818 -0.12770687 0.026902419 2.3509886e-38
0.024418622 -0.12770687 0.026902419 2.3509886e-38
0.026361428 -0.12770687 0.026902419 2.3509886e-38
0.02828032 -0.12695493 0.029933196 2.3509886e-38
0.030217811 -0.12695493 0.029933196 2.3509886e-38
0.032109994 -0.12596865 0.033908587 2.3509886e-38
0.034040514 -0.12596865 0.033908587 2.3509886e-38
0.035971038 -0.12596865 0.033908587 2.3325494e-38
0.037835814 -0.12498946 0.037855368 2.3509886e-38
0.03975942 -0.12498946 0.037855368 2.3509886e-38
0.041620716 -0.12422292 0.040945154 2.3509886e-38
0.043538898 -0.12422292 0.040945154 2.3233299e-38
0.045530219 -0.12498946 0.037855368 2.3509886e-38
0.047453821 -0.12498946 0.037855368 2.3509886e-38
0.049484678 -0.12596865 0.033908587 2.8025969e-45
0.051937565 -0.13044833 0.015852433 5.6051939e-45
0.054114144 -0.1321819 0.0088649802 9.1841101e-41
0.055991091 -0.1314363 0.011870246 9.1838299e-41
0.057960253 -0.1314363 0.011870246 9.1835496e-41
0.059929416 -0.1314363 0.011870246 9.1835496e-41
0.061898574 -0.1314363 0.011870246 1.3829232e-39
0.063867733 -0.1314363 0.011870246 3.9633219e-39
0.065836899 -0.1314363 0.011870246 8.4809049e-39
-0.076400742 -0.1468782 -0.042053003 1.1523352e-38
-0.073706642 -0.14490382 -0.034150857 1.1799939e-38
-0.071656778 -0.14490382 -0.034150857 9.0337144e-39
-0.069907263 -0.14588766 -0.038088579 1.2905931e-38
-0.0678505 -0.14588766 -0.038088579 2.3509869e-38
-0.065507233 -0.14490382 -0.034150857 2.3509513e-38
-0.063457385 -0.14490382 -0.034150857 2.2864505e-38
-0.061407518 -0.14490382 -0.034150857 2.3509879e-38
-0.059084561 -0.14389296 -0.030104894 2.350988e-38
-0.05704179 -0.14389296 -0.030104894 2.3509883e-38
-0.054999035 -0.14389296 -0.030104894 2.3509886e-38
-0.052706193 -0.14288907 -0.026086945 2.3509886e-38
-0.050670486 -0.14288907 -0.026086945 2.3509886e-38
-0.048400383 -0.14189209 -0.022096653 2.341805e-38
-0.04637168 -0.14189209 -0.022096653 2.341805e-38
-0.044124078 -0.14090194 -0.018133659 2.3509886e-38
-0.042102318 -0.14090194 -0.018133659 2.3509886e-38
-0.039870199 -0.13988586 -0.014066953 2.3509886e-38
-0.037855562 -0.13988586 -0.014066953 2.3509886e-38
-0.035840925 -0.13988586 -0.014066953 2.3509886e-38
-0.033644695 -0.13890938 -0.010158677 2.3509886e-38
-0.031636912 -0.13890938 -0.010158677 2.3509886e-38
-0.029629122 -0.13890938 -0.010158677 2.3509886e-38
-0.02762134 -0.13890938 -0.010158677 2.3509886e-38
-0.025613558 -0.13890938 -0.010158677 2.3509886e-38
-0.02345458 -0.13790731 -0.0061479993 2.3509886e-38
-0.021342911 -0.13713633 -0.0030621476 2.3509886e-38
-0.019347571 -0.13713633 -0.0030621476 2.3509886e-38
-0.017223738 -0.13614662 0.00089905784 2.3509886e-38
-0.015235342 -0.13614662 0.00089905784 2.3509886e-38
-0.013246946 -0.13614662 0.00089905784 2.3509886e-38
-0.011258546 -0.13614662 0.00089905784 2.3509886e-38
-0.0092701502 -0.13614662 0.00089905784 2.3509886e-38
-0.0072817542 -0.13614662 0.00089905784 2.3509886e-38
-0.0052933544 -0.13614662 0.00089905784 2.3509886e-38
-0.0033049583 -0.13614662 0.00089905784 2.3509886e-38
-0.0012418106 -0.13513215 0.0049593262 2.3509886e-38
0.00080452487 -0.13415633 0.0088649802 2.3509886e-38
0.0027789511 -0.13415633 0.0088649802 2.3509886e-38
0.0047929026 -0.13340546 0.011870246 2.3509886e-38
0.006762065 -0.13340546 0.011870246 2.3509886e-38
0.0087312236 -0.13340546 0.011870246 2.3509886e-38
0.010731805 -0.13241051 0.015852433 2.3509886e-38
0.012693984 -0.13241051 0.015852433 2.3509886e-38
0.014656164 -0.13241051 0.015852433 2.3509886e-38
