# .PCD v0.7 - Point Cloud Data file format
VERSION 0.7
FIELDS x y z rgb
SIZE 4 4 4 4
TYPE F F F F
COUNT 1 1 1 1
WIDTH 939
HEIGHT 1
VIEWPOINT 0 0 0 1 0 0 0
POINTS 939
DATA ascii
0.047990371 -0.12819304 -0.030069858 2.3509886e-38
0.050065584 -0.12915494 -0.034031063 2.3509886e-38
0.052060924 -0.12915494 -0.034031063 2.3509886e-38
0.054134719 -0.12990431 -0.037116915 2.3509886e-38
0.05624447 -0.13087825 -0.041127592 2.350988e-38
0.058252256 -0.13087825 -0.041127592 2.268119e-38
0.060136981 -0.12990431 -0.037116915 2.341804e-38
0.062137734 -0.12990431 -0.037116915 2.3232944e-38
0.064275607 -0.13087825 -0.041127592 1.3644253e-38
-0.063744418 -0.11940466 0.013990611 1.0973438e-38
-0.061833285 -0.11940466 0.013990611 9.8663715e-39
-0.059693299 -0.11868732 0.016923517 2.5821965e-39
-0.057787292 -0.11868732 0.016923517 0
-0.055881299 -0.11868732 0.016923517 9.1835496e-41
-0.053467758 -0.11698125 0.023898691 9.1835496e-41
-0.051573984 -0.11698125 0.023898691 2.7550649e-40
-0.049472801 -0.11624874 0.026893586 2.7550649e-40
-0.047313906 -0.11526908 0.030898899 2.3509524e-38
-0.045432396 -0.11526908 0.030898899 2.3509165e-38
-0.043354459 -0.1145183 0.033968419 2.3509164e-38
-0.041478343 -0.1145183 0.033968419 2.3509524e-38
-0.039602228 -0.1145183 0.033968419 2.3509883e-38
-0.037726112 -0.1145183 0.033968419 2.3324052e-38
-0.036024906 -0.11526908 0.030898899 2.3509883e-38
-0.034143411 -0.11526908 0.030898899 2.3509886e-38
-0.032261916 -0.11526908 0.030898899 2.3509886e-38
-0.030587576 -0.11624874 0.026893586 2.3509886e-38
-0.028699063 -0.11624874 0.026893586 2.3509886e-38
-0.026810534 -0.11624874 0.026893586 2.3509886e-38
-0.024922021 -0.11624874 0.026893586 2.3509886e-38
-0.023167394 -0.11698125 0.023898691 2.3509886e-38
-0.02127362 -0.11698125 0.023898691 2.3509886e-38
-0.019379847 -0.11698125 0.023898691 2.3509886e-38
-0.017641574 -0.11794533 0.019957155 2.3509886e-38
-0.01574089 -0.11794533 0.019957155 2.3509886e-38
-0.013840206 -0.11794533 0.019957155 2.3509886e-38
-0.012043241 -0.11868732 0.016923517 2.3509886e-38
-0.010137241 -0.11868732 0.016923517 2.3509886e-38
-0.0082312375 -0.11868732 0.016923517 2.3509886e-38
-0.0064100847 -0.11940466 0.013990611 2.3509886e-38
-0.00449894 -0.11940466 0.013990611 2.3509886e-38
-0.0025877953 -0.11940466 0.013990611 2.3509886e-38
-0.00077167153 -0.12038656 0.009976238 2.3509886e-38
0.0010787919 -0.12114228 0.0068864524 2.3509886e-38
0.0029228143 -0.12210761 0.0029396713 2.3509886e-38
0.0047801472 -0.12307997 -0.0010357201 2.3509886e-38
0.0067176372 -0.12307997 -0.0010357201 2.3509886e-38
0.008609958 -0.12382124 -0.0040664971 2.3509886e-38
0.010552764 -0.12382124 -0.0040664971 2.3509886e-38
0.01249557 -0.12382124 -0.0040664971 2.3509886e-38
0.014438376 -0.12382124 -0.0040664971 2.3509886e-38
0.016349413 -0.12480606 -0.0080927908 2.3509886e-38
0.018299276 -0.12480606 -0.0080927908 2.3509886e-38
0.02024914 -0.12480606 -0.0080927908 2.3509886e-38
0.022191254 -0.12552677 -0.011039406 2.3509886e-38
0.024146285 -0.12552677 -0.011039406 2.3509886e-38
0.026101317 -0.12552677 -0.011039406 2.3509886e-38
0.028056348 -0.12552677 -0.011039406 2.3509886e-38
0.030029248 -0.12652399 -0.015116483 2.3509886e-38
0.03199143 -0.12652399 -0.015116483 2.3509886e-38
0.033985026 -0.12749799 -0.019098669 2.3509886e-38
0.035954189 -0.12749799 -0.019098669 2.3509886e-38
0.037923347 -0.12749799 -0.019098669 2.3509886e-38
0.039932027 -0.12823303 -0.022103935 2.3509886e-38
0.041906461 -0.12823303 -0.022103935 2.3509886e-38
0.043945946 -0.12918831 -0.026009589 2.3509886e-38
0.045927223 -0.12918831 -0.026009589 2.3509886e-38
0.047990371 -0.13018142 -0.030069858 2.3509886e-38
0.050065584 -0.13115029 -0.034031063 2.3509886e-38
0.052060924 -0.13115029 -0.034031063 2.3509886e-38
0.054134719 -0.13190506 -0.037116915 2.3509886e-38
0.05624447 -0.13288604 -0.041127592 2.350988e-38
0.058252256 -0.13288604 -0.041127592 2.2588994e-38
0.060136981 -0.13190506 -0.037116915 2.341804e-38
0.062137734 -0.13190506 -0.037116915 2.3325138e-38
0.064275607 -0.13288604 -0.041127592 1.7424272e-38
0.066283397 -0.13288604 -0.041127592 1.0509245e-38
-0.065655567 -0.12131582 0.013990611 1.0419897e-38
-0.063744418 -0.12131582 0.013990611 1.1065987e-38
-0.061833285 -0.12131582 0.013990611 1.0143314e-38
-0.059693299 -0.12059332 0.016923517 1.9368243e-39
-0.057787292 -0.12059332 0.016923517 0
-0.055881299 -0.12059332 0.016923517 1.8402972e-40
-0.053754561 -0.119846 0.019957155 3.6734198e-40
-0.051853873 -0.119846 0.019957155 6.4320861e-40
-0.049680211 -0.11887501 0.023898691 8.2759987e-40
-0.047313906 -0.11715056 0.030898899 2.3509165e-38
-0.045230575 -0.11639442 0.033968419 2.3508807e-38
-0.043166362 -0.11567034 0.036907762 2.3508085e-38
-0.041295387 -0.11567034 0.036907762 2.3509165e-38
-0.039602228 -0.11639442 0.033968419 2.3509524e-38
-0.037726112 -0.11639442 0.033968419 2.3508085e-38
-0.036024906 -0.11715056 0.030898899 2.3509524e-38
-0.034143411 -0.11715056 0.030898899 2.3509527e-38
-0.032261916 -0.11715056 0.030898899 2.3509886e-38
-0.030587576 -0.11813726 0.026893586 2.3509886e-38
-0.028699063 -0.11813726 0.026893586 2.3509886e-38
-0.026810534 -0.11813726 0.026893586 2.3509886e-38
-0.024922021 -0.11813726 0.026893586 2.3509886e-38
-0.023033492 -0.11813726 0.026893586 2.3509886e-38
-0.02127362 -0.11887501 0.023898691 2.3509886e-38
-0.019379847 -0.11887501 0.023898691 2.3509886e-38
-0.017486081 -0.11887501 0.023898691 2.3509886e-38
-0.01574089 -0.119846 0.019957155 2.3509886e-38
-0.013840206 -0.119846 0.019957155 2.3509886e-38
-0.012043241 -0.12059332 0.016923517 2.3509886e-38
-0.010137241 -0.12059332 0.016923517 2.3509886e-38
-0.0082312375 -0.12059332 0.016923517 2.3509886e-38
-0.0064100847 -0.12131582 0.013990611 2.3509886e-38
-0.00449894 -0.12131582 0.013990611 2.3509886e-38
-0.0025877953 -0.12131582 0.013990611 2.3509886e-38
-0.00077167153 -0.12230472 0.009976238 2.3509886e-38
0.0010787919 -0.12306587 0.0068864524 2.3509886e-38
0.0029228143 -0.12403814 0.0029396713 2.3509886e-38
0.0047801472 -0.12501745 -0.0010357201 2.3509886e-38
0.0067176372 -0.12501745 -0.0010357201 2.3509886e-38
0.0086551309 -0.12501745 -0.0010357201 2.3509886e-38
0.010552764 -0.12576406 -0.0040664971 2.3509886e-38
0.01249557 -0.12576406 -0.0040664971 2.3509886e-38
0.014438376 -0.12576406 -0.0040664971 2.3509886e-38
0.016349413 -0.12675591 -0.0080927908 2.3509886e-38
0.018299276 -0.12675591 -0.0080927908 2.3509886e-38
0.02024914 -0.12675591 -0.0080927908 2.3509886e-38
0.022191254 -0.1274818 -0.011039406 2.3509886e-38
0.024146285 -0.1274818 -0.011039406 2.3509886e-38
0.026101317 -0.1274818 -0.011039406 2.3509886e-38
0.028056348 -0.1274818 -0.011039406 2.3509886e-38
0.030029248 -0.12848614 -0.015116483 2.3509886e-38
0.03199143 -0.12848614 -0.015116483 2.3509886e-38
0.033985026 -0.12946714 -0.019098669 2.3509886e-38
0.035954189 -0.12946714 -0.019098669 2.3509886e-38
0.037923347 -0.12946714 -0.019098669 2.3509886e-38
0.039932027 -0.13020746 -0.022103935 2.3509886e-38
0.041964665 -0.1311696 -0.026009589 2.3509886e-38
0.043945946 -0.1311696 -0.026009589 2.3509886e-38
0.045927223 -0.1311696 -0.026009589 2.3509886e-38
0.047990371 -0.13216983 -0.030069858 2.3509886e-38
0.050065584 -0.13314565 -0.034031063 2.3509886e-38
0.052060924 -0.13314565 -0.034031063 2.3509886e-38
0.054236688 -0.13489382 -0.041127592 2.3509886e-38
0.05624447 -0.13489382 -0.041127592 2.350988e-38
0.058252256 -0.13489382 -0.041127592 2.3509873e-38
0.060260043 -0.13489382 -0.041127592 2.3509876e-38
0.062267829 -0.13489382 -0.041127592 2.3509527e-38
0.064275607 -0.13489382 -0.041127592 2.1388684e-38
0.066139236 -0.13390581 -0.037116915 1.0601081e-38
0.068139993 -0.13390581 -0.037116915 7.8355636e-39
-0.063744418 -0.12322696 0.013990611 1.1158181e-38
-0.061833285 -0.12322696 0.013990611 1.0051115e-38
-0.059922136 -0.12322696 0.013990611 1.2914521e-39
-0.058010988 -0.12322696 0.013990611 3.5873241e-43
-0.055881299 -0.1224993 0.016923517 4.5953621e-40
-0.053754561 -0.12174667 0.019957155 4.5917748e-40
-0.051853873 -0.12174667 0.019957155 4.5917748e-40
-0.049680211 -0.1207688 0.023898691 1.6562815e-39
-0.047584273 -0.12002577 0.026893586 2.193932e-38
-0.045230575 -0.11827053 0.033968419 2.3508807e-38
-0.043166362 -0.1175413 0.036907762 2.3507366e-38
-0.041295387 -0.1175413 0.036907762 2.3508807e-38
-0.039424427 -0.1175413 0.036907762 2.3509165e-38
-0.037553467 -0.1175413 0.036907762 2.3508805e-38
-0.035849996 -0.11827053 0.033968419 2.3509524e-38
-0.034143411 -0.11903207 0.030898899 2.3509527e-38
-0.032261916 -0.11903207 0.030898899 2.3509886e-38
-0.030380413 -0.11903207 0.030898899 2.3509886e-38
-0.028699063 -0.12002577 0.026893586 2.3509886e-38
-0.026810534 -0.12002577 0.026893586 2.3509886e-38
-0.024922021 -0.12002577 0.026893586 2.3509886e-38
-0.023033492 -0.12002577 0.026893586 2.3509886e-38
-0.02127362 -0.1207688 0.023898691 2.3509886e-38
-0.019379847 -0.1207688 0.023898691 2.3509886e-38
-0.017486081 -0.1207688 0.023898691 2.3509886e-38
-0.01574089 -0.12174667 0.019957155 2.3509886e-38
-0.013840206 -0.12174667 0.019957155 2.3509886e-38
-0.012043241 -0.1224993 0.016923517 2.3509886e-38
-0.010137241 -0.1224993 0.016923517 2.3509886e-38
-0.0082312375 -0.1224993 0.016923517 2.3509886e-38
-0.0063252375 -0.1224993 0.016923517 2.3509886e-38
-0.0044192336 -0.1224993 0.016923517 2.3509886e-38
-0.0025877953 -0.12322696 0.013990611 2.3509886e-38
-0.00077167153 -0.12422292 0.009976238 2.3509886e-38
0.0011465102 -0.12422292 0.009976238 2.3509886e-38
0.0029228143 -0.12596865 0.0029396713 2.3509886e-38
0.0048533343 -0.12596865 0.0029396713 2.3509886e-38
0.0067176372 -0.12695493 -0.0010357201 2.3509886e-38
0.0086551309 -0.12695493 -0.0010357201 2.3509886e-38
0.010592621 -0.12695493 -0.0010357201 2.3509886e-38
0.01249557 -0.12770687 -0.0040664971 2.3509886e-38
0.014438376 -0.12770687 -0.0040664971 2.3509886e-38
0.01638118 -0.12770687 -0.0040664971 2.3509886e-38
0.018323984 -0.12770687 -0.0040664971 2.3509886e-38
0.02026679 -0.12770687 -0.0040664971 2.3509886e-38
0.022199005 -0.12870578 -0.0080927908 2.3509886e-38
0.024146285 -0.12943684 -0.011039406 2.3509886e-38
0.026101317 -0.12943684 -0.011039406 2.3509886e-38
0.028056348 -0.12943684 -0.011039406 2.3509886e-38
0.030011378 -0.12943684 -0.011039406 2.3509886e-38
0.03199143 -0.13044833 -0.015116483 2.3509886e-38
0.033985026 -0.1314363 -0.019098669 2.3509886e-38
0.035954189 -0.1314363 -0.019098669 2.3509886e-38
0.037923347 -0.1314363 -0.019098669 2.3509886e-38
0.039932027 -0.1321819 -0.022103935 2.3509886e-38
0.041906461 -0.1321819 -0.022103935 2.3509886e-38
0.043945946 -0.13315089 -0.026009589 2.3509886e-38
0.045927223 -0.13315089 -0.026009589 2.3509886e-38
0.047990371 -0.13415821 -0.030069858 2.3509886e-38
0.049978767 -0.13415821 -0.030069858 2.3509886e-38
0.052060924 -0.13514097 -0.034031063 2.3509886e-38
0.054134719 -0.13590656 -0.037116915 2.3509886e-38
0.05624447 -0.1369016 -0.041127592 2.350988e-38
0.058252256 -0.1369016 -0.041127592 2.3509873e-38
0.060260043 -0.1369016 -0.041127592 2.3509876e-38
0.062267829 -0.1369016 -0.041127592 2.3417333e-38
0.064275607 -0.1369016 -0.041127592 2.332478e-38
0.066139236 -0.13590656 -0.037116915 1.2813773e-38
0.068139993 -0.13590656 -0.037116915 6.6370204e-39
0.070140749 -0.13590656 -0.037116915 7.283089e-39
0.072141498 -0.13590656 -0.037116915 7.8366117e-39
-0.063744418 -0.12513812 0.013990611 1.1157818e-38
-0.061833285 -0.12513812 0.013990611 9.6816089e-39
-0.059922136 -0.12513812 0.013990611 2.7765888e-40
-0.058010988 -0.12513812 0.013990611 3.5873241e-43
-0.055881299 -0.12440531 0.016923517 2.7550649e-40
-0.053975292 -0.12440531 0.016923517 3.6734198e-40
-0.051853873 -0.12364738 0.019957155 5.5101298e-40
-0.049953185 -0.12364738 0.019957155 1.1949433e-39
-0.047584273 -0.12191428 0.026893586 1.8158939e-38
-0.045230575 -0.12014665 0.033968419 2.3508086e-38
-0.043166362 -0.11941226 0.036907762 2.3508446e-38
-0.041295387 -0.11941226 0.036907762 2.3508809e-38
-0.039424427 -0.11941226 0.036907762 2.3508089e-38
-0.037553467 -0.11941226 0.036907762 2.3508807e-38
-0.035849996 -0.12014665 0.033968419 2.3509165e-38
-0.034143411 -0.12091358 0.030898899 2.3509527e-38
-0.032261916 -0.12091358 0.030898899 2.3509886e-38
-0.030380413 -0.12091358 0.030898899 2.3509886e-38
-0.028699063 -0.12191428 0.026893586 2.3509886e-38
-0.026810534 -0.12191428 0.026893586 2.3509886e-38
-0.024922021 -0.12191428 0.026893586 2.3509886e-38
-0.023033492 -0.12191428 0.026893586 2.3509886e-38
-0.02127362 -0.12266256 0.023898691 2.3509886e-38
-0.019379847 -0.12266256 0.023898691 2.3509886e-38
-0.017486081 -0.12266256 0.023898691 2.3509886e-38
-0.01574089 -0.12364738 0.019957155 2.3509886e-38
-0.013840206 -0.12364738 0.019957155 2.3509886e-38
-0.012043241 -0.12440531 0.016923517 2.3509886e-38
-0.010137241 -0.12440531 0.016923517 2.3509886e-38
-0.0082312375 -0.12440531 0.016923517 2.3509886e-38
-0.0063252375 -0.12440531 0.016923517 2.3509886e-38
-0.0044192336 -0.12440531 0.016923517 2.3509886e-38
-0.0025877953 -0.12513812 0.013990611 2.3509886e-38
-0.00077167153 -0.12614109 0.009976238 2.3509886e-38
0.0011465102 -0.12614109 0.009976238 2.3509886e-38
0.003002394 -0.12691309 0.0068864524 2.3509886e-38
0.0048533343 -0.12789918 0.0029396713 2.3509886e-38
0.0067176372 -0.12889244 -0.0010357201 2.3509886e-38
0.0086551309 -0.12889244 -0.0010357201 2.3509886e-38
0.010592621 -0.12889244 -0.0010357201 2.3509886e-38
0.01249557 -0.12964968 -0.0040664971 2.3509886e-38
0.014438376 -0.12964968 -0.0040664971 2.3509886e-38
0.01638118 -0.12964968 -0.0040664971 2.3509886e-38
0.018323984 -0.12964968 -0.0040664971 2.3509886e-38
0.02026679 -0.12964968 -0.0040664971 2.3509886e-38
0.022199005 -0.13065563 -0.0080927908 2.3509886e-38
0.024148868 -0.13065563 -0.0080927908 2.3509886e-38
0.026098734 -0.13065563 -0.0080927908 2.3509886e-38
0.028056348 -0.13139187 -0.011039406 2.3509886e-38
0.030011378 -0.13139187 -0.011039406 2.3509886e-38
0.03199143 -0.13241051 -0.015116483 2.3509886e-38
0.033985026 -0.13340546 -0.019098669 2.3509886e-38
0.035954189 -0.13340546 -0.019098669 2.3509886e-38
0.037923347 -0.13340546 -0.019098669 2.3509886e-38
0.03989251 -0.13340546 -0.019098669 2.3509886e-38
0.041906461 -0.13415633 -0.022103935 2.3509886e-38
0.043945946 -0.13513215 -0.026009589 2.3509886e-38
0.045927223 -0.13513215 -0.026009589 2.3509886e-38
0.047990371 -0.13614662 -0.030069858 2.3509886e-38
0.049978767 -0.13614662 -0.030069858 2.3509886e-38
0.052060924 -0.13713633 -0.034031063 2.3509886e-38
0.054134719 -0.13790731 -0.037116915 2.3509886e-38
0.056135476 -0.13790731 -0.037116915 2.350988e-38
0.058252256 -0.13890938 -0.041127592 2.350987e-38
0.060136981 -0.13790731 -0.037116915 2.2956698e-38
0.062137734 -0.13790731 -0.037116915 2.3509168e-38
0.064275607 -0.13890938 -0.041127592 2.3508809e-38
0.066283397 -0.13890938 -0.041127592 1.816112e-38
0.068291187 -0.13890938 -0.041127592 6.9136045e-39
0.07029897 -0.13890938 -0.041127592 7.0986978e-39
-0.063744418 -0.12704925 0.013990611 1.1248932e-38
-0.061833285 -0.12704925 0.013990611 9.1284351e-39
-0.059922136 -0.12704925 0.013990611 3.5873241e-43
-0.058010988 -0.12704925 0.013990611 3.5873241e-43
-0.05609984 -0.12704925 0.013990611 9.1835496e-41
-0.053975292 -0.12631132 0.016923517 3.6734198e-40
-0.052069284 -0.12631132 0.016923517 6.4320861e-40
-0.049953185 -0.12554805 0.019957155 5.5101298e-40
-0.047584273 -0.12380283 0.026893586 1.5024648e-38
-0.045230575 -0.12202276 0.033968419 2.3507722e-38
-0.043166362 -0.12128322 0.036907762 2.3509163e-38
-0.041295387 -0.12128322 0.036907762 2.3508807e-38
-0.039424427 -0.12128322 0.036907762 2.3415529e-38
-0.037553467 -0.12128322 0.036907762 2.3508807e-38
-0.035849996 -0.12202276 0.033968419 2.3509165e-38
-0.034143411 -0.12279506 0.030898899 2.3509527e-38
-0.032261916 -0.12279506 0.030898899 2.3509886e-38
-0.030380413 -0.12279506 0.030898899 2.3509886e-38
-0.028699063 -0.12380283 0.026893586 2.3509886e-38
-0.026810534 -0.12380283 0.026893586 2.3509886e-38
-0.024922021 -0.12380283 0.026893586 2.3509886e-38
-0.023033492 -0.12380283 0.026893586 2.3509886e-38
-0.02127362 -0.12455635 0.023898691 2.3509886e-38
-0.019379847 -0.12455635 0.023898691 2.3509886e-38
-0.017486081 -0.12455635 0.023898691 2.3509886e-38
-0.01574089 -0.12554805 0.019957155 2.3509886e-38
-0.013840206 -0.12554805 0.019957155 2.3509886e-38
-0.012043241 -0.12631132 0.016923517 2.3509886e-38
-0.010137241 -0.12631132 0.016923517 2.3509886e-38
-0.0082312375 -0.12631132 0.016923517 2.3509886e-38
-0.0063252375 -0.12631132 0.016923517 2.3509886e-38
-0.0044192336 -0.12631132 0.016923517 2.3509886e-38
-0.0025877953 -0.12704925 0.013990611 2.3509886e-38
-0.00077167153 -0.12805928 0.009976238 2.3509886e-38
0.0011465102 -0.12805928 0.009976238 2.3509886e-38
0.003002394 -0.12883668 0.0068864524 2.3509886e-38
0.0048533343 -0.12982969 0.0029396713 2.3509886e-38
0.0067838579 -0.12982969 0.0029396713 2.3509886e-38
0.0086551309 -0.13082992 -0.0010357201 2.3509886e-38
0.010592621 -0.13082992 -0.0010357201 2.3509886e-38
0.01249557 -0.13159247 -0.0040664971 2.3509886e-38
0.014438376 -0.13159247 -0.0040664971 2.3509886e-38
0.01638118 -0.13159247 -0.0040664971 2.3509886e-38
0.018323984 -0.13159247 -0.0040664971 2.3509886e-38
0.02026679 -0.13159247 -0.0040664971 2.3509886e-38
0.022199005 -0.13260551 -0.0080927908 2.3509886e-38
0.024148868 -0.13260551 -0.0080927908 2.3509886e-38
0.026098734 -0.13260551 -0.0080927908 2.3509886e-38
0.028056348 -0.13334687 -0.011039406 2.3509886e-38
0.030029248 -0.1343727 -0.015116483 2.3509886e-38
0.03199143 -0.1343727 -0.015116483 2.3509886e-38
0.033953607 -0.1343727 -0.015116483 2.3509886e-38
0.035954189 -0.13537462 -0.019098669 2.3509886e-38
0.037923347 -0.13537462 -0.019098669 2.3509886e-38
0.03989251 -0.13537462 -0.019098669 2.3509886e-38
0.041906461 -0.13613077 -0.022103935 2.3509886e-38
0.043945946 -0.13711344 -0.026009589 2.3509886e-38
0.045927223 -0.13711344 -0.026009589 2.3509886e-38
0.047990371 -0.138135 -0.030069858 2.3509886e-38
0.049978767 -0.138135 -0.030069858 2.3509886e-38
0.052060924 -0.13913165 -0.034031063 2.3509886e-38
0.054134719 -0.13990806 -0.037116915 2.3509886e-38
0.056135476 -0.13990806 -0.037116915 2.350988e-38
0.058252256 -0.14091717 -0.041127592 2.3509873e-38
0.060136981 -0.13990806 -0.037116915 2.3417679e-38
0.062137734 -0.13990806 -0.037116915 2.3509527e-38
0.064138487 -0.13990806 -0.037116915 2.3325138e-38
0.066283397 -0.14091717 -0.041127592 2.2863809e-38
0.068291187 -0.14091717 -0.041127592 7.4674943e-39
0.07029897 -0.14091717 -0.041127592 6.8224738e-39
-0.063744418 -0.12896039 0.013990611 1.106418e-38
-0.061833285 -0.12896039 0.013990611 8.7589366e-39
-0.059922136 -0.12896039 0.013990611 3.5873241e-43
-0.058010988 -0.12896039 0.013990611 9.219563e-41
-0.055881299 -0.12821732 0.016923517 3.6806646e-40
-0.053975292 -0.12821732 0.016923517 9.1838299e-41
-0.052069284 -0.12821732 0.016923517 6.4393028e-40
-0.049953185 -0.12744872 0.019957155 8.2831873e-40
-0.047584273 -0.12569134 0.026893586 9.771292e-39
-0.045230575 -0.12389888 0.033968419 2.350952e-38
-0.042907603 -0.12212978 0.040951103 2.350952e-38
-0.041043721 -0.12212978 0.040951103 2.3415885e-38
-0.039179854 -0.12212978 0.040951103 2.3509521e-38
-0.037553467 -0.12315418 0.036907762 2.3508445e-38
-0.035682507 -0.12315418 0.036907762 2.3509524e-38
-0.03397388 -0.12389888 0.033968419 2.3509527e-38
-0.032261916 -0.12467657 0.030898899 2.3509886e-38
-0.030380413 -0.12467657 0.030898899 2.3509886e-38
-0.028699063 -0.12569134 0.026893586 2.3509886e-38
-0.026810534 -0.12569134 0.026893586 2.3509886e-38
-0.024922021 -0.12569134 0.026893586 2.3509886e-38
-0.023033492 -0.12569134 0.026893586 2.3509886e-38
-0.02127362 -0.12645011 0.023898691 2.3509886e-38
-0.019379847 -0.12645011 0.023898691 2.3509886e-38
-0.017486081 -0.12645011 0.023898691 2.3509886e-38
-0.01574089 -0.12744872 0.019957155 2.3509886e-38
-0.013840206 -0.12744872 0.019957155 2.3509886e-38
-0.012043241 -0.12821732 0.016923517 2.3509886e-38
-0.010137241 -0.12821732 0.016923517 2.3509886e-38
-0.0082312375 -0.12821732 0.016923517 2.3509886e-38
-0.0063252375 -0.12821732 0.016923517 2.3509886e-38
-0.0044192336 -0.12821732 0.016923517 2.3509886e-38
-0.0025877953 -0.12896039 0.013990611 2.3509886e-38
-0.00077167153 -0.12997745 0.009976238 2.3509886e-38
0.0011465102 -0.12997745 0.009976238 2.3509886e-38
0.003002394 -0.13076027 0.0068864524 2.3509886e-38
0.0048533343 -0.13176022 0.0029396713 2.3509886e-38
0.0067838579 -0.13176022 0.0029396713 2.3509886e-38
0.0086551309 -0.13276742 -0.0010357201 2.3509886e-38
0.010592621 -0.13276742 -0.0010357201 2.3509886e-38
0.012530111 -0.13276742 -0.0010357201 2.3509886e-38
0.014467601 -0.13276742 -0.0010357201 2.3509886e-38
0.01638118 -0.13353528 -0.0040664971 2.3509886e-38
0.018323984 -0.13353528 -0.0040664971 2.3509886e-38
0.02026679 -0.13353528 -0.0040664971 2.3509886e-38
0.022199005 -0.13455538 -0.0080927908 2.3509886e-38
0.024146285 -0.1353019 -0.011039406 2.3509886e-38
0.026101317 -0.1353019 -0.011039406 2.3509886e-38
0.028056348 -0.1353019 -0.011039406 2.3509886e-38
0.030029248 -0.13633488 -0.015116483 2.3509886e-38
0.03199143 -0.13633488 -0.015116483 2.3509886e-38
0.033953607 -0.13633488 -0.015116483 2.3509886e-38
0.035954189 -0.13734378 -0.019098669 2.3509886e-38
0.037923347 -0.13734378 -0.019098669 2.3509886e-38
0.03989251 -0.13734378 -0.019098669 2.3509886e-38
0.041906461 -0.1381052 -0.022103935 2.3509886e-38
0.043945946 -0.13909473 -0.026009589 2.3509886e-38
0.045927223 -0.13909473 -0.026009589 2.3509886e-38
0.047990371 -0.14012341 -0.030069858 2.3509886e-38
0.050065584 -0.14112701 -0.034031063 2.3509886e-38
0.052060924 -0.14112701 -0.034031063 2.3509886e-38
0.054134719 -0.14190884 -0.037116915 2.3509886e-38
0.056135476 -0.14190884 -0.037116915 2.3509883e-38
0.058136228 -0.14190884 -0.037116915 2.350988e-38
0.060136981 -0.14190884 -0.037116915 2.3141456e-38
0.062137734 -0.14190884 -0.037116915 2.341769e-38
0.064138487 -0.14190884 -0.037116915 2.341805e-38
0.066283397 -0.14292495 -0.041127592 2.3233662e-38
0.068291187 -0.14292495 -0.041127592 9.2210077e-39
0.07029897 -0.14292495 -0.041127592 6.8239185e-39
-0.063744418 -0.13087155 0.013990611 1.1432963e-38
-0.061833285 -0.13087155 0.013990611 8.7589366e-39
-0.059922136 -0.13087155 0.013990611 0
-0.058010988 -0.13087155 0.013990611 9.2198432e-41
-0.055881299 -0.13012333 0.016923517 2.7623376e-40
-0.053975292 -0.13012333 0.016923517 9.1841101e-41
-0.051853873 -0.12934943 0.019957155 1.836752e-40
-0.049953185 -0.12934943 0.019957155 4.6061521e-40
-0.047584273 -0.12757985 0.026893586 6.7299138e-39
-0.045230575 -0.12577499 0.033968419 2.0558538e-38
-0.042907603 -0.12399365 0.040951103 2.3509156e-38
-0.041043721 -0.12399365 0.040951103 2.3509518e-38
-0.039179854 -0.12399365 0.040951103 2.3509879e-38
-0.037315972 -0.12399365 0.040951103 2.3508444e-38
-0.035682507 -0.12502514 0.036907762 2.3509883e-38
-0.033811539 -0.12502514 0.036907762 2.3509527e-38
-0.032097764 -0.12577499 0.033968419 2.3509886e-38
-0.030380413 -0.12655805 0.030898899 2.3509886e-38
-0.02849891 -0.12655805 0.030898899 2.3509886e-38
-0.026617415 -0.12655805 0.030898899 2.3509886e-38
-0.02473592 -0.12655805 0.030898899 2.3509886e-38
-0.023033492 -0.12757985 0.026893586 2.3509886e-38
-0.021144979 -0.12757985 0.026893586 2.3509886e-38
-0.01925645 -0.12757985 0.026893586 2.3509886e-38
-0.017367929 -0.12757985 0.026893586 2.3509886e-38
-0.015592307 -0.1283439 0.023898691 2.3509886e-38
-0.013698533 -0.1283439 0.023898691 2.3509886e-38
-0.011939522 -0.12934943 0.019957155 2.3509886e-38
-0.010137241 -0.13012333 0.016923517 2.3509886e-38
-0.0082312375 -0.13012333 0.016923517 2.3509886e-38
-0.0063252375 -0.13012333 0.016923517 2.3509886e-38
-0.00449894 -0.13087155 0.013990611 2.3509886e-38
-0.0025877953 -0.13087155 0.013990611 2.3509886e-38
-0.00077167153 -0.13189565 0.009976238 2.3509886e-38
0.0011465102 -0.13189565 0.009976238 2.3509886e-38
0.003002394 -0.13268389 0.0068864524 2.3509886e-38
0.0048533343 -0.13369073 0.0029396713 2.3509886e-38
0.0067838579 -0.13369073 0.0029396713 2.3509886e-38
0.0086551309 -0.1347049 -0.0010357201 2.3509886e-38
0.010592621 -0.1347049 -0.0010357201 2.3509886e-38
0.012530111 -0.1347049 -0.0010357201 2.3509886e-38
0.014467601 -0.1347049 -0.0010357201 2.3509886e-38
0.01638118 -0.13547809 -0.0040664971 2.3509886e-38
0.018323984 -0.13547809 -0.0040664971 2.3509886e-38
0.02026679 -0.13547809 -0.0040664971 2.3509886e-38
0.022209594 -0.13547809 -0.0040664971 2.3509886e-38
0.024148868 -0.13650523 -0.0080927908 2.3509886e-38
0.026101317 -0.13725694 -0.011039406 2.3509886e-38
0.028056348 -0.13725694 -0.011039406 2.3509886e-38
0.030029248 -0.13829704 -0.015116483 2.3509886e-38
0.03199143 -0.13829704 -0.015116483 2.3509886e-38
0.033953607 -0.13829704 -0.015116483 2.3509886e-38
0.035915785 -0.13829704 -0.015116483 2.3509886e-38
0.037923347 -0.13931294 -0.019098669 2.3509886e-38
0.03989251 -0.13931294 -0.019098669 2.3509886e-38
0.041906461 -0.14007963 -0.022103935 2.3509886e-38
0.043880887 -0.14007963 -0.022103935 2.3509886e-38
0.045927223 -0.14107598 -0.026009589 2.3509886e-38
0.0479085 -0.14107598 -0.026009589 2.3509886e-38
0.049978767 -0.14211179 -0.030069858 2.3509886e-38
0.051967166 -0.14211179 -0.030069858 2.3509886e-38
0.054056268 -0.14312236 -0.034031063 2.3509886e-38
0.056051612 -0.14312236 -0.034031063 2.3509886e-38
0.058136228 -0.14390959 -0.037116915 2.3509883e-38
0.060042296 -0.14312236 -0.034031063 2.3417687e-38
0.062037639 -0.14312236 -0.034031063 2.3326213e-38
0.064138487 -0.14390959 -0.037116915 2.341805e-38
0.066283397 -0.14493273 -0.041127592 2.3234379e-38
0.068291187 -0.14493273 -0.041127592 9.4053962e-39
0.07029897 -0.14493273 -0.041127592 7.2852596e-39
-0.063744418 -0.13278268 0.013990611 1.106418e-38
-0.061833285 -0.13278268 0.013990611 8.2979584e-39
-0.059922136 -0.13278268 0.013990611 0
-0.058010988 -0.13278268 0.013990611 2.8025969e-45
-0.055881299 -0.13202934 0.016923517 1.8403813e-40
-0.053975292 -0.13202934 0.016923517 9.1841101e-41
-0.051853873 -0.1312501 0.019957155 9.1838299e-41
-0.049680211 -0.13023765 0.023898691 1.8402972e-40
-0.047584273 -0.1294684 0.026893586 3.0420886e-39
-0.045230575 -0.12765111 0.033968419 1.5395583e-38
-0.042907603 -0.12585752 0.040951103 2.3509156e-38
-0.041043721 -0.12585752 0.040951103 2.3509879e-38
-0.039179854 -0.12585752 0.040951103 2.3508798e-38
-0.037315972 -0.12585752 0.040951103 2.3508444e-38
-0.035452105 -0.12585752 0.040951103 2.3509883e-38
-0.033588223 -0.12585752 0.040951103 2.3509527e-38
-0.031940572 -0.1268961 0.036907762 2.3509886e-38
-0.030221649 -0.12765111 0.033968419 2.3509886e-38
-0.02849891 -0.12843956 0.030898899 2.3509886e-38
-0.026617415 -0.12843956 0.030898899 2.3509886e-38
-0.02473592 -0.12843956 0.030898899 2.3509886e-38
-0.023033492 -0.1294684 0.026893586 2.3509886e-38
-0.021144979 -0.1294684 0.026893586 2.3509886e-38
-0.01925645 -0.1294684 0.026893586 2.3509886e-38
-0.017367929 -0.1294684 0.026893586 2.3509886e-38
-0.015592307 -0.13023765 0.023898691 2.3509886e-38
-0.013698533 -0.13023765 0.023898691 2.3509886e-38
-0.011939522 -0.1312501 0.019957155 2.3509886e-38
-0.010137241 -0.13202934 0.016923517 2.3509886e-38
-0.0082312375 -0.13202934 0.016923517 2.3509886e-38
-0.0063252375 -0.13202934 0.016923517 2.3509886e-38
-0.0044192336 -0.13202934 0.016923517 2.3509886e-38
-0.0025877953 -0.13278268 0.013990611 2.3509886e-38
-0.00077167153 -0.13381381 0.009976238 2.3509886e-38
0.0011465102 -0.13381381 0.009976238 2.3509886e-38
0.003002394 -0.13460748 0.0068864524 2.3509886e-38
0.0048533343 -0.13562126 0.0029396713 2.3509886e-38
0.0067838579 -0.13562126 0.0029396713 2.3509886e-38
0.0086551309 -0.13664238 -0.0010357201 2.3509886e-38
0.010592621 -0.13664238 -0.0010357201 2.3509886e-38
0.012530111 -0.13664238 -0.0010357201 2.3509886e-38
0.014467601 -0.13664238 -0.0010357201 2.3509886e-38
0.01638118 -0.13742088 -0.0040664971 2.3509886e-38
0.018323984 -0.13742088 -0.0040664971 2.3509886e-38
0.02026679 -0.13742088 -0.0040664971 2.3509886e-38
0.022209594 -0.13742088 -0.0040664971 2.3509886e-38
0.024148868 -0.13845511 -0.0080927908 2.3509886e-38
0.026098734 -0.13845511 -0.0080927908 2.3509886e-38
0.028056348 -0.13921197 -0.011039406 2.3509886e-38
0.030011378 -0.13921197 -0.011039406 2.3509886e-38
0.03199143 -0.14025922 -0.015116483 2.3509886e-38
0.033953607 -0.14025922 -0.015116483 2.3509886e-38
0.035915785 -0.14025922 -0.015116483 2.3509886e-38
0.037877966 -0.14025922 -0.015116483 2.3509886e-38
0.03989251 -0.1412821 -0.019098669 2.3509886e-38
0.041861668 -0.1412821 -0.019098669 2.3509886e-38
0.043880887 -0.14205404 -0.022103935 2.3509886e-38
0.045855321 -0.14205404 -0.022103935 2.3509886e-38
0.0479085 -0.14305727 -0.026009589 2.3509886e-38
0.049978767 -0.1441002 -0.030069858 2.3509886e-38
0.051967166 -0.1441002 -0.030069858 2.3509886e-38
0.054056268 -0.14511769 -0.034031063 2.3509886e-38
0.056051612 -0.14511769 -0.034031063 2.3509886e-38
0.058046956 -0.14511769 -0.034031063 2.3509883e-38
0.060042296 -0.14511769 -0.034031063 2.3417687e-38
0.062037639 -0.14511769 -0.034031063 2.3049626e-38
0.064032987 -0.14511769 -0.034031063 2.341805e-38
0.066139236 -0.14591034 -0.037116915 2.3234379e-38
0.068438515 -0.14794444 -0.045035869 9.0366137e-39
-0.063744418 -0.13469382 0.013990611 9.9578329e-39
-0.061833285 -0.13469382 0.013990611 7.7447846e-39
-0.059922136 -0.13469382 0.013990611 0
-0.058010988 -0.13469382 0.013990611 2.8025969e-45
-0.055881299 -0.13393532 0.016923517 5.6051939e-45
-0.053975292 -0.13393532 0.016923517 9.1841101e-41
-0.051853873 -0.13315077 0.019957155 1.836752e-40
-0.049680211 -0.13213144 0.023898691 9.1835496e-41
-0.047584273 -0.13135691 0.026893586 6.4500227e-40
-0.045230575 -0.12952723 0.033968419 1.1062388e-38
-0.042907603 -0.12772138 0.040951103 2.3509876e-38
-0.04085622 -0.12694232 0.043963522 2.3509879e-38
-0.038997628 -0.12694232 0.043963522 2.3416603e-38
-0.037139036 -0.12694232 0.043963522 2.3509524e-38
-0.035452105 -0.12772138 0.040951103 2.3509883e-38
-0.033588223 -0.12772138 0.040951103 2.3509527e-38
-0.031724356 -0.12772138 0.040951103 2.3509886e-38
-0.030069612 -0.12876706 0.036907762 2.3509886e-38
-0.02849891 -0.13032107 0.030898899 2.3509886e-38
-0.026617415 -0.13032107 0.030898899 2.3509886e-38
-0.02473592 -0.13032107 0.030898899 2.3509886e-38
-0.022854418 -0.13032107 0.030898899 2.3509886e-38
-0.021144979 -0.13135691 0.026893586 2.3509886e-38
-0.01925645 -0.13135691 0.026893586 2.3509886e-38
-0.017367929 -0.13135691 0.026893586 2.3509886e-38
-0.015479408 -0.13135691 0.026893586 2.3509886e-38
-0.013590887 -0.13135691 0.026893586 2.3509886e-38
-0.011804763 -0.13213144 0.023898691 2.3509886e-38
-0.010137241 -0.13393532 0.016923517 2.3509886e-38
-0.0082312375 -0.13393532 0.016923517 2.3509886e-38
-0.0063252375 -0.13393532 0.016923517 2.3509886e-38
-0.0044192336 -0.13393532 0.016923517 2.3509886e-38
-0.0025877953 -0.13469382 0.013990611 2.3509886e-38
-0.00077167153 -0.13573201 0.009976238 2.3509886e-38
0.0011465102 -0.13573201 0.009976238 2.3509886e-38
0.003002394 -0.13653107 0.0068864524 2.3509886e-38
0.0048533343 -0.1375518 0.0029396713 2.3509886e-38
0.0067838579 -0.1375518 0.0029396713 2.3509886e-38
0.0087143779 -0.1375518 0.0029396713 2.3509886e-38
0.010592621 -0.13857989 -0.0010357201 2.3509886e-38
0.012530111 -0.13857989 -0.0010357201 2.3509886e-38
0.014467601 -0.13857989 -0.0010357201 2.3509886e-38
0.016405093 -0.13857989 -0.0010357201 2.3509886e-38
0.018342584 -0.13857989 -0.0010357201 2.3509886e-38
0.020280074 -0.13857989 -0.0010357201 2.3509886e-38
0.022209594 -0.13936369 -0.0040664971 2.3509886e-38
0.024152398 -0.13936369 -0.0040664971 2.3509886e-38
0.026098734 -0.14040495 -0.0080927908 2.3509886e-38
0.028048597 -0.14040495 -0.0080927908 2.3509886e-38
0.030011378 -0.141167 -0.011039406 2.3509886e-38
0.031966411 -0.141167 -0.011039406 2.3509886e-38
0.033953607 -0.14222141 -0.015116483 2.3509886e-38
0.035915785 -0.14222141 -0.015116483 2.3509886e-38
0.037877966 -0.14222141 -0.015116483 2.3509886e-38
0.039840143 -0.14222141 -0.015116483 2.3509886e-38
0.041861668 -0.14325126 -0.019098669 2.3509886e-38
0.043880887 -0.14402847 -0.022103935 2.3509886e-38
0.045855321 -0.14402847 -0.022103935 2.3509886e-38
0.047829751 -0.14402847 -0.022103935 2.3509886e-38
0.049978767 -0.14608859 -0.030069858 2.3509886e-38
0.051967166 -0.14608859 -0.030069858 2.3509886e-38
0.053955562 -0.14608859 -0.030069858 2.3509886e-38
0.056051612 -0.14711304 -0.034031063 2.3509886e-38
0.058046956 -0.14711304 -0.034031063 2.3325492e-38
0.060042296 -0.14711304 -0.034031063 2.3509883e-38
0.06190915 -0.14608859 -0.030069858 2.3141822e-38
0.06389755 -0.14608859 -0.030069858 2.3234018e-38
0.066028327 -0.14711304 -0.034031063 2.3234379e-38
0.068023667 -0.14711304 -0.034031063 9.4053962e-39
-0.063744418 -0.13660498 0.013990611 9.1280722e-39
-0.061833285 -0.13660498 0.013990611 7.4681977e-39
-0.059922136 -0.13660498 0.013990611 1.8438846e-40
-0.058010988 -0.13660498 0.013990611 2.8025969e-45
-0.05609984 -0.13660498 0.013990611 5.6051939e-45
-0.053975292 -0.13584132 0.016923517 9.1841101e-41
-0.051853873 -0.13505147 0.019957155 3.6806646e-40
-0.049953185 -0.13505147 0.019957155 9.1835496e-41
-0.047584273 -0.13324542 0.026893586 9.1835496e-41
-0.04477147 -0.12958528 0.040951103 8.112128e-39
-0.042907603 -0.12958528 0.040951103 2.3509876e-38
-0.04085622 -0.12880091 0.043963522 2.3509879e-38
-0.038997628 -0.12880091 0.043963522 2.3509158e-38
-0.037139036 -0.12880091 0.043963522 2.3509524e-38
-0.035280444 -0.12880091 0.043963522 2.3509523e-38
-0.033588223 -0.12958528 0.040951103 2.3509527e-38
-0.031724356 -0.12958528 0.040951103 2.3509886e-38
-0.030069612 -0.13063805 0.036907762 2.3509886e-38
-0.028345533 -0.13140334 0.033968419 2.3509886e-38
-0.026469417 -0.13140334 0.033968419 2.3509886e-38
-0.024593301 -0.13140334 0.033968419 2.3509886e-38
-0.022854418 -0.13220255 0.030898899 2.3509886e-38
-0.020972915 -0.13220255 0.030898899 2.3509886e-38
-0.01925645 -0.13324542 0.026893586 2.3509886e-38
-0.017367929 -0.13324542 0.026893586 2.3509886e-38
-0.015479408 -0.13324542 0.026893586 2.3509886e-38
-0.013590887 -0.13324542 0.026893586 2.3509886e-38
-0.011804763 -0.1340252 0.023898691 2.3509886e-38
-0.010038838 -0.13505147 0.019957155 2.3509886e-38
-0.0082312375 -0.13584132 0.016923517 2.3509886e-38
-0.0063252375 -0.13584132 0.016923517 2.3509886e-38
-0.0044192336 -0.13584132 0.016923517 2.3509886e-38
-0.0025877953 -0.13660498 0.013990611 2.3509886e-38
-0.00077167153 -0.13765021 0.009976238 2.3509886e-38
0.0011465102 -0.13765021 0.009976238 2.3509886e-38
0.003002394 -0.13845469 0.0068864524 2.3509886e-38
0.0048533343 -0.1394823 0.0029396713 2.3509886e-38
0.0067838579 -0.1394823 0.0029396713 2.3509886e-38
0.0087143779 -0.1394823 0.0029396713 2.3509886e-38
0.010644898 -0.1394823 0.0029396713 2.3509886e-38
0.012575418 -0.1394823 0.0029396713 2.3509886e-38
0.014467601 -0.14051737 -0.0010357201 2.3509886e-38
0.016405093 -0.14051737 -0.0010357201 2.3509886e-38
0.018342584 -0.14051737 -0.0010357201 2.3509886e-38
0.020280074 -0.14051737 -0.0010357201 2.3509886e-38
0.022209594 -0.1413065 -0.0040664971 2.3509886e-38
0.024152398 -0.1413065 -0.0040664971 2.3509886e-38
0.026095204 -0.1413065 -0.0040664971 2.3509886e-38
0.028048597 -0.14235483 -0.0080927908 2.3509886e-38
0.029998463 -0.14235483 -0.0080927908 2.3509886e-38
0.031966411 -0.14312203 -0.011039406 2.3509886e-38
0.033921439 -0.14312203 -0.011039406 2.3509886e-38
0.035876468 -0.14312203 -0.011039406 2.3509886e-38
0.037877966 -0.14418359 -0.015116483 2.3509886e-38
0.039840143 -0.14418359 -0.015116483 2.3509886e-38
0.041861668 -0.14522041 -0.019098669 2.3509886e-38
0.043830834 -0.14522041 -0.019098669 2.3509886e-38
0.045799993 -0.14522041 -0.019098669 2.3509886e-38
0.047829751 -0.1460029 -0.022103935 2.3509886e-38
0.049889781 -0.14701982 -0.026009589 2.3509886e-38
0.051967166 -0.148077 -0.030069858 2.3509886e-38
0.053955562 -0.148077 -0.030069858 2.3509886e-38
0.056051612 -0.14910837 -0.034031063 2.3509886e-38
0.058046956 -0.14910837 -0.034031063 2.3325492e-38
0.059920754 -0.148077 -0.030069858 2.3509883e-38
0.06190915 -0.148077 -0.030069858 2.341805e-38
0.06389755 -0.148077 -0.030069858 2.341805e-38
0.065885946 -0.148077 -0.030069858 2.3142544e-38
0.067874342 -0.148077 -0.030069858 1.1341507e-38
0.069862738 -0.148077 -0.030069858 7.6540436e-39
-0.064071722 -0.13956837 0.009976238 8.8514853e-39
-0.061833285 -0.13851611 0.013990611 7.1916109e-39
-0.059922136 -0.13851611 0.013990611 3.6877972e-40
-0.058010988 -0.13851611 0.013990611 9.2198432e-41
-0.05609984 -0.13851611 0.013990611 5.6051939e-45
-0.053975292 -0.13774733 0.016923517 9.1841101e-41
-0.051853873 -0.13695215 0.019957155 2.7587083e-40
-0.049953185 -0.13695215 0.019957155 9.1835496e-41
-0.047786437 -0.13591899 0.023898691 2.7622395e-40
-0.04477147 -0.13144915 0.040951103 5.7150416e-39
-0.042907603 -0.13144915 0.040951103 2.3509876e-38
-0.04085622 -0.13065951 0.043963522 2.3509518e-38
-0.038997628 -0.13065951 0.043963522 2.3509518e-38
-0.037139036 -0.13065951 0.043963522 2.3509524e-38
-0.035280444 -0.13065951 0.043963522 2.3417327e-38
-0.033588223 -0.13144915 0.040951103 2.3509527e-38
-0.031724356 -0.13144915 0.040951103 2.3509886e-38
-0.030069612 -0.13250901 0.036907762 2.3509886e-38
-0.028345533 -0.13327946 0.033968419 2.3509886e-38
-0.026469417 -0.13327946 0.033968419 2.3509886e-38
-0.024593301 -0.13327946 0.033968419 2.3509886e-38
-0.022854418 -0.13408406 0.030898899 2.3509886e-38
-0.020972915 -0.13408406 0.030898899 2.3509886e-38
-0.01925645 -0.13513394 0.026893586 2.3509886e-38
-0.017367929 -0.13513394 0.026893586 2.3509886e-38
-0.015479408 -0.13513394 0.026893586 2.3509886e-38
-0.013590887 -0.13513394 0.026893586 2.3509886e-38
-0.011804763 -0.13591899 0.023898691 2.3509886e-38
-0.010038838 -0.13695215 0.019957155 2.3509886e-38
-0.0081381574 -0.13695215 0.019957155 2.3509886e-38
-0.0063252375 -0.13774733 0.016923517 2.3509886e-38
-0.0044192336 -0.13774733 0.016923517 2.3509886e-38
-0.0025877953 -0.13851611 0.013990611 2.3509886e-38
-0.00077167153 -0.13956837 0.009976238 2.3509886e-38
0.0010787919 -0.14037828 0.0068864524 2.3509886e-38
0.003002394 -0.14037828 0.0068864524 2.3509886e-38
0.0048533343 -0.14141284 0.0029396713 2.3509886e-38
0.0067838579 -0.14141284 0.0029396713 2.3509886e-38
0.0087143779 -0.14141284 0.0029396713 2.3509886e-38
0.010644898 -0.14141284 0.0029396713 2.3509886e-38
0.012575418 -0.14141284 0.0029396713 2.3509886e-38
0.014505938 -0.14141284 0.0029396713 2.3509886e-38
0.016405093 -0.14245488 -0.0010357201 2.3509886e-38
0.018342584 -0.14245488 -0.0010357201 2.3509886e-38
0.020280074 -0.14245488 -0.0010357201 2.3509886e-38
0.022217564 -0.14245488 -0.0010357201 2.3509886e-38
0.024155056 -0.14245488 -0.0010357201 2.3509886e-38
0.026095204 -0.14324932 -0.0040664971 2.3509886e-38
0.028038008 -0.14324932 -0.0040664971 2.3509886e-38
0.029998463 -0.14430468 -0.0080927908 2.3509886e-38
0.031948328 -0.14430468 -0.0080927908 2.3509886e-38
0.033921439 -0.14507706 -0.011039406 2.3509886e-38
0.035876468 -0.14507706 -0.011039406 2.3509886e-38
0.0378315 -0.14507706 -0.011039406 2.3509886e-38
0.039840143 -0.14614578 -0.015116483 2.3509886e-38
0.041861668 -0.1471896 -0.019098669 2.3509886e-38
0.043830834 -0.1471896 -0.019098669 2.3509886e-38
0.045799993 -0.1471896 -0.019098669 2.3509886e-38
0.047829751 -0.14797734 -0.022103935 2.3509886e-38
0.049804181 -0.14797734 -0.022103935 2.3509886e-38
0.051871058 -0.14900111 -0.026009589 2.3509886e-38
-0.063744418 -0.14042725 0.013990611 8.5748984e-39
-0.061833285 -0.14042725 0.013990611 6.3618502e-39
-0.059922136 -0.14042725 0.013990611 0
-0.058010988 -0.14042725 0.013990611 9.2198432e-41
-0.05609984 -0.14042725 0.013990611 5.6051939e-45
-0.054188706 -0.14042725 0.013990611 9.1841101e-41
-0.052069284 -0.13965334 0.016923517 9.1838299e-41
-0.050163291 -0.13965334 0.016923517 9.1835496e-41
-0.047786437 -0.13781275 0.023898691 1.8402972e-40
-0.04477147 -0.13331302 0.040951103 3.2257596e-39
-0.042907603 -0.13331302 0.040951103 2.3509516e-38
-0.04085622 -0.1325181 0.043963522 2.3509879e-38
-0.038997628 -0.1325181 0.043963522 2.3509158e-38
-0.037139036 -0.1325181 0.043963522 2.3509524e-38
-0.035280444 -0.1325181 0.043963522 2.3417327e-38
-0.033588223 -0.13331302 0.040951103 2.3509527e-38
-0.031724356 -0.13331302 0.040951103 2.3509886e-38
-0.029860474 -0.13331302 0.040951103 2.3509886e-38
-0.028198652 -0.13437997 0.036907762 2.3509886e-38
-0.026469417 -0.13515557 0.033968419 2.3509886e-38
-0.024593301 -0.13515557 0.033968419 2.3509886e-38
-0.022854418 -0.13596557 0.030898899 2.3509886e-38
-0.020972915 -0.13596557 0.030898899 2.3509886e-38
-0.01925645 -0.13702248 0.026893586 2.3509886e-38
-0.017367929 -0.13702248 0.026893586 2.3509886e-38
-0.015479408 -0.13702248 0.026893586 2.3509886e-38
-0.013590887 -0.13702248 0.026893586 2.3509886e-38
-0.011702366 -0.13702248 0.026893586 2.3509886e-38
-0.0099109896 -0.13781275 0.023898691 2.3509886e-38
-0.0081381574 -0.13885282 0.019957155 2.3509886e-38
-0.0063252375 -0.13965334 0.016923517 2.3509886e-38
-0.0044192336 -0.13965334 0.016923517 2.3509886e-38
-0.0025132298 -0.13965334 0.016923517 2.3509886e-38
-0.00077167153 -0.14148657 0.009976238 2.3509886e-38
0.0011465102 -0.14148657 0.009976238 2.3509886e-38
0.003002394 -0.14230187 0.0068864524 2.3509886e-38
0.0048533343 -0.14334334 0.0029396713 2.3509886e-38
0.0067838579 -0.14334334 0.0029396713 2.3509886e-38
0.0087143779 -0.14334334 0.0029396713 2.3509886e-38
0.010644898 -0.14334334 0.0029396713 2.3509886e-38
0.012575418 -0.14334334 0.0029396713 2.3509886e-38
0.014505938 -0.14334334 0.0029396713 2.3509886e-38
0.016405093 -0.14439236 -0.0010357201 2.3509886e-38
0.018342584 -0.14439236 -0.0010357201 2.3509886e-38
0.020280074 -0.14439236 -0.0010357201 2.3509886e-38
0.022217564 -0.14439236 -0.0010357201 2.3509886e-38
0.024155056 -0.14439236 -0.0010357201 2.3509886e-38
0.026095204 -0.1451921 -0.0040664971 2.3509886e-38
0.028038008 -0.1451921 -0.0040664971 2.3509886e-38
0.029998463 -0.14625455 -0.0080927908 2.3509886e-38
0.031948328 -0.14625455 -0.0080927908 2.3509886e-38
0.033921439 -0.1470321 -0.011039406 2.3509886e-38
0.035876468 -0.1470321 -0.011039406 2.3509886e-38
0.0378315 -0.1470321 -0.011039406 2.3509886e-38
0.039840143 -0.14810793 -0.015116483 2.3509886e-38
0.041802324 -0.14810793 -0.015116483 2.3509886e-38
0.043830834 -0.14915876 -0.019098669 2.3509886e-38
0.045799993 -0.14915876 -0.019098669 2.3509886e-38
0.047829751 -0.14995177 -0.022103935 2.3509886e-38
0.049804181 -0.14995177 -0.022103935 2.3509886e-38
-0.065411307 -0.14155935 0.016923517 1.2815895e-38
-0.063505299 -0.14155935 0.016923517 8.1139203e-39
-0.061599307 -0.14155935 0.016923517 5.3476983e-39
-0.059922136 -0.14233841 0.013990611 0
-0.058010988 -0.14233841 0.013990611 2.8025969e-45
-0.05609984 -0.14233841 0.013990611 5.6051939e-45
-0.054188706 -0.14233841 0.013990611 1.83678e-40
-0.052069284 -0.14155935 0.016923517 9.1838299e-41
-0.050163291 -0.14155935 0.016923517 9.1835496e-41
-0.048052512 -0.14075352 0.019957155 9.1835496e-41
-0.04477147 -0.13517688 0.040951103 1.5662383e-39
-0.042907603 -0.13517688 0.040951103 2.3324404e-38
-0.04085622 -0.13437669 0.043963522 2.3509879e-38
-0.038997628 -0.13437669 0.043963522 2.3508798e-38
-0.037139036 -0.13437669 0.043963522 2.3509164e-38
-0.035280444 -0.13437669 0.043963522 2.3509523e-38
-0.033588223 -0.13517688 0.040951103 2.3509527e-38
-0.031724356 -0.13517688 0.040951103 2.3509886e-38
-0.029860474 -0.13517688 0.040951103 2.3509886e-38
-0.028198652 -0.13625093 0.036907762 2.3509886e-38
-0.026469417 -0.13703169 0.033968419 2.3509886e-38
-0.024593301 -0.13703169 0.033968419 2.3509886e-38
-0.022854418 -0.13784705 0.030898899 2.3509886e-38
-0.020972915 -0.13784705 0.030898899 2.3509886e-38
-0.01909142 -0.13784705 0.030898899 2.3509886e-38
-0.017209925 -0.13784705 0.030898899 2.3509886e-38
-0.015328422 -0.13784705 0.030898899 2.3509886e-38
-0.013446923 -0.13784705 0.030898899 2.3509886e-38
-0.011702366 -0.13891099 0.026893586 2.3509886e-38
-0.0099109896 -0.13970654 0.023898691 2.3509886e-38
-0.0080172159 -0.13970654 0.023898691 2.3509886e-38
-0.0063252375 -0.14155935 0.016923517 2.3509886e-38
-0.0044192336 -0.14155935 0.016923517 2.3509886e-38
-0.0025132298 -0.14155935 0.016923517 2.3509886e-38
-0.00067665055 -0.14233841 0.013990611 2.3509886e-38
0.0011465102 -0.14340474 0.009976238 2.3509886e-38
0.0030646957 -0.14340474 0.009976238 2.3509886e-38
0.0049259961 -0.14422549 0.0068864524 2.3509886e-38
0.0067838579 -0.14527388 0.0029396713 2.3509886e-38
0.0087143779 -0.14527388 0.0029396713 2.3509886e-38
0.010644898 -0.14527388 0.0029396713 2.3509886e-38
0.012575418 -0.14527388 0.0029396713 2.3509886e-38
0.014505938 -0.14527388 0.0029396713 2.3509886e-38
0.016436458 -0.14527388 0.0029396713 2.3509886e-38
0.018342584 -0.14632986 -0.0010357201 2.3509886e-38
0.020280074 -0.14632986 -0.0010357201 2.3509886e-38
0.022217564 -0.14632986 -0.0010357201 2.3509886e-38
0.024155056 -0.14632986 -0.0010357201 2.3509886e-38
0.026092546 -0.14632986 -0.0010357201 2.3509886e-38
0.028038008 -0.14713491 -0.0040664971 2.3509886e-38
0.029980812 -0.14713491 -0.0040664971 2.3509886e-38
0.031948328 -0.14820443 -0.0080927908 2.3509886e-38
0.03389819 -0.14820443 -0.0080927908 2.3509886e-38
0.035876468 -0.14898713 -0.011039406 2.3509886e-38
0.0378315 -0.14898713 -0.011039406 2.3509886e-38
-0.065411307 -0.14346536 0.016923517 1.2815895e-38
-0.063505299 -0.14346536 0.016923517 8.9436809e-39
-0.061599307 -0.14346536 0.016923517 2.2130468e-39
-0.059922136 -0.14424954 0.013990611 8.2975787e-40
-0.058010988 -0.14424954 0.013990611 9.2198432e-41
-0.05609984 -0.14424954 0.013990611 4.6062502e-40
-0.054188706 -0.14424954 0.013990611 9.1841101e-41
-0.052069284 -0.14346536 0.016923517 2.7587083e-40
-0.050163291 -0.14346536 0.016923517 9.1835496e-41
-0.048052512 -0.1426542 0.019957155 3.6841818e-40
-0.04477147 -0.13704078 0.040951103 1.7506296e-39
-0.042907603 -0.13704078 0.040951103 2.2955622e-38
-0.04085622 -0.13623528 0.043963522 2.3509879e-38
-0.038997628 -0.13623528 0.043963522 2.3509879e-38
-0.037139036 -0.13623528 0.043963522 2.3508444e-38
-0.035280444 -0.13623528 0.043963522 2.3509883e-38
-0.033588223 -0.13704078 0.040951103 2.3509527e-38
-0.031724356 -0.13704078 0.040951103 2.3509886e-38
-0.029860474 -0.13704078 0.040951103 2.3509886e-38
-0.028198652 -0.13812189 0.036907762 2.3509886e-38
-0.026327692 -0.13812189 0.036907762 2.3509886e-38
-0.024593301 -0.13890781 0.033968419 2.3509886e-38
-0.022854418 -0.13972856 0.030898899 2.3509886e-38
-0.020972915 -0.13972856 0.030898899 2.3509886e-38
-0.01909142 -0.13972856 0.030898899 2.3509886e-38
-0.017209925 -0.13972856 0.030898899 2.3509886e-38
-0.015328422 -0.13972856 0.030898899 2.3509886e-38
-0.013446923 -0.13972856 0.030898899 2.3509886e-38
-0.011702366 -0.14079951 0.026893586 2.3509886e-38
-0.0098138452 -0.14079951 0.026893586 2.3509886e-38
-0.0080172159 -0.1416003 0.023898691 2.3509886e-38
-0.0062374733 -0.1426542 0.019957155 2.3509886e-38
-0.0044192336 -0.14346536 0.016923517 2.3509886e-38
-0.0025132298 -0.14346536 0.016923517 2.3509886e-38
-0.00067665055 -0.14424954 0.013990611 2.3509886e-38
0.0011465102 -0.14532293 0.009976238 2.3509886e-38
0.0030646957 -0.14532293 0.009976238 2.3509886e-38
0.0049259961 -0.14614908 0.0068864524 2.3509886e-38
0.0068495944 -0.14614908 0.0068864524 2.3509886e-38
0.0087731965 -0.14614908 0.0068864524 2.3509886e-38
0.010696799 -0.14614908 0.0068864524 2.3509886e-38
0.012575418 -0.14720438 0.0029396713 2.3509886e-38
0.014505938 -0.14720438 0.0029396713 2.3509886e-38
0.016436458 -0.14720438 0.0029396713 2.3509886e-38
0.018366979 -0.14720438 0.0029396713 2.3509886e-38
0.020280074 -0.14826734 -0.0010357201 2.3509886e-38
0.022217564 -0.14826734 -0.0010357201 2.3509886e-38
0.024155056 -0.14826734 -0.0010357201 2.3509886e-38
0.026092546 -0.14826734 -0.0010357201 2.3509886e-38
0.028038008 -0.14907773 -0.0040664971 2.3509886e-38
0.029980812 -0.14907773 -0.0040664971 2.3509886e-38
-0.063744418 -0.14616071 0.013990611 7.3763552e-39
-0.061833285 -0.14616071 0.013990611 9.2230802e-40
-0.059922136 -0.14616071 0.013990611 9.2194229e-41
-0.058010988 -0.14616071 0.013990611 2.8025969e-45
-0.05609984 -0.14616071 0.013990611 1.8403813e-40
-0.054188706 -0.14616071 0.013990611 9.1841101e-41
