# .PCD v0.7 - Point Cloud Data file format
VERSION 0.7
FIELDS x y z rgb
SIZE 4 4 4 4
TYPE F F F F
COUNT 1 1 1 1
WIDTH 919
HEIGHT 1
VIEWPOINT 0 0 0 1 0 0 0
POINTS 919
DATA ascii
-0.025699459 -0.076299787 -0.023180705 2.3509886e-38
-0.0237303 -0.076299787 -0.023180705 2.3509886e-38
-0.021597058 -0.075507313 -0.019198518 2.3509886e-38
-0.019474037 -0.074695975 -0.015121441 2.3509886e-38
-0.017519005 -0.074695975 -0.015121441 2.3509886e-38
-0.015563976 -0.074695975 -0.015121441 2.3509886e-38
-0.013508201 -0.074109584 -0.012174826 2.3509886e-38
-0.011558339 -0.074109584 -0.012174826 2.3509886e-38
-0.0096084736 -0.074109584 -0.012174826 2.3509886e-38
-0.0076586083 -0.074109584 -0.012174826 2.3509886e-38
-0.0057087466 -0.074109584 -0.012174826 2.3509886e-38
-0.0036565214 -0.073308334 -0.0081485324 2.3509886e-38
-0.0017137155 -0.073308334 -0.0081485324 2.3509886e-38
0.00029551238 -0.072705194 -0.0051177554 2.3509886e-38
0.0022330061 -0.072705194 -0.0051177554 2.3509886e-38
0.0043163449 -0.071128666 0.0028044172 2.3509886e-38
0.0062399432 -0.071128666 0.0028044172 2.3509886e-38
0.0081635453 -0.071128666 0.0028044172 2.3509886e-38
0.010127775 -0.070513785 0.0058942027 2.3509886e-38
0.012045957 -0.070513785 0.0058942027 2.3509886e-38
0.013964143 -0.070513785 0.0058942027 2.3509886e-38
0.015882324 -0.070513785 0.0058942027 2.3509886e-38
0.017825143 -0.069714904 0.0099085756 2.3509886e-38
0.019736288 -0.069714904 0.0099085756 2.3509886e-38
0.021655146 -0.069131255 0.012841482 2.3509886e-38
0.023563808 -0.06852755 0.01587512 2.3509886e-38
0.02545841 -0.06714718 0.022811551 2.3509886e-38
0.027346931 -0.06714718 0.022811551 2.3509886e-38
0.029217897 -0.066350102 0.026816864 2.3509886e-38
0.031099396 -0.066350102 0.026816864 2.3509886e-38
0.032956675 -0.065739259 0.029886384 2.3509886e-38
0.03483279 -0.065739259 0.029886384 2.3509886e-38
0.03670891 -0.065739259 0.029886384 2.3509886e-38
0.038585026 -0.065739259 0.029886384 2.3509886e-38
0.040417336 -0.065154314 0.032825727 2.3509886e-38
0.0422883 -0.065154314 0.032825727 2.3509886e-38
0.044159263 -0.065154314 0.032825727 2.3509886e-38
0.045948699 -0.064349681 0.036869068 2.3509886e-38
0.047812574 -0.064349681 0.036869068 2.3509886e-38
0.049605146 -0.063750207 0.039881486 2.3509886e-38
0.051463738 -0.063750207 0.039881486 2.3509886e-38
0.05332233 -0.063750207 0.039881486 2.3509886e-38
0.055180922 -0.063750207 0.039881486 2.3509883e-38
0.05703951 -0.063750207 0.039881486 1.8806464e-38
0.058995817 -0.064349681 0.036869068 1.7977782e-38
0.060859691 -0.064349681 0.036869068 2.2956346e-38
0.062723562 -0.064349681 0.036869068 2.350988e-38
0.064587437 -0.064349681 0.036869068 2.0652174e-38
0.066451311 -0.064349681 0.036869068 1.3184691e-38
0.068315186 -0.064349681 0.036869068 1.1070636e-39
-0.076602347 -0.086695731 -0.065155849 2.314075e-38
-0.074217923 -0.085889101 -0.061137896 2.3509527e-38
-0.072182201 -0.085889101 -0.061137896 2.3509886e-38
-0.070146494 -0.085889101 -0.061137896 2.3509886e-38
-0.067792453 -0.08508803 -0.057147603 2.3509886e-38
-0.065763734 -0.08508803 -0.057147603 2.3509886e-38
-0.063735016 -0.08508803 -0.057147603 2.3509886e-38
-0.061410986 -0.084292427 -0.05318461 2.3509886e-38
-0.059389226 -0.084292427 -0.05318461 2.3509886e-38
-0.057078682 -0.083476007 -0.049117904 2.3509886e-38
-0.055064045 -0.083476007 -0.049117904 2.3509886e-38
-0.052785583 -0.082691401 -0.045209628 2.3509886e-38
-0.0507778 -0.082691401 -0.045209628 2.3509886e-38
-0.048513345 -0.081886232 -0.04119895 2.3509886e-38
-0.04632052 -0.081266731 -0.038113099 2.3509886e-38
-0.044085555 -0.080471486 -0.034151893 2.3509886e-38
-0.042097159 -0.080471486 -0.034151893 2.3509886e-38
-0.039877392 -0.079656363 -0.030091625 2.3509886e-38
-0.037896119 -0.079656363 -0.030091625 2.3509886e-38
-0.035914838 -0.079656363 -0.030091625 2.3509886e-38
-0.033731543 -0.078872278 -0.026185971 2.3509886e-38
-0.031757116 -0.078872278 -0.026185971 2.3509886e-38
-0.02978269 -0.078872278 -0.026185971 2.3509886e-38
-0.027808256 -0.078872278 -0.026185971 2.3509886e-38
-0.025699459 -0.078268945 -0.023180705 2.3509886e-38
-0.0237303 -0.078268945 -0.023180705 2.3509886e-38
-0.021597058 -0.077469498 -0.019198518 2.3509886e-38
-0.019474037 -0.076650992 -0.015121441 2.3509886e-38
-0.017519005 -0.076650992 -0.015121441 2.3509886e-38
-0.015563976 -0.076650992 -0.015121441 2.3509886e-38
-0.013508201 -0.076059446 -0.012174826 2.3509886e-38
-0.011558339 -0.076059446 -0.012174826 2.3509886e-38
-0.0096084736 -0.076059446 -0.012174826 2.3509886e-38
-0.0076586083 -0.076059446 -0.012174826 2.3509886e-38
-0.0057087466 -0.076059446 -0.012174826 2.3509886e-38
-0.0036565214 -0.075251147 -0.0081485324 2.3509886e-38
-0.0017137155 -0.075251147 -0.0081485324 2.3509886e-38
0.00029551238 -0.074642688 -0.0051177554 2.3509886e-38
0.0022330061 -0.074642688 -0.0051177554 2.3509886e-38
0.0042436831 -0.073844612 -0.001142364 2.3509886e-38
0.0062399432 -0.073052257 0.0028044172 2.3509886e-38
0.0081635453 -0.073052257 0.0028044172 2.3509886e-38
0.010127775 -0.072431967 0.0058942027 2.3509886e-38
0.012045957 -0.072431967 0.0058942027 2.3509886e-38
0.013964143 -0.072431967 0.0058942027 2.3509886e-38
0.015882324 -0.072431967 0.0058942027 2.3509886e-38
0.017825143 -0.071626052 0.0099085756 2.3509886e-38
0.019736288 -0.071626052 0.0099085756 2.3509886e-38
0.021663126 -0.070428237 0.01587512 2.3509886e-38
0.023567263 -0.069636941 0.019816656 2.3509886e-38
0.025454899 -0.068231598 0.026816864 2.3509886e-38
0.027336398 -0.068231598 0.026816864 2.3509886e-38
0.029217897 -0.068231598 0.026816864 2.3509886e-38
0.031080559 -0.067615375 0.029886384 2.3509886e-38
0.032956675 -0.067615375 0.029886384 2.3509886e-38
0.03483279 -0.067615375 0.029886384 2.3509886e-38
0.03670891 -0.067615375 0.029886384 2.3509886e-38
0.038585026 -0.067615375 0.029886384 2.3509886e-38
0.040417336 -0.067025289 0.032825727 2.3509886e-38
0.0422883 -0.067025289 0.032825727 2.3509886e-38
0.044084825 -0.066213563 0.036869068 2.3509886e-38
0.045948699 -0.066213563 0.036869068 2.3509886e-38
0.047812574 -0.066213563 0.036869068 2.3509886e-38
0.049605146 -0.065608799 0.039881486 2.3509886e-38
0.051463738 -0.065608799 0.039881486 2.3509886e-38
0.05332233 -0.065608799 0.039881486 2.3509883e-38
0.055180922 -0.065608799 0.039881486 2.350988e-38
0.05703951 -0.065608799 0.039881486 1.8346563e-38
0.058995817 -0.066213563 0.036869068 1.7977781e-38
0.060859691 -0.066213563 0.036869068 2.221878e-38
0.062723562 -0.066213563 0.036869068 2.3141455e-38
0.064587437 -0.066213563 0.036869068 2.2496085e-38
0.066451311 -0.066213563 0.036869068 1.6595927e-38
0.068315186 -0.066213563 0.036869068 1.568039e-39
-0.076602347 -0.088738501 -0.065155849 2.314075e-38
-0.074217923 -0.087924823 -0.061137896 2.3509527e-38
-0.072182201 -0.087924823 -0.061137896 2.3509886e-38
-0.070146494 -0.087924823 -0.061137896 2.3509886e-38
-0.067792453 -0.087116748 -0.057147603 2.3509886e-38
-0.065763734 -0.087116748 -0.057147603 2.3509886e-38
-0.063735016 -0.087116748 -0.057147603 2.3509886e-38
-0.061410986 -0.086314201 -0.05318461 2.3509886e-38
-0.059389226 -0.086314201 -0.05318461 2.3509886e-38
-0.057078682 -0.085490659 -0.049117904 2.3509886e-38
-0.055064045 -0.085490659 -0.049117904 2.3509886e-38
-0.052785583 -0.084699184 -0.045209628 2.3509886e-38
-0.0507778 -0.084699184 -0.045209628 2.3509886e-38
-0.048513345 -0.083886981 -0.04119895 2.3509886e-38
-0.04632052 -0.083262071 -0.038113099 2.3509886e-38
-0.044085555 -0.082459882 -0.034151893 2.3509886e-38
-0.042097159 -0.082459882 -0.034151893 2.3509886e-38
-0.039877392 -0.081637636 -0.030091625 2.3509886e-38
-0.037896119 -0.081637636 -0.030091625 2.3509886e-38
-0.035914838 -0.081637636 -0.030091625 2.3509886e-38
-0.033731543 -0.080846712 -0.026185971 2.3509886e-38
-0.031757116 -0.080846712 -0.026185971 2.3509886e-38
-0.02978269 -0.080846712 -0.026185971 2.3509886e-38
-0.027808256 -0.080846712 -0.026185971 2.3509886e-38
-0.025699459 -0.080238104 -0.023180705 2.3509886e-38
-0.0237303 -0.080238104 -0.023180705 2.3509886e-38
-0.021597058 -0.079431683 -0.019198518 2.3509886e-38
-0.019474037 -0.078606024 -0.015121441 2.3509886e-38
-0.017519005 -0.078606024 -0.015121441 2.3509886e-38
-0.015563976 -0.078606024 -0.015121441 2.3509886e-38
-0.013508201 -0.078009307 -0.012174826 2.3509886e-38
-0.011558339 -0.078009307 -0.012174826 2.3509886e-38
-0.0094849318 -0.077193946 -0.0081485324 2.3509886e-38
-0.0075421296 -0.077193946 -0.0081485324 2.3509886e-38
-0.0055993237 -0.077193946 -0.0081485324 2.3509886e-38
-0.0036565214 -0.077193946 -0.0081485324 2.3509886e-38
-0.0016419739 -0.076580182 -0.0051177554 2.3509886e-38
0.00029551238 -0.076580182 -0.0051177554 2.3509886e-38
0.0023131631 -0.075775132 -0.001142364 2.3509886e-38
0.0043163449 -0.074975863 0.0028044172 2.3509886e-38
0.0062399432 -0.074975863 0.0028044172 2.3509886e-38
0.0082095936 -0.074350148 0.0058942027 2.3509886e-38
0.010127775 -0.074350148 0.0058942027 2.3509886e-38
0.012045957 -0.074350148 0.0058942027 2.3509886e-38
0.014002856 -0.073537201 0.0099085756 2.3509886e-38
0.015913999 -0.073537201 0.0099085756 2.3509886e-38
0.017825143 -0.073537201 0.0099085756 2.3509886e-38
0.019736288 -0.073537201 0.0099085756 2.3509886e-38
0.021663126 -0.07232891 0.01587512 2.3509886e-38
0.023567263 -0.071530715 0.019816656 2.3509886e-38
0.025454899 -0.070113108 0.026816864 2.3509886e-38
0.027336398 -0.070113108 0.026816864 2.3509886e-38
0.029217897 -0.070113108 0.026816864 2.3509886e-38
0.031080559 -0.069491491 0.029886384 2.3509886e-38
0.032956675 -0.069491491 0.029886384 2.3509886e-38
0.03483279 -0.069491491 0.029886384 2.3509886e-38
0.03670891 -0.069491491 0.029886384 2.3509886e-38
0.038585026 -0.069491491 0.029886384 2.3509886e-38
0.040417336 -0.068896249 0.032825727 2.3509886e-38
0.0422883 -0.068896249 0.032825727 2.3509886e-38
0.044084825 -0.06807743 0.036869068 2.3509886e-38
0.045948699 -0.06807743 0.036869068 2.3509886e-38
0.047812574 -0.06807743 0.036869068 2.3509886e-38
0.049605146 -0.067467391 0.039881486 2.3509886e-38
0.051463738 -0.067467391 0.039881486 2.3509886e-38
0.05332233 -0.067467391 0.039881486 2.3509883e-38
0.055180922 -0.067467391 0.039881486 2.3509879e-38
0.05703951 -0.067467391 0.039881486 1.8346919e-38
0.058995817 -0.06807743 0.036869068 1.8070332e-38
0.060859691 -0.06807743 0.036869068 2.1574126e-38
0.062723562 -0.06807743 0.036869068 2.2403887e-38
0.064587437 -0.06807743 0.036869068 2.3418039e-38
0.066451311 -0.06807743 0.036869068 1.8716781e-38
0.068315186 -0.06807743 0.036869068 4.6204874e-40
-0.078645103 -0.090781257 -0.065155849 2.341805e-38
-0.076602347 -0.090781257 -0.065155849 2.304891e-38
-0.074559592 -0.090781257 -0.065155849 2.3509527e-38
-0.072182201 -0.08996053 -0.061137896 2.3509886e-38
-0.070146494 -0.08996053 -0.061137896 2.3509886e-38
-0.067792453 -0.089145467 -0.057147603 2.3509886e-38
-0.06545452 -0.088335961 -0.05318461 2.3509886e-38
-0.063432761 -0.088335961 -0.05318461 2.3509886e-38
-0.061410986 -0.088335961 -0.05318461 2.3509886e-38
-0.059093319 -0.087505296 -0.049117904 2.3509886e-38
-0.057078682 -0.087505296 -0.049117904 2.3509886e-38
-0.055064045 -0.087505296 -0.049117904 2.3509886e-38
-0.052785583 -0.086706966 -0.045209628 2.3509886e-38
-0.0507778 -0.086706966 -0.045209628 2.3509886e-38
-0.048770003 -0.086706966 -0.045209628 2.3509886e-38
-0.04632052 -0.085257411 -0.038113099 2.3509886e-38
-0.044085555 -0.084448278 -0.034151893 2.3509886e-38
-0.042097159 -0.084448278 -0.034151893 2.3509886e-38
-0.039877392 -0.083618924 -0.030091625 2.3509886e-38
-0.037896119 -0.083618924 -0.030091625 2.3509886e-38
-0.035914838 -0.083618924 -0.030091625 2.3509886e-38
-0.033933558 -0.083618924 -0.030091625 2.3509886e-38
-0.031757116 -0.082821131 -0.026185971 2.3509886e-38
-0.02978269 -0.082821131 -0.026185971 2.3509886e-38
-0.027668618 -0.082207277 -0.023180705 2.3509886e-38
-0.02552142 -0.081393853 -0.019198518 2.3509886e-38
-0.023559235 -0.081393853 -0.019198518 2.3509886e-38
-0.021429069 -0.080561057 -0.015121441 2.3509886e-38
-0.019357793 -0.079959169 -0.012174826 2.3509886e-38
-0.017407931 -0.079959169 -0.012174826 2.3509886e-38
-0.015458066 -0.079959169 -0.012174826 2.3509886e-38
-0.013370544 -0.079136744 -0.0081485324 2.3509886e-38
-0.011427738 -0.079136744 -0.0081485324 2.3509886e-38
-0.0094849318 -0.079136744 -0.0081485324 2.3509886e-38
-0.0075421296 -0.079136744 -0.0081485324 2.3509886e-38
-0.0055993237 -0.079136744 -0.0081485324 2.3509886e-38
-0.0036565214 -0.079136744 -0.0081485324 2.3509886e-38
-0.0016419739 -0.078517675 -0.0051177554 2.3509886e-38
0.00029551238 -0.078517675 -0.0051177554 2.3509886e-38
0.0023131631 -0.077705652 -0.001142364 2.3509886e-38
0.0043163449 -0.076899469 0.0028044172 2.3509886e-38
0.0062914118 -0.07626833 0.0058942027 2.3509886e-38
0.0082095936 -0.07626833 0.0058942027 2.3509886e-38
0.010127775 -0.07626833 0.0058942027 2.3509886e-38
0.012091711 -0.075448349 0.0099085756 2.3509886e-38
0.014002856 -0.075448349 0.0099085756 2.3509886e-38
0.015913999 -0.075448349 0.0099085756 2.3509886e-38
0.017825143 -0.075448349 0.0099085756 2.3509886e-38
0.019749144 -0.074849263 0.012841482 2.3509886e-38
0.021663126 -0.074229598 0.01587512 2.3509886e-38
0.023567263 -0.073424488 0.019816656 2.3509886e-38
0.025454899 -0.071994603 0.026816864 2.3509886e-38
0.027336398 -0.071994603 0.026816864 2.3509886e-38
0.029217897 -0.071994603 0.026816864 2.3509886e-38
0.031080559 -0.071367607 0.029886384 2.3509886e-38
0.032956675 -0.071367607 0.029886384 2.3509886e-38
0.03483279 -0.071367607 0.029886384 2.3509886e-38
0.03670891 -0.071367607 0.029886384 2.3509886e-38
0.038585026 -0.071367607 0.029886384 2.3509886e-38
0.040417336 -0.070767209 0.032825727 2.3509886e-38
0.0422883 -0.070767209 0.032825727 2.3509886e-38
0.044084825 -0.069941312 0.036869068 2.3509886e-38
0.045948699 -0.069941312 0.036869068 2.3509886e-38
0.047812574 -0.069941312 0.036869068 2.3509886e-38
0.049605146 -0.069325984 0.039881486 2.3509886e-38
0.051463738 -0.069325984 0.039881486 2.3509886e-38
0.05332233 -0.069325984 0.039881486 2.3509883e-38
0.055180922 -0.069325984 0.039881486 2.3509874e-38
0.057131942 -0.069941312 0.036869068 1.8254721e-38
0.058995817 -0.069941312 0.036869068 1.8163244e-38
0.060859691 -0.069941312 0.036869068 2.12057e-38
0.062723562 -0.069941312 0.036869068 2.2127656e-38
0.064587437 -0.069941312 0.036869068 2.3418038e-38
0.066332474 -0.069325984 0.039881486 2.0007517e-38
0.068191066 -0.069325984 0.039881486 7.1746481e-43
0.070049658 -0.069325984 0.039881486 9.3270426e-41
-0.078645103 -0.092824012 -0.065155849 2.341805e-38
-0.076602347 -0.092824012 -0.065155849 2.3233302e-38
-0.074217923 -0.091996253 -0.061137896 2.3509527e-38
-0.072182201 -0.091996253 -0.061137896 2.3509886e-38
-0.070146494 -0.091996253 -0.061137896 2.3509886e-38
-0.067792453 -0.091174185 -0.057147603 2.3509886e-38
-0.06545452 -0.090357736 -0.05318461 2.3509886e-38
-0.063432761 -0.090357736 -0.05318461 2.3509886e-38
-0.061410986 -0.090357736 -0.05318461 2.3509886e-38
-0.059093319 -0.089519933 -0.049117904 2.3509886e-38
-0.057078682 -0.089519933 -0.049117904 2.3509886e-38
-0.055064045 -0.089519933 -0.049117904 2.3509886e-38
-0.052785583 -0.088714764 -0.045209628 2.3509886e-38
-0.0507778 -0.088714764 -0.045209628 2.3509886e-38
-0.048513345 -0.087888494 -0.04119895 2.3509886e-38
-0.04632052 -0.087252751 -0.038113099 2.3509886e-38
-0.044085555 -0.086436674 -0.034151893 2.3509886e-38
-0.041858681 -0.085600197 -0.030091625 2.3509886e-38
-0.039877392 -0.085600197 -0.030091625 2.3509886e-38
-0.037896119 -0.085600197 -0.030091625 2.3509886e-38
-0.035914838 -0.085600197 -0.030091625 2.3509886e-38
-0.033731543 -0.084795564 -0.026185971 2.3509886e-38
-0.031757116 -0.084795564 -0.026185971 2.3509886e-38
-0.029637776 -0.084176436 -0.023180705 2.3509886e-38
-0.02748359 -0.083356038 -0.019198518 2.3509886e-38
-0.02552142 -0.083356038 -0.019198518 2.3509886e-38
-0.023384102 -0.082516089 -0.015121441 2.3509886e-38
-0.021307655 -0.081909031 -0.012174826 2.3509886e-38
-0.019357793 -0.081909031 -0.012174826 2.3509886e-38
-0.017256152 -0.081079558 -0.0081485324 2.3509886e-38
-0.015313346 -0.081079558 -0.0081485324 2.3509886e-38
-0.013370544 -0.081079558 -0.0081485324 2.3509886e-38
-0.011427738 -0.081079558 -0.0081485324 2.3509886e-38
-0.0093919374 -0.080455169 -0.0051177554 2.3509886e-38
-0.0074544474 -0.080455169 -0.0051177554 2.3509886e-38
-0.0055169575 -0.080455169 -0.0051177554 2.3509886e-38
-0.0035794675 -0.080455169 -0.0051177554 2.3509886e-38
-0.0016419739 -0.080455169 -0.0051177554 2.3509886e-38
0.00029551238 -0.080455169 -0.0051177554 2.3509886e-38
0.0023131631 -0.079636171 -0.001142364 2.3509886e-38
0.0043163449 -0.07882306 0.0028044172 2.3509886e-38
0.0062914118 -0.078186512 0.0058942027 2.3509886e-38
0.0082095936 -0.078186512 0.0058942027 2.3509886e-38
0.010127775 -0.078186512 0.0058942027 2.3509886e-38
0.012091711 -0.077359483 0.0099085756 2.3509886e-38
0.014002856 -0.077359483 0.0099085756 2.3509886e-38
0.015913999 -0.077359483 0.0099085756 2.3509886e-38
0.017843142 -0.076755255 0.012841482 2.3509886e-38
0.019749144 -0.076755255 0.012841482 2.3509886e-38
0.021663126 -0.076130286 0.01587512 2.3509886e-38
0.023567263 -0.075318262 0.019816656 2.3509886e-38
0.025454899 -0.073876098 0.026816864 2.3509886e-38
0.027336398 -0.073876098 0.026816864 2.3509886e-38
0.029217897 -0.073876098 0.026816864 2.3509886e-38
0.031080559 -0.073243722 0.029886384 2.3509886e-38
0.032956675 -0.073243722 0.029886384 2.3509886e-38
0.03483279 -0.073243722 0.029886384 2.3509886e-38
0.03670891 -0.073243722 0.029886384 2.3509886e-38
0.038585026 -0.073243722 0.029886384 2.3509886e-38
0.040417336 -0.072638169 0.032825727 2.3509886e-38
0.0422883 -0.072638169 0.032825727 2.3509886e-38
0.044084825 -0.071805179 0.036869068 2.3509886e-38
0.045948699 -0.071805179 0.036869068 2.3509886e-38
0.047812574 -0.071805179 0.036869068 2.3509886e-38
0.049676448 -0.071805179 0.036869068 2.3509886e-38
0.051463738 -0.071184576 0.039881486 2.3509886e-38
0.05332233 -0.071184576 0.039881486 2.3509883e-38
0.055268072 -0.071805179 0.036869068 2.3325483e-38
0.057131942 -0.071805179 0.036869068 1.8254721e-38
0.058995817 -0.071805179 0.036869068 1.8071048e-38
0.060859691 -0.071805179 0.036869068 2.0836561e-38
0.062723562 -0.071805179 0.036869068 2.2128019e-38
0.064587437 -0.071805179 0.036869068 2.341804e-38
0.066332474 -0.071184576 0.039881486 2.1298258e-38
0.068191066 -0.071184576 0.039881486 2.7765888e-40
0.070049658 -0.071184576 0.039881486 4.6204734e-40
-0.079003356 -0.095707402 -0.069201812 2.3325856e-38
-0.076602347 -0.094866768 -0.065155849 2.3509886e-38
-0.074217923 -0.09403196 -0.061137896 2.3324778e-38
-0.072182201 -0.09403196 -0.061137896 2.3509886e-38
-0.070146494 -0.09403196 -0.061137896 2.3509886e-38
-0.067792453 -0.093202889 -0.057147603 2.3509886e-38
-0.06545452 -0.09237951 -0.05318461 2.3509886e-38
-0.063432761 -0.09237951 -0.05318461 2.3509886e-38
-0.061410986 -0.09237951 -0.05318461 2.3509886e-38
-0.059093319 -0.09153457 -0.049117904 2.3509886e-38
-0.057078682 -0.09153457 -0.049117904 2.3509886e-38
-0.054793365 -0.090722546 -0.045209628 2.3509886e-38
-0.052785583 -0.090722546 -0.045209628 2.3509886e-38
-0.0507778 -0.090722546 -0.045209628 2.3509886e-38
-0.048513345 -0.089889243 -0.04119895 2.3509886e-38
-0.046073951 -0.08842507 -0.034151893 2.3509886e-38
-0.044085555 -0.08842507 -0.034151893 2.3509886e-38
-0.041858681 -0.087581471 -0.030091625 2.3509886e-38
-0.039877392 -0.087581471 -0.030091625 2.3509886e-38
-0.037896119 -0.087581471 -0.030091625 2.3509886e-38
-0.035705976 -0.086769998 -0.026185971 2.3509886e-38
-0.033731543 -0.086769998 -0.026185971 2.3509886e-38
-0.031757116 -0.086769998 -0.026185971 2.3509886e-38
-0.029637776 -0.086145595 -0.023180705 2.3509886e-38
-0.02748359 -0.085318208 -0.019198518 2.3509886e-38
-0.02552142 -0.085318208 -0.019198518 2.3509886e-38
-0.023384102 -0.084471121 -0.015121441 2.3509886e-38
-0.021307655 -0.083858907 -0.012174826 2.3509886e-38
-0.019198962 -0.083022356 -0.0081485324 2.3509886e-38
-0.017256152 -0.083022356 -0.0081485324 2.3509886e-38
-0.015313346 -0.083022356 -0.0081485324 2.3509886e-38
-0.013370544 -0.083022356 -0.0081485324 2.3509886e-38
-0.011427738 -0.083022356 -0.0081485324 2.3509886e-38
-0.0093919374 -0.082392648 -0.0051177554 2.3509886e-38
-0.0074544474 -0.082392648 -0.0051177554 2.3509886e-38
-0.0055169575 -0.082392648 -0.0051177554 2.3509886e-38
-0.0035794675 -0.082392648 -0.0051177554 2.3509886e-38
-0.0016419739 -0.082392648 -0.0051177554 2.3509886e-38
0.00038264319 -0.081566691 -0.001142364 2.3509886e-38
0.0023131631 -0.081566691 -0.001142364 2.3509886e-38
0.0043163449 -0.080746666 0.0028044172 2.3509886e-38
0.0062914118 -0.080104694 0.0058942027 2.3509886e-38
0.0082095936 -0.080104694 0.0058942027 2.3509886e-38
0.010127775 -0.080104694 0.0058942027 2.3509886e-38
0.012091711 -0.079270631 0.0099085756 2.3509886e-38
0.014002856 -0.079270631 0.0099085756 2.3509886e-38
0.015913999 -0.079270631 0.0099085756 2.3509886e-38
0.017843142 -0.078661263 0.012841482 2.3509886e-38
0.019762442 -0.078030959 0.01587512 2.3509886e-38
0.021673491 -0.077212036 0.019816656 2.3509886e-38
0.023567263 -0.077212036 0.019816656 2.3509886e-38
0.025454899 -0.075757593 0.026816864 2.3509886e-38
0.027336398 -0.075757593 0.026816864 2.3509886e-38
0.029217897 -0.075757593 0.026816864 2.3509886e-38
0.031080559 -0.075119838 0.029886384 2.3509886e-38
0.032933485 -0.074509144 0.032825727 2.3509886e-38
0.034804448 -0.074509144 0.032825727 2.3509886e-38
0.03670891 -0.075119838 0.029886384 2.3509886e-38
0.038546376 -0.074509144 0.032825727 2.3509886e-38
0.040417336 -0.074509144 0.032825727 2.3509886e-38
0.04222095 -0.073669046 0.036869068 2.3509886e-38
0.044084825 -0.073669046 0.036869068 2.3509886e-38
0.045948699 -0.073669046 0.036869068 2.3509886e-38
0.047812574 -0.073669046 0.036869068 2.3509886e-38
0.049676448 -0.073669046 0.036869068 2.3509886e-38
0.051540323 -0.073669046 0.036869068 2.3509886e-38
0.053404197 -0.073669046 0.036869068 2.3509883e-38
0.055268072 -0.073669046 0.036869068 2.3509518e-38
0.057131942 -0.073669046 0.036869068 1.8346919e-38
0.059126969 -0.074509144 0.032825727 1.770191e-38
0.060997933 -0.074509144 0.032825727 2.028339e-38
0.062868893 -0.074509144 0.032825727 2.2035826e-38
0.064739861 -0.074509144 0.032825727 2.3418043e-38
0.066610821 -0.074509144 0.032825727 2.2128742e-38
0.068481788 -0.074509144 0.032825727 1.7535078e-39
-0.079003356 -0.09775725 -0.069201812 2.3233662e-38
-0.076602347 -0.096909523 -0.065155849 2.3509886e-38
-0.074217923 -0.096067667 -0.061137896 2.3140387e-38
-0.072182201 -0.096067667 -0.061137896 2.3509886e-38
-0.070146494 -0.096067667 -0.061137896 2.3509886e-38
-0.067792453 -0.095231608 -0.057147603 2.3509886e-38
-0.06545452 -0.09440127 -0.05318461 2.3509886e-38
-0.063432761 -0.09440127 -0.05318461 2.3509886e-38
-0.061410986 -0.09440127 -0.05318461 2.3509886e-38
-0.059093319 -0.093549207 -0.049117904 2.3509886e-38
-0.057078682 -0.093549207 -0.049117904 2.3509886e-38
-0.054793365 -0.092730328 -0.045209628 2.3509886e-38
-0.052785583 -0.092730328 -0.045209628 2.3509886e-38
-0.050514095 -0.091889992 -0.04119895 2.3509886e-38
-0.04831586 -0.091243446 -0.038113099 2.3509886e-38
-0.046073951 -0.090413481 -0.034151893 2.3509886e-38
-0.044085555 -0.090413481 -0.034151893 2.3509886e-38
-0.041858681 -0.089562759 -0.030091625 2.3509886e-38
-0.039877392 -0.089562759 -0.030091625 2.3509886e-38
-0.037896119 -0.089562759 -0.030091625 2.3509886e-38
-0.035705976 -0.088744432 -0.026185971 2.3509886e-38
-0.033731543 -0.088744432 -0.026185971 2.3509886e-38
-0.031757116 -0.088744432 -0.026185971 2.3509886e-38
-0.029637776 -0.088114753 -0.023180705 2.3509886e-38
-0.02748359 -0.087280393 -0.019198518 2.3509886e-38
-0.025339134 -0.086426154 -0.015121441 2.3509886e-38
-0.023384102 -0.086426154 -0.015121441 2.3509886e-38
-0.021307655 -0.085808769 -0.012174826 2.3509886e-38
-0.019198962 -0.084965169 -0.0081485324 2.3509886e-38
-0.017256152 -0.084965169 -0.0081485324 2.3509886e-38
-0.015313346 -0.084965169 -0.0081485324 2.3509886e-38
-0.013266921 -0.084330142 -0.0051177554 2.3509886e-38
-0.011329431 -0.084330142 -0.0051177554 2.3509886e-38
-0.0093919374 -0.084330142 -0.0051177554 2.3509886e-38
-0.0074544474 -0.084330142 -0.0051177554 2.3509886e-38
-0.0055169575 -0.084330142 -0.0051177554 2.3509886e-38
-0.0035794675 -0.084330142 -0.0051177554 2.3509886e-38
-0.0016419739 -0.084330142 -0.0051177554 2.3509886e-38
0.00038264319 -0.083497211 -0.001142364 2.3509886e-38
0.0023927428 -0.082670271 0.0028044172 2.3509886e-38
0.0043732263 -0.08202289 0.0058942027 2.3509886e-38
0.0062914118 -0.08202289 0.0058942027 2.3509886e-38
0.0082095936 -0.08202289 0.0058942027 2.3509886e-38
0.010127775 -0.08202289 0.0058942027 2.3509886e-38
0.012091711 -0.08118178 0.0099085756 2.3509886e-38
0.014002856 -0.08118178 0.0099085756 2.3509886e-38
0.015913999 -0.08118178 0.0099085756 2.3509886e-38
0.017843142 -0.080567271 0.012841482 2.3509886e-38
0.019762442 -0.079931647 0.01587512 2.3509886e-38
0.021673491 -0.079105809 0.019816656 2.3509886e-38
0.023567263 -0.079105809 0.019816656 2.3509886e-38
0.02545841 -0.078478307 0.022811551 2.3509886e-38
0.027336398 -0.077639103 0.026816864 2.3509886e-38
0.029217897 -0.077639103 0.026816864 2.3509886e-38
0.031080559 -0.076995969 0.029886384 2.3509886e-38
0.032933485 -0.076380104 0.032825727 2.3509886e-38
0.034804448 -0.076380104 0.032825727 2.3509886e-38
0.03670891 -0.076995969 0.029886384 2.3509886e-38
0.038546376 -0.076380104 0.032825727 2.3509886e-38
0.040417336 -0.076380104 0.032825727 2.3509886e-38
0.04222095 -0.075532928 0.036869068 2.3509886e-38
0.044084825 -0.075532928 0.036869068 2.3509886e-38
0.045948699 -0.075532928 0.036869068 2.3509886e-38
0.047812574 -0.075532928 0.036869068 2.3509886e-38
0.049676448 -0.075532928 0.036869068 2.3509886e-38
0.051540323 -0.075532928 0.036869068 2.3509886e-38
0.053404197 -0.075532928 0.036869068 2.3509883e-38
0.055268072 -0.075532928 0.036869068 2.350988e-38
0.057131942 -0.075532928 0.036869068 1.8439478e-38
0.059126969 -0.076380104 0.032825727 1.7333132e-38
0.060997933 -0.076380104 0.032825727 1.9546187e-38
0.062868893 -0.076380104 0.032825727 2.1758885e-38
0.064739861 -0.076380104 0.032825727 2.3234015e-38
0.066610821 -0.076380104 0.032825727 2.2497529e-38
0.068481788 -0.076380104 0.032825727 2.8598596e-39
-0.078645103 -0.098952278 -0.065155849 2.341805e-38
-0.076602347 -0.098952278 -0.065155849 2.2680128e-38
-0.074217923 -0.098103389 -0.061137896 2.3509527e-38
-0.072182201 -0.098103389 -0.061137896 2.3509886e-38
-0.069821171 -0.097260326 -0.057147603 2.3509886e-38
-0.067792453 -0.097260326 -0.057147603 2.3509886e-38
-0.06545452 -0.096423045 -0.05318461 2.3509886e-38
-0.063432761 -0.096423045 -0.05318461 2.3509886e-38
-0.061410986 -0.096423045 -0.05318461 2.3509886e-38
-0.059093319 -0.095563844 -0.049117904 2.3509886e-38
-0.057078682 -0.095563844 -0.049117904 2.3509886e-38
-0.054793365 -0.094738111 -0.045209628 2.3509886e-38
-0.052514844 -0.093890756 -0.04119895 2.3509886e-38
-0.050514095 -0.093890756 -0.04119895 2.3509886e-38
-0.04831586 -0.093238786 -0.038113099 2.3509886e-38
-0.046073951 -0.092401877 -0.034151893 2.3509886e-38
-0.044085555 -0.092401877 -0.034151893 2.3509886e-38
-0.041858681 -0.091544032 -0.030091625 2.3509886e-38
-0.039877392 -0.091544032 -0.030091625 2.3509886e-38
-0.037896119 -0.091544032 -0.030091625 2.3509886e-38
-0.035914838 -0.091544032 -0.030091625 2.3509886e-38
-0.033731543 -0.090718865 -0.026185971 2.3509886e-38
-0.031757116 -0.090718865 -0.026185971 2.3509886e-38
-0.029637776 -0.090083912 -0.023180705 2.3509886e-38
-0.02748359 -0.089242578 -0.019198518 2.3509886e-38
-0.025339134 -0.088381186 -0.015121441 2.3509886e-38
-0.023384102 -0.088381186 -0.015121441 2.3509886e-38
-0.021307655 -0.087758631 -0.012174826 2.3509886e-38
-0.019198962 -0.086907968 -0.0081485324 2.3509886e-38
-0.017256152 -0.086907968 -0.0081485324 2.3509886e-38
-0.015313346 -0.086907968 -0.0081485324 2.3509886e-38
-0.013266921 -0.086267635 -0.0051177554 2.3509886e-38
-0.011329431 -0.086267635 -0.0051177554 2.3509886e-38
-0.0093919374 -0.086267635 -0.0051177554 2.3509886e-38
-0.0074544474 -0.086267635 -0.0051177554 2.3509886e-38
-0.0055169575 -0.086267635 -0.0051177554 2.3509886e-38
-0.0035794675 -0.086267635 -0.0051177554 2.3509886e-38
-0.0015478805 -0.085427731 -0.001142364 2.3509886e-38
0.00038264319 -0.085427731 -0.001142364 2.3509886e-38
0.0024550445 -0.083941072 0.0058942027 2.3509886e-38
0.0043732263 -0.083941072 0.0058942027 2.3509886e-38
0.0062914118 -0.083941072 0.0058942027 2.3509886e-38
0.0082095936 -0.083941072 0.0058942027 2.3509886e-38
0.010180566 -0.083092928 0.0099085756 2.3509886e-38
0.012091711 -0.083092928 0.0099085756 2.3509886e-38
0.014002856 -0.083092928 0.0099085756 2.3509886e-38
0.015913999 -0.083092928 0.0099085756 2.3509886e-38
0.017843142 -0.082473263 0.012841482 2.3509886e-38
0.019762442 -0.081832334 0.01587512 2.3509886e-38
0.021673491 -0.080999583 0.019816656 2.3509886e-38
0.023567263 -0.080999583 0.019816656 2.3509886e-38
0.02545841 -0.08036682 0.022811551 2.3509886e-38
0.027346931 -0.08036682 0.022811551 2.3509886e-38
0.029217897 -0.079520598 0.026816864 2.3509886e-38
0.031080559 -0.078872085 0.029886384 2.3509886e-38
0.032956675 -0.078872085 0.029886384 2.3509886e-38
0.03483279 -0.078872085 0.029886384 2.3509886e-38
0.036675408 -0.078251064 0.032825727 2.3509886e-38
0.038546376 -0.078251064 0.032825727 2.3509886e-38
0.040417336 -0.078251064 0.032825727 2.3509886e-38
0.0422883 -0.078251064 0.032825727 2.3509886e-38
0.044084825 -0.077396795 0.036869068 2.3509886e-38
0.045948699 -0.077396795 0.036869068 2.3509886e-38
0.047812574 -0.077396795 0.036869068 2.3509886e-38
0.049676448 -0.077396795 0.036869068 2.3509886e-38
0.051540323 -0.077396795 0.036869068 2.3509886e-38
0.053404197 -0.077396795 0.036869068 2.3509886e-38
0.055268072 -0.077396795 0.036869068 2.3417687e-38
0.057256006 -0.078251064 0.032825727 1.8439479e-38
0.059126969 -0.078251064 0.032825727 1.7978145e-38
0.060997933 -0.078251064 0.032825727 2.0468149e-38
0.062868893 -0.078251064 0.032825727 2.1113162e-38
0.064739861 -0.078251064 0.032825727 2.2773763e-38
0.066610821 -0.078251064 0.032825727 2.3234379e-38
0.068481788 -0.078251064 0.032825727 8.8522252e-39
-0.078645103 -0.10099503 -0.065155849 2.3234018e-38
-0.076602347 -0.10099503 -0.065155849 2.3141106e-38
-0.074217923 -0.1001391 -0.061137896 2.3509527e-38
-0.072182201 -0.1001391 -0.061137896 2.3509886e-38
-0.069821171 -0.099289045 -0.057147603 2.3509886e-38
-0.067792453 -0.099289045 -0.057147603 2.3509886e-38
-0.06545452 -0.098444805 -0.05318461 2.3509886e-38
-0.063432761 -0.098444805 -0.05318461 2.3509886e-38
-0.061107956 -0.097578481 -0.049117904 2.3509886e-38
-0.059093319 -0.097578481 -0.049117904 2.3509886e-38
-0.056801148 -0.096745893 -0.045209628 2.3509886e-38
-0.054793365 -0.096745893 -0.045209628 2.3509886e-38
-0.052514844 -0.095891505 -0.04119895 2.3509886e-38
-0.0503112 -0.095234126 -0.038113099 2.3509886e-38
-0.048062347 -0.094390273 -0.034151893 2.3509886e-38
-0.046073951 -0.094390273 -0.034151893 2.3509886e-38
-0.043839954 -0.093525305 -0.030091625 2.3509886e-38
-0.041858681 -0.093525305 -0.030091625 2.3509886e-38
-0.039877392 -0.093525305 -0.030091625 2.3509886e-38
-0.037896119 -0.093525305 -0.030091625 2.3509886e-38
-0.035914838 -0.093525305 -0.030091625 2.3509886e-38
-0.033731543 -0.092693284 -0.026185971 2.3509886e-38
-0.031606942 -0.092053071 -0.023180705 2.3509886e-38
-0.029445775 -0.091204748 -0.019198518 2.3509886e-38
-0.02748359 -0.091204748 -0.019198518 2.3509886e-38
-0.025339134 -0.090336218 -0.015121441 2.3509886e-38
-0.023384102 -0.090336218 -0.015121441 2.3509886e-38
-0.021307655 -0.089708492 -0.012174826 2.3509886e-38
-0.019198962 -0.088850766 -0.0081485324 2.3509886e-38
-0.017256152 -0.088850766 -0.0081485324 2.3509886e-38
-0.015313346 -0.088850766 -0.0081485324 2.3509886e-38
-0.013266921 -0.088205129 -0.0051177554 2.3509886e-38
-0.011329431 -0.088205129 -0.0051177554 2.3509886e-38
-0.0093919374 -0.088205129 -0.0051177554 2.3509886e-38
-0.0073394403 -0.087358251 -0.001142364 2.3509886e-38
-0.0054089203 -0.087358251 -0.001142364 2.3509886e-38
-0.0035794675 -0.088205129 -0.0051177554 2.3509886e-38
-0.0015478805 -0.087358251 -0.001142364 2.3509886e-38
0.00046914071 -0.086517468 0.0028044172 2.3509886e-38
0.0024550445 -0.085859254 0.0058942027 2.3509886e-38
0.0043732263 -0.085859254 0.0058942027 2.3509886e-38
0.0062914118 -0.085859254 0.0058942027 2.3509886e-38
0.0082694218 -0.085004061 0.0099085756 2.3509886e-38
0.010180566 -0.085004061 0.0099085756 2.3509886e-38
0.012091711 -0.085004061 0.0099085756 2.3509886e-38
0.014002856 -0.085004061 0.0099085756 2.3509886e-38
0.015937138 -0.084379271 0.012841482 2.3509886e-38
0.017843142 -0.084379271 0.012841482 2.3509886e-38
0.019762442 -0.083733007 0.01587512 2.3509886e-38
0.021673491 -0.082893357 0.019816656 2.3509886e-38
0.023567263 -0.082893357 0.019816656 2.3509886e-38
0.02545841 -0.082255349 0.022811551 2.3509886e-38
0.027336398 -0.081402093 0.026816864 2.3509886e-38
0.029217897 -0.081402093 0.026816864 2.3509886e-38
0.031080559 -0.0807482 0.029886384 2.3509886e-38
0.032956675 -0.0807482 0.029886384 2.3509886e-38
0.03483279 -0.0807482 0.029886384 2.3509886e-38
0.036675408 -0.080122024 0.032825727 2.3509886e-38
0.038546376 -0.080122024 0.032825727 2.3509886e-38
0.040417336 -0.080122024 0.032825727 2.3509886e-38
0.0422883 -0.080122024 0.032825727 2.3509886e-38
0.044084825 -0.079260677 0.036869068 2.3509886e-38
0.045948699 -0.079260677 0.036869068 2.3509886e-38
0.047812574 -0.079260677 0.036869068 2.3509886e-38
0.049676448 -0.079260677 0.036869068 2.3509886e-38
0.051540323 -0.079260677 0.036869068 2.3509886e-38
0.053404197 -0.079260677 0.036869068 2.3509886e-38
0.055268072 -0.079260677 0.036869068 2.3417687e-38
0.057256006 -0.080122024 0.032825727 1.8070341e-38
0.059126969 -0.080122024 0.032825727 1.8071062e-38
0.060997933 -0.080122024 0.032825727 2.0283402e-38
0.062974542 -0.0807482 0.029886384 2.0376679e-38
0.064850658 -0.0807482 0.029886384 2.2773408e-38
0.066847876 -0.081402093 0.026816864 2.3234379e-38
0.068894401 -0.082255349 0.022811551 1.1248957e-38
0.07078293 -0.082255349 0.022811551 1.4762203e-39
-0.080687858 -0.10303779 -0.065155849 1.8717152e-38
-0.078645103 -0.10303779 -0.065155849 2.3141822e-38
-0.076602347 -0.10303779 -0.065155849 2.3509527e-38
-0.074217923 -0.1021748 -0.061137896 2.3509527e-38
-0.072182201 -0.1021748 -0.061137896 2.3509886e-38
-0.069821171 -0.10131776 -0.057147603 2.3509886e-38
-0.067792453 -0.10131776 -0.057147603 2.3509886e-38
-0.06545452 -0.10046658 -0.05318461 2.3509886e-38
-0.063432761 -0.10046658 -0.05318461 2.3509886e-38
-0.061107956 -0.099593118 -0.049117904 2.3509886e-38
-0.059093319 -0.099593118 -0.049117904 2.3509886e-38
-0.056801148 -0.098753676 -0.045209628 2.3509886e-38
-0.054515593 -0.097892255 -0.04119895 2.3509886e-38
-0.05230654 -0.097229466 -0.038113099 2.3509886e-38
-0.0503112 -0.097229466 -0.038113099 2.3509886e-38
-0.048062347 -0.096378669 -0.034151893 2.3509886e-38
-0.046073951 -0.096378669 -0.034151893 2.3509886e-38
-0.043839954 -0.095506594 -0.030091625 2.3509886e-38
-0.041858681 -0.095506594 -0.030091625 2.3509886e-38
-0.039877392 -0.095506594 -0.030091625 2.3509886e-38
-0.037896119 -0.095506594 -0.030091625 2.3509886e-38
-0.035705976 -0.094667718 -0.026185971 2.3509886e-38
-0.033731543 -0.094667718 -0.026185971 2.3509886e-38
-0.031606942 -0.094022244 -0.023180705 2.3509886e-38
-0.029445775 -0.093166932 -0.019198518 2.3509886e-38
-0.02748359 -0.093166932 -0.019198518 2.3509886e-38
-0.025339134 -0.092291236 -0.015121441 2.3509886e-38
-0.023384102 -0.092291236 -0.015121441 2.3509886e-38
-0.021307655 -0.091658354 -0.012174826 2.3509886e-38
-0.019198962 -0.09079358 -0.0081485324 2.3509886e-38
-0.017141901 -0.090142623 -0.0051177554 2.3509886e-38
-0.015204411 -0.090142623 -0.0051177554 2.3509886e-38
-0.013266921 -0.090142623 -0.0051177554 2.3509886e-38
-0.01120048 -0.089288771 -0.001142364 2.3509886e-38
-0.0092699602 -0.089288771 -0.001142364 2.3509886e-38
-0.0073394403 -0.089288771 -0.001142364 2.3509886e-38
-0.0054089203 -0.089288771 -0.001142364 2.3509886e-38
-0.0034784004 -0.089288771 -0.001142364 2.3509886e-38
-0.0014544576 -0.088441074 0.0028044172 2.3509886e-38
0.00046914071 -0.088441074 0.0028044172 2.3509886e-38
0.0024550445 -0.087777436 0.0058942027 2.3509886e-38
0.0043732263 -0.087777436 0.0058942027 2.3509886e-38
0.0062914118 -0.087777436 0.0058942027 2.3509886e-38
0.0082694218 -0.08691521 0.0099085756 2.3509886e-38
0.010180566 -0.08691521 0.0099085756 2.3509886e-38
0.012091711 -0.08691521 0.0099085756 2.3509886e-38
0.014031138 -0.086285278 0.012841482 2.3509886e-38
0.015937138 -0.086285278 0.012841482 2.3509886e-38
0.017861757 -0.085633695 0.01587512 2.3509886e-38
0.019779719 -0.084787115 0.019816656 2.3509886e-38
0.021673491 -0.084787115 0.019816656 2.3509886e-38
0.023567263 -0.084787115 0.019816656 2.3509886e-38
0.02545841 -0.084143862 0.022811551 2.3509886e-38
0.027336398 -0.083283588 0.026816864 2.3509886e-38
0.029217897 -0.083283588 0.026816864 2.3509886e-38
0.031080559 -0.082624316 0.029886384 2.3509886e-38
0.032956675 -0.082624316 0.029886384 2.3509886e-38
0.03483279 -0.082624316 0.029886384 2.3509886e-38
0.03670891 -0.082624316 0.029886384 2.3509886e-38
0.038585026 -0.082624316 0.029886384 2.3509886e-38
0.040461145 -0.082624316 0.029886384 2.3509886e-38
0.0422883 -0.081992984 0.032825727 2.3509886e-38
0.044084825 -0.081124544 0.036869068 2.3509886e-38
0.045948699 -0.081124544 0.036869068 2.3509886e-38
0.047812574 -0.081124544 0.036869068 2.3509886e-38
0.049676448 -0.081124544 0.036869068 2.3509886e-38
0.051540323 -0.081124544 0.036869068 2.3509886e-38
0.053404197 -0.081124544 0.036869068 2.3509886e-38
0.055268072 -0.081124544 0.036869068 2.3509883e-38
0.057256006 -0.081992984 0.032825727 1.7701558e-38
0.059126969 -0.081992984 0.032825727 1.853204e-38
0.06109843 -0.082624316 0.029886384 2.0191206e-38
0.063084871 -0.083283588 0.026816864 2.0007896e-38
0.064966373 -0.083283588 0.026816864 2.3049991e-38
0.06700588 -0.084143862 0.022811551 2.3142544e-38
0.068894401 -0.084143862 0.022811551 1.484495e-38
0.070911571 -0.084787115 0.019816656 2.9509972e-39
0.072805345 -0.084787115 0.019816656 7.3708299e-43
-0.080687858 -0.10508056 -0.065155849 2.2497173e-38
-0.078645103 -0.10508056 -0.065155849 2.341805e-38
-0.07625363 -0.10421051 -0.061137896 2.3509527e-38
-0.074217923 -0.10421051 -0.061137896 2.3232583e-38
-0.072182201 -0.10421051 -0.061137896 2.3509527e-38
-0.069821171 -0.10334648 -0.057147603 2.3509886e-38
-0.067476295 -0.10248834 -0.05318461 2.3509886e-38
-0.06545452 -0.10248834 -0.05318461 2.3509886e-38
-0.063122593 -0.10160775 -0.049117904 2.3509886e-38
-0.061107956 -0.10160775 -0.049117904 2.3509886e-38
-0.059093319 -0.10160775 -0.049117904 2.3509886e-38
-0.056801148 -0.10076147 -0.045209628 2.3509886e-38
-0.054515593 -0.099893004 -0.04119895 2.3509886e-38
-0.05230654 -0.099224806 -0.038113099 2.3509886e-38
-0.050050743 -0.098367065 -0.034151893 2.3509886e-38
-0.048062347 -0.098367065 -0.034151893 2.3509886e-38
-0.046073951 -0.098367065 -0.034151893 2.3509886e-38
-0.043839954 -0.097487867 -0.030091625 2.3509886e-38
-0.041858681 -0.097487867 -0.030091625 2.3509886e-38
-0.039877392 -0.097487867 -0.030091625 2.3509886e-38
-0.037896119 -0.097487867 -0.030091625 2.3509886e-38
-0.035705976 -0.096642151 -0.026185971 2.3509886e-38
-0.033731543 -0.096642151 -0.026185971 2.3509886e-38
-0.031606942 -0.095991403 -0.023180705 2.3509886e-38
-0.029445775 -0.095129102 -0.019198518 2.3509886e-38
-0.02748359 -0.095129102 -0.019198518 2.3509886e-38
-0.025339134 -0.094246268 -0.015121441 2.3509886e-38
-0.023257524 -0.093608215 -0.012174826 2.3509886e-38
-0.02114176 -0.092736378 -0.0081485324 2.3509886e-38
-0.019198962 -0.092736378 -0.0081485324 2.3509886e-38
-0.017141901 -0.092080101 -0.0051177554 2.3509886e-38
-0.015204411 -0.092080101 -0.0051177554 2.3509886e-38
-0.013266921 -0.092080101 -0.0051177554 2.3509886e-38
-0.01120048 -0.091219291 -0.001142364 2.3509886e-38
-0.0092699602 -0.091219291 -0.001142364 2.3509886e-38
-0.0073394403 -0.091219291 -0.001142364 2.3509886e-38
-0.0054089203 -0.091219291 -0.001142364 2.3509886e-38
-0.0034784004 -0.091219291 -0.001142364 2.3509886e-38
-0.0014544576 -0.090364665 0.0028044172 2.3509886e-38
0.00046914071 -0.090364665 0.0028044172 2.3509886e-38
0.0024550445 -0.089695618 0.0058942027 2.3509886e-38
0.0043732263 -0.089695618 0.0058942027 2.3509886e-38
0.0063582733 -0.088826358 0.0099085756 2.3509886e-38
0.0082694218 -0.088826358 0.0099085756 2.3509886e-38
0.010180566 -0.088826358 0.0099085756 2.3509886e-38
0.012125134 -0.088191271 0.012841482 2.3509886e-38
0.014031138 -0.088191271 0.012841482 2.3509886e-38
0.015961075 -0.087534383 0.01587512 2.3509886e-38
0.017861757 -0.087534383 0.01587512 2.3509886e-38
0.019779719 -0.086680889 0.019816656 2.3509886e-38
0.021673491 -0.086680889 0.019816656 2.3509886e-38
0.023569889 -0.086032391 0.022811551 2.3509886e-38
0.025454899 -0.085165098 0.026816864 2.3509886e-38
0.027336398 -0.085165098 0.026816864 2.3509886e-38
0.029217897 -0.085165098 0.026816864 2.3509886e-38
0.031080559 -0.084500432 0.029886384 2.3509886e-38
0.032956675 -0.084500432 0.029886384 2.3509886e-38
0.03483279 -0.084500432 0.029886384 2.3509886e-38
0.03670891 -0.084500432 0.029886384 2.3509886e-38
0.038585026 -0.084500432 0.029886384 2.3509886e-38
0.040461145 -0.084500432 0.029886384 2.3509886e-38
0.0422883 -0.083863959 0.032825727 2.3509886e-38
0.044159263 -0.083863959 0.032825727 2.3509886e-38
0.045948699 -0.082988426 0.036869068 2.3509886e-38
0.047812574 -0.082988426 0.036869068 2.3509886e-38
0.049676448 -0.082988426 0.036869068 2.3509886e-38
0.051540323 -0.082988426 0.036869068 2.3509886e-38
0.053404197 -0.082988426 0.036869068 2.3509883e-38
0.055385042 -0.083863959 0.032825727 2.3509879e-38
0.057256006 -0.083863959 0.032825727 1.7517521e-38
0.059126969 -0.083863959 0.032825727 1.8808622e-38
0.06109843 -0.084500432 0.029886384 2.0283757e-38
0.063228838 -0.086032391 0.022811551 2.0007894e-38
0.065117359 -0.086032391 0.022811551 2.3234379e-38
0.06700588 -0.086032391 0.022811551 2.3142544e-38
0.068894401 -0.086032391 0.022811551 1.8163992e-38
0.07078293 -0.086032391 0.022811551 5.4402792e-39
0.072671443 -0.086032391 0.022811551 1.6815582e-44
0.074559972 -0.086032391 0.022811551 1.3829513e-39
-0.078645103 -0.1071233 -0.065155849 2.3509886e-38
-0.07625363 -0.10624625 -0.061137896 2.3509167e-38
-0.074217923 -0.10624625 -0.061137896 2.3140384e-38
-0.071849875 -0.10537519 -0.057147603 2.3509527e-38
-0.069821171 -0.10537519 -0.057147603 2.3509886e-38
-0.067476295 -0.10451011 -0.05318461 2.3509886e-38
-0.06513723 -0.10362239 -0.049117904 2.3509886e-38
-0.063122593 -0.10362239 -0.049117904 2.3509886e-38
-0.061107956 -0.10362239 -0.049117904 2.3509886e-38
-0.05880893 -0.10276926 -0.045209628 2.3509886e-38
-0.056801148 -0.10276926 -0.045209628 2.3509886e-38
-0.054515593 -0.10189377 -0.04119895 2.3509886e-38
-0.05230654 -0.10122015 -0.038113099 2.3509886e-38
-0.050050743 -0.10035546 -0.034151893 2.3509886e-38
-0.048062347 -0.10035546 -0.034151893 2.3509886e-38
-0.046073951 -0.10035546 -0.034151893 2.3509886e-38
-0.043839954 -0.09946914 -0.030091625 2.3509886e-38
-0.041858681 -0.09946914 -0.030091625 2.3509886e-38
-0.039877392 -0.09946914 -0.030091625 2.3509886e-38
-0.037896119 -0.09946914 -0.030091625 2.3509886e-38
-0.035705976 -0.098616585 -0.026185971 2.3509886e-38
-0.033731543 -0.098616585 -0.026185971 2.3509886e-38
-0.031606942 -0.097960562 -0.023180705 2.3509886e-38
-0.029445775 -0.097091287 -0.019198518 2.3509886e-38
-0.02748359 -0.097091287 -0.019198518 2.3509886e-38
-0.025339134 -0.096201301 -0.015121441 2.3509886e-38
-0.023257524 -0.095558092 -0.012174826 2.3509886e-38
-0.02114176 -0.094679192 -0.0081485324 2.3509886e-38
-0.019079395 -0.094017595 -0.0051177554 2.3509886e-38
-0.017141901 -0.094017595 -0.0051177554 2.3509886e-38
-0.015204411 -0.094017595 -0.0051177554 2.3509886e-38
-0.013131 -0.093149811 -0.001142364 2.3509886e-38
-0.01120048 -0.093149811 -0.001142364 2.3509886e-38
-0.0092699602 -0.093149811 -0.001142364 2.3509886e-38
-0.0073394403 -0.093149811 -0.001142364 2.3509886e-38
-0.0054089203 -0.093149811 -0.001142364 2.3509886e-38
-0.0034784004 -0.093149811 -0.001142364 2.3509886e-38
-0.0014544576 -0.092288271 0.0028044172 2.3509886e-38
0.00053685904 -0.091613799 0.0058942027 2.3509886e-38
0.0024550445 -0.091613799 0.0058942027 2.3509886e-38
0.0043732263 -0.091613799 0.0058942027 2.3509886e-38
0.0063582733 -0.090737507 0.0099085756 2.3509886e-38
0.0082694218 -0.090737507 0.0099085756 2.3509886e-38
0.010219134 -0.090097278 0.012841482 2.3509886e-38
0.012125134 -0.090097278 0.012841482 2.3509886e-38
0.014060393 -0.089435071 0.01587512 2.3509886e-38
0.015992174 -0.088574663 0.019816656 2.3509886e-38
0.017885946 -0.088574663 0.019816656 2.3509886e-38
0.019779719 -0.088574663 0.019816656 2.3509886e-38
0.021681368 -0.087920904 0.022811551 2.3509886e-38
0.023569889 -0.087920904 0.022811551 2.3509886e-38
0.025454899 -0.087046593 0.026816864 2.3509886e-38
0.027328325 -0.086376548 0.029886384 2.3509886e-38
0.029204443 -0.086376548 0.029886384 2.3509886e-38
0.031080559 -0.086376548 0.029886384 2.3509886e-38
0.032956675 -0.086376548 0.029886384 2.3509886e-38
0.034804448 -0.085734919 0.032825727 2.3509886e-38
0.036675408 -0.085734919 0.032825727 2.3509886e-38
0.038546376 -0.085734919 0.032825727 2.3509886e-38
0.040417336 -0.085734919 0.032825727 2.3509886e-38
0.0422883 -0.085734919 0.032825727 2.3509886e-38
0.044159263 -0.085734919 0.032825727 2.3509886e-38
0.045948699 -0.084852293 0.036869068 2.3509886e-38
0.047812574 -0.084852293 0.036869068 2.3509886e-38
0.049605146 -0.08419472 0.039881486 2.3509886e-38
0.051463738 -0.08419472 0.039881486 2.3509886e-38
0.05332233 -0.08419472 0.039881486 2.350988e-38
0.055268072 -0.084852293 0.036869068 2.3234364e-38
0.057256006 -0.085734919 0.032825727 1.7426395e-38
0.059126969 -0.085734919 0.032825727 1.8716781e-38
0.061203375 -0.087046593 0.026816864 2.0376305e-38
0.063228838 -0.087920904 0.022811551 2.0100442e-38
0.065117359 -0.087920904 0.022811551 2.3234379e-38
0.06700588 -0.087920904 0.022811551 2.2958514e-38
0.068894401 -0.087920904 0.022811551 2.0008261e-38
0.07078293 -0.087920904 0.022811551 1.3000677e-38
0.072671443 -0.087920904 0.022811551 3.5967226e-39
0.074559972 -0.087920904 0.022811551 4.4254042e-39
-0.078645103 -0.10916607 -0.065155849 2.3509886e-38
-0.07625363 -0.10828196 -0.061137896 2.3416971e-38
-0.074217923 -0.10828196 -0.061137896 2.3509527e-38
-0.071849875 -0.10740392 -0.057147603 2.3509527e-38
-0.069498055 -0.10653187 -0.05318461 2.3509886e-38
-0.067476295 -0.10653187 -0.05318461 2.3509886e-38
-0.06513723 -0.10563703 -0.049117904 2.3509886e-38
-0.063122593 -0.10563703 -0.049117904 2.3509886e-38
-0.061107956 -0.10563703 -0.049117904 2.3509886e-38
-0.05880893 -0.10477705 -0.045209628 2.3509886e-38
-0.056801148 -0.10477705 -0.045209628 2.3509886e-38
-0.054515593 -0.10389452 -0.04119895 2.3509886e-38
-0.05230654 -0.1032155 -0.038113099 2.3509886e-38
-0.050050743 -0.10234386 -0.034151893 2.3509886e-38
-0.048062347 -0.10234386 -0.034151893 2.3509886e-38
-0.045821227 -0.10145043 -0.030091625 2.3509886e-38
-0.043839954 -0.10145043 -0.030091625 2.3509886e-38
-0.041858681 -0.10145043 -0.030091625 2.3509886e-38
-0.039877392 -0.10145043 -0.030091625 2.3509886e-38
-0.037896119 -0.10145043 -0.030091625 2.3509886e-38
-0.035705976 -0.100591 -0.026185971 2.3509886e-38
-0.033576109 -0.09992972 -0.023180705 2.3509886e-38
-0.031606942 -0.09992972 -0.023180705 2.3509886e-38
-0.029445775 -0.099053472 -0.019198518 2.3509886e-38
-0.02748359 -0.099053472 -0.019198518 2.3509886e-38
-0.025339134 -0.098156333 -0.015121441 2.3509886e-38
-0.023257524 -0.097507954 -0.012174826 2.3509886e-38
-0.02114176 -0.09662199 -0.0081485324 2.3509886e-38
-0.019079395 -0.095955089 -0.0051177554 2.3509886e-38
-0.017141901 -0.095955089 -0.0051177554 2.3509886e-38
-0.015204411 -0.095955089 -0.0051177554 2.3509886e-38
-0.013131 -0.095080331 -0.001142364 2.3509886e-38
-0.01120048 -0.095080331 -0.001142364 2.3509886e-38
