# .PCD v0.7 - Point Cloud Data file format
VERSION 0.7
FIELDS x y z rgb
SIZE 4 4 4 4
TYPE F F F F
COUNT 1 1 1 1
WIDTH 933
HEIGHT 1
VIEWPOINT 0 0 0 1 0 0 0
POINTS 933
DATA ascii
0.007792078 -0.099252045 0.0027005794 2.3509886e-38
0.0096806008 -0.099252045 0.0027005794 2.3509886e-38
0.011600723 -0.098335579 0.0067058923 2.3509886e-38
0.013482222 -0.098335579 0.0067058923 2.3509886e-38
0.015363721 -0.098335579 0.0067058923 2.3509886e-38
0.017253293 -0.097633243 0.0097754123 2.3509886e-38
0.01912941 -0.097633243 0.0097754123 2.3509886e-38
0.021005526 -0.097633243 0.0097754123 2.3509886e-38
0.022873914 -0.096960694 0.012714756 2.3509886e-38
0.024744876 -0.096960694 0.012714756 2.3509886e-38
0.026615839 -0.096960694 0.012714756 2.3509886e-38
0.028486803 -0.096960694 0.012714756 2.3509886e-38
0.030357767 -0.096960694 0.012714756 2.3509886e-38
0.032228731 -0.096960694 0.012714756 2.3509886e-38
0.034099691 -0.096960694 0.012714756 2.3509886e-38
0.035910398 -0.09603554 0.016758095 2.3509886e-38
0.037774272 -0.09603554 0.016758095 2.3509886e-38
0.039712582 -0.096960694 0.012714756 2.3509886e-38
0.041502018 -0.09603554 0.016758095 2.3509886e-38
0.043365892 -0.09603554 0.016758095 2.3509886e-38
0.045229767 -0.09603554 0.016758095 2.3509886e-38
0.047093637 -0.09603554 0.016758095 2.3509886e-38
0.048957512 -0.09603554 0.016758095 2.3509886e-38
0.050734237 -0.095346272 0.019770514 2.3509886e-38
0.052592829 -0.095346272 0.019770514 2.3509886e-38
0.054451421 -0.095346272 0.019770514 2.3509886e-38
0.056207601 -0.094660893 0.022765886 2.3509886e-38
0.058060944 -0.094660893 0.022765886 2.3509886e-38
0.059914283 -0.094660893 0.022765886 2.3509886e-38
0.061767623 -0.094660893 0.022765886 2.3509886e-38
0.063498244 -0.093979403 0.02574433 2.3509886e-38
0.06534636 -0.093979403 0.02574433 2.3509886e-38
0.067194477 -0.093979403 0.02574433 2.3509886e-38
0.069042593 -0.093979403 0.02574433 2.3509883e-38
0.07089071 -0.093979403 0.02574433 2.3325492e-38
0.072887667 -0.094660893 0.022765886 2.3509883e-38
0.074895933 -0.095346272 0.019770514 2.2126948e-38
0.076915622 -0.09603554 0.016758095 1.9637666e-38
0.079002813 -0.096960694 0.012714756 2.046743e-38
0.081041262 -0.097633243 0.0097754123 2.2680492e-38
0.083332933 -0.099252045 0.0027005794 1.7148398e-38
0.085221455 -0.099252045 0.0027005794 7.7448e-39
0.087109976 -0.099252045 0.0027005794 2.1208666e-39
-0.09430182 -0.10988651 -0.035232414 1.8413833e-39
-0.092346787 -0.10988651 -0.035232414 2.0257745e-39
-0.089700997 -0.10827883 -0.028259505 1.8529513e-38
-0.087758198 -0.10827883 -0.028259505 2.3509517e-38
-0.085525781 -0.10758002 -0.025228728 2.3509879e-38
-0.083588287 -0.10758002 -0.025228728 2.350988e-38
-0.081650794 -0.10758002 -0.025228728 2.3509883e-38
-0.0797133 -0.10758002 -0.025228728 2.3509886e-38
-0.077775806 -0.10758002 -0.025228728 2.341805e-38
-0.075838327 -0.10758002 -0.025228728 2.3234379e-38
-0.073562771 -0.10666345 -0.021253336 2.3234379e-38
-0.071632251 -0.10666345 -0.021253336 2.341805e-38
-0.069701731 -0.10666345 -0.021253336 2.3509886e-38
-0.067771211 -0.10666345 -0.021253336 2.3509886e-38
-0.065532759 -0.10575347 -0.017306555 2.3509886e-38
-0.063609153 -0.10575347 -0.017306555 2.3509886e-38
-0.061455313 -0.10504107 -0.014216769 2.3509886e-38
-0.059537131 -0.10504107 -0.014216769 2.3509886e-38
-0.05761895 -0.10504107 -0.014216769 2.3509886e-38
-0.055700768 -0.10504107 -0.014216769 2.3509886e-38
-0.053782586 -0.10504107 -0.014216769 2.3509886e-38
-0.051864404 -0.10504107 -0.014216769 2.3509886e-38
-0.049946222 -0.10504107 -0.014216769 2.3509886e-38
-0.048028041 -0.10504107 -0.014216769 2.3509886e-38
-0.045867015 -0.1041155 -0.010202396 2.3509886e-38
-0.043955881 -0.1041155 -0.010202396 2.3509886e-38
-0.042044733 -0.1041155 -0.010202396 2.3509886e-38
-0.040133584 -0.1041155 -0.010202396 2.3509886e-38
-0.038065601 -0.10343929 -0.0072694896 2.3509886e-38
-0.036159594 -0.10343929 -0.0072694896 2.3509886e-38
-0.034253601 -0.10343929 -0.0072694896 2.3509886e-38
-0.032347593 -0.10343929 -0.0072694896 2.3509886e-38
-0.030300636 -0.10273984 -0.0042358516 2.3509886e-38
-0.028399955 -0.10273984 -0.0042358516 2.3509886e-38
-0.026499275 -0.10273984 -0.0042358516 2.3509886e-38
-0.024598587 -0.10273984 -0.0042358516 2.3509886e-38
-0.022697907 -0.10273984 -0.0042358516 2.3509886e-38
-0.020797223 -0.10273984 -0.0042358516 2.3509886e-38
-0.018896539 -0.10273984 -0.0042358516 2.3509886e-38
-0.016861096 -0.10183108 -0.00029431563 2.3509886e-38
-0.014967322 -0.10183108 -0.00029431563 2.3509886e-38
-0.013073549 -0.10183108 -0.00029431563 2.3509886e-38
-0.011093136 -0.10114056 0.0027005794 2.3509886e-38
-0.0092046149 -0.10114056 0.0027005794 2.3509886e-38
-0.0073160939 -0.10114056 0.0027005794 2.3509886e-38
-0.0054275729 -0.10114056 0.0027005794 2.3509886e-38
-0.0035390519 -0.10114056 0.0027005794 2.3509886e-38
-0.0016505271 -0.10114056 0.0027005794 2.3509886e-38
0.00031173229 -0.10021709 0.0067058923 2.3509886e-38
0.0021932311 -0.10021709 0.0067058923 2.3509886e-38
0.0040150359 -0.10114056 0.0027005794 2.3509886e-38
0.0059035569 -0.10114056 0.0027005794 2.3509886e-38
0.007792078 -0.10114056 0.0027005794 2.3509886e-38
0.0097192265 -0.10021709 0.0067058923 2.3509886e-38
0.011600723 -0.10021709 0.0067058923 2.3509886e-38
0.013482222 -0.10021709 0.0067058923 2.3509886e-38
0.015377175 -0.099509358 0.0097754123 2.3509886e-38
0.017253293 -0.099509358 0.0097754123 2.3509886e-38
0.01912941 -0.099509358 0.0097754123 2.3509886e-38
0.02100295 -0.098831654 0.012714756 2.3509886e-38
0.022873914 -0.098831654 0.012714756 2.3509886e-38
0.024744876 -0.098831654 0.012714756 2.3509886e-38
0.026615839 -0.098831654 0.012714756 2.3509886e-38
0.028486803 -0.098831654 0.012714756 2.3509886e-38
0.030357767 -0.098831654 0.012714756 2.3509886e-38
0.032182649 -0.097899407 0.016758095 2.3509886e-38
0.034046523 -0.097899407 0.016758095 2.3509886e-38
0.035910398 -0.097899407 0.016758095 2.3509886e-38
0.037774272 -0.097899407 0.016758095 2.3509886e-38
0.039638147 -0.097899407 0.016758095 2.3509886e-38
0.041502018 -0.097899407 0.016758095 2.3509886e-38
0.043365892 -0.097899407 0.016758095 2.3509886e-38
0.045229767 -0.097899407 0.016758095 2.3509886e-38
0.047093637 -0.097899407 0.016758095 2.3509886e-38
0.048957512 -0.097899407 0.016758095 2.3509886e-38
0.050734237 -0.097204864 0.019770514 2.3509886e-38
0.052500922 -0.09651424 0.022765886 2.3509886e-38
0.054354262 -0.09651424 0.022765886 2.3509886e-38
0.056207601 -0.09651424 0.022765886 2.3509886e-38
0.057953887 -0.09582752 0.02574433 2.3509886e-38
0.059802007 -0.09582752 0.02574433 2.3509886e-38
0.061650123 -0.09582752 0.02574433 2.3509886e-38
0.063498244 -0.09582752 0.02574433 2.3509886e-38
0.06534636 -0.09582752 0.02574433 2.3509886e-38
0.067194477 -0.09582752 0.02574433 2.3509886e-38
0.069042593 -0.09582752 0.02574433 2.3509883e-38
0.07089071 -0.09582752 0.02574433 2.3325492e-38
0.072738834 -0.09582752 0.02574433 2.3509883e-38
0.074741006 -0.09651424 0.022765886 2.1758166e-38
0.076754525 -0.097204864 0.019770514 1.9268884e-38
0.079002813 -0.098831654 0.012714756 2.0283039e-38
0.081041262 -0.099509358 0.0097754123 2.1205361e-38
0.083332933 -0.10114056 0.0027005794 1.7886319e-38
0.085221455 -0.10114056 0.0027005794 9.3121258e-39
0.087109976 -0.10114056 0.0027005794 3.5959967e-39
-0.091643795 -0.11022164 -0.028259505 8.279544e-40
-0.089700997 -0.11022164 -0.028259505 2.2032949e-38
-0.087758198 -0.11022164 -0.028259505 2.350952e-38
-0.085525781 -0.10951753 -0.025228728 2.3509521e-38
-0.083588287 -0.10951753 -0.025228728 2.350988e-38
-0.081650794 -0.10951753 -0.025228728 2.3509883e-38
-0.0797133 -0.10951753 -0.025228728 2.3509886e-38
-0.077423811 -0.10859399 -0.021253336 2.341805e-38
-0.075493291 -0.10859399 -0.021253336 2.3234379e-38
-0.073562771 -0.10859399 -0.021253336 2.3234379e-38
-0.071632251 -0.10859399 -0.021253336 2.341805e-38
-0.069701731 -0.10859399 -0.021253336 2.3509886e-38
-0.06745635 -0.10767709 -0.017306555 2.3509886e-38
-0.065532759 -0.10767709 -0.017306555 2.3509886e-38
-0.063373491 -0.10695927 -0.014216769 2.3509886e-38
-0.061455313 -0.10695927 -0.014216769 2.3509886e-38
-0.059537131 -0.10695927 -0.014216769 2.3509886e-38
-0.05761895 -0.10695927 -0.014216769 2.3509886e-38
-0.055700768 -0.10695927 -0.014216769 2.3509886e-38
-0.053782586 -0.10695927 -0.014216769 2.3509886e-38
-0.051864404 -0.10695927 -0.014216769 2.3509886e-38
-0.049946222 -0.10695927 -0.014216769 2.3509886e-38
-0.047778163 -0.10602666 -0.010202396 2.3509886e-38
-0.045867015 -0.10602666 -0.010202396 2.3509886e-38
-0.043955881 -0.10602666 -0.010202396 2.3509886e-38
-0.042044733 -0.10602666 -0.010202396 2.3509886e-38
-0.039971601 -0.10534529 -0.0072694896 2.3509886e-38
-0.038065601 -0.10534529 -0.0072694896 2.3509886e-38
-0.036159594 -0.10534529 -0.0072694896 2.3509886e-38
-0.034253601 -0.10534529 -0.0072694896 2.3509886e-38
-0.032347593 -0.10534529 -0.0072694896 2.3509886e-38
-0.030300636 -0.10464053 -0.0042358516 2.3509886e-38
-0.028399955 -0.10464053 -0.0042358516 2.3509886e-38
-0.026499275 -0.10464053 -0.0042358516 2.3509886e-38
-0.024598587 -0.10464053 -0.0042358516 2.3509886e-38
-0.022697907 -0.10464053 -0.0042358516 2.3509886e-38
-0.020797223 -0.10464053 -0.0042358516 2.3509886e-38
-0.018896539 -0.10464053 -0.0042358516 2.3509886e-38
-0.016861096 -0.10372485 -0.00029431563 2.3509886e-38
-0.014967322 -0.10372485 -0.00029431563 2.3509886e-38
-0.013073549 -0.10372485 -0.00029431563 2.3509886e-38
-0.011093136 -0.10302909 0.0027005794 2.3509886e-38
-0.0092046149 -0.10302909 0.0027005794 2.3509886e-38
-0.0073160939 -0.10302909 0.0027005794 2.3509886e-38
-0.0054275729 -0.10302909 0.0027005794 2.3509886e-38
-0.0035390519 -0.10302909 0.0027005794 2.3509886e-38
-0.0015697666 -0.10209858 0.0067058923 2.3509886e-38
0.00031173229 -0.10209858 0.0067058923 2.3509886e-38
0.0021932311 -0.10209858 0.0067058923 2.3509886e-38
0.0040747263 -0.10209858 0.0067058923 2.3509886e-38
0.0059562288 -0.10209858 0.0067058923 2.3509886e-38
0.0078377277 -0.10209858 0.0067058923 2.3509886e-38
0.0097192265 -0.10209858 0.0067058923 2.3509886e-38
0.011624943 -0.10138547 0.0097754123 2.3509886e-38
0.013501059 -0.10138547 0.0097754123 2.3509886e-38
0.015377175 -0.10138547 0.0097754123 2.3509886e-38
0.017253293 -0.10138547 0.0097754123 2.3509886e-38
0.019131986 -0.10070263 0.012714756 2.3509886e-38
0.02100295 -0.10070263 0.012714756 2.3509886e-38
0.022873914 -0.10070263 0.012714756 2.3509886e-38
0.024744876 -0.10070263 0.012714756 2.3509886e-38
0.026615839 -0.10070263 0.012714756 2.3509886e-38
0.028486803 -0.10070263 0.012714756 2.3509886e-38
0.030357767 -0.10070263 0.012714756 2.3509886e-38
0.032182649 -0.099763289 0.016758095 2.3509886e-38
0.034046523 -0.099763289 0.016758095 2.3509886e-38
0.035910398 -0.099763289 0.016758095 2.3509886e-38
0.037774272 -0.099763289 0.016758095 2.3509886e-38
0.039638147 -0.099763289 0.016758095 2.3509886e-38
0.041441277 -0.099063456 0.019770514 2.3509886e-38
0.043299869 -0.099063456 0.019770514 2.3509886e-38
0.045158461 -0.099063456 0.019770514 2.3509886e-38
0.047017053 -0.099063456 0.019770514 2.3509886e-38
0.048875645 -0.099063456 0.019770514 2.3509886e-38
0.050647583 -0.098367572 0.022765886 2.3509886e-38
0.052500922 -0.098367572 0.022765886 2.3509886e-38
0.054354262 -0.098367572 0.022765886 2.3509886e-38
0.05610577 -0.097675636 0.02574433 2.3509886e-38
0.057953887 -0.097675636 0.02574433 2.3509886e-38
0.059802007 -0.097675636 0.02574433 2.3509886e-38
0.061650123 -0.097675636 0.02574433 2.3509886e-38
0.063498244 -0.097675636 0.02574433 2.3509886e-38
0.06534636 -0.097675636 0.02574433 2.3509886e-38
0.067194477 -0.097675636 0.02574433 2.341769e-38
0.068854213 -0.096733689 0.029798876 2.3509883e-38
0.070695221 -0.096733689 0.029798876 2.3417687e-38
0.072738834 -0.097675636 0.02574433 2.3509883e-38
0.07458695 -0.097675636 0.02574433 2.1573775e-38
0.076754525 -0.099063456 0.019770514 1.9176688e-38
0.079002813 -0.10070263 0.012714756 2.0375234e-38
0.081216179 -0.10209858 0.0067058923 2.1020969e-38
0.083508842 -0.10372485 -0.00029431563 1.8440571e-38
0.085402615 -0.10372485 -0.00029431563 1.1063841e-38
-0.09399958 -0.11310686 -0.032285798 4.5917748e-40
-0.091643795 -0.11216442 -0.028259505 3.6734198e-40
-0.089700997 -0.11216442 -0.028259505 2.3509521e-38
-0.08746326 -0.11145501 -0.025228728 2.3509524e-38
-0.085525781 -0.11145501 -0.025228728 2.3509883e-38
-0.083588287 -0.11145501 -0.025228728 2.3509883e-38
-0.081650794 -0.11145501 -0.025228728 2.3509883e-38
-0.079354346 -0.11052449 -0.021253336 2.3509886e-38
-0.077423811 -0.11052449 -0.021253336 2.341805e-38
-0.075493291 -0.11052449 -0.021253336 2.341805e-38
-0.073562771 -0.11052449 -0.021253336 2.341805e-38
-0.071303561 -0.10960068 -0.017306555 2.3509886e-38
-0.069379956 -0.10960068 -0.017306555 2.3509886e-38
-0.06745635 -0.10960068 -0.017306555 2.3509886e-38
-0.065532759 -0.10960068 -0.017306555 2.3509886e-38
-0.063373491 -0.10887744 -0.014216769 2.3509886e-38
-0.061455313 -0.10887744 -0.014216769 2.3509886e-38
-0.059537131 -0.10887744 -0.014216769 2.3509886e-38
-0.05761895 -0.10887744 -0.014216769 2.3509886e-38
-0.055700768 -0.10887744 -0.014216769 2.3509886e-38
-0.053511593 -0.1079378 -0.010202396 2.3509886e-38
-0.05160046 -0.1079378 -0.010202396 2.3509886e-38
-0.049689312 -0.1079378 -0.010202396 2.3509886e-38
-0.047778163 -0.1079378 -0.010202396 2.3509886e-38
-0.045867015 -0.1079378 -0.010202396 2.3509886e-38
-0.043955881 -0.1079378 -0.010202396 2.3509886e-38
-0.041877601 -0.1072513 -0.0072694896 2.3509886e-38
-0.039971601 -0.1072513 -0.0072694896 2.3509886e-38
-0.038065601 -0.1072513 -0.0072694896 2.3509886e-38
-0.036159594 -0.1072513 -0.0072694896 2.3509886e-38
-0.034253601 -0.1072513 -0.0072694896 2.3509886e-38
-0.032201324 -0.1065412 -0.0042358516 2.3509886e-38
-0.030300636 -0.1065412 -0.0042358516 2.3509886e-38
-0.028399955 -0.1065412 -0.0042358516 2.3509886e-38
-0.026499275 -0.1065412 -0.0042358516 2.3509886e-38
-0.024598587 -0.1065412 -0.0042358516 2.3509886e-38
-0.022697907 -0.1065412 -0.0042358516 2.3509886e-38
-0.020797223 -0.1065412 -0.0042358516 2.3509886e-38
-0.018754866 -0.10561861 -0.00029431563 2.3509886e-38
-0.016861096 -0.10561861 -0.00029431563 2.3509886e-38
-0.014967322 -0.10561861 -0.00029431563 2.3509886e-38
-0.012981657 -0.1049176 0.0027005794 2.3509886e-38
-0.011093136 -0.1049176 0.0027005794 2.3509886e-38
-0.0092046149 -0.1049176 0.0027005794 2.3509886e-38
-0.0073160939 -0.1049176 0.0027005794 2.3509886e-38
-0.0054275729 -0.1049176 0.0027005794 2.3509886e-38
-0.0035390519 -0.1049176 0.0027005794 2.3509886e-38
-0.0015697666 -0.10398008 0.0067058923 2.3509886e-38
0.00031173229 -0.10398008 0.0067058923 2.3509886e-38
0.0021932311 -0.10398008 0.0067058923 2.3509886e-38
0.0040747263 -0.10398008 0.0067058923 2.3509886e-38
0.0059562288 -0.10398008 0.0067058923 2.3509886e-38
0.0078377277 -0.10398008 0.0067058923 2.3509886e-38
0.0097192265 -0.10398008 0.0067058923 2.3509886e-38
0.011624943 -0.1032616 0.0097754123 2.3509886e-38
0.013501059 -0.1032616 0.0097754123 2.3509886e-38
0.015377175 -0.1032616 0.0097754123 2.3509886e-38
0.017253293 -0.1032616 0.0097754123 2.3509886e-38
0.019131986 -0.10257359 0.012714756 2.3509886e-38
0.02100295 -0.10257359 0.012714756 2.3509886e-38
0.022873914 -0.10257359 0.012714756 2.3509886e-38
0.024744876 -0.10257359 0.012714756 2.3509886e-38
0.026615839 -0.10257359 0.012714756 2.3509886e-38
0.028486803 -0.10257359 0.012714756 2.3509886e-38
0.030357767 -0.10257359 0.012714756 2.3509886e-38
0.032182649 -0.10162716 0.016758095 2.3509886e-38
0.034046523 -0.10162716 0.016758095 2.3509886e-38
0.035910398 -0.10162716 0.016758095 2.3509886e-38
0.037774272 -0.10162716 0.016758095 2.3509886e-38
0.039638147 -0.10162716 0.016758095 2.3509886e-38
0.041441277 -0.10092205 0.019770514 2.3509886e-38
0.043299869 -0.10092205 0.019770514 2.3509886e-38
0.045158461 -0.10092205 0.019770514 2.3509886e-38
0.047017053 -0.10092205 0.019770514 2.3509886e-38
0.04879424 -0.10022092 0.022765886 2.3509886e-38
0.050647583 -0.10022092 0.022765886 2.3509886e-38
0.052500922 -0.10022092 0.022765886 2.3509886e-38
0.054354262 -0.10022092 0.022765886 2.3509886e-38
0.05610577 -0.099523753 0.02574433 2.3509886e-38
0.057953887 -0.099523753 0.02574433 2.3509886e-38
0.059802007 -0.099523753 0.02574433 2.3509886e-38
0.061650123 -0.099523753 0.02574433 2.3509886e-38
0.063498244 -0.099523753 0.02574433 2.3509886e-38
0.06534636 -0.099523753 0.02574433 2.3509886e-38
0.067013204 -0.098574698 0.029798876 2.3325494e-38
0.068854213 -0.098574698 0.029798876 2.3509883e-38
0.070553504 -0.097886756 0.032737982 2.3509883e-38
0.072389364 -0.097886756 0.032737982 2.3509883e-38
0.07458695 -0.099523753 0.02574433 2.1481579e-38
0.077453181 -0.10398008 0.0067058923 1.9176688e-38
0.079334676 -0.10398008 0.0067058923 2.0559625e-38
0.081216179 -0.10398008 0.0067058923 2.1389749e-38
0.083097674 -0.10398008 0.0067058923 1.8532766e-38
-0.09399958 -0.11505674 -0.032285798 2.7550649e-40
-0.091643795 -0.11410724 -0.028259505 2.7550649e-40
-0.089700997 -0.11410724 -0.028259505 2.3509524e-38
-0.08746326 -0.11339252 -0.025228728 2.3509527e-38
-0.085525781 -0.11339252 -0.025228728 2.3509527e-38
-0.083588287 -0.11339252 -0.025228728 2.3509527e-38
-0.081284866 -0.11245503 -0.021253336 2.3509886e-38
-0.079354346 -0.11245503 -0.021253336 2.3509886e-38
-0.077423811 -0.11245503 -0.021253336 2.341805e-38
-0.075493291 -0.11245503 -0.021253336 2.341805e-38
-0.073227152 -0.11152427 -0.017306555 2.341805e-38
-0.071303561 -0.11152427 -0.017306555 2.3509886e-38
-0.069379956 -0.11152427 -0.017306555 2.3509886e-38
-0.067771211 -0.11245503 -0.021253336 2.3509886e-38
-0.065532759 -0.11152427 -0.017306555 2.3509886e-38
-0.063609153 -0.11152427 -0.017306555 2.3509886e-38
-0.061455313 -0.11079563 -0.014216769 2.3509886e-38
-0.059537131 -0.11079563 -0.014216769 2.3509886e-38
-0.05761895 -0.11079563 -0.014216769 2.3509886e-38
-0.055700768 -0.11079563 -0.014216769 2.3509886e-38
-0.053511593 -0.10984896 -0.010202396 2.3509886e-38
-0.05160046 -0.10984896 -0.010202396 2.3509886e-38
-0.049689312 -0.10984896 -0.010202396 2.3509886e-38
-0.047778163 -0.10984896 -0.010202396 2.3509886e-38
-0.045689616 -0.10915731 -0.0072694896 2.3509886e-38
-0.043605421 -0.1084419 -0.0042358516 2.3509886e-38
-0.041704733 -0.1084419 -0.0042358516 2.3509886e-38
-0.039971601 -0.10915731 -0.0072694896 2.3509886e-38
-0.038065601 -0.10915731 -0.0072694896 2.3509886e-38
-0.036002684 -0.1084419 -0.0042358516 2.3509886e-38
-0.034102004 -0.1084419 -0.0042358516 2.3509886e-38
-0.032201324 -0.1084419 -0.0042358516 2.3509886e-38
-0.030300636 -0.1084419 -0.0042358516 2.3509886e-38
-0.028399955 -0.1084419 -0.0042358516 2.3509886e-38
-0.026329953 -0.1075124 -0.00029431563 2.3509886e-38
-0.024312783 -0.10680611 0.0027005794 2.3509886e-38
-0.022424262 -0.10680611 0.0027005794 2.3509886e-38
-0.020535741 -0.10680611 0.0027005794 2.3509886e-38
-0.01864722 -0.10680611 0.0027005794 2.3509886e-38
-0.016758699 -0.10680611 0.0027005794 2.3509886e-38
-0.014870178 -0.10680611 0.0027005794 2.3509886e-38
-0.01285876 -0.10586159 0.0067058923 2.3509886e-38
-0.010977261 -0.10586159 0.0067058923 2.3509886e-38
-0.0092046149 -0.10680611 0.0027005794 2.3509886e-38
-0.0073160939 -0.10680611 0.0027005794 2.3509886e-38
-0.0054275729 -0.10680611 0.0027005794 2.3509886e-38
-0.0035390519 -0.10680611 0.0027005794 2.3509886e-38
-0.0015697666 -0.10586159 0.0067058923 2.3509886e-38
0.00031173229 -0.10586159 0.0067058923 2.3509886e-38
0.0021265149 -0.10680611 0.0027005794 2.3509886e-38
0.0040150359 -0.10680611 0.0027005794 2.3509886e-38
0.0059035569 -0.10680611 0.0027005794 2.3509886e-38
0.0078377277 -0.10586159 0.0067058923 2.3509886e-38
0.0097192265 -0.10586159 0.0067058923 2.3509886e-38
0.011600723 -0.10586159 0.0067058923 2.3509886e-38
0.013501059 -0.10513772 0.0097754123 2.3509886e-38
0.015390061 -0.10444455 0.012714756 2.3509886e-38
0.017261023 -0.10444455 0.012714756 2.3509886e-38
0.019131986 -0.10444455 0.012714756 2.3509886e-38
0.02100295 -0.10444455 0.012714756 2.3509886e-38
0.022873914 -0.10444455 0.012714756 2.3509886e-38
0.024744876 -0.10444455 0.012714756 2.3509886e-38
0.026615839 -0.10444455 0.012714756 2.3509886e-38
0.028486803 -0.10444455 0.012714756 2.3509886e-38
0.030357767 -0.10444455 0.012714756 2.3509886e-38
0.032182649 -0.10349102 0.016758095 2.3509886e-38
0.034046523 -0.10349102 0.016758095 2.3509886e-38
0.035910398 -0.10349102 0.016758095 2.3509886e-38
0.037774272 -0.10349102 0.016758095 2.3509886e-38
0.039638147 -0.10349102 0.016758095 2.3509886e-38
0.041441277 -0.10278064 0.019770514 2.3509886e-38
0.043299869 -0.10278064 0.019770514 2.3509886e-38
0.045158461 -0.10278064 0.019770514 2.3509886e-38
0.047017053 -0.10278064 0.019770514 2.3509886e-38
0.04879424 -0.10207425 0.022765886 2.3509886e-38
0.050647583 -0.10207425 0.022765886 2.3509886e-38
0.052500922 -0.10207425 0.022765886 2.3509886e-38
0.054354262 -0.10207425 0.022765886 2.3509886e-38
0.05610577 -0.10137187 0.02574433 2.3509886e-38
0.057953887 -0.10137187 0.02574433 2.3509886e-38
0.059802007 -0.10137187 0.02574433 2.3509886e-38
0.061650123 -0.10137187 0.02574433 2.3509886e-38
0.063498244 -0.10137187 0.02574433 2.3509886e-38
0.06534636 -0.10137187 0.02574433 2.3509886e-38
0.067013204 -0.10041572 0.029798876 2.3233299e-38
0.068854213 -0.10041572 0.029798876 2.3509883e-38
0.070407376 -0.099007934 0.03576852 2.3509883e-38
0.072237924 -0.099007934 0.03576852 2.3417687e-38
0.074225217 -0.099722609 0.032737982 2.1297188e-38
0.078737289 -0.11152427 -0.017306555 1.8992297e-38
0.080660887 -0.11152427 -0.017306555 2.0559625e-38
0.082584485 -0.11152427 -0.017306555 2.074438e-38
0.083918542 -0.10915731 -0.0072694896 1.8070706e-38
-0.093586609 -0.11605005 -0.028259505 3.6734619e-40
-0.091643795 -0.11605005 -0.028259505 2.7550929e-40
-0.089700997 -0.11605005 -0.028259505 2.3509167e-38
-0.08746326 -0.11533 -0.025228728 2.3509527e-38
-0.085525781 -0.11533 -0.025228728 2.3509527e-38
-0.083588287 -0.11533 -0.025228728 2.3509886e-38
-0.081284866 -0.11438553 -0.021253336 2.3509886e-38
-0.079354346 -0.11438553 -0.021253336 2.3509886e-38
-0.077074364 -0.11344786 -0.017306555 2.3509886e-38
-0.075150758 -0.11344786 -0.017306555 2.341805e-38
-0.073227152 -0.11344786 -0.017306555 2.341805e-38
-0.071303561 -0.11344786 -0.017306555 2.3509886e-38
-0.069379956 -0.11344786 -0.017306555 2.3509886e-38
-0.067771211 -0.11438553 -0.021253336 2.3509886e-38
-0.065532759 -0.11344786 -0.017306555 2.3509886e-38
-0.063609153 -0.11344786 -0.017306555 2.3509886e-38
-0.061685551 -0.11344786 -0.017306555 2.3509886e-38
-0.059537131 -0.1127138 -0.014216769 2.3509886e-38
-0.05761895 -0.1127138 -0.014216769 2.3509886e-38
-0.055422742 -0.11176009 -0.010202396 2.3509886e-38
-0.053511593 -0.11176009 -0.010202396 2.3509886e-38
-0.05160046 -0.11176009 -0.010202396 2.3509886e-38
-0.049689312 -0.11176009 -0.010202396 2.3509886e-38
-0.047595609 -0.11106332 -0.0072694896 2.3509886e-38
-0.045689616 -0.11106332 -0.0072694896 2.3509886e-38
-0.043605421 -0.11034258 -0.0042358516 2.3509886e-38
-0.041704733 -0.11034258 -0.0042358516 2.3509886e-38
-0.03980406 -0.11034258 -0.0042358516 2.3509886e-38
-0.037903372 -0.11034258 -0.0042358516 2.3509886e-38
-0.035798822 -0.10940616 -0.00029431563 2.3509886e-38
-0.033905048 -0.10940616 -0.00029431563 2.3509886e-38
-0.032011274 -0.10940616 -0.00029431563 2.3509886e-38
-0.030117501 -0.10940616 -0.00029431563 2.3509886e-38
-0.028223727 -0.10940616 -0.00029431563 2.3509886e-38
-0.026329953 -0.10940616 -0.00029431563 2.3509886e-38
-0.024312783 -0.10869466 0.0027005794 2.3509886e-38
-0.022424262 -0.10869466 0.0027005794 2.3509886e-38
-0.020535741 -0.10869466 0.0027005794 2.3509886e-38
-0.01864722 -0.10869466 0.0027005794 2.3509886e-38
-0.016758699 -0.10869466 0.0027005794 2.3509886e-38
-0.014870178 -0.10869466 0.0027005794 2.3509886e-38
-0.01285876 -0.10774307 0.0067058923 2.3509886e-38
-0.010977261 -0.10774307 0.0067058923 2.3509886e-38
-0.0092046149 -0.10869466 0.0027005794 2.3509886e-38
-0.0073160939 -0.10869466 0.0027005794 2.3509886e-38
-0.0054275729 -0.10869466 0.0027005794 2.3509886e-38
-0.0035390519 -0.10869466 0.0027005794 2.3509886e-38
-0.0016505271 -0.10869466 0.0027005794 2.3509886e-38
0.0002379939 -0.10869466 0.0027005794 2.3509886e-38
0.0021265149 -0.10869466 0.0027005794 2.3509886e-38
0.0040150359 -0.10869466 0.0027005794 2.3509886e-38
0.0059035569 -0.10869466 0.0027005794 2.3509886e-38
0.0078377277 -0.10774307 0.0067058923 2.3509886e-38
0.0097192265 -0.10774307 0.0067058923 2.3509886e-38
0.011624943 -0.10701384 0.0097754123 2.3509886e-38
0.013519097 -0.10631551 0.012714756 2.3509886e-38
0.015390061 -0.10631551 0.012714756 2.3509886e-38
0.017261023 -0.10631551 0.012714756 2.3509886e-38
0.019131986 -0.10631551 0.012714756 2.3509886e-38
0.02100295 -0.10631551 0.012714756 2.3509886e-38
0.022873914 -0.10631551 0.012714756 2.3509886e-38
0.024744876 -0.10631551 0.012714756 2.3509886e-38
0.026615839 -0.10631551 0.012714756 2.3509886e-38
0.028486803 -0.10631551 0.012714756 2.3509886e-38
0.030357767 -0.10631551 0.012714756 2.3509886e-38
0.032182649 -0.10535492 0.016758095 2.3509886e-38
0.034046523 -0.10535492 0.016758095 2.3509886e-38
0.035910398 -0.10535492 0.016758095 2.3509886e-38
0.037774272 -0.10535492 0.016758095 2.3509886e-38
0.039638147 -0.10535492 0.016758095 2.3509886e-38
0.041441277 -0.10463922 0.019770514 2.3509886e-38
0.043299869 -0.10463922 0.019770514 2.3509886e-38
0.045158461 -0.10463922 0.019770514 2.3509886e-38
0.047017053 -0.10463922 0.019770514 2.3509886e-38
0.04879424 -0.1039276 0.022765886 2.3509886e-38
0.050647583 -0.1039276 0.022765886 2.3509886e-38
0.052500922 -0.1039276 0.022765886 2.3509886e-38
0.054354262 -0.1039276 0.022765886 2.3509886e-38
0.05610577 -0.10322 0.02574433 2.3509886e-38
0.057808153 -0.10225673 0.029798876 2.3509886e-38
0.059649162 -0.10225673 0.029798876 2.3509886e-38
0.061490171 -0.10225673 0.029798876 2.3509886e-38
0.063331179 -0.10225673 0.029798876 2.3509886e-38
0.065172195 -0.10225673 0.029798876 2.3509886e-38
0.067013204 -0.10225673 0.029798876 2.3233299e-38
0.068717644 -0.10155846 0.032737982 2.3509883e-38
0.070407376 -0.10083848 0.03576852 2.3417687e-38
0.072237924 -0.10083848 0.03576852 2.3325492e-38
0.074225217 -0.10155846 0.032737982 2.1112796e-38
0.07857205 -0.1127138 -0.014216769 1.871571e-38
0.080490239 -0.1127138 -0.014216769 2.0375231e-38
0.082012542 -0.11106332 -0.0072694896 2.1113518e-38
0.083918542 -0.11106332 -0.0072694896 1.8347649e-38
0.085824549 -0.11106332 -0.0072694896 1.5858011e-38
-0.095529407 -0.11799283 -0.028259505 8.2904741e-40
-0.093275741 -0.11726747 -0.025228728 1.83678e-40
-0.091338247 -0.11726747 -0.025228728 6.4465615e-40
-0.089400753 -0.11726747 -0.025228728 2.3141106e-38
-0.08746326 -0.11726747 -0.025228728 2.3509886e-38
-0.085525781 -0.11726747 -0.025228728 2.3509886e-38
-0.083588287 -0.11726747 -0.025228728 2.3509886e-38
-0.081284866 -0.11631607 -0.021253336 2.3509886e-38
-0.079354346 -0.11631607 -0.021253336 2.3509886e-38
-0.077074364 -0.11537148 -0.017306555 2.3509886e-38
-0.075150758 -0.11537148 -0.017306555 2.3509886e-38
-0.073227152 -0.11537148 -0.017306555 2.3509886e-38
-0.071303561 -0.11537148 -0.017306555 2.3509886e-38
-0.069379956 -0.11537148 -0.017306555 2.3509886e-38
-0.06745635 -0.11537148 -0.017306555 2.3509886e-38
-0.065532759 -0.11537148 -0.017306555 2.3509886e-38
-0.063373491 -0.114632 -0.014216769 2.3509886e-38
-0.061455313 -0.114632 -0.014216769 2.3509886e-38
-0.059537131 -0.114632 -0.014216769 2.3509886e-38
-0.05733389 -0.11367123 -0.010202396 2.3509886e-38
-0.055422742 -0.11367123 -0.010202396 2.3509886e-38
-0.053511593 -0.11367123 -0.010202396 2.3509886e-38
-0.05160046 -0.11367123 -0.010202396 2.3509886e-38
-0.049501617 -0.11296929 -0.0072694896 2.3509886e-38
-0.047595609 -0.11296929 -0.0072694896 2.3509886e-38
-0.045689616 -0.11296929 -0.0072694896 2.3509886e-38
-0.043605421 -0.11224325 -0.0042358516 2.3509886e-38
-0.041704733 -0.11224325 -0.0042358516 2.3509886e-38
-0.03980406 -0.11224325 -0.0042358516 2.3509886e-38
-0.037692595 -0.11129995 -0.00029431563 2.3509886e-38
-0.035798822 -0.11129995 -0.00029431563 2.3509886e-38
-0.033905048 -0.11129995 -0.00029431563 2.3509886e-38
-0.032011274 -0.11129995 -0.00029431563 2.3509886e-38
-0.029978354 -0.11058317 0.0027005794 2.3509886e-38
-0.028089825 -0.11058317 0.0027005794 2.3509886e-38
-0.026201311 -0.11058317 0.0027005794 2.3509886e-38
-0.024312783 -0.11058317 0.0027005794 2.3509886e-38
-0.022424262 -0.11058317 0.0027005794 2.3509886e-38
-0.020535741 -0.11058317 0.0027005794 2.3509886e-38
-0.01864722 -0.11058317 0.0027005794 2.3509886e-38
-0.016758699 -0.11058317 0.0027005794 2.3509886e-38
-0.014870178 -0.11058317 0.0027005794 2.3509886e-38
-0.01285876 -0.10962458 0.0067058923 2.3509886e-38
-0.010977261 -0.10962458 0.0067058923 2.3509886e-38
-0.0092046149 -0.11058317 0.0027005794 2.3509886e-38
-0.0073160939 -0.11058317 0.0027005794 2.3509886e-38
-0.0054275729 -0.11058317 0.0027005794 2.3509886e-38
-0.0035390519 -0.11058317 0.0027005794 2.3509886e-38
-0.0016505271 -0.11058317 0.0027005794 2.3509886e-38
0.0002379939 -0.11058317 0.0027005794 2.3509886e-38
0.0021265149 -0.11058317 0.0027005794 2.3509886e-38
0.0040150359 -0.11058317 0.0027005794 2.3509886e-38
0.0059035569 -0.11058317 0.0027005794 2.3509886e-38
0.0078377277 -0.10962458 0.0067058923 2.3509886e-38
0.0097192265 -0.10962458 0.0067058923 2.3509886e-38
0.011624943 -0.10888995 0.0097754123 2.3509886e-38
0.013519097 -0.10818647 0.012714756 2.3509886e-38
0.015390061 -0.10818647 0.012714756 2.3509886e-38
0.017261023 -0.10818647 0.012714756 2.3509886e-38
0.019131986 -0.10818647 0.012714756 2.3509886e-38
0.020999406 -0.10721879 0.016758095 2.3509886e-38
0.02286328 -0.10721879 0.016758095 2.3509886e-38
0.024744876 -0.10818647 0.012714756 2.3509886e-38
0.026615839 -0.10818647 0.012714756 2.3509886e-38
0.028486803 -0.10818647 0.012714756 2.3509886e-38
0.030357767 -0.10818647 0.012714756 2.3509886e-38
0.032182649 -0.10721879 0.016758095 2.3509886e-38
0.034046523 -0.10721879 0.016758095 2.3509886e-38
0.035910398 -0.10721879 0.016758095 2.3509886e-38
0.037774272 -0.10721879 0.016758095 2.3509886e-38
0.039582685 -0.10649781 0.019770514 2.3509886e-38
0.041441277 -0.10649781 0.019770514 2.3509886e-38
0.043299869 -0.10649781 0.019770514 2.3509886e-38
0.045158461 -0.10649781 0.019770514 2.3509886e-38
0.047017053 -0.10649781 0.019770514 2.3509886e-38
0.04879424 -0.10578094 0.022765886 2.3509886e-38
0.050647583 -0.10578094 0.022765886 2.3509886e-38
0.052500922 -0.10578094 0.022765886 2.3509886e-38
0.05425765 -0.1050681 0.02574433 2.3509886e-38
0.05610577 -0.1050681 0.02574433 2.3509886e-38
0.057808153 -0.10409774 0.029798876 2.3509886e-38
0.059649162 -0.10409774 0.029798876 2.3509886e-38
0.061490171 -0.10409774 0.029798876 2.3509886e-38
0.063331179 -0.10409774 0.029798876 2.3509886e-38
0.065172195 -0.10409774 0.029798876 2.3509886e-38
0.067013204 -0.10409774 0.029798876 2.3141103e-38
0.068717644 -0.10339431 0.032737982 2.3509883e-38
0.070407376 -0.10266902 0.03576852 2.3509883e-38
0.072237924 -0.10266902 0.03576852 2.3509883e-38
0.074068464 -0.10266902 0.03576852 2.0559623e-38
0.07857205 -0.114632 -0.014216769 1.9637666e-38
0.080268525 -0.11367123 -0.010202396 2.0006449e-38
0.082012542 -0.11296929 -0.0072694896 2.0467427e-38
0.083918542 -0.11296929 -0.0072694896 2.0744014e-38
0.085824549 -0.11296929 -0.0072694896 1.604204e-38
0.087730549 -0.11296929 -0.0072694896 3.3190399e-39
-0.095529407 -0.11993565 -0.028259505 7.3685178e-40
-0.093275741 -0.11920498 -0.025228728 5.6051939e-45
-0.091338247 -0.11920498 -0.025228728 7.3721191e-40
-0.089400753 -0.11920498 -0.025228728 2.3232944e-38
-0.087076426 -0.11824657 -0.021253336 2.3509886e-38
-0.085145906 -0.11824657 -0.021253336 2.3509886e-38
-0.083215386 -0.11824657 -0.021253336 2.3509886e-38
-0.081284866 -0.11824657 -0.021253336 2.3509886e-38
-0.078997955 -0.11729507 -0.017306555 2.3509886e-38
-0.077074364 -0.11729507 -0.017306555 2.3509886e-38
-0.075150758 -0.11729507 -0.017306555 2.3509886e-38
-0.073227152 -0.11729507 -0.017306555 2.3509886e-38
-0.071046233 -0.11655019 -0.014216769 2.3509886e-38
-0.069128051 -0.11655019 -0.014216769 2.3509886e-38
-0.067209855 -0.11655019 -0.014216769 2.3509886e-38
-0.065291673 -0.11655019 -0.014216769 2.3509886e-38
-0.063373491 -0.11655019 -0.014216769 2.3509886e-38
-0.061455313 -0.11655019 -0.014216769 2.3509886e-38
-0.059245039 -0.11558239 -0.010202396 2.3509886e-38
-0.05733389 -0.11558239 -0.010202396 2.3509886e-38
-0.055422742 -0.11558239 -0.010202396 2.3509886e-38
-0.053511593 -0.11558239 -0.010202396 2.3509886e-38
-0.051407609 -0.1148753 -0.0072694896 2.3509886e-38
-0.049501617 -0.1148753 -0.0072694896 2.3509886e-38
-0.047595609 -0.1148753 -0.0072694896 2.3509886e-38
-0.045689616 -0.1148753 -0.0072694896 2.3509886e-38
-0.043605421 -0.11414395 -0.0042358516 2.3509886e-38
-0.041704733 -0.11414395 -0.0042358516 2.3509886e-38
-0.03980406 -0.11414395 -0.0042358516 2.3509886e-38
-0.037692595 -0.11319371 -0.00029431563 2.3509886e-38
-0.035798822 -0.11319371 -0.00029431563 2.3509886e-38
-0.033905048 -0.11319371 -0.00029431563 2.3509886e-38
-0.031866867 -0.11247168 0.0027005794 2.3509886e-38
-0.029978354 -0.11247168 0.0027005794 2.3509886e-38
-0.028089825 -0.11247168 0.0027005794 2.3509886e-38
-0.026201311 -0.11247168 0.0027005794 2.3509886e-38
-0.024312783 -0.11247168 0.0027005794 2.3509886e-38
-0.022424262 -0.11247168 0.0027005794 2.3509886e-38
-0.020535741 -0.11247168 0.0027005794 2.3509886e-38
-0.01864722 -0.11247168 0.0027005794 2.3509886e-38
-0.016758699 -0.11247168 0.0027005794 2.3509886e-38
-0.014870178 -0.11247168 0.0027005794 2.3509886e-38
-0.01285876 -0.11150609 0.0067058923 2.3509886e-38
-0.010977261 -0.11150609 0.0067058923 2.3509886e-38
-0.0092046149 -0.11247168 0.0027005794 2.3509886e-38
-0.0073160939 -0.11247168 0.0027005794 2.3509886e-38
-0.0054275729 -0.11247168 0.0027005794 2.3509886e-38
-0.0035390519 -0.11247168 0.0027005794 2.3509886e-38
-0.0016505271 -0.11247168 0.0027005794 2.3509886e-38
0.0002379939 -0.11247168 0.0027005794 2.3509886e-38
0.0021265149 -0.11247168 0.0027005794 2.3509886e-38
0.0040150359 -0.11247168 0.0027005794 2.3509886e-38
0.0059562288 -0.11150609 0.0067058923 2.3509886e-38
0.0078377277 -0.11150609 0.0067058923 2.3509886e-38
0.0097488258 -0.11076607 0.0097754123 2.3509886e-38
0.011624943 -0.11076607 0.0097754123 2.3509886e-38
0.013519097 -0.11005743 0.012714756 2.3509886e-38
0.015390061 -0.11005743 0.012714756 2.3509886e-38
0.017261023 -0.11005743 0.012714756 2.3509886e-38
0.019135531 -0.10908265 0.016758095 2.3509886e-38
0.020999406 -0.10908265 0.016758095 2.3509886e-38
0.02286328 -0.10908265 0.016758095 2.3509886e-38
0.024727153 -0.10908265 0.016758095 2.3509886e-38
0.026615839 -0.11005743 0.012714756 2.3509886e-38
0.028486803 -0.11005743 0.012714756 2.3509886e-38
0.030357767 -0.11005743 0.012714756 2.3509886e-38
0.032182649 -0.10908265 0.016758095 2.3509886e-38
0.034046523 -0.10908265 0.016758095 2.3509886e-38
0.035910398 -0.10908265 0.016758095 2.3509886e-38
0.037724093 -0.1083564 0.019770514 2.3509886e-38
0.039582685 -0.1083564 0.019770514 2.3509886e-38
0.041441277 -0.1083564 0.019770514 2.3509886e-38
0.043299869 -0.1083564 0.019770514 2.3509886e-38
0.045087561 -0.10763429 0.022765886 2.3509886e-38
0.0469409 -0.10763429 0.022765886 2.3509886e-38
0.048713297 -0.10691623 0.02574433 2.3509886e-38
0.050561413 -0.10691623 0.02574433 2.3509886e-38
0.052409533 -0.10691623 0.02574433 2.3509886e-38
0.05425765 -0.10691623 0.02574433 2.3509886e-38
0.05610577 -0.10691623 0.02574433 2.3509886e-38
0.057808153 -0.10593875 0.029798876 2.3509886e-38
0.059649162 -0.10593875 0.029798876 2.3509886e-38
0.061490171 -0.10593875 0.029798876 2.3509886e-38
0.063331179 -0.10593875 0.029798876 2.3509886e-38
0.065172195 -0.10593875 0.029798876 2.3509886e-38
0.067013204 -0.10593875 0.029798876 2.3233299e-38
0.068717644 -0.10523017 0.032737982 2.3509883e-38
0.070407376 -0.10449956 0.03576852 2.3509883e-38
0.072237924 -0.10449956 0.03576852 2.3509883e-38
0.074068464 -0.10449956 0.03576852 2.0651818e-38
0.07857205 -0.11655019 -0.014216769 1.9637666e-38
0.080268525 -0.11558239 -0.010202396 2.0006449e-38
0.082012542 -0.1148753 -0.0072694896 2.083621e-38
0.083918542 -0.1148753 -0.0072694896 2.166597e-38
0.085641041 -0.11414395 -0.0042358516 1.7793394e-38
0.087541722 -0.11414395 -0.0042358516 5.8083219e-39
0.08944241 -0.11414395 -0.0042358516 5.0707568e-39
-0.093275741 -0.12114246 -0.025228728 2.7658969e-40
-0.091338247 -0.12114246 -0.025228728 2.212342e-39
-0.089006945 -0.12017711 -0.021253336 2.341805e-38
-0.087076426 -0.12017711 -0.021253336 2.341805e-38
-0.085145906 -0.12017711 -0.021253336 2.341805e-38
-0.083215386 -0.12017711 -0.021253336 2.3509886e-38
-0.081284866 -0.12017711 -0.021253336 2.3509886e-38
-0.078997955 -0.11921866 -0.017306555 2.3509527e-38
-0.077074364 -0.11921866 -0.017306555 2.3509527e-38
-0.075150758 -0.11921866 -0.017306555 2.3509883e-38
-0.073227152 -0.11921866 -0.017306555 2.3509883e-38
-0.071046233 -0.11846836 -0.014216769 2.3509886e-38
-0.069128051 -0.11846836 -0.014216769 2.3509886e-38
-0.067209855 -0.11846836 -0.014216769 2.3509886e-38
-0.065291673 -0.11846836 -0.014216769 2.3509886e-38
-0.063067317 -0.11749353 -0.010202396 2.3509886e-38
-0.061156172 -0.11749353 -0.010202396 2.3509886e-38
-0.059245039 -0.11749353 -0.010202396 2.3509886e-38
-0.05733389 -0.11749353 -0.010202396 2.3509886e-38
-0.055422742 -0.11749353 -0.010202396 2.3509886e-38
-0.053313617 -0.11678131 -0.0072694896 2.3509886e-38
-0.051407609 -0.11678131 -0.0072694896 2.3509886e-38
-0.049501617 -0.11678131 -0.0072694896 2.3509886e-38
-0.047595609 -0.11678131 -0.0072694896 2.3509886e-38
-0.045689616 -0.11678131 -0.0072694896 2.3509886e-38
-0.043605421 -0.11604463 -0.0042358516 2.3509886e-38
-0.041704733 -0.11604463 -0.0042358516 2.3509886e-38
-0.039586369 -0.11508749 -0.00029431563 2.3509886e-38
-0.037692595 -0.11508749 -0.00029431563 2.3509886e-38
-0.035643909 -0.1143602 0.0027005794 2.3509886e-38
-0.033755396 -0.1143602 0.0027005794 2.3509886e-38
-0.031866867 -0.1143602 0.0027005794 2.3509886e-38
-0.029978354 -0.1143602 0.0027005794 2.3509886e-38
-0.028089825 -0.1143602 0.0027005794 2.3509886e-38
-0.026201311 -0.1143602 0.0027005794 2.3509886e-38
-0.024312783 -0.1143602 0.0027005794 2.3509886e-38
-0.022424262 -0.1143602 0.0027005794 2.3509886e-38
-0.020535741 -0.1143602 0.0027005794 2.3509886e-38
-0.01864722 -0.1143602 0.0027005794 2.3509886e-38
-0.016758699 -0.1143602 0.0027005794 2.3509886e-38
-0.014870178 -0.1143602 0.0027005794 2.3509886e-38
-0.01285876 -0.11338757 0.0067058923 2.3509886e-38
-0.010977261 -0.11338757 0.0067058923 2.3509886e-38
-0.0092046149 -0.1143602 0.0027005794 2.3509886e-38
-0.0073160939 -0.1143602 0.0027005794 2.3509886e-38
-0.0054275729 -0.1143602 0.0027005794 2.3509886e-38
-0.0035390519 -0.1143602 0.0027005794 2.3509886e-38
-0.0016505271 -0.1143602 0.0027005794 2.3509886e-38
0.0002379939 -0.1143602 0.0027005794 2.3509886e-38
0.0021265149 -0.1143602 0.0027005794 2.3509886e-38
0.0040150359 -0.1143602 0.0027005794 2.3509886e-38
0.0059562288 -0.11338757 0.0067058923 2.3509886e-38
0.0078377277 -0.11338757 0.0067058923 2.3509886e-38
0.0097488258 -0.11264218 0.0097754123 2.3509886e-38
0.011624943 -0.11264218 0.0097754123 2.3509886e-38
0.013519097 -0.11192839 0.012714756 2.3509886e-38
0.015390061 -0.11192839 0.012714756 2.3509886e-38
0.017261023 -0.11192839 0.012714756 2.3509886e-38
0.019135531 -0.11094652 0.016758095 2.3509886e-38
0.020999406 -0.11094652 0.016758095 2.3509886e-38
0.02286328 -0.11094652 0.016758095 2.3509886e-38
0.024727153 -0.11094652 0.016758095 2.3509886e-38
0.026591027 -0.11094652 0.016758095 2.3509886e-38
0.028486803 -0.11192839 0.012714756 2.3509886e-38
0.030318774 -0.11094652 0.016758095 2.3509886e-38
0.032182649 -0.11094652 0.016758095 2.3509886e-38
0.034046523 -0.11094652 0.016758095 2.3509886e-38
0.035910398 -0.11094652 0.016758095 2.3509886e-38
0.037724093 -0.11021499 0.019770514 2.3509886e-38
0.039527543 -0.10948761 0.022765886 2.3509886e-38
0.041380882 -0.10948761 0.022765886 2.3509886e-38
0.043234222 -0.10948761 0.022765886 2.3509886e-38
0.045087561 -0.10948761 0.022765886 2.3509886e-38
0.0469409 -0.10948761 0.022765886 2.3509886e-38
0.048713297 -0.10876434 0.02574433 2.3509886e-38
0.050561413 -0.10876434 0.02574433 2.3509886e-38
0.052409533 -0.10876434 0.02574433 2.3509886e-38
0.05425765 -0.10876434 0.02574433 2.3509886e-38
0.05610577 -0.10876434 0.02574433 2.3509886e-38
0.057808153 -0.10777976 0.029798876 2.3509886e-38
0.059649162 -0.10777976 0.029798876 2.3509886e-38
0.061490171 -0.10777976 0.029798876 2.3509886e-38
0.063331179 -0.10777976 0.029798876 2.3509886e-38
0.065172195 -0.10777976 0.029798876 2.3509886e-38
0.067013204 -0.10777976 0.029798876 2.3325494e-38
0.068717644 -0.10706602 0.032737982 2.3509883e-38
0.070262097 -0.10559841 0.038781654 2.3509883e-38
0.072087362 -0.10559841 0.038781654 2.3509883e-38
0.076446235 -0.11749353 -0.010202396 2.0559623e-38
0.078357384 -0.11749353 -0.010202396 1.9637666e-38
0.080268525 -0.11749353 -0.010202396 2.0006449e-38
0.082012542 -0.11678131 -0.0072694896 2.0006086e-38
0.083918542 -0.11678131 -0.0072694896 2.1296825e-38
0.085641041 -0.11604463 -0.0042358516 1.8161094e-38
0.087541722 -0.11604463 -0.0042358516 6.4533284e-39
0.08944241 -0.11604463 -0.0042358516 5.9923502e-39
-0.095213234 -0.12307997 -0.025228728 1.2907388e-39
-0.093275741 -0.12307997 -0.025228728 3.629363e-43
-0.090937465 -0.12210761 -0.021253336 3.0428187e-39
-0.089006945 -0.12210761 -0.021253336 2.3049273e-38
-0.087076426 -0.12210761 -0.021253336 2.341805e-38
-0.085145906 -0.12210761 -0.021253336 2.341805e-38
-0.083215386 -0.12210761 -0.021253336 2.3509886e-38
-0.081284866 -0.12210761 -0.021253336 2.3509886e-38
-0.078997955 -0.12114228 -0.017306555 2.3509527e-38
-0.077074364 -0.12114228 -0.017306555 2.3509527e-38
-0.075150758 -0.12114228 -0.017306555 2.3509527e-38
-0.073227152 -0.12114228 -0.017306555 2.3509883e-38
-0.071046233 -0.12038656 -0.014216769 2.3509886e-38
-0.069128051 -0.12038656 -0.014216769 2.3509886e-38
-0.067209855 -0.12038656 -0.014216769 2.3509886e-38
-0.065291673 -0.12038656 -0.014216769 2.3509886e-38
-0.063067317 -0.11940466 -0.010202396 2.3509886e-38
-0.061156172 -0.11940466 -0.010202396 2.3509886e-38
-0.059245039 -0.11940466 -0.010202396 2.3509886e-38
-0.05733389 -0.11940466 -0.010202396 2.3509886e-38
-0.055219624 -0.11868732 -0.0072694896 2.3509886e-38
-0.053313617 -0.11868732 -0.0072694896 2.3509886e-38
-0.051407609 -0.11868732 -0.0072694896 2.3509886e-38
-0.049501617 -0.11868732 -0.0072694896 2.3509886e-38
-0.047406781 -0.11794533 -0.0042358516 2.3509886e-38
-0.045506109 -0.11794533 -0.0042358516 2.3509886e-38
-0.043373901 -0.11698125 -0.00029431563 2.3509886e-38
-0.041480135 -0.11698125 -0.00029431563 2.3509886e-38
-0.039586369 -0.11698125 -0.00029431563 2.3509886e-38
-0.037692595 -0.11698125 -0.00029431563 2.3509886e-38
-0.035643909 -0.11624874 0.0027005794 2.3509886e-38
-0.033755396 -0.11624874 0.0027005794 2.3509886e-38
-0.031866867 -0.11624874 0.0027005794 2.3509886e-38
-0.029978354 -0.11624874 0.0027005794 2.3509886e-38
-0.028089825 -0.11624874 0.0027005794 2.3509886e-38
-0.026201311 -0.11624874 0.0027005794 2.3509886e-38
-0.024312783 -0.11624874 0.0027005794 2.3509886e-38
-0.022424262 -0.11624874 0.0027005794 2.3509886e-38
-0.020535741 -0.11624874 0.0027005794 2.3509886e-38
-0.01864722 -0.11624874 0.0027005794 2.3509886e-38
-0.016758699 -0.11624874 0.0027005794 2.3509886e-38
-0.014870178 -0.11624874 0.0027005794 2.3509886e-38
-0.01285876 -0.11526908 0.0067058923 2.3509886e-38
-0.010977261 -0.11526908 0.0067058923 2.3509886e-38
-0.0092046149 -0.11624874 0.0027005794 2.3509886e-38
-0.0073160939 -0.11624874 0.0027005794 2.3509886e-38
-0.0054275729 -0.11624874 0.0027005794 2.3509886e-38
-0.0035390519 -0.11624874 0.0027005794 2.3509886e-38
-0.0016505271 -0.11624874 0.0027005794 2.3509886e-38
0.0002379939 -0.11624874 0.0027005794 2.3509886e-38
0.0021265149 -0.11624874 0.0027005794 2.3509886e-38
0.0040747263 -0.11526908 0.0067058923 2.3509886e-38
0.0059562288 -0.11526908 0.0067058923 2.3509886e-38
0.0078377277 -0.11526908 0.0067058923 2.3509886e-38
0.0097488258 -0.1145183 0.0097754123 2.3509886e-38
0.011648133 -0.11379938 0.012714756 2.3509886e-38
0.013543909 -0.11281042 0.016758095 2.3509886e-38
0.015407784 -0.11281042 0.016758095 2.3509886e-38
0.017271657 -0.11281042 0.016758095 2.3509886e-38
0.019135531 -0.11281042 0.016758095 2.3509886e-38
0.020999406 -0.11281042 0.016758095 2.3509886e-38
0.02286328 -0.11281042 0.016758095 2.3509886e-38
0.024727153 -0.11281042 0.016758095 2.3509886e-38
0.026591027 -0.11281042 0.016758095 2.3509886e-38
0.0284549 -0.11281042 0.016758095 2.3509886e-38
0.030318774 -0.11281042 0.016758095 2.3509886e-38
0.032182649 -0.11281042 0.016758095 2.3509886e-38
0.034046523 -0.11281042 0.016758095 2.3509886e-38
0.035910398 -0.11281042 0.016758095 2.3509886e-38
0.037724093 -0.11207359 0.019770514 2.3509886e-38
0.039527543 -0.11134095 0.022765886 2.3509886e-38
0.041380882 -0.11134095 0.022765886 2.3509886e-38
0.043234222 -0.11134095 0.022765886 2.3509886e-38
0.045087561 -0.11134095 0.022765886 2.3509886e-38
0.0469409 -0.11134095 0.022765886 2.3509886e-38
0.048713297 -0.11061247 0.02574433 2.3509886e-38
0.050561413 -0.11061247 0.02574433 2.3509886e-38
0.052409533 -0.11061247 0.02574433 2.3509886e-38
0.05425765 -0.11061247 0.02574433 2.3509886e-38
0.05610577 -0.11061247 0.02574433 2.3509886e-38
0.057808153 -0.10962076 0.029798876 2.3509886e-38
0.059649162 -0.10962076 0.029798876 2.3509886e-38
0.061490171 -0.10962076 0.029798876 2.3509886e-38
0.063331179 -0.10962076 0.029798876 2.3509886e-38
0.065172195 -0.10962076 0.029798876 2.3509886e-38
0.067013204 -0.10962076 0.029798876 2.3233299e-38
0.068717644 -0.10890187 0.032737982 2.3509883e-38
0.070262097 -0.10742365 0.038781654 2.3417687e-38
0.072087362 -0.10742365 0.038781654 2.3509883e-38
0.076446235 -0.11940466 -0.010202396 2.0467427e-38
0.078357384 -0.11940466 -0.010202396 1.9545471e-38
0.080268525 -0.11940466 -0.010202396 2.0006089e-38
0.082179666 -0.11940466 -0.010202396 2.0465985e-38
0.083918542 -0.11868732 -0.0072694896 2.2033311e-38
0.085641041 -0.11794533 -0.0042358516 1.9082691e-38
0.087541722 -0.11794533 -0.0042358516 7.28201e-39
0.089636549 -0.11868732 -0.0072694896 6.544445e-39
-0.095213234 -0.12501745 -0.025228728 1.3829316e-39
-0.093275741 -0.12501745 -0.025228728 3.5873241e-43
-0.090937465 -0.12403814 -0.021253336 4.6101444e-39
-0.089006945 -0.12403814 -0.021253336 2.3234379e-38
-0.087076426 -0.12403814 -0.021253336 2.3234379e-38
-0.085145906 -0.12403814 -0.021253336 2.3234379e-38
-0.083215386 -0.12403814 -0.021253336 2.341805e-38
-0.081284866 -0.12403814 -0.021253336 2.3509886e-38
-0.078997955 -0.12306587 -0.017306555 2.3509527e-38
-0.077074364 -0.12306587 -0.017306555 2.3509527e-38
-0.075150758 -0.12306587 -0.017306555 2.3509527e-38
-0.073227152 -0.12306587 -0.017306555 2.3509527e-38
-0.071046233 -0.12230472 -0.014216769 2.3509886e-38
-0.069128051 -0.12230472 -0.014216769 2.3509886e-38
-0.067209855 -0.12230472 -0.014216769 2.3509886e-38
-0.065291673 -0.12230472 -0.014216769 2.3509886e-38
-0.063067317 -0.12131582 -0.010202396 2.3509886e-38
-0.061156172 -0.12131582 -0.010202396 2.3509886e-38
-0.059031624 -0.12059332 -0.0072694896 2.3509886e-38
-0.057125617 -0.12059332 -0.0072694896 2.3509886e-38
-0.055219624 -0.12059332 -0.0072694896 2.3509886e-38
-0.053313617 -0.12059332 -0.0072694896 2.3509886e-38
-0.051407609 -0.12059332 -0.0072694896 2.3509886e-38
-0.049501617 -0.12059332 -0.0072694896 2.3509886e-38
-0.047406781 -0.119846 -0.0042358516 2.3509886e-38
-0.045267675 -0.11887501 -0.00029431563 2.3509886e-38
-0.043373901 -0.11887501 -0.00029431563 2.3509886e-38
-0.041480135 -0.11887501 -0.00029431563 2.3509886e-38
-0.039586369 -0.11887501 -0.00029431563 2.3509886e-38
-0.037532438 -0.11813726 0.0027005794 2.3509886e-38
-0.035643909 -0.11813726 0.0027005794 2.3509886e-38
-0.033755396 -0.11813726 0.0027005794 2.3509886e-38
-0.031866867 -0.11813726 0.0027005794 2.3509886e-38
-0.029978354 -0.11813726 0.0027005794 2.3509886e-38
-0.028089825 -0.11813726 0.0027005794 2.3509886e-38
-0.026201311 -0.11813726 0.0027005794 2.3509886e-38
