# .PCD v0.7 - Point Cloud Data file format
VERSION 0.7
FIELDS x y z rgb
SIZE 4 4 4 4
TYPE F F F F
COUNT 1 1 1 1
WIDTH 944
HEIGHT 1
VIEWPOINT 0 0 0 1 0 0 0
POINTS 944
DATA ascii
0.020490808 -0.090364665 0.041001402 2.341805e-38
0.022406282 -0.089695618 0.044091187 2.3141467e-38
0.024324466 -0.089695618 0.044091187 2.3325494e-38
0.026242647 -0.089695618 0.044091187 9.1835496e-41
0.028129159 -0.088826358 0.04810556 8.2867186e-40
0.030040301 -0.088826358 0.04810556 5.5244791e-40
0.031951446 -0.088826358 0.04810556 7.1746481e-43
0.033862591 -0.088826358 0.04810556 7.5621856e-39
-0.043057021 -0.11693428 -0.071903504 5.0722016e-39
-0.040740516 -0.11608265 -0.068002142 2.3050349e-38
-0.038625795 -0.11608265 -0.068002142 2.3050349e-38
-0.036324318 -0.11520527 -0.063982762 2.3234379e-38
-0.033993687 -0.11411671 -0.058995999 2.2865235e-38
-0.031894762 -0.11411671 -0.058995999 2.341805e-38
-0.02946483 -0.11236309 -0.050962605 2.341805e-38
-0.02722038 -0.11147992 -0.046916761 2.341805e-38
-0.024991136 -0.11060272 -0.042898215 2.3509883e-38
-0.022920441 -0.11060272 -0.042898215 2.3417687e-38
-0.02071327 -0.10973148 -0.038906969 2.3417687e-38
-0.01852097 -0.10886608 -0.034942545 2.3509883e-38
-0.016343392 -0.10800649 -0.031004824 2.3509883e-38
-0.014176492 -0.1071233 -0.02695886 2.3509883e-38
-0.011916097 -0.10537519 -0.018950619 2.3417691e-38
-0.0098873787 -0.10537519 -0.018950619 2.3509886e-38
-0.007764861 -0.10451011 -0.014987625 2.3509886e-38
-0.0056539662 -0.10362239 -0.010920919 2.3509886e-38
-0.0034796558 -0.10189377 -0.0030019656 2.3509883e-38
-0.0014220886 -0.10122015 8.3886087e-05 2.350988e-38
0.0005732514 -0.10122015 8.3886087e-05 2.350988e-38
0.0026276298 -0.10035546 0.0040450916 2.3509879e-38
0.0046694204 -0.09946914 0.00810536 2.1666325e-38
0.0067294613 -0.097960562 0.01501628 2.1113151e-38
0.0087370239 -0.097091287 0.018998466 2.0559979e-38
0.010731369 -0.096201301 0.023075543 2.0928405e-38
0.01272919 -0.094679192 0.030048452 2.1850364e-38
0.014685281 -0.094017595 0.033079229 2.2864516e-38
0.016633227 -0.093149811 0.037054621 2.3325497e-38
0.018567206 -0.092288271 0.041001402 2.3417333e-38
0.020490808 -0.092288271 0.041001402 2.341805e-38
0.022406282 -0.091613799 0.044091187 2.341805e-38
0.024324466 -0.091613799 0.044091187 2.3509527e-38
0.026242647 -0.091613799 0.044091187 2.7550649e-40
0.028129159 -0.090737507 0.04810556 4.5989495e-40
0.030040301 -0.090737507 0.04810556 6.442834e-40
0.031951446 -0.090737507 0.04810556 9.2194229e-41
0.033862591 -0.090737507 0.04810556 8.1142832e-39
-0.045178588 -0.11905585 -0.071903504 6.4681135e-40
-0.042855237 -0.11819737 -0.068002142 9.2210049e-39
-0.040740516 -0.11819737 -0.068002142 2.3142544e-38
-0.038431998 -0.11731292 -0.063982762 2.3234379e-38
-0.03609262 -0.11621563 -0.058995999 2.3234379e-38
-0.033993687 -0.11621563 -0.058995999 2.2773039e-38
-0.031718608 -0.11531331 -0.054895319 2.341805e-38
-0.02946483 -0.11444794 -0.050962605 2.341805e-38
-0.02722038 -0.11355768 -0.046916761 2.341805e-38
-0.024991136 -0.11267342 -0.042898215 2.3509883e-38
-0.022920441 -0.11267342 -0.042898215 2.3417687e-38
-0.02071327 -0.11179517 -0.038906969 2.3417687e-38
-0.01852097 -0.11092283 -0.034942545 2.3417687e-38
-0.016343392 -0.11005636 -0.031004824 2.3417687e-38
-0.014176492 -0.10916607 -0.02695886 2.3417687e-38
-0.011916097 -0.10740392 -0.018950619 2.3233299e-38
-0.0098873787 -0.10740392 -0.018950619 2.3048907e-38
-0.007764861 -0.10653187 -0.014987625 2.2864516e-38
-0.0055683069 -0.10477705 -0.0070126429 2.2956709e-38
-0.0034796558 -0.10389452 -0.0030019656 2.3233652e-38
-0.0014220886 -0.1032155 8.3886087e-05 2.3418043e-38
0.00063923374 -0.10234386 0.0040450916 2.3418042e-38
0.0026276298 -0.10234386 0.0040450916 2.3325846e-38
0.0046694204 -0.10145043 0.00810536 2.3509879e-38
0.0067294613 -0.09992972 0.01501628 2.3418042e-38
0.0087763406 -0.098156333 0.023075543 2.2864869e-38
0.010754619 -0.097507954 0.026022159 2.2680478e-38
0.01272919 -0.09662199 0.030048452 2.2403535e-38
0.014685281 -0.095955089 0.033079229 2.1850364e-38
0.016633227 -0.095080331 0.037054621 2.0928411e-38
0.018567206 -0.094211861 0.041001402 2.0098294e-38
0.020488098 -0.093531981 0.044091187 2.0928056e-38
0.022406282 -0.093531981 0.044091187 2.2679773e-38
0.024324466 -0.093531981 0.044091187 2.1203556e-38
0.026242647 -0.093531981 0.044091187 7.3576017e-40
0.028160833 -0.093531981 0.044091187 5.5137171e-40
0.030079015 -0.093531981 0.044091187 8.2831313e-40
0.031997196 -0.093531981 0.044091187 4.5989495e-40
0.033915382 -0.093531981 0.044091187 9.0348046e-39
-0.045178588 -0.12117739 -0.071903504 3.7814628e-39
-0.042855237 -0.12031208 -0.068002142 1.1986874e-38
-0.040539663 -0.1194206 -0.063982762 2.3234379e-38
-0.038191553 -0.11831455 -0.058995999 2.3234379e-38
-0.03609262 -0.11831455 -0.058995999 2.3234379e-38
-0.033993687 -0.11831455 -0.058995999 2.341805e-38
-0.031718608 -0.11740504 -0.054895319 2.3141822e-38
-0.02946483 -0.11653279 -0.050962605 2.341805e-38
-0.02722038 -0.11563541 -0.046916761 2.341805e-38
-0.024991136 -0.11474411 -0.042898215 2.3509883e-38
-0.022776973 -0.11385889 -0.038906969 2.3509883e-38
-0.02071327 -0.11385889 -0.038906969 2.3509883e-38
-0.01852097 -0.11297958 -0.034942545 2.3509883e-38
-0.016343392 -0.11210622 -0.031004824 2.3417687e-38
-0.014176492 -0.11120884 -0.02695886 2.3417687e-38
-0.011916097 -0.10943262 -0.018950619 2.3509886e-38
-0.0097866282 -0.10855366 -0.014987625 2.3509886e-38
-0.0076686032 -0.10765167 -0.010920919 2.3509886e-38
-0.0054804049 -0.10589527 -0.0030019656 2.3509883e-38
-0.0034174323 -0.10521083 8.3886087e-05 2.350988e-38
-0.0014220886 -0.10521083 8.3886087e-05 2.350988e-38
0.00063923374 -0.10433225 0.0040450916 2.3509879e-38
0.0026881434 -0.10343169 0.00810536 2.3509879e-38
0.0047602989 -0.10189888 0.01501628 2.3418042e-38
0.0067748427 -0.10101564 0.018998466 2.3509879e-38
0.0087763406 -0.10011137 0.023075543 2.350988e-38
0.010754619 -0.099457815 0.026022159 2.350988e-38
0.012747791 -0.097892582 0.033079229 2.3509883e-38
0.014702706 -0.097010851 0.037054621 2.3233296e-38
0.016643606 -0.096135467 0.041001402 2.194256e-38
0.018569916 -0.095450163 0.044091187 2.0928411e-38
0.020488098 -0.095450163 0.044091187 1.9083425e-38
0.022406282 -0.095450163 0.044091187 1.9635878e-38
0.024324466 -0.095450163 0.044091187 1.5025732e-38
0.026242647 -0.095450163 0.044091187 8.2652087e-40
0.028160833 -0.095450163 0.044091187 6.4284847e-40
0.030079015 -0.095450163 0.044091187 6.4284847e-40
0.031997196 -0.095450163 0.044091187 5.5101298e-40
0.034060188 -0.097892582 0.033079229 7.1898144e-39
0.035997681 -0.097892582 0.033079229 7.3749315e-39
-0.042855237 -0.12242682 -0.068002142 1.3001023e-38
-0.040539663 -0.12152828 -0.063982762 2.3234379e-38
-0.038191553 -0.1204135 -0.058995999 2.2589371e-38
-0.03609262 -0.1204135 -0.058995999 2.2958154e-38
-0.033993687 -0.1204135 -0.058995999 2.341805e-38
-0.031549674 -0.11861761 -0.050962605 2.3325856e-38
-0.02946483 -0.11861761 -0.050962605 2.3325856e-38
-0.02722038 -0.11771317 -0.046916761 2.341805e-38
-0.024991136 -0.11681484 -0.042898215 2.3509886e-38
-0.022776973 -0.11592259 -0.038906969 2.3509886e-38
-0.02071327 -0.11592259 -0.038906969 2.3509883e-38
-0.01852097 -0.11503632 -0.034942545 2.3509883e-38
-0.016343392 -0.11415605 -0.031004824 2.3509883e-38
-0.014176492 -0.11325158 -0.02695886 2.3509883e-38
-0.011916097 -0.11146136 -0.018950619 2.3048907e-38
-0.0097866282 -0.11057542 -0.014987625 2.341769e-38
-0.0075760931 -0.10879262 -0.0070126429 2.3509883e-38
-0.005412776 -0.10720618 8.3886087e-05 2.3509883e-38
-0.0034174323 -0.10720618 8.3886087e-05 2.350988e-38
-0.0013491623 -0.10632066 0.0040450916 2.323365e-38
0.00070686266 -0.10541297 0.00810536 2.323365e-38
0.0026881434 -0.10541297 0.00810536 2.3325843e-38
0.0047602989 -0.10386805 0.01501628 2.3509876e-38
0.0067748427 -0.10297783 0.018998466 2.3418042e-38
0.0087763406 -0.1020664 0.023075543 2.323365e-38
0.010786386 -0.1005076 0.030048452 2.3141456e-38
0.012747791 -0.099830076 0.033079229 2.3325492e-38
0.014702706 -0.098941371 0.037054621 2.3417687e-38
0.016643606 -0.098059073 0.041001402 2.341769e-38
0.018569916 -0.097368345 0.044091187 2.3325497e-38
0.020488098 -0.097368345 0.044091187 2.3139311e-38
0.022406282 -0.097368345 0.044091187 2.0096492e-38
0.024324466 -0.097368345 0.044091187 1.1244633e-38
0.026242647 -0.097368345 0.044091187 7.3468397e-40
0.028160833 -0.097368345 0.044091187 6.4284847e-40
0.030108809 -0.098059073 0.041001402 1.0105492e-39
0.032032412 -0.098059073 0.041001402 6.4284847e-40
0.034060188 -0.099830076 0.033079229 6.3593377e-39
0.035997681 -0.099830076 0.033079229 7.3742085e-39
0.037985653 -0.1005076 0.030048452 7.1905403e-39
0.039928459 -0.1005076 0.030048452 7.0983474e-39
0.041871265 -0.1005076 0.030048452 6.451899e-39
-0.042855237 -0.12454154 -0.068002142 1.9638382e-38
-0.040539663 -0.12363596 -0.063982762 2.2865232e-38
-0.038191553 -0.12251242 -0.058995999 2.341805e-38
-0.03609262 -0.12251242 -0.058995999 2.3233662e-38
-0.033993687 -0.12251242 -0.058995999 2.341805e-38
-0.031549674 -0.12070246 -0.050962605 2.3325856e-38
-0.029298123 -0.11979093 -0.046916761 2.3233662e-38
-0.027061846 -0.11888553 -0.042898215 2.3233662e-38
-0.024991136 -0.11888553 -0.042898215 2.3325856e-38
-0.022776973 -0.11798631 -0.038906969 2.3325856e-38
-0.020577729 -0.1170931 -0.034942545 2.3326213e-38
-0.01852097 -0.1170931 -0.034942545 2.3326213e-38
-0.016343392 -0.11620592 -0.031004824 2.332621e-38
-0.014176492 -0.11529435 -0.02695886 2.3326213e-38
-0.011916097 -0.11349006 -0.018950619 2.3233662e-38
-0.0096832402 -0.11168094 -0.010920919 2.3141466e-38
-0.0074811615 -0.10989676 -0.0030019656 2.3141822e-38
-0.005412776 -0.10920154 8.3886087e-05 2.3234012e-38
-0.0033375621 -0.10830905 0.0040450916 2.3418042e-38
-0.0013491623 -0.10830905 0.0040450916 2.3509876e-38
0.00070686266 -0.10739426 0.00810536 2.3417676e-38
0.0027463473 -0.10651429 0.012011014 2.332548e-38
0.0048126653 -0.10494001 0.018998466 2.3509873e-38
0.0068213083 -0.10402142 0.023075543 2.3509873e-38
0.0087763406 -0.10402142 0.023075543 2.3509876e-38
0.010786386 -0.1024504 0.030048452 2.3418042e-38
0.012747791 -0.10176755 0.033079229 2.3326208e-38
0.014702706 -0.10087189 0.037054621 2.341805e-38
0.016643606 -0.099982664 0.041001402 2.341805e-38
0.018569916 -0.099286526 0.044091187 2.3509886e-38
0.020488098 -0.099286526 0.044091187 2.3509165e-38
0.022406282 -0.099286526 0.044091187 1.6223547e-38
0.024324466 -0.099286526 0.044091187 8.3865653e-39
0.026242647 -0.099286526 0.044091187 9.187193e-40
0.028185211 -0.099982664 0.041001402 8.2652647e-40
0.030185208 -0.10176755 0.033079229 1.0109177e-39
0.032157239 -0.1024504 0.030048452 3.6734479e-40
0.034100041 -0.1024504 0.030048452 3.6863861e-39
0.036042847 -0.1024504 0.030048452 7.9284584e-39
0.037985653 -0.1024504 0.030048452 7.3752832e-39
0.039928459 -0.1024504 0.030048452 5.439531e-39
0.041871265 -0.1024504 0.030048452 7.7444217e-39
-0.042855237 -0.12665625 -0.068002142 2.1574848e-38
-0.040539663 -0.12574361 -0.063982762 2.3418045e-38
-0.038191553 -0.12461133 -0.058995999 2.3418047e-38
-0.03609262 -0.12461133 -0.058995999 2.341805e-38
-0.033993687 -0.12461133 -0.058995999 2.341805e-38
-0.031549674 -0.12278731 -0.050962605 2.341805e-38
-0.029298123 -0.12186868 -0.046916761 2.3325856e-38
-0.027061846 -0.12095623 -0.042898215 2.3325856e-38
-0.024991136 -0.12095623 -0.042898215 2.3325856e-38
-0.022776973 -0.12005 -0.038906969 2.3325856e-38
-0.020577729 -0.11914985 -0.034942545 2.3326213e-38
-0.01852097 -0.11914985 -0.034942545 2.3326213e-38
-0.016343392 -0.11825575 -0.031004824 2.332621e-38
-0.014176492 -0.11733709 -0.02695886 2.3326213e-38
-0.011697877 -0.11369558 -0.010920919 2.341805e-38
-0.0094819106 -0.11189754 -0.0030019656 2.3234379e-38
-0.007408116 -0.11119686 8.3886087e-05 2.341805e-38
-0.0053259581 -0.11029746 0.0040450916 2.3418045e-38
-0.0033375621 -0.11029746 0.0040450916 2.3418042e-38
-0.0012744144 -0.10937552 0.00810536 2.3418036e-38
0.00077192113 -0.10848872 0.012011014 2.350987e-38
0.0027463473 -0.10848872 0.012011014 2.350987e-38
0.0048126653 -0.1069022 0.018998466 2.3509869e-38
0.0068213083 -0.10597645 0.023075543 2.3509869e-38
0.0088047534 -0.10530742 0.026022159 2.3509873e-38
0.010786386 -0.1043932 0.030048452 2.3509879e-38
0.012747791 -0.10370506 0.033079229 2.350988e-38
0.014702706 -0.10280241 0.037054621 2.341805e-38
0.016643606 -0.10190627 0.041001402 2.341805e-38
0.018569916 -0.10120471 0.044091187 2.3509886e-38
0.020488098 -0.10120471 0.044091187 2.350952e-38
0.022406282 -0.10120471 0.044091187 1.3641349e-38
0.024324466 -0.10120471 0.044091187 4.5143461e-39
0.026261609 -0.10190627 0.041001402 5.5101578e-40
0.028216351 -0.10280241 0.037054621 7.3469238e-40
0.030185208 -0.10370506 0.033079229 3.6734899e-40
0.032157239 -0.1043932 0.030048452 2.7551209e-40
0.034100041 -0.1043932 0.030048452 8.2832154e-40
0.036042847 -0.1043932 0.030048452 8.3894366e-39
0.037985653 -0.1043932 0.030048452 9.0351577e-39
0.039928459 -0.1043932 0.030048452 6.5465918e-39
-0.042855237 -0.12877096 -0.068002142 2.2864869e-38
-0.040539663 -0.12785129 -0.063982762 2.3417687e-38
-0.038191553 -0.12671028 -0.058995999 2.3509883e-38
-0.03609262 -0.12671028 -0.058995999 2.3509883e-38
-0.033810351 -0.12577201 -0.054895319 2.3325494e-38
-0.031549674 -0.12487216 -0.050962605 2.3509886e-38
-0.029298123 -0.12394641 -0.046916761 2.3509886e-38
-0.027061846 -0.12302695 -0.042898215 2.3509886e-38
-0.024840679 -0.12211372 -0.038906969 2.3509886e-38
-0.022776973 -0.12211372 -0.038906969 2.3509886e-38
-0.020577729 -0.1212066 -0.034942545 2.3509883e-38
-0.01852097 -0.1212066 -0.034942545 2.3509883e-38
-0.016343392 -0.12030561 -0.031004824 2.3509883e-38
-0.014176492 -0.11937986 -0.02695886 2.3326213e-38
-0.01129115 -0.11228584 0.0040450916 2.341805e-38
-0.009302754 -0.11228584 0.0040450916 2.341805e-38
-0.007408116 -0.11319222 8.3886087e-05 2.3509886e-38
-0.0053259581 -0.11228584 0.0040450916 2.350988e-38
-0.0033375621 -0.11228584 0.0040450916 2.3417323e-38
-0.0012744144 -0.11135681 0.00810536 2.3417676e-38
0.00077192113 -0.11046316 0.012011014 2.350987e-38
0.0027911402 -0.10977553 0.01501628 2.3509869e-38
0.0048126653 -0.10886435 0.018998466 2.3509507e-38
0.0068213083 -0.10793148 0.023075543 2.3417673e-38
0.0088047534 -0.10725726 0.026022159 2.3509873e-38
0.010786386 -0.10633601 0.030048452 2.3509879e-38
0.012747791 -0.10564254 0.033079229 2.350988e-38
0.014702706 -0.10473295 0.037054621 2.341805e-38
0.016643606 -0.10382988 0.041001402 2.341805e-38
0.018569916 -0.1031229 0.044091187 2.341769e-38
0.020488098 -0.1031229 0.044091187 2.350952e-38
0.022406282 -0.1031229 0.044091187 9.5850973e-39
0.024324466 -0.1031229 0.044091187 1.2878549e-39
0.026285829 -0.10473295 0.037054621 5.5101298e-40
0.028247716 -0.10564254 0.033079229 6.4285828e-40
0.030214433 -0.10633601 0.030048452 3.6734899e-40
0.032157239 -0.10633601 0.030048452 1.0123597e-39
0.034100041 -0.10633601 0.030048452 2.7550649e-40
0.036042847 -0.10633601 0.030048452 5.9923502e-39
0.037985653 -0.10633601 0.030048452 9.7727256e-39
0.039928459 -0.10633601 0.030048452 7.6529421e-39
-0.044969957 -0.13088571 -0.068002142 1.9176688e-38
-0.042855237 -0.13088571 -0.068002142 2.3232936e-38
-0.040539663 -0.12995897 -0.063982762 2.2864513e-38
-0.038191553 -0.1288092 -0.058995999 2.314074e-38
-0.03609262 -0.1288092 -0.058995999 2.350988e-38
-0.033634517 -0.12695698 -0.050962605 2.3232933e-38
-0.031375881 -0.12602417 -0.046916761 2.350988e-38
-0.029132549 -0.12509765 -0.042898215 2.350988e-38
-0.027061846 -0.12509765 -0.042898215 2.350988e-38
-0.024840679 -0.12417741 -0.038906969 2.350988e-38
-0.022776973 -0.12417741 -0.038906969 2.350988e-38
-0.020577729 -0.12326337 -0.034942545 2.350988e-38
-0.01852097 -0.12326337 -0.034942545 2.3509883e-38
-0.016343392 -0.12235548 -0.031004824 2.3509883e-38
-0.01327955 -0.11427425 0.0040450916 2.3417687e-38
-0.01129115 -0.11427425 0.0040450916 2.3509886e-38
-0.009302754 -0.11427425 0.0040450916 2.341805e-38
-0.007408116 -0.11518754 8.3886087e-05 2.3509883e-38
-0.0053259581 -0.11427425 0.0040450916 2.3418043e-38
-0.0032556914 -0.1133381 0.00810536 2.3417679e-38
-0.0012744144 -0.1133381 0.00810536 2.3417676e-38
0.00077192113 -0.11243759 0.012011014 2.3509149e-38
0.0027911402 -0.11174469 0.01501628 2.3509147e-38
0.0048126653 -0.11082654 0.018998466 2.3416952e-38
0.0068213083 -0.10988651 0.023075543 2.3509149e-38
0.0088435821 -0.10827883 0.030048452 2.3509513e-38
0.010786386 -0.10827883 0.030048452 2.3509876e-38
0.012747791 -0.10758002 0.033079229 2.350988e-38
0.014702706 -0.10666345 0.037054621 2.3509883e-38
0.016643606 -0.10575347 0.041001402 2.341769e-38
0.018569916 -0.10504107 0.044091187 2.3417327e-38
0.020488098 -0.10504107 0.044091187 2.3508437e-38
0.022406282 -0.10504107 0.044091187 5.1597071e-39
0.024324466 -0.10504107 0.044091187 5.5101298e-40
0.026310224 -0.10758002 0.033079229 9.187193e-40
0.028271629 -0.10827883 0.030048452 3.6734759e-40
0.030214433 -0.10827883 0.030048452 3.6734759e-40
0.032157239 -0.10827883 0.030048452 1.2889438e-39
0.034152988 -0.10920714 0.026022159 2.7550649e-40
0.036042847 -0.10827883 0.030048452 1.9357425e-39
0.037985653 -0.10827883 0.030048452 9.8649212e-39
0.039928459 -0.10827883 0.030048452 9.3124635e-39
0.041871265 -0.10827883 0.030048452 8.0217218e-39
-0.044969957 -0.13300042 -0.068002142 2.1019888e-38
-0.042855237 -0.13300042 -0.068002142 2.3509168e-38
-0.040539663 -0.13206665 -0.063982762 2.3324775e-38
-0.038191553 -0.13090815 -0.058995999 2.3416245e-38
-0.03609262 -0.13090815 -0.058995999 2.3509879e-38
-0.033634517 -0.12904184 -0.050962605 2.3508795e-38
-0.031375881 -0.12810193 -0.046916761 2.3509872e-38
-0.029132549 -0.12716834 -0.042898215 2.3509873e-38
-0.027061846 -0.12716834 -0.042898215 2.3509873e-38
-0.024840679 -0.12624113 -0.038906969 2.3509876e-38
-0.022776973 -0.12624113 -0.038906969 2.3509876e-38
-0.020577729 -0.12532012 -0.034942545 2.3509879e-38
-0.018393245 -0.12440531 -0.031004824 2.350988e-38
-0.016343392 -0.12440531 -0.031004824 2.3509524e-38
-0.01327955 -0.11626263 0.0040450916 2.3509883e-38
-0.01129115 -0.11626263 0.0040450916 2.3509883e-38
-0.009302754 -0.11626263 0.0040450916 2.3417687e-38
-0.0073143579 -0.11626263 0.0040450916 2.3417324e-38
-0.0053259581 -0.11626263 0.0040450916 2.3509879e-38
-0.0032556914 -0.11531936 0.00810536 2.3509876e-38
-0.0012025125 -0.11441202 0.012011014 2.3509873e-38
0.00082197413 -0.11371385 0.01501628 2.3416234e-38
0.0028504841 -0.11278872 0.018998466 2.304745e-38
0.0048662759 -0.11184154 0.023075543 2.3416233e-38
0.0069007762 -0.11022164 0.030048452 2.3509149e-38
0.0088435821 -0.11022164 0.030048452 2.3509513e-38
0.010810299 -0.10951753 0.033079229 2.3509876e-38
0.012772186 -0.10859399 0.037054621 2.3509879e-38
0.014720006 -0.10767709 0.041001402 2.350988e-38
0.016643606 -0.10767709 0.041001402 2.3417687e-38
0.018569916 -0.10695927 0.044091187 2.350952e-38
0.020488098 -0.10695927 0.044091187 2.3324041e-38
0.022406282 -0.10695927 0.044091187 1.3804023e-39
0.024324466 -0.10695927 0.044091187 5.5101298e-40
0.026371615 -0.11184154 0.023075543 7.3468397e-40
0.028303396 -0.11115701 0.026022159 3.6734479e-40
0.030253261 -0.11115701 0.026022159 3.6734479e-40
0.032203123 -0.11115701 0.026022159 4.5918309e-40
0.034152988 -0.11115701 0.026022159 3.6734339e-40
0.036042847 -0.11022164 0.030048452 9.1835496e-41
0.037985653 -0.11022164 0.030048452 1.0325899e-38
0.039928459 -0.11022164 0.030048452 1.1156376e-38
0.041871265 -0.11022164 0.030048452 9.4968547e-39
-0.045178588 -0.13602833 -0.071903504 2.2954921e-38
-0.042855237 -0.13511513 -0.068002142 2.3509168e-38
-0.040539663 -0.1341743 -0.063982762 2.3509527e-38
-0.038431998 -0.1341743 -0.063982762 2.332405e-38
-0.03609262 -0.13300706 -0.058995999 2.3509876e-38
-0.033810351 -0.13204722 -0.054895319 2.3232562e-38
-0.031375881 -0.13017969 -0.046916761 2.3048169e-38
-0.029132549 -0.12923907 -0.042898215 2.3509507e-38
-0.027061846 -0.12923907 -0.042898215 2.3509507e-38
-0.024840679 -0.12830482 -0.038906969 2.3509509e-38
-0.022776973 -0.12830482 -0.038906969 2.3509513e-38
-0.020577729 -0.12737687 -0.034942545 2.3509516e-38
-0.018393245 -0.12645517 -0.031004824 2.3509518e-38
-0.016219251 -0.12550814 -0.02695886 2.3509521e-38
-0.013394147 -0.11917825 8.3886087e-05 2.3509524e-38
-0.01129115 -0.11825104 0.0040450916 2.3509883e-38
-0.009302754 -0.11825104 0.0040450916 2.350988e-38
-0.0073143579 -0.11825104 0.0040450916 2.3509879e-38
-0.0053259581 -0.11825104 0.0040450916 2.3509876e-38
-0.0032556914 -0.11730064 0.00810536 2.3509873e-38
-0.0011471845 -0.115683 0.01501628 2.3509869e-38
0.00082197413 -0.115683 0.01501628 2.3416234e-38
0.0028504841 -0.11475091 0.018998466 2.304745e-38
0.0049050264 -0.11310686 0.026022159 2.3416233e-38
0.0069007762 -0.11216442 0.030048452 2.3508428e-38
0.0088435821 -0.11216442 0.030048452 2.3509153e-38
0.010810299 -0.11145501 0.033079229 2.3509513e-38
0.012772186 -0.11052449 0.037054621 2.3509876e-38
0.014720006 -0.10960068 0.041001402 2.3509879e-38
0.016643606 -0.10960068 0.041001402 2.350988e-38
0.018569916 -0.10887744 0.044091187 2.3509518e-38
0.020488098 -0.10887744 0.044091187 2.350915e-38
0.022406282 -0.10887744 0.044091187 5.5101298e-40
0.024324466 -0.10887744 0.044091187 5.5101298e-40
0.026371615 -0.11379658 0.023075543 5.5101298e-40
0.028326645 -0.11379658 0.023075543 3.6734198e-40
0.030281676 -0.11379658 0.023075543 1.1041924e-39
0.032203123 -0.11310686 0.026022159 2.7550929e-40
0.034100041 -0.11216442 0.030048452 2.7550649e-40
0.035997681 -0.11145501 0.033079229 9.1835496e-41
0.03780321 -0.10960068 0.041001402 9.9571168e-39
0.039726816 -0.10960068 0.041001402 1.1063825e-38
0.041650414 -0.10960068 0.041001402 1.023442e-38
-0.045178588 -0.13814987 -0.071903504 2.3508451e-38
-0.042855237 -0.13722984 -0.068002142 2.3508451e-38
-0.040539663 -0.13628198 -0.063982762 2.3509168e-38
-0.038191553 -0.13510598 -0.058995999 2.3139298e-38
-0.03609262 -0.13510598 -0.058995999 2.3509513e-38
-0.033634517 -0.13321154 -0.050962605 2.3416233e-38
-0.031375881 -0.13225742 -0.046916761 2.2955608e-38
-0.029132549 -0.13130976 -0.042898215 2.3508781e-38
-0.026904386 -0.13036855 -0.038906969 2.3508781e-38
-0.024691235 -0.12943362 -0.034942545 2.3509144e-38
-0.022634488 -0.12943362 -0.034942545 2.350879e-38
-0.020443097 -0.12850504 -0.031004824 2.3509153e-38
-0.018262006 -0.12755089 -0.02695886 2.350916e-38
-0.016095966 -0.12660335 -0.022940911 2.3509521e-38
-0.013394147 -0.12117358 8.3886087e-05 2.3509524e-38
-0.01129115 -0.12023942 0.0040450916 2.350952e-38
-0.009302754 -0.12023942 0.0040450916 2.350988e-38
-0.0073143579 -0.12023942 0.0040450916 2.3509879e-38
-0.0052369721 -0.11928193 0.00810536 2.3509876e-38
-0.0031769425 -0.11836089 0.012011014 2.3416237e-38
-0.0011471845 -0.11765216 0.01501628 2.3139647e-38
0.00082197413 -0.11765216 0.01501628 2.3415155e-38
0.0029112473 -0.11575161 0.023075543 2.3508428e-38
0.0049050264 -0.11505674 0.026022159 2.3508428e-38
0.0069007762 -0.11410724 0.030048452 2.3508428e-38
0.008872807 -0.11339252 0.033079229 2.3508793e-38
0.010841664 -0.11245503 0.037054621 2.3509153e-38
0.012796406 -0.11152427 0.041001402 2.3509516e-38
0.014720006 -0.11152427 0.041001402 2.3509879e-38
0.016651733 -0.11079563 0.044091187 2.350988e-38
0.018569916 -0.11079563 0.044091187 2.3509879e-38
0.020488098 -0.11079563 0.044091187 2.2955256e-38
0.022406282 -0.11079563 0.044091187 3.6734198e-40
0.024324466 -0.11079563 0.044091187 3.6734198e-40
0.026396634 -0.11671309 0.018998466 3.6734198e-40
0.028358813 -0.11671309 0.018998466 9.197983e-40
0.030281676 -0.11575161 0.023075543 9.198011e-40
0.032203123 -0.11505674 0.026022159 2.7550929e-40
0.034100041 -0.11410724 0.030048452 2.7550649e-40
0.035997681 -0.11339252 0.033079229 9.1835496e-41
0.03780321 -0.11152427 0.041001402 9.1273561e-39
0.039726816 -0.11152427 0.041001402 1.0510291e-38
0.041650414 -0.11152427 0.041001402 1.0510288e-38
-0.045178588 -0.14027144 -0.071903504 2.3508451e-38
-0.042855237 -0.13934456 -0.068002142 2.3138237e-38
-0.040539663 -0.13838966 -0.063982762 2.3509168e-38
-0.038191553 -0.13720493 -0.058995999 2.3047103e-38
-0.03609262 -0.13720493 -0.058995999 2.3509873e-38
-0.033634517 -0.13529639 -0.050962605 2.3509866e-38
-0.031375881 -0.13433518 -0.046916761 2.3509139e-38
-0.029132549 -0.13338046 -0.042898215 2.3324387e-38
-0.026904386 -0.13243224 -0.038906969 2.3416583e-38
-0.024691235 -0.13149039 -0.034942545 2.3416586e-38
-0.022634488 -0.13149039 -0.034942545 2.3508788e-38
-0.020443097 -0.13055487 -0.031004824 2.3509153e-38
-0.018131677 -0.12863909 -0.022940911 2.3509157e-38
-0.015607234 -0.12485488 -0.0070126429 2.3509521e-38
-0.013394147 -0.12316893 8.3886087e-05 2.3509521e-38
-0.01129115 -0.12222783 0.0040450916 2.3416245e-38
-0.009302754 -0.12222783 0.0040450916 2.3509879e-38
-0.0073143579 -0.12222783 0.0040450916 2.3509876e-38
-0.0052369721 -0.12126322 0.00810536 2.3508795e-38
-0.0031769425 -0.12033533 0.012011014 2.2586476e-38
-0.0011471845 -0.11962132 0.01501628 2.2309889e-38
0.00088830665 -0.11867525 0.018998466 2.3230764e-38
0.0029112473 -0.11770664 0.023075543 2.3509869e-38
0.0049050264 -0.11700659 0.026022159 2.3508071e-38
0.0069007762 -0.11605005 0.030048452 2.3508071e-38
0.008872807 -0.11533 0.033079229 2.3508432e-38
0.010841664 -0.11438553 0.037054621 2.3508793e-38
0.012796406 -0.11344786 0.041001402 2.3509156e-38
0.014720006 -0.11344786 0.041001402 2.3509516e-38
0.016651733 -0.1127138 0.044091187 2.3509879e-38
0.018569916 -0.1127138 0.044091187 2.3509876e-38
0.020488098 -0.1127138 0.044091187 2.1203538e-38
0.022406282 -0.1127138 0.044091187 9.2050736e-40
0.024324466 -0.1127138 0.044091187 3.6734198e-40
0.026439514 -0.12033533 0.012011014 3.6734198e-40
0.028390232 -0.11962132 0.01501628 8.2760267e-40
0.030281676 -0.11770664 0.023075543 3.6734479e-40
0.032203123 -0.11700659 0.026022159 2.7550929e-40
0.034100041 -0.11605005 0.030048452 7.3612591e-40
0.035997681 -0.11533 0.033079229 4.6061241e-40
0.037868954 -0.11438553 0.037054621 9.2195518e-39
0.039799474 -0.11438553 0.037054621 1.0879073e-38
0.041729994 -0.11438553 0.037054621 1.0971266e-38
-0.045178588 -0.14239301 -0.071903504 2.3506657e-38
-0.042855237 -0.1414593 -0.068002142 2.3508451e-38
-0.040539663 -0.14049734 -0.063982762 2.3508092e-38
-0.038191553 -0.13930385 -0.058995999 2.3509165e-38
-0.035719361 -0.13738121 -0.050962605 2.3324041e-38
-0.033453625 -0.13641293 -0.046916761 2.3509865e-38
-0.031203251 -0.13545118 -0.042898215 2.3509859e-38
-0.028968092 -0.13449596 -0.038906969 2.3508779e-38
-0.026904386 -0.13449596 -0.038906969 2.3324387e-38
-0.024542805 -0.13260473 -0.031004824 2.3232195e-38
-0.022492949 -0.13260473 -0.031004824 2.3324393e-38
-0.020304766 -0.1316364 -0.02695886 2.3231843e-38
-0.018002246 -0.12971978 -0.018950619 2.3139294e-38
-0.015484173 -0.12590279 -0.0030019656 2.3415885e-38
-0.013394147 -0.12516426 8.3886087e-05 2.3509521e-38
-0.01129115 -0.12421621 0.0040450916 2.3231854e-38
-0.009302754 -0.12421621 0.0040450916 2.3509879e-38
-0.0072182491 -0.12324448 0.00810536 2.3509876e-38
-0.0052369721 -0.12324448 0.00810536 2.3509156e-38
-0.0031769425 -0.12230973 0.012011014 2.2586476e-38
-0.0011471845 -0.12159048 0.01501628 2.1941107e-38
0.00088830665 -0.12063743 0.018998466 2.2493202e-38
0.0029112473 -0.11966167 0.023075543 2.3046373e-38
0.0049050264 -0.11895646 0.026022159 2.3508794e-38
0.0069007762 -0.11799283 0.030048452 2.3508434e-38
0.008872807 -0.11726747 0.033079229 2.3509873e-38
0.010841664 -0.11631607 0.037054621 2.3509153e-38
0.012796406 -0.11537148 0.041001402 2.3508795e-38
0.014733549 -0.114632 0.044091187 2.3047817e-38
0.016651733 -0.114632 0.044091187 2.3509879e-38
0.018573435 -0.11367123 0.04810556 2.3509876e-38
0.02048458 -0.11367123 0.04810556 1.6962539e-38
0.022395724 -0.11367123 0.04810556 7.361189e-40
0.024465084 -0.12230973 0.012011014 2.7550649e-40
0.026439514 -0.12230973 0.012011014 2.7550649e-40
0.028390232 -0.12159048 0.01501628 5.5173465e-40
0.030320991 -0.12063743 0.018998466 2.7550929e-40
0.032203123 -0.11895646 0.026022159 2.7550929e-40
0.034060188 -0.11726747 0.033079229 2.7550649e-40
0.035997681 -0.11726747 0.033079229 1.0127072e-39
0.037868954 -0.11631607 0.037054621 7.4667558e-39
0.039799474 -0.11631607 0.037054621 8.3897911e-39
0.041871265 -0.11799283 0.030048452 1.0694679e-38
0.043814067 -0.11799283 0.030048452 1.0233348e-38
-0.044969957 -0.14357401 -0.068002142 2.3508092e-38
-0.042647343 -0.14260502 -0.063982762 2.3508451e-38
-0.040290479 -0.1414028 -0.058995999 2.3508092e-38
-0.037804205 -0.13946606 -0.050962605 2.3509165e-38
-0.035531383 -0.13849069 -0.046916761 2.3415881e-38
-0.033273961 -0.13752188 -0.042898215 2.3509869e-38
-0.031203251 -0.13752188 -0.042898215 2.3509142e-38
-0.028968092 -0.13655965 -0.038906969 2.3509863e-38
-0.026747998 -0.13560389 -0.034942545 2.3509499e-38
-0.024542805 -0.13465457 -0.031004824 2.3509142e-38
-0.022347521 -0.13367917 -0.02695886 2.3508788e-38
-0.020167392 -0.1327105 -0.022940911 2.350843e-38
-0.018002246 -0.13174851 -0.018950619 2.3323685e-38
-0.015484173 -0.12790357 -0.0030019656 2.3508079e-38
-0.01327955 -0.12620462 0.0040450916 2.3509521e-38
-0.01129115 -0.12620462 0.0040450916 2.3325127e-38
-0.009302754 -0.12620462 0.0040450916 2.3509879e-38
-0.0072182491 -0.12522577 0.00810536 2.3509879e-38
-0.0052369721 -0.12522577 0.00810536 2.3509516e-38
-0.0031769425 -0.12428416 0.012011014 2.3415881e-38
-0.0011471845 -0.12355967 0.01501628 2.3231846e-38
0.00088830665 -0.12259962 0.018998466 2.3507716e-38
0.0029112473 -0.12161671 0.023075543 2.3508434e-38
0.0049050264 -0.12090631 0.026022159 2.3509517e-38
0.0069007762 -0.11993565 0.030048452 2.3508432e-38
0.008872807 -0.11920498 0.033079229 2.3508437e-38
0.010841664 -0.11824657 0.037054621 2.3508795e-38
0.012796406 -0.11729507 0.041001402 2.3509876e-38
0.014733549 -0.11655019 0.044091187 2.3509879e-38
0.016651733 -0.11655019 0.044091187 2.3509879e-38
0.018573435 -0.11558239 0.04810556 1.9822049e-38
0.02048458 -0.11558239 0.04810556 1.3183238e-38
0.022395724 -0.11558239 0.04810556 9.2050736e-40
0.024465084 -0.12428416 0.012011014 4.5989495e-40
0.026439514 -0.12428416 0.012011014 2.7550649e-40
0.028390232 -0.12355967 0.01501628 7.3612591e-40
0.030320991 -0.12259962 0.018998466 2.7550929e-40
0.032203123 -0.12090631 0.026022159 2.7550929e-40
0.034060188 -0.11920498 0.033079229 2.7550649e-40
0.035997681 -0.11920498 0.033079229 2.7550649e-40
0.037935168 -0.11920498 0.033079229 4.3321044e-39
0.039872661 -0.11920498 0.033079229 9.1273561e-39
0.041871265 -0.11993565 0.030048452 1.087907e-38
0.043814067 -0.11993565 0.030048452 1.1247856e-38
-0.047084671 -0.14568873 -0.068002142 2.0651472e-38
-0.044969957 -0.14568873 -0.068002142 2.3508809e-38
-0.042647343 -0.14471267 -0.063982762 2.3507733e-38
-0.040290479 -0.14350171 -0.058995999 2.3508809e-38
-0.037804205 -0.14155091 -0.050962605 2.3509527e-38
-0.035531383 -0.14056842 -0.046916761 2.3508798e-38
-0.033273961 -0.13959257 -0.042898215 2.3509873e-38
-0.031203251 -0.13959257 -0.042898215 2.3416952e-38
-0.028968092 -0.13862337 -0.038906969 2.3509869e-38
-0.026747998 -0.13766064 -0.034942545 2.3509866e-38
-0.024542805 -0.13670443 -0.031004824 2.3509867e-38
-0.022347521 -0.13572191 -0.02695886 2.3509869e-38
-0.020167392 -0.13474621 -0.022940911 2.3508793e-38
-0.017873701 -0.13281487 -0.014987625 2.3232209e-38
-0.015484173 -0.12990431 -0.0030019656 2.3416603e-38
-0.01327955 -0.12819304 0.0040450916 2.3509879e-38
-0.01129115 -0.12819304 0.0040450916 2.350988e-38
-0.009302754 -0.12819304 0.0040450916 2.350988e-38
-0.0073143579 -0.12819304 0.0040450916 2.350952e-38
-0.0052369721 -0.12720706 0.00810536 2.3509879e-38
-0.0031769425 -0.1262586 0.012011014 2.3509879e-38
-0.0011471845 -0.12552883 0.01501628 2.3509876e-38
0.00088830665 -0.1245618 0.018998466 2.350952e-38
0.002955161 -0.12285618 0.026022159 2.3509517e-38
0.0049050264 -0.12285618 0.026022159 2.350952e-38
0.0069353171 -0.12114246 0.033079229 2.3509157e-38
0.008911144 -0.12017711 0.037054621 2.350916e-38
0.010841664 -0.12017711 0.037054621 2.3416603e-38
0.012815367 -0.11846836 0.044091187 2.3509879e-38
0.014733549 -0.11846836 0.044091187 2.350988e-38
0.016651733 -0.11846836 0.044091187 2.350952e-38
0.018578665 -0.11604463 0.054072104 1.558105e-38
0.020479349 -0.11604463 0.054072104 7.2827177e-39
0.022380032 -0.11604463 0.054072104 6.4464214e-40
0.024482204 -0.12720706 0.00810536 6.442834e-40
0.026439514 -0.1262586 0.012011014 3.6734198e-40
0.028413944 -0.1262586 0.012011014 8.2832154e-40
0.030320991 -0.1245618 0.018998466 2.7550929e-40
0.032203123 -0.12285618 0.026022159 4.5918309e-40
0.034060188 -0.12114246 0.033079229 2.7550649e-40
0.035997681 -0.12114246 0.033079229 2.7550649e-40
0.037935168 -0.12114246 0.033079229 5.5208917e-40
0.039872661 -0.12114246 0.033079229 8.5731034e-39
0.041810151 -0.12114246 0.033079229 1.0785796e-38
-0.047084671 -0.14780344 -0.068002142 2.3048556e-38
-0.044969957 -0.14780344 -0.068002142 2.3509168e-38
-0.042647343 -0.14682035 -0.063982762 2.3508092e-38
-0.040290479 -0.14560063 -0.058995999 2.3509527e-38
-0.03799383 -0.14459766 -0.054895319 2.3509527e-38
-0.035719361 -0.14363576 -0.050962605 2.3232936e-38
-0.033453625 -0.14264618 -0.046916761 2.3509879e-38
-0.031203251 -0.1416633 -0.042898215 2.3233288e-38
-0.028968092 -0.14068706 -0.038906969 2.3509873e-38
-0.026747998 -0.13971741 -0.034942545 2.3509872e-38
-0.024390277 -0.13776468 -0.02695886 2.3509153e-38
-0.022203103 -0.13678192 -0.022940911 2.3509872e-38
-0.020030964 -0.13580595 -0.018950619 2.3508793e-38
-0.01761502 -0.13288604 -0.0070126429 2.3048896e-38
-0.015484173 -0.13190506 -0.0030019656 2.34166e-38
-0.013394147 -0.13115029 8.3886087e-05 2.3509518e-38
-0.01129115 -0.13018142 0.0040450916 2.350988e-38
-0.009302754 -0.13018142 0.0040450916 2.350988e-38
-0.0073143579 -0.13018142 0.0040450916 2.3417324e-38
-0.0052369721 -0.12918831 0.00810536 2.350952e-38
-0.0031769425 -0.12823303 0.012011014 2.3509521e-38
-0.0011471845 -0.12749799 0.01501628 2.3509879e-38
0.00088830665 -0.12652399 0.018998466 2.3509521e-38
0.002955161 -0.12480606 0.026022159 2.35088e-38
0.0049579702 -0.12382124 0.030048452 2.3508441e-38
0.0069353171 -0.12307997 0.033079229 2.3509879e-38
0.008911144 -0.12210761 0.037054621 2.3509521e-38
0.010872804 -0.12114228 0.041001402 2.3232933e-38
0.012815367 -0.12038656 0.044091187 2.3325129e-38
0.014733549 -0.12038656 0.044091187 2.3418043e-38
0.01666229 -0.11940466 0.04810556 2.350988e-38
0.018578665 -0.11794533 0.054072104 1.1985784e-38
0.020479349 -0.11794533 0.054072104 1.8438986e-39
0.022380032 -0.11794533 0.054072104 2.7550649e-40
0.024482204 -0.12918831 0.00810536 2.7550649e-40
0.026439514 -0.12823303 0.012011014 2.7550649e-40
0.028390232 -0.12749799 0.01501628 7.3576998e-40
0.030320991 -0.12652399 0.018998466 2.7550929e-40
0.032203123 -0.12480606 0.026022159 7.3576998e-40
0.034060188 -0.12307997 0.033079229 2.7550649e-40
0.035997681 -0.12307997 0.033079229 8.2831593e-40
0.037935168 -0.12307997 0.033079229 2.7550649e-40
0.039872661 -0.12307997 0.033079229 6.9135792e-39
0.041810151 -0.12307997 0.033079229 1.1707752e-38
-0.047084671 -0.14991818 -0.068002142 2.3509527e-38
-0.044969957 -0.14991818 -0.068002142 2.3417333e-38
-0.042647343 -0.14892803 -0.063982762 2.3509168e-38
-0.040290479 -0.14769958 -0.058995999 2.3509886e-38
-0.037804205 -0.14572059 -0.050962605 2.3416974e-38
-0.035719361 -0.14572059 -0.050962605 2.2956712e-38
-0.033273961 -0.14373399 -0.042898215 2.3509883e-38
-0.031031799 -0.14275078 -0.038906969 2.3418043e-38
-0.028804746 -0.14177416 -0.034942545 2.350952e-38
-0.026592653 -0.14080413 -0.031004824 2.3325846e-38
-0.024390277 -0.13980745 -0.02695886 2.3417323e-38
-0.022203103 -0.13881765 -0.022940911 2.3509876e-38
-0.019895468 -0.13685839 -0.014987625 2.3509874e-38
-0.01761502 -0.13489382 -0.0070126429 2.3141452e-38
-0.015484173 -0.13390581 -0.0030019656 2.3417679e-38
-0.013394147 -0.13314565 8.3886087e-05 2.3509876e-38
-0.01129115 -0.13216983 0.0040450916 2.350988e-38
-0.009302754 -0.13216983 0.0040450916 2.3418047e-38
-0.0073143579 -0.13216983 0.0040450916 2.3509883e-38
-0.0052369721 -0.1311696 0.00810536 2.3509883e-38
-0.0031769425 -0.13020746 0.012011014 2.3509523e-38
-0.0012025125 -0.13020746 0.012011014 2.350952e-38
0.00088830665 -0.12848614 0.018998466 2.3508804e-38
0.002955161 -0.12675591 0.026022159 2.3508801e-38
0.0049579702 -0.12576406 0.030048452 2.3508444e-38
0.006980624 -0.12403814 0.037054621 2.3509521e-38
0.0089492053 -0.12306587 0.041001402 2.3509524e-38
0.010872804 -0.12306587 0.041001402 2.3232936e-38
0.012815367 -0.12230472 0.044091187 2.3325131e-38
0.014733549 -0.12230472 0.044091187 2.3417687e-38
0.01666229 -0.12131582 0.04810556 2.3509883e-38
0.018573435 -0.12131582 0.04810556 7.1916123e-39
0.02048458 -0.12131582 0.04810556 9.2194229e-41
0.022500925 -0.1311696 0.00810536 3.6877691e-40
0.024482204 -0.1311696 0.00810536 9.1835496e-41
0.026439514 -0.13020746 0.012011014 9.1835496e-41
0.028390232 -0.12946714 0.01501628 7.3577278e-40
0.030320991 -0.12848614 0.018998466 2.7551209e-40
0.032203123 -0.12675591 0.026022159 7.3576998e-40
0.034060188 -0.12501745 0.033079229 2.7550649e-40
0.035997681 -0.12501745 0.033079229 7.361203e-40
0.037935168 -0.12501745 0.033079229 2.7550649e-40
0.039872661 -0.12501745 0.033079229 3.3179497e-39
0.041810151 -0.12501745 0.033079229 1.2169086e-38
-0.040290479 -0.1497985 -0.058995999 2.3509886e-38
-0.037804205 -0.14780544 -0.050962605 2.3325497e-38
-0.035531383 -0.14680167 -0.046916761 2.304891e-38
-0.033273961 -0.14580469 -0.042898215 2.3509886e-38
-0.031031799 -0.14481448 -0.038906969 2.3509886e-38
-0.028804746 -0.14383091 -0.034942545 2.3509886e-38
-0.026592653 -0.14285399 -0.031004824 2.3417687e-38
-0.024238821 -0.14085336 -0.022940911 2.350988e-38
-0.022059679 -0.13986339 -0.018950619 2.3509879e-38
-0.019895468 -0.13888018 -0.014987625 2.3509879e-38
-0.01761502 -0.1369016 -0.0070126429 2.3418039e-38
-0.015484173 -0.13590656 -0.0030019656 2.3509873e-38
-0.013394147 -0.13514097 8.3886087e-05 2.341804e-38
-0.01129115 -0.13415821 0.0040450916 2.3234012e-38
-0.009302754 -0.13415821 0.0040450916 2.3418047e-38
-0.0073143579 -0.13415821 0.0040450916 2.3509883e-38
-0.0052369721 -0.13315089 0.00810536 2.3509883e-38
-0.0031769425 -0.1321819 0.012011014 2.3509523e-38
-0.0011471845 -0.1314363 0.01501628 2.3509523e-38
0.00088830665 -0.13044833 0.018998466 2.3509524e-38
0.0030151643 -0.12770687 0.030048452 2.3509524e-38
0.0049978271 -0.12695493 0.033079229 2.3509527e-38
0.006980624 -0.12596865 0.037054621 2.3509883e-38
0.0089492053 -0.12498946 0.041001402 2.3417327e-38
0.010872804 -0.12498946 0.041001402 2.3233296e-38
0.012815367 -0.12422292 0.044091187 2.3509883e-38
0.014733549 -0.12422292 0.044091187 2.3418047e-38
0.01666229 -0.12322696 0.04810556 2.2865232e-38
0.018573435 -0.12322696 0.04810556 1.7524302e-39
0.02048458 -0.12322696 0.04810556 3.5873241e-43
0.022500925 -0.13315089 0.00810536 7.3755383e-40
0.024482204 -0.13315089 0.00810536 1.8402972e-40
0.026439514 -0.1321819 0.012011014 9.1835496e-41
0.028390232 -0.1314363 0.01501628 6.4357715e-40
0.030359395 -0.1314363 0.01501628 2.7551349e-40
0.032236706 -0.12943684 0.023075543 4.5918589e-40
0.034100041 -0.12770687 0.030048452 2.7550649e-40
0.036042847 -0.12770687 0.030048452 2.7550649e-40
0.037935168 -0.12695493 0.033079229 2.7550649e-40
0.039872661 -0.12695493 0.033079229 4.5989495e-40
-0.037609126 -0.14887942 -0.046916761 2.3325856e-38
-0.035531383 -0.14887942 -0.046916761 2.3325856e-38
-0.033273961 -0.14787538 -0.042898215 2.3141467e-38
-0.031031799 -0.1468782 -0.038906969 2.341805e-38
-0.028804746 -0.14588766 -0.034942545 2.341805e-38
-0.026592653 -0.14490382 -0.031004824 2.3325856e-38
-0.024238821 -0.14288907 -0.022940911 2.341805e-38
-0.022059679 -0.14189209 -0.018950619 2.3418047e-38
-0.019895468 -0.14090194 -0.014987625 2.3418043e-38
-0.01761502 -0.13890938 -0.0070126429 2.3234367e-38
-0.015484173 -0.13790731 -0.0030019656 2.3234364e-38
-0.013394147 -0.13713633 8.3886087e-05 2.341804e-38
-0.01129115 -0.13614662 0.0040450916 2.332621e-38
-0.009302754 -0.13614662 0.0040450916 2.3234379e-38
-0.0073143579 -0.13614662 0.0040450916 2.341805e-38
-0.0052369721 -0.13513215 0.00810536 2.341805e-38
-0.0031769425 -0.13415633 0.012011014 2.3509886e-38
-0.0011471845 -0.13340546 0.01501628 2.3509886e-38
0.00088830665 -0.13241051 0.018998466 2.3509527e-38
0.0030151643 -0.12964968 0.030048452 2.3509527e-38
0.0049978271 -0.12889244 0.033079229 2.3509527e-38
0.0070256032 -0.12691309 0.041001402 2.3416971e-38
0.0089492053 -0.12691309 0.041001402 2.323258e-38
0.010872804 -0.12691309 0.041001402 2.3325494e-38
0.012815367 -0.12614109 0.044091187 2.3509886e-38
0.014733549 -0.12614109 0.044091187 2.341805e-38
0.01666229 -0.12513812 0.04810556 2.2957431e-38
0.018573435 -0.12513812 0.04810556 3.5873241e-43
0.02048458 -0.12513812 0.04810556 1.8474719e-40
0.022500925 -0.13513215 0.00810536 4.6061241e-40
0.024482204 -0.13513215 0.00810536 3.6841958e-40
0.026463483 -0.13513215 0.00810536 9.1838299e-41
0.028413944 -0.13415633 0.012011014 9.1841101e-41
0.030359395 -0.13340546 0.01501628 2.755163e-40
0.032236706 -0.13139187 0.023075543 2.7551209e-40
0.034152988 -0.13065563 0.026022159 2.7550649e-40
0.036042847 -0.12964968 0.030048452 3.6734198e-40
0.037985653 -0.12964968 0.030048452 1.1052545e-39
0.039928459 -0.12964968 0.030048452 4.6025368e-40
-0.033095505 -0.14894189 -0.038906969 2.3049273e-38
-0.030861508 -0.14794444 -0.034942545 2.341805e-38
-0.028642502 -0.14695369 -0.031004824 2.341805e-38
-0.026433039 -0.1459357 -0.02695886 2.3325856e-38
-0.024238821 -0.14492477 -0.022940911 2.3326213e-38
-0.022059679 -0.14392079 -0.018950619 2.350988e-38
-0.019622803 -0.14091717 -0.0070126429 2.3418042e-38
-0.01761502 -0.14091717 -0.0070126429 2.3049612e-38
-0.015389487 -0.13913165 8.3886087e-05 2.3049612e-38
-0.013394147 -0.13913165 8.3886087e-05 2.3234004e-38
-0.01129115 -0.138135 0.0040450916 2.3418047e-38
-0.009302754 -0.138135 0.0040450916 2.341805e-38
-0.0073143579 -0.138135 0.0040450916 2.341805e-38
-0.0052369721 -0.13711344 0.00810536 2.341805e-38
-0.0031769425 -0.13613077 0.012011014 2.3509886e-38
-0.0011471845 -0.13537462 0.01501628 2.3509886e-38
0.0010052957 -0.13260551 0.026022159 2.3509886e-38
0.0030151643 -0.13159247 0.030048452 2.3416974e-38
0.0049978271 -0.13082992 0.033079229 2.3509168e-38
0.0070256032 -0.12883668 0.041001402 2.3509167e-38
0.0089492053 -0.12883668 0.041001402 2.3509527e-38
0.010897182 -0.12805928 0.044091187 2.3509883e-38
0.012815367 -0.12805928 0.044091187 2.3417687e-38
0.014751146 -0.12704925 0.04810556 2.2956709e-38
0.01666229 -0.12704925 0.04810556 2.3509883e-38
0.018573435 -0.12704925 0.04810556 3.5873241e-43
0.020526679 -0.13913165 8.3886087e-05 2.7622395e-40
0.022500925 -0.13711344 0.00810536 9.1835496e-41
0.024482204 -0.13711344 0.00810536 1.8402972e-40
0.026463483 -0.13711344 0.00810536 9.1835496e-41
0.028413944 -0.13613077 0.012011014 9.1841101e-41
0.030359395 -0.13537462 0.01501628 2.7587363e-40
0.032283172 -0.1343727 0.018998466 2.7551209e-40
0.034191735 -0.13334687 0.023075543 5.5137872e-40
0.036042847 -0.13159247 0.030048452 2.7550649e-40
0.037985653 -0.13159247 0.030048452 4.5989495e-40
-0.028642502 -0.14900355 -0.031004824 2.3142544e-38
-0.026433039 -0.14797847 -0.02695886 2.341805e-38
-0.024238821 -0.14696048 -0.022940911 2.350988e-38
-0.022059679 -0.14594953 -0.018950619 2.3509876e-38
-0.019622803 -0.14292495 -0.0070126429 2.3324401e-38
-0.017484926 -0.14190884 -0.0030019656 2.3048169e-38
-0.015389487 -0.14112701 8.3886087e-05 2.3139646e-38
-0.01327955 -0.14012341 0.0040450916 2.3232562e-38
-0.01129115 -0.14012341 0.0040450916 2.350988e-38
-0.009302754 -0.14012341 0.0040450916 2.341805e-38
-0.0072182491 -0.13909473 0.00810536 2.341805e-38
-0.0052369721 -0.13909473 0.00810536 2.341805e-38
-0.0031163432 -0.13734378 0.01501628 2.341805e-38
-0.0010738708 -0.13633488 0.018998466 2.341805e-38
0.0010723621 -0.13353528 0.030048452 2.341805e-38
0.0030603372 -0.13276742 0.033079229 2.3509886e-38
0.0050501041 -0.13176022 0.037054621 2.3233299e-38
0.0070256032 -0.13076027 0.041001402 2.3509527e-38
0.0089790002 -0.12997745 0.044091187 2.2864153e-38
0.010897182 -0.12997745 0.044091187 2.3509521e-38
0.012840001 -0.12896039 0.04810556 2.3324407e-38
0.014764002 -0.12821732 0.051038466 2.3508439e-38
0.016670004 -0.12821732 0.051038466 2.3047098e-38
0.018576005 -0.12821732 0.051038466 2.7550649e-40
0.020526679 -0.14112701 8.3886087e-05 9.1835496e-41
0.022511603 -0.14012341 0.0040450916 3.5873241e-43
0.024482204 -0.13909473 0.00810536 0
0.026463483 -0.13909473 0.00810536 0
0.02844476 -0.13909473 0.00810536 9.1835496e-41
0.030359395 -0.13734378 0.01501628 9.1838299e-41
0.032283172 -0.13633488 0.018998466 9.1838299e-41
0.034191735 -0.1353019 0.023075543 9.1838299e-41
0.036102854 -0.13455538 0.026022159 6.4465054e-40
0.038052715 -0.13455538 0.026022159 9.1835496e-41
-0.024088394 -0.14797823 -0.018950619 2.3509879e-38
-0.021917235 -0.14696725 -0.014987625 2.3509876e-38
-0.019622803 -0.14493273 -0.0070126429 2.3324757e-38
-0.017484926 -0.14390959 -0.0030019656 2.3231841e-38
-0.015267946 -0.14211179 0.0040450916 2.3507705e-38
-0.01327955 -0.14211179 0.0040450916 2.350843e-38
-0.011180807 -0.14107598 0.00810536 2.350988e-38
-0.0091995262 -0.14107598 0.00810536 2.3509886e-38
-0.0072182491 -0.14107598 0.00810536 2.341805e-38
-0.0051513724 -0.14007963 0.012011014 2.341805e-38
-0.0031163432 -0.13931294 0.01501628 2.341805e-38
-0.0010738708 -0.13829704 0.018998466 2.341805e-38
0.0010723621 -0.13547809 0.030048452 2.341805e-38
0.0030603372 -0.1347049 0.033079229 2.341805e-38
0.0051020049 -0.13268389 0.041001402 2.3048907e-38
0.0070608146 -0.13189565 0.044091187 2.3509883e-38
0.0089790002 -0.13189565 0.044091187 2.3416248e-38
0.010928856 -0.13087155 0.04810556 2.3509879e-38
0.012840001 -0.13087155 0.04810556 2.3509161e-38
0.014777299 -0.12934943 0.054072104 2.3508077e-38
0.016677983 -0.12934943 0.054072104 2.0464179e-38
0.018578665 -0.12934943 0.054072104 5.5101298e-40
0.020529384 -0.14390959 -0.0030019656 9.1835496e-41
0.022522021 -0.14312236 8.3886087e-05 0
0.024500001 -0.14211179 0.0040450916 0
0.026463483 -0.14107598 0.00810536 0
0.02844476 -0.14107598 0.00810536 9.1835496e-41
0.030388374 -0.14007963 0.012011014 9.1835496e-41
0.032328553 -0.13931294 0.01501628 9.1838299e-41
0.034245349 -0.13829704 0.018998466 9.1838299e-41
0.036146767 -0.13725694 0.023075543 9.1838299e-41
0.0381018 -0.13725694 0.023075543 9.1835496e-41
0.040056828 -0.13725694 0.023075543 4.5953902e-40
-0.021917235 -0.14898901 -0.014987625 2.3509518e-38
-0.019622803 -0.14694051 -0.0070126429 2.3324404e-38
-0.017384831 -0.14511769 8.3886087e-05 2.3324041e-38
-0.015267946 -0.1441002 0.0040450916 2.350843e-38
-0.01327955 -0.1441002 0.0040450916 2.3509513e-38
-0.011180807 -0.14305727 0.00810536 2.350988e-38
-0.0091995262 -0.14305727 0.00810536 2.3509886e-38
-0.0072182491 -0.14305727 0.00810536 2.341805e-38
-0.0051513724 -0.14205404 0.012011014 2.341805e-38
-0.0031163432 -0.1412821 0.01501628 2.341805e-38
-0.0010738708 -0.14025922 0.018998466 2.341805e-38
0.0010723621 -0.13742088 0.030048452 2.341805e-38
0.0031195842 -0.13562126 0.037054621 2.341805e-38
0.0051020049 -0.13460748 0.041001402 2.3233299e-38
0.0070608146 -0.13381381 0.044091187 2.3509883e-38
0.0089790002 -0.13381381 0.044091187 2.3509524e-38
0.010928856 -0.13278268 0.04810556 2.3509518e-38
0.012840001 -0.13278268 0.04810556 2.3509161e-38
0.014777299 -0.1312501 0.054072104 2.1571248e-38
0.016677983 -0.1312501 0.054072104 1.474805e-38
0.018521689 -0.14794444 -0.010920919 6.4284847e-40
0.0205329 -0.14694051 -0.0070126429 9.1835496e-41
0.022530137 -0.14591034 -0.0030019656 0
0.024517365 -0.14511769 8.3886087e-05 0
0.026488397 -0.1441002 0.0040450916 0
0.02844476 -0.14305727 0.00810536 0
0.030388374 -0.14205404 0.012011014 0
0.032328553 -0.1412821 0.01501628 9.1838299e-41
0.034245349 -0.14025922 0.018998466 9.1838299e-41
0.036146767 -0.13921197 0.023075543 9.1838299e-41
0.0381018 -0.13921197 0.023075543 5.5245491e-40
0.040056828 -0.13921197 0.023075543 7.3612591e-40
-0.021630589 -0.14894833 -0.0070126429 2.3325847e-38
-0.019485679 -0.14791109 -0.0030019656 2.3232932e-38
-0.017384831 -0.14711304 8.3886087e-05 2.3233288e-38
-0.015267946 -0.14608859 0.0040450916 2.3509516e-38
