# .PCD v0.7 - Point Cloud Data file format
VERSION 0.7
FIELDS x y z rgb
SIZE 4 4 4 4
TYPE F F F F
COUNT 1 1 1 1
WIDTH 947
HEIGHT 1
VIEWPOINT 0 0 0 1 0 0 0
POINTS 947
DATA ascii
-0.023117684 -0.12187846 -0.018163987 2.3509886e-38
-0.021087199 -0.12114246 -0.015133209 2.3509886e-38
-0.019149709 -0.12114246 -0.015133209 2.3509886e-38
-0.01721222 -0.12114246 -0.015133209 2.3509886e-38
-0.015180632 -0.12017711 -0.011157817 2.3509886e-38
-0.013163611 -0.11921866 -0.007211036 2.3509886e-38
-0.011177707 -0.11846836 -0.0041212505 2.3509886e-38
-0.0091856197 -0.11749353 -0.00010687765 2.3509886e-38
-0.0072744787 -0.11749353 -0.00010687765 2.3509886e-38
-0.0053196214 -0.11678131 0.0028260285 2.3509886e-38
-0.0033737272 -0.11604463 0.0058596665 2.3509886e-38
-0.0014281236 -0.11508749 0.0098012025 2.3509886e-38
0.00046565011 -0.11508749 0.0098012025 2.3509886e-38
0.0023830514 -0.1143602 0.012796097 2.3509886e-38
0.0042961519 -0.11338757 0.016801409 2.3509886e-38
0.0061911047 -0.11264218 0.019870929 2.3509886e-38
0.0080749523 -0.11192839 0.022810273 2.3509886e-38
0.0099494606 -0.11094652 0.026853614 2.3509886e-38
0.011810694 -0.11021499 0.029866032 2.3234018e-38
0.013661409 -0.10948761 0.032861404 2.341805e-38
0.015514748 -0.10948761 0.032861404 2.341805e-38
0.017349811 -0.10876434 0.035839848 2.341805e-38
0.01919793 -0.10876434 0.035839848 2.341805e-38
0.021006947 -0.10777976 0.039894395 2.3326213e-38
0.022847958 -0.10777976 0.039894395 2.3325494e-38
0.024688967 -0.10777976 0.039894395 2.3325494e-38
0.026529975 -0.10777976 0.039894395 2.3233299e-38
0.02843852 -0.10876434 0.035839848 0
0.030341471 -0.10948761 0.032861404 9.1835496e-41
0.032255206 -0.11021499 0.029866032 9.1835496e-41
0.034179822 -0.11094652 0.026853614 9.1838299e-41
0.035972394 -0.11021499 0.029866032 7.3576998e-40
0.037830986 -0.11021499 0.029866032 2.7550929e-40
0.03952723 -0.10876434 0.035839848 3.6734198e-40
0.041375346 -0.10876434 0.035839848 1.4565082e-38
0.043314852 -0.10948761 0.032861404 2.3508054e-38
0.04507158 -0.10876434 0.035839848 1.954329e-38
0.0469197 -0.10876434 0.035839848 1.0416649e-38
0.048767816 -0.10876434 0.035839848 9.1262771e-39
-0.052804291 -0.13483663 -0.063200064 1.5120436e-38
-0.050565049 -0.13384195 -0.059133358 2.341769e-38
-0.048550412 -0.13384195 -0.059133358 2.2864516e-38
-0.04634048 -0.13288604 -0.055225082 2.3048907e-38
-0.044332698 -0.13288604 -0.055225082 2.3509886e-38
-0.042138562 -0.13190506 -0.051214404 2.3509886e-38
-0.039999843 -0.13115029 -0.048128553 2.2956712e-38
-0.037834331 -0.13018142 -0.044167347 2.3509886e-38
-0.03567864 -0.12918831 -0.040107079 2.3509886e-38
-0.033543289 -0.12823303 -0.036201425 2.3509886e-38
-0.031455562 -0.12749799 -0.033196159 2.3509886e-38
-0.029343273 -0.12652399 -0.029213972 2.3509886e-38
-0.027241699 -0.12552677 -0.025136895 2.3509886e-38
-0.025191091 -0.12480606 -0.02219028 2.3509886e-38
-0.023117684 -0.12382124 -0.018163987 2.3509886e-38
-0.021087199 -0.12307997 -0.015133209 2.3509886e-38
-0.019149709 -0.12307997 -0.015133209 2.3509886e-38
-0.01721222 -0.12307997 -0.015133209 2.3509886e-38
-0.015180632 -0.12210761 -0.011157817 2.3509886e-38
-0.013163611 -0.12114228 -0.007211036 2.3509886e-38
-0.011177707 -0.12038656 -0.0041212505 2.3509886e-38
-0.0091856197 -0.11940466 -0.00010687765 2.3509886e-38
-0.0072256252 -0.11868732 0.0028260285 2.3509886e-38
-0.0052744076 -0.11794533 0.0058596665 2.3509886e-38
-0.0033737272 -0.11794533 0.0058596665 2.3509886e-38
-0.0014281236 -0.11698125 0.0098012025 2.3509886e-38
0.00049453042 -0.11624874 0.012796097 2.3509886e-38
0.0023830514 -0.11624874 0.012796097 2.3509886e-38
0.0042961519 -0.11526908 0.016801409 2.3509886e-38
0.0061911047 -0.1145183 0.019870929 2.3509886e-38
0.0080855861 -0.11281042 0.026853614 2.3509886e-38
0.0099494606 -0.11281042 0.026853614 2.3509886e-38
0.011810694 -0.11207359 0.029866032 2.3233662e-38
0.013661409 -0.11134095 0.032861404 2.341805e-38
0.015514748 -0.11134095 0.032861404 2.341805e-38
0.017349811 -0.11061247 0.035839848 2.3326213e-38
0.01919793 -0.11061247 0.035839848 2.3234018e-38
0.021006947 -0.10962076 0.039894395 2.3418047e-38
0.022847958 -0.10962076 0.039894395 2.3509883e-38
0.024688967 -0.10962076 0.039894395 2.3509883e-38
0.026529975 -0.10962076 0.039894395 2.166597e-38
0.028488129 -0.11134095 0.032861404 0
0.030396614 -0.11207359 0.029866032 7.3684617e-40
0.032315947 -0.11281042 0.026853614 9.1835496e-41
0.034179822 -0.11281042 0.026853614 9.1838299e-41
0.035972394 -0.11207359 0.029866032 9.1838299e-41
0.037830986 -0.11207359 0.029866032 7.3685178e-40
0.03952723 -0.11061247 0.035839848 2.7550649e-40
0.041375346 -0.11061247 0.035839848 8.9404299e-39
0.043406758 -0.11207359 0.029866032 2.3231107e-38
0.04526535 -0.11207359 0.029866032 2.1663427e-38
0.046680585 -0.10890187 0.0428335 1.0415929e-38
0.048516441 -0.10890187 0.0428335 9.3099495e-39
-0.052804291 -0.13685839 -0.063200064 1.6042393e-38
-0.050565049 -0.13585658 -0.059133358 2.3141103e-38
-0.048550412 -0.13585658 -0.059133358 2.341769e-38
-0.04634048 -0.13489382 -0.055225082 2.3141103e-38
-0.044139311 -0.13390581 -0.051214404 2.3509886e-38
-0.042138562 -0.13390581 -0.051214404 2.3509886e-38
-0.039999843 -0.13314565 -0.048128553 2.341769e-38
-0.037834331 -0.13216983 -0.044167347 2.341769e-38
-0.03567864 -0.1311696 -0.040107079 2.3509886e-38
-0.033543289 -0.13020746 -0.036201425 2.3509886e-38
-0.031305447 -0.12848614 -0.029213972 2.3509886e-38
-0.029343273 -0.12848614 -0.029213972 2.3509886e-38
-0.027241699 -0.1274818 -0.025136895 2.3509886e-38
-0.025191091 -0.12675591 -0.02219028 2.3509886e-38
-0.023117684 -0.12576406 -0.018163987 2.3509886e-38
-0.021087199 -0.12501745 -0.015133209 2.3509886e-38
-0.019149709 -0.12501745 -0.015133209 2.3509886e-38
-0.01721222 -0.12501745 -0.015133209 2.3509886e-38
-0.015180632 -0.12403814 -0.011157817 2.3509886e-38
-0.013163611 -0.12306587 -0.007211036 2.3509886e-38
-0.011177707 -0.12230472 -0.0041212505 2.3509886e-38
-0.0091856197 -0.12131582 -0.00010687765 2.3509886e-38
-0.0072256252 -0.12059332 0.0028260285 2.3509886e-38
-0.0052744076 -0.119846 0.0058596665 2.3509886e-38
-0.0033737272 -0.119846 0.0058596665 2.3509886e-38
-0.0014281236 -0.11887501 0.0098012025 2.3509886e-38
0.00049453042 -0.11813726 0.012796097 2.3509886e-38
0.0024146531 -0.11715056 0.016801409 2.3509886e-38
0.0042961519 -0.11715056 0.016801409 2.3509886e-38
0.0062039904 -0.11567034 0.022810273 2.3509886e-38
0.0080855861 -0.11467429 0.026853614 2.3509886e-38
0.0099494606 -0.11467429 0.026853614 2.3509886e-38
0.011808068 -0.1131943 0.032861404 2.341805e-38
0.013661409 -0.1131943 0.032861404 2.341805e-38
0.015501693 -0.11246057 0.035839848 2.341805e-38
0.017349811 -0.11246057 0.035839848 2.3141822e-38
0.01919793 -0.11246057 0.035839848 2.3325494e-38
0.021006947 -0.11146177 0.039894395 2.3509883e-38
0.022847958 -0.11146177 0.039894395 2.350988e-38
0.024688967 -0.11146177 0.039894395 2.350988e-38
0.026590401 -0.11246057 0.035839848 1.8716066e-38
0.028488129 -0.1131943 0.032861404 3.5873241e-43
0.030452074 -0.11467429 0.026853614 6.4536661e-40
0.032397475 -0.11567034 0.022810273 5.5317098e-40
0.034179822 -0.11467429 0.026853614 0
0.036043696 -0.11467429 0.026853614 2.8025969e-45
0.037830986 -0.11393218 0.029866032 7.3721191e-40
0.03952723 -0.11246057 0.035839848 2.7550649e-40
0.041375346 -0.11246057 0.035839848 4.9760207e-39
0.043099057 -0.11146177 0.039894395 2.2585022e-38
0.044844732 -0.11073773 0.0428335 2.2124052e-38
0.046680585 -0.11073773 0.0428335 9.9545959e-39
0.048516441 -0.11073773 0.0428335 8.75678e-39
0.050352298 -0.11073773 0.0428335 8.0195807e-39
-0.052804291 -0.13888018 -0.063200064 1.8070695e-38
-0.050565049 -0.13787122 -0.059133358 2.3509886e-38
-0.048550412 -0.13787122 -0.059133358 2.3509886e-38
-0.04634048 -0.1369016 -0.055225082 2.3325494e-38
-0.044139311 -0.13590656 -0.051214404 2.3325494e-38
-0.041995183 -0.13514097 -0.048128553 2.3509886e-38
-0.039822735 -0.13415821 -0.044167347 2.3509886e-38
-0.037834331 -0.13415821 -0.044167347 2.341769e-38
-0.03567864 -0.13315089 -0.040107079 2.3509886e-38
-0.033424728 -0.1314363 -0.033196159 2.3509886e-38
-0.031305447 -0.13044833 -0.029213972 2.3509886e-38
-0.029196728 -0.12943684 -0.025136895 2.3509886e-38
-0.027140953 -0.12870578 -0.02219028 2.3509886e-38
-0.02506049 -0.12770687 -0.018163987 2.3509886e-38
-0.023024689 -0.12695493 -0.015133209 2.3509886e-38
-0.021087199 -0.12695493 -0.015133209 2.3509886e-38
-0.019041672 -0.12596865 -0.011157817 2.3509886e-38
-0.017111152 -0.12596865 -0.011157817 2.3509886e-38
-0.015180632 -0.12596865 -0.011157817 2.3509886e-38
-0.013163611 -0.12498946 -0.007211036 2.3509886e-38
-0.011177707 -0.12422292 -0.0041212505 2.3509886e-38
-0.0091856197 -0.12322696 -0.00010687765 2.3509886e-38
-0.0072256252 -0.1224993 0.0028260285 2.3509886e-38
-0.0052744076 -0.12174667 0.0058596665 2.3509886e-38
-0.0033218935 -0.1207688 0.0098012025 2.3509886e-38
-0.0013939925 -0.12002577 0.012796097 2.3509886e-38
0.00049453042 -0.12002577 0.012796097 2.3509886e-38
0.0024146531 -0.11903207 0.016801409 2.3509886e-38
0.0042961519 -0.11903207 0.016801409 2.3509886e-38
0.0062039904 -0.1175413 0.022810273 2.3509886e-38
0.0080855861 -0.11653815 0.026853614 2.3509886e-38
0.0099494606 -0.11653815 0.026853614 2.3509886e-38
0.011808068 -0.11504765 0.032861404 2.341805e-38
0.013661409 -0.11504765 0.032861404 2.341805e-38
0.015501693 -0.1143087 0.035839848 2.3325856e-38
0.017349811 -0.1143087 0.035839848 2.3049626e-38
0.01919793 -0.1143087 0.035839848 2.3417687e-38
0.021006947 -0.11330278 0.039894395 2.350988e-38
0.022847958 -0.11330278 0.039894395 2.3509879e-38
0.024688967 -0.11330278 0.039894395 2.2772672e-38
0.026529975 -0.11330278 0.039894395 1.6411174e-38
0.02843852 -0.1143087 0.035839848 1.8474719e-40
0.030452074 -0.11653815 0.026853614 1.8474719e-40
0.032397475 -0.1175413 0.022810273 0
0.034268439 -0.1175413 0.022810273 0
0.036043696 -0.11653815 0.026853614 0
0.037830986 -0.11579077 0.029866032 3.6878532e-40
0.03952723 -0.1143087 0.035839848 2.7550649e-40
0.041258045 -0.11330278 0.039894395 2.8551652e-39
0.043099057 -0.11330278 0.039894395 2.2122607e-38
0.044844732 -0.11257361 0.0428335 2.2123336e-38
0.046680585 -0.11257361 0.0428335 1.078364e-38
0.048516441 -0.11257361 0.0428335 8.9397363e-39
-0.057080597 -0.14189209 -0.067163058 8.577041e-39
-0.055051893 -0.14189209 -0.067163058 1.5030739e-38
-0.052804291 -0.14090194 -0.063200064 1.9361434e-38
-0.050565049 -0.13988586 -0.059133358 2.3233299e-38
-0.048550412 -0.13988586 -0.059133358 2.3509886e-38
-0.04634048 -0.13890938 -0.055225082 2.3325494e-38
-0.044139311 -0.13790731 -0.051214404 2.341769e-38
-0.041995183 -0.13713633 -0.048128553 2.3509886e-38
-0.039822735 -0.13614662 -0.044167347 2.3509886e-38
-0.037834331 -0.13614662 -0.044167347 2.3509886e-38
-0.03567864 -0.13513215 -0.040107079 2.3509886e-38
-0.033424728 -0.13340546 -0.033196159 2.3509886e-38
-0.031305447 -0.13241051 -0.029213972 2.3509886e-38
-0.029196728 -0.13139187 -0.025136895 2.3509886e-38
-0.027140953 -0.13065563 -0.02219028 2.3509886e-38
-0.02506049 -0.12964968 -0.018163987 2.3509886e-38
-0.023024689 -0.12889244 -0.015133209 2.3509886e-38
-0.021087199 -0.12889244 -0.015133209 2.3509886e-38
-0.019041672 -0.12789918 -0.011157817 2.3509886e-38
-0.017111152 -0.12789918 -0.011157817 2.3509886e-38
-0.01508721 -0.12691309 -0.007211036 2.3509886e-38
-0.013095893 -0.12614109 -0.0041212505 2.3509886e-38
-0.011096764 -0.12513812 -0.00010687765 2.3509886e-38
-0.0091856197 -0.12513812 -0.00010687765 2.3509886e-38
-0.0072256252 -0.12440531 0.0028260285 2.3509886e-38
-0.0052744076 -0.12364738 0.0058596665 2.3509886e-38
-0.0033218935 -0.12266256 0.0098012025 2.3509886e-38
-0.0013939925 -0.12191428 0.012796097 2.3509886e-38
0.00049453042 -0.12191428 0.012796097 2.3509886e-38
0.0024146531 -0.12091358 0.016801409 2.3509886e-38
0.0043149889 -0.12014665 0.019870929 2.3509886e-38
0.0062039904 -0.11941226 0.022810273 2.3509886e-38
0.0080855861 -0.11840202 0.026853614 2.3509886e-38
0.0099521019 -0.11764936 0.029866032 2.3509886e-38
0.011808068 -0.11690097 0.032861404 2.341805e-38
0.013661409 -0.11690097 0.032861404 2.341805e-38
0.015501693 -0.1161568 0.035839848 2.3325856e-38
0.01732493 -0.11514379 0.039894395 2.3141822e-38
0.019165939 -0.11514379 0.039894395 2.3509883e-38
0.021006947 -0.11514379 0.039894395 2.350988e-38
0.022847958 -0.11514379 0.039894395 2.2957064e-38
0.024688967 -0.11514379 0.039894395 2.1574126e-38
0.026529975 -0.11514379 0.039894395 1.1709194e-38
0.02843852 -0.1161568 0.035839848 5.5352551e-40
0.030452074 -0.11840202 0.026853614 3.5873241e-43
0.032315947 -0.11840202 0.026853614 3.5873241e-43
0.034179822 -0.11840202 0.026853614 0
0.036043696 -0.11840202 0.026853614 0
0.037830986 -0.11764936 0.029866032 2.7658969e-40
0.03952723 -0.1161568 0.035839848 4.5953621e-40
0.041258045 -0.11514379 0.039894395 1.2871319e-39
0.043099057 -0.11514379 0.039894395 2.092407e-38
0.044844732 -0.11440946 0.0428335 2.1662003e-38
0.046680585 -0.11440946 0.0428335 1.2258416e-38
0.048516441 -0.11440946 0.0428335 9.40072e-39
-0.057080597 -0.14392079 -0.067163058 8.5770424e-39
-0.055051893 -0.14392079 -0.067163058 1.6597709e-38
-0.052579686 -0.14190049 -0.059133358 1.9177043e-38
-0.050565049 -0.14190049 -0.059133358 2.2034393e-38
-0.048348263 -0.14091717 -0.055225082 2.3509883e-38
-0.04634048 -0.14091717 -0.055225082 2.3509167e-38
-0.044139311 -0.13990806 -0.051214404 2.3509527e-38
-0.041995183 -0.13913165 -0.048128553 2.3325494e-38
-0.039822735 -0.138135 -0.044167347 2.3509527e-38
-0.037659921 -0.13711344 -0.040107079 2.3509886e-38
-0.03567864 -0.13711344 -0.040107079 2.3509886e-38
-0.033543289 -0.13613077 -0.036201425 2.3509886e-38
-0.031305447 -0.1343727 -0.029213972 2.3509886e-38
-0.029196728 -0.13334687 -0.025136895 2.3509886e-38
-0.027140953 -0.13260551 -0.02219028 2.3509886e-38
-0.02506049 -0.13159247 -0.018163987 2.3509886e-38
-0.023024689 -0.13082992 -0.015133209 2.3509886e-38
-0.021087199 -0.13082992 -0.015133209 2.3509886e-38
-0.019041672 -0.12982969 -0.011157817 2.3509886e-38
-0.017111152 -0.12982969 -0.011157817 2.3509886e-38
-0.015014075 -0.12805928 -0.0041212505 2.3509886e-38
-0.013095893 -0.12805928 -0.0041212505 2.3509886e-38
-0.011096764 -0.12704925 -0.00010687765 2.3509886e-38
-0.0091856197 -0.12704925 -0.00010687765 2.3509886e-38
-0.0072256252 -0.12631132 0.0028260285 2.3509886e-38
-0.0052744076 -0.12554805 0.0058596665 2.3509886e-38
-0.0033218935 -0.12455635 0.0098012025 2.3509886e-38
-0.0013939925 -0.12380283 0.012796097 2.3509886e-38
0.0005331561 -0.12279506 0.016801409 2.3509886e-38
0.0024388731 -0.12202276 0.019870929 2.3509886e-38
0.0043330267 -0.12128322 0.022810273 2.3509886e-38
0.0062217135 -0.12026589 0.026853614 2.3509886e-38
0.0080855861 -0.12026589 0.026853614 2.3509886e-38
0.0099521019 -0.11950795 0.029866032 2.3509886e-38
0.011808068 -0.11875431 0.032861404 2.341805e-38
0.013653575 -0.11800493 0.035839848 2.341805e-38
0.015501693 -0.11800493 0.035839848 2.3325856e-38
0.01732493 -0.1169848 0.039894395 2.341769e-38
0.019165939 -0.1169848 0.039894395 2.3509883e-38
0.020978604 -0.11624531 0.0428335 2.350988e-38
0.02281446 -0.11624531 0.0428335 2.2495367e-38
0.024650317 -0.11624531 0.0428335 2.0559614e-38
0.026529975 -0.1169848 0.039894395 5.5317266e-39
0.02843852 -0.11800493 0.035839848 9.2194229e-41
0.030452074 -0.12026589 0.026853614 4.6061241e-40
0.032315947 -0.12026589 0.026853614 1.8474719e-40
0.034179822 -0.12026589 0.026853614 2.7658409e-40
0.036043696 -0.12026589 0.026853614 6.4536941e-40
0.037830986 -0.11950795 0.029866032 2.8025969e-45
0.039608173 -0.11875431 0.032861404 3.6734198e-40
0.041258045 -0.1169848 0.039894395 7.3468397e-40
0.043099057 -0.1169848 0.039894395 1.972517e-38
0.044940066 -0.1169848 0.039894395 2.120138e-38
0.046781074 -0.1169848 0.039894395 1.3365118e-38
-0.057080597 -0.14594953 -0.067163058 6.825694e-39
-0.055051893 -0.14594953 -0.067163058 1.7795898e-38
-0.052579686 -0.14391513 -0.059133358 1.9729854e-38
-0.050565049 -0.14391513 -0.059133358 2.120355e-38
-0.048348263 -0.14292495 -0.055225082 2.267868e-38
-0.04634048 -0.14292495 -0.055225082 2.3509164e-38
-0.044139311 -0.14190884 -0.051214404 2.3509527e-38
-0.041995183 -0.14112701 -0.048128553 2.3509527e-38
-0.039822735 -0.14012341 -0.044167347 2.3509168e-38
-0.037659921 -0.13909473 -0.040107079 2.3509527e-38
-0.03567864 -0.13909473 -0.040107079 2.3509168e-38
-0.033424728 -0.13734378 -0.033196159 2.3509527e-38
-0.031305447 -0.13633488 -0.029213972 2.3509886e-38
-0.029196728 -0.1353019 -0.025136895 2.3509886e-38
-0.027140953 -0.13455538 -0.02219028 2.3509886e-38
-0.02506049 -0.13353528 -0.018163987 2.3509883e-38
-0.023024689 -0.13276742 -0.015133209 2.3509883e-38
-0.020972192 -0.13176022 -0.011157817 2.3417687e-38
-0.018934414 -0.13076027 -0.007211036 2.3509886e-38
-0.017010808 -0.13076027 -0.007211036 2.3509886e-38
-0.015014075 -0.12997745 -0.0041212505 2.3509886e-38
-0.013095893 -0.12997745 -0.0041212505 2.3509886e-38
-0.011096764 -0.12896039 -0.00010687765 2.3509886e-38
-0.0091856197 -0.12896039 -0.00010687765 2.3509886e-38
-0.0072256252 -0.12821732 0.0028260285 2.3509886e-38
-0.0052744076 -0.12744872 0.0058596665 2.3509886e-38
-0.0033218935 -0.12645011 0.0098012025 2.3509886e-38
-0.0013939925 -0.12569134 0.012796097 2.3509886e-38
0.0005331561 -0.12467657 0.016801409 2.3509886e-38
0.0024388731 -0.12389888 0.019870929 2.3509886e-38
0.0043330267 -0.12315418 0.022810273 2.3509886e-38
0.0062217135 -0.12212978 0.026853614 2.3509886e-38
0.0080855861 -0.12212978 0.026853614 2.3509886e-38
0.0099521019 -0.12136655 0.029866032 2.3509886e-38
0.011808068 -0.12060766 0.032861404 2.3233662e-38
0.013653575 -0.11985306 0.035839848 2.341805e-38
0.01548392 -0.11882581 0.039894395 2.3141106e-38
0.01732493 -0.11882581 0.039894395 2.341769e-38
0.019142749 -0.11808117 0.0428335 2.3509523e-38
0.020978604 -0.11808117 0.0428335 2.3509161e-38
0.022779923 -0.11731337 0.045864038 2.3416603e-38
0.024610465 -0.11731337 0.045864038 1.3920453e-38
0.026529975 -0.11882581 0.039894395 3.871129e-39
0.02843852 -0.11985306 0.035839848 1.9350208e-39
0.030526511 -0.12315418 0.022810273 3.6734198e-40
0.032397475 -0.12315418 0.022810273 9.1835496e-41
0.034268439 -0.12315418 0.022810273 2.7658409e-40
0.036043696 -0.12212978 0.026853614 9.219563e-41
0.037830986 -0.12136655 0.029866032 2.8025969e-45
0.039608173 -0.12060766 0.032861404 9.1835496e-41
0.041258045 -0.11882581 0.039894395 9.1835636e-40
0.043099057 -0.11882581 0.039894395 1.4931722e-38
0.044940066 -0.11882581 0.039894395 2.1017693e-38
-0.057080597 -0.14797823 -0.067163058 7.8394886e-39
-0.054594323 -0.14592977 -0.059133358 1.9362147e-38
-0.052579686 -0.14592977 -0.059133358 2.2864149e-38
-0.050565049 -0.14592977 -0.059133358 2.3416603e-38
-0.048348263 -0.14493273 -0.055225082 2.3509521e-38
-0.046140067 -0.14390959 -0.051214404 2.3509524e-38
-0.043990523 -0.14312236 -0.048128553 2.3508446e-38
-0.041811131 -0.14211179 -0.044167347 2.3324055e-38
-0.039822735 -0.14211179 -0.044167347 2.3508091e-38
-0.037659921 -0.14107598 -0.040107079 2.3509168e-38
-0.035393894 -0.13931294 -0.033196159 2.3509527e-38
-0.033424728 -0.13931294 -0.033196159 2.3509527e-38
-0.031305447 -0.13829704 -0.029213972 2.3509886e-38
-0.029196728 -0.13725694 -0.025136895 2.3509886e-38
-0.027140953 -0.13650523 -0.02219028 2.3509883e-38
-0.02506049 -0.13547809 -0.018163987 2.3509883e-38
-0.023024689 -0.1347049 -0.015133209 2.3509883e-38
-0.020972192 -0.13369073 -0.011157817 2.3509883e-38
-0.018934414 -0.13268389 -0.007211036 2.3509886e-38
-0.017010808 -0.13268389 -0.007211036 2.3509886e-38
-0.015014075 -0.13189565 -0.0041212505 2.3509886e-38
-0.013007909 -0.13087155 -0.00010687765 2.3509886e-38
-0.011096764 -0.13087155 -0.00010687765 2.3509886e-38
-0.0091316253 -0.13012333 0.0028260285 2.3509886e-38
-0.0072256252 -0.13012333 0.0028260285 2.3509886e-38
-0.0052744076 -0.12934943 0.0058596665 2.3509886e-38
-0.0033218935 -0.1283439 0.0098012025 2.3509886e-38
-0.0013483427 -0.12655805 0.016801409 2.3509886e-38
0.0005331561 -0.12655805 0.016801409 2.3509886e-38
0.0024388731 -0.12577499 0.019870929 2.3509886e-38
0.004357839 -0.12399365 0.026853614 2.3509886e-38
0.0062217135 -0.12399365 0.026853614 2.3509886e-38
0.0080855861 -0.12399365 0.026853614 2.3509886e-38
0.0099521019 -0.12322514 0.029866032 2.3509886e-38
0.011808068 -0.12246101 0.032861404 2.3233662e-38
0.013653575 -0.12170117 0.035839848 2.341805e-38
0.01548392 -0.12066682 0.039894395 2.3325494e-38
0.01732493 -0.12066682 0.039894395 2.3509883e-38
0.019142749 -0.11991702 0.0428335 2.3509524e-38
0.02094938 -0.11914389 0.045864038 2.3509521e-38
0.022779923 -0.11914389 0.045864038 2.350916e-38
0.024610465 -0.11914389 0.045864038 1.2168017e-38
0.026529975 -0.12066682 0.039894395 2.0264976e-39
0.028655548 -0.12502514 0.022810273 9.2015002e-40
0.030526511 -0.12502514 0.022810273 2.7550649e-40
0.032397475 -0.12502514 0.022810273 9.1835496e-41
0.034268439 -0.12502514 0.022810273 2.7586802e-40
0.036139399 -0.12502514 0.022810273 0
0.037907571 -0.12399365 0.026853614 2.8025969e-45
0.039689578 -0.12322514 0.029866032 4.6026209e-40
0.04154817 -0.12322514 0.029866032 6.4284987e-40
0.043406758 -0.12322514 0.029866032 9.3077887e-39
0.04526535 -0.12322514 0.029866032 1.9727668e-38
-0.05660896 -0.14794444 -0.059133358 8.9451201e-39
-0.054594323 -0.14794444 -0.059133358 2.0745082e-38
-0.052579686 -0.14794444 -0.059133358 2.3509879e-38
-0.050356045 -0.14694051 -0.055225082 2.350988e-38
-0.048348263 -0.14694051 -0.055225082 2.3509524e-38
-0.046140067 -0.14591034 -0.051214404 2.3509883e-38
-0.043990523 -0.14511769 -0.048128553 2.3416971e-38
-0.041811131 -0.1441002 -0.044167347 2.3416971e-38
-0.039822735 -0.1441002 -0.044167347 2.3509527e-38
-0.037363052 -0.1412821 -0.033196159 2.3509527e-38
-0.03522981 -0.14025922 -0.029213972 2.3509527e-38
-0.033267632 -0.14025922 -0.029213972 2.3509886e-38
-0.031151757 -0.13921197 -0.025136895 2.3509886e-38
-0.029196728 -0.13921197 -0.025136895 2.341769e-38
-0.027003296 -0.13742088 -0.018163987 2.3417687e-38
-0.024962183 -0.13664238 -0.015133209 2.3509883e-38
-0.022902712 -0.13562126 -0.011157817 2.350988e-38
-0.020972192 -0.13562126 -0.011157817 2.3509883e-38
-0.018934414 -0.13460748 -0.007211036 2.3509886e-38
-0.017010808 -0.13460748 -0.007211036 2.3509886e-38
-0.015014075 -0.13381381 -0.0041212505 2.3509886e-38
-0.013007909 -0.13278268 -0.00010687765 2.3509886e-38
-0.011096764 -0.13278268 -0.00010687765 2.3509886e-38
-0.0091316253 -0.13202934 0.0028260285 2.3509886e-38
-0.0072256252 -0.13202934 0.0028260285 2.3509886e-38
-0.0052156672 -0.13023765 0.0098012025 2.3509886e-38
-0.0032825135 -0.1294684 0.012796097 2.3509886e-38
-0.0013483427 -0.12843956 0.016801409 2.3509886e-38
0.00056275539 -0.12765111 0.019870929 2.3509886e-38
0.0024388731 -0.12765111 0.019870929 2.3509886e-38
0.004357839 -0.12585752 0.026853614 2.3509886e-38
0.0062217135 -0.12585752 0.026853614 2.3509886e-38
0.0080855861 -0.12585752 0.026853614 2.3509886e-38
0.0099521019 -0.12508373 0.029866032 2.3509886e-38
0.011808068 -0.12431435 0.032861404 2.341805e-38
0.013653575 -0.1235493 0.035839848 2.3325856e-38
0.01548392 -0.12250783 0.039894395 2.341769e-38
0.01732493 -0.12250783 0.039894395 2.3509883e-38
0.019142749 -0.12175287 0.0428335 2.3508444e-38
0.02094938 -0.12097444 0.045864038 2.3509521e-38
0.022745583 -0.12020047 0.048877172 2.35088e-38
0.024570841 -0.12020047 0.048877172 8.387996e-39
0.026396101 -0.12020047 0.048877172 3.6734198e-40
0.028655548 -0.1268961 0.022810273 3.6734198e-40
0.030526511 -0.1268961 0.022810273 2.7550649e-40
0.032397475 -0.1268961 0.022810273 2.7622395e-40
0.034268439 -0.1268961 0.022810273 1.8367239e-40
0.036139399 -0.1268961 0.022810273 0
0.037907571 -0.12585752 0.026853614 2.8025969e-45
0.039689578 -0.12508373 0.029866032 6.4465335e-40
0.04154817 -0.12508373 0.029866032 5.5101298e-40
0.043406758 -0.12508373 0.029866032 2.1165296e-39
0.04526535 -0.12508373 0.029866032 1.5671063e-38
0.047365181 -0.1268961 0.022810273 2.0557798e-38
-0.054594323 -0.14995907 -0.059133358 2.1206063e-38
-0.052363843 -0.14894833 -0.055225082 2.3141455e-38
-0.050356045 -0.14894833 -0.055225082 2.3233652e-38
-0.048140824 -0.14791109 -0.051214404 2.3417327e-38
-0.045985863 -0.14711304 -0.048128553 2.3509883e-38
-0.043799527 -0.14608859 -0.044167347 2.3509527e-38
-0.041622475 -0.14503856 -0.040107079 2.3509886e-38
-0.039641201 -0.14503856 -0.040107079 2.3509527e-38
-0.037363052 -0.14325126 -0.033196159 2.3509886e-38
-0.03522981 -0.14222141 -0.029213972 2.3509886e-38
-0.033267632 -0.14222141 -0.029213972 2.341769e-38
-0.031151757 -0.141167 -0.025136895 2.3233299e-38
-0.029196728 -0.141167 -0.025136895 2.31411e-38
-0.027003296 -0.13936369 -0.018163987 2.31411e-38
-0.024962183 -0.13857989 -0.015133209 2.3233652e-38
-0.022902712 -0.1375518 -0.011157817 2.3418043e-38
-0.020972192 -0.1375518 -0.011157817 2.350988e-38
-0.018934414 -0.13653107 -0.007211036 2.3509883e-38
-0.017010808 -0.13653107 -0.007211036 2.3509886e-38
-0.015014075 -0.13573201 -0.0041212505 2.3509886e-38
-0.013007909 -0.13469382 -0.00010687765 2.3509886e-38
-0.011096764 -0.13469382 -0.00010687765 2.3509886e-38
-0.0091316253 -0.13393532 0.0028260285 2.3509886e-38
-0.0071750954 -0.13315077 0.0058596665 2.3509886e-38
-0.0052156672 -0.13213144 0.0098012025 2.3509886e-38
-0.0032825135 -0.13135691 0.012796097 2.3509886e-38
-0.0013483427 -0.13032107 0.016801409 2.3509886e-38
0.00056275539 -0.12952723 0.019870929 2.3509886e-38
0.0024388731 -0.12952723 0.019870929 2.3509886e-38
0.004357839 -0.12772138 0.026853614 2.3509886e-38
0.0062217135 -0.12772138 0.026853614 2.3509886e-38
0.0080855861 -0.12772138 0.026853614 2.3509886e-38
0.0099521019 -0.12694232 0.029866032 2.3509886e-38
0.011808068 -0.12616767 0.032861404 2.341805e-38
0.013653575 -0.1253974 0.035839848 2.304927e-38
0.01548392 -0.12434883 0.039894395 2.3509886e-38
0.017306894 -0.12358873 0.0428335 2.3509883e-38
0.019118838 -0.12280498 0.045864038 2.3231857e-38
0.02094938 -0.12280498 0.045864038 2.3509521e-38
0.022745583 -0.12202574 0.048877172 2.3231492e-38
0.024570841 -0.12202574 0.048877172 4.1469971e-39
0.026396101 -0.12202574 0.048877172 3.6734198e-40
0.028755637 -0.13032107 0.016801409 3.6734198e-40
0.030637134 -0.13032107 0.016801409 3.6734198e-40
0.032456741 -0.12952723 0.019870929 4.6061241e-40
0.034332857 -0.12952723 0.019870929 2.7586802e-40
0.036208976 -0.12952723 0.019870929 0
0.038085092 -0.12952723 0.019870929 2.8025969e-45
0.039771445 -0.12772138 0.026853614 4.6025928e-40
0.04163532 -0.12772138 0.026853614 5.5101298e-40
0.043406758 -0.12694232 0.029866032 6.4284847e-40
0.04526535 -0.12694232 0.029866032 1.087689e-38
0.047365181 -0.12876706 0.022810273 2.157195e-38
0.049341794 -0.12952723 0.019870929 1.8989434e-38
0.05121791 -0.12952723 0.019870929 8.8486365e-39
-0.048140824 -0.14991184 -0.051214404 2.3509883e-38
-0.045985863 -0.14910837 -0.048128553 2.3418047e-38
-0.043799527 -0.148077 -0.044167347 2.3509886e-38
-0.041622475 -0.14701982 -0.040107079 2.341805e-38
-0.039641201 -0.14701982 -0.040107079 2.3233302e-38
-0.037363052 -0.14522041 -0.033196159 2.304891e-38
-0.03522981 -0.14418359 -0.029213972 2.3509886e-38
-0.033267632 -0.14418359 -0.029213972 2.341769e-38
-0.031305447 -0.14418359 -0.029213972 2.3233299e-38
-0.029196728 -0.14312203 -0.025136895 2.31411e-38
-0.027003296 -0.1413065 -0.018163987 2.31411e-38
-0.024962183 -0.14051737 -0.015133209 2.3233652e-38
-0.023024689 -0.14051737 -0.015133209 2.3418043e-38
-0.020972192 -0.1394823 -0.011157817 2.350988e-38
-0.018934414 -0.13845469 -0.007211036 2.3509883e-38
-0.017010808 -0.13845469 -0.007211036 2.3509886e-38
-0.015014075 -0.13765021 -0.0041212505 2.3509886e-38
-0.013007909 -0.13660498 -0.00010687765 2.3509886e-38
-0.011096764 -0.13660498 -0.00010687765 2.3509886e-38
-0.0091316253 -0.13584132 0.0028260285 2.3509886e-38
-0.0071750954 -0.13505147 0.0058596665 2.3509886e-38
-0.0052156672 -0.1340252 0.0098012025 2.3509886e-38
-0.0033218935 -0.1340252 0.0098012025 2.3509886e-38
-0.0013483427 -0.13220255 0.016801409 2.3509886e-38
0.00056275539 -0.13140334 0.019870929 2.3509886e-38
0.002462063 -0.13063805 0.022810273 2.3509886e-38
0.004357839 -0.12958528 0.026853614 2.3509886e-38
0.0062349178 -0.12880091 0.029866032 2.3509886e-38
0.0080935098 -0.12880091 0.029866032 2.3509886e-38
0.0099547282 -0.12802102 0.032861404 2.3509886e-38
0.011808068 -0.12802102 0.032861404 2.341805e-38
0.013653575 -0.12724553 0.035839848 2.2864879e-38
0.01548392 -0.12618984 0.039894395 2.3509886e-38
0.017306894 -0.12542458 0.0428335 2.3509883e-38
0.019118838 -0.12463553 0.045864038 2.3231857e-38
0.02094938 -0.12463553 0.045864038 2.3509521e-38
0.022745583 -0.12385099 0.048877172 2.3231492e-38
0.024570841 -0.12385099 0.048877172 1.3811282e-39
0.026396101 -0.12385099 0.048877172 6.4356594e-40
0.028988419 -0.13584132 0.0028260285 4.5917748e-40
0.030766008 -0.1340252 0.0098012025 2.7550649e-40
0.032518633 -0.13220255 0.016801409 1.8402972e-40
0.034400132 -0.13220255 0.016801409 1.8367239e-40
0.03628163 -0.13220255 0.016801409 0
0.038085092 -0.13140334 0.019870929 2.8025969e-45
0.039881326 -0.13063805 0.022810273 9.1835496e-41
0.04175229 -0.13063805 0.022810273 6.4284847e-40
0.04349919 -0.12958528 0.026853614 9.1871369e-40
0.045363065 -0.12958528 0.026853614 5.3451549e-39
0.047465678 -0.13140334 0.019870929 2.0834029e-38
0.049236145 -0.13063805 0.022810273 2.0373079e-38
0.051107109 -0.13063805 0.022810273 9.3099664e-39
0.052818559 -0.12958528 0.026853614 7.6514988e-39
0.054682434 -0.12958528 0.026853614 7.5603794e-39
-0.041622475 -0.14900111 -0.040107079 2.3234018e-38
-0.039641201 -0.14900111 -0.040107079 2.3233662e-38
-0.037363052 -0.1471896 -0.033196159 2.3325856e-38
-0.03522981 -0.14614578 -0.029213972 2.3509886e-38
-0.033267632 -0.14614578 -0.029213972 2.3509886e-38
-0.031151757 -0.14507706 -0.025136895 2.3509883e-38
-0.029090818 -0.14430468 -0.02219028 2.3417687e-38
-0.027003296 -0.14324932 -0.018163987 2.3418043e-38
-0.024962183 -0.14245488 -0.015133209 2.3509879e-38
-0.023024689 -0.14245488 -0.015133209 2.3509879e-38
-0.020972192 -0.14141284 -0.011157817 2.350988e-38
-0.018934414 -0.14037828 -0.007211036 2.3509883e-38
-0.017010808 -0.14037828 -0.007211036 2.3509886e-38
-0.015014075 -0.13956837 -0.0041212505 2.3509886e-38
-0.013007909 -0.13851611 -0.00010687765 2.3509886e-38
-0.011096764 -0.13851611 -0.00010687765 2.3509886e-38
-0.0091316253 -0.13774733 0.0028260285 2.3509886e-38
-0.0071750954 -0.13695215 0.0058596665 2.3509886e-38
-0.0052156672 -0.13591899 0.0098012025 2.3509886e-38
-0.0032825135 -0.13513394 0.012796097 2.3509886e-38
-0.0013939925 -0.13513394 0.012796097 2.3509886e-38
0.00056275539 -0.13327946 0.019870929 2.3509886e-38
0.0024939664 -0.13144915 0.026853614 2.3509886e-38
0.004357839 -0.13144915 0.026853614 2.3509886e-38
0.0062349178 -0.13065951 0.029866032 2.3509886e-38
0.0080935098 -0.13065951 0.029866032 2.3509886e-38
0.0099573396 -0.12909363 0.035839848 2.3509886e-38
0.011805456 -0.12909363 0.035839848 2.341805e-38
0.013653575 -0.12909363 0.035839848 2.2864879e-38
0.01548392 -0.12803085 0.039894395 2.3509886e-38
0.017306894 -0.12726043 0.0428335 2.3509883e-38
0.019118838 -0.12646608 0.045864038 2.3509164e-38
0.02094938 -0.12646608 0.045864038 2.3509521e-38
0.022779923 -0.12646608 0.045864038 2.35088e-38
0.024610465 -0.12646608 0.045864038 5.5137171e-40
0.027126128 -0.13851611 -0.00010687765 6.4356594e-40
0.028988419 -0.13774733 0.0028260285 3.6734198e-40
0.030838571 -0.13695215 0.0058596665 2.7550649e-40
0.03265978 -0.13591899 0.0098012025 9.1835496e-41
0.034487918 -0.13513394 0.012796097 9.1835496e-41
0.036376439 -0.13513394 0.012796097 0
0.03826496 -0.13513394 0.012796097 2.8025969e-45
0.039961211 -0.13327946 0.019870929 0
0.04175229 -0.13250901 0.022810273 3.6734198e-40
0.043623254 -0.13250901 0.022810273 1.3804023e-39
0.045494217 -0.13250901 0.022810273 1.1045371e-39
0.047365181 -0.13250901 0.022810273 1.9082312e-38
0.049236145 -0.13250901 0.022810273 1.9912095e-38
0.050954685 -0.13144915 0.026853614 9.8627744e-39
0.052699719 -0.13065951 0.029866032 7.8358901e-39
0.054434892 -0.12987436 0.032861404 7.3759881e-39
0.056288235 -0.12987436 0.032861404 7.0065007e-39
0.058141574 -0.12987436 0.032861404 5.8079589e-39
-0.037191987 -0.14810793 -0.029213972 2.341805e-38
-0.03522981 -0.14810793 -0.029213972 2.341805e-38
-0.033267632 -0.14810793 -0.029213972 2.341805e-38
-0.031151757 -0.1470321 -0.025136895 2.3509883e-38
-0.028946098 -0.1451921 -0.018163987 2.3509883e-38
-0.027003296 -0.1451921 -0.018163987 2.350988e-38
-0.024962183 -0.14439236 -0.015133209 2.3509879e-38
-0.023024689 -0.14439236 -0.015133209 2.3509879e-38
-0.020972192 -0.14334334 -0.011157817 2.3509879e-38
-0.018934414 -0.14230187 -0.007211036 2.3509883e-38
-0.017010808 -0.14230187 -0.007211036 2.3509886e-38
-0.015014075 -0.14148657 -0.0041212505 2.3509886e-38
-0.013007909 -0.14042725 -0.00010687765 2.3509886e-38
-0.011096764 -0.14042725 -0.00010687765 2.3509886e-38
-0.0091316253 -0.13965334 0.0028260285 2.3509886e-38
-0.0071750954 -0.13885282 0.0058596665 2.3509886e-38
-0.0052156672 -0.13781275 0.0098012025 2.3509886e-38
-0.0032825135 -0.13702248 0.012796097 2.3509886e-38
-0.0013483427 -0.13596557 0.016801409 2.3509886e-38
0.00059109926 -0.13437997 0.022810273 2.3509886e-38
0.0024939664 -0.13331302 0.026853614 2.3509886e-38
0.004357839 -0.13331302 0.026853614 2.3509886e-38
0.0062349178 -0.1325181 0.029866032 2.3509886e-38
0.0080935098 -0.1325181 0.029866032 2.3509886e-38
0.0099573396 -0.13094176 0.035839848 2.3509886e-38
0.011805456 -0.13094176 0.035839848 2.341805e-38
0.013653575 -0.13094176 0.035839848 2.304927e-38
0.01548392 -0.12987186 0.039894395 2.3509886e-38
0.017306894 -0.12909628 0.0428335 2.3509883e-38
0.019118838 -0.1282966 0.045864038 2.3509524e-38
0.02094938 -0.1282966 0.045864038 2.3509521e-38
0.022779923 -0.1282966 0.045864038 2.350916e-38
0.024610465 -0.1282966 0.045864038 3.6734198e-40
0.027126128 -0.14042725 -0.00010687765 3.6734198e-40
0.029037273 -0.14042725 -0.00010687765 3.6734198e-40
0.030894421 -0.13965334 0.0028260285 2.7550649e-40
0.032739256 -0.13885282 0.0058596665 9.1835496e-41
0.034553554 -0.13781275 0.0098012025 9.1835496e-41
0.036447324 -0.13781275 0.0098012025 0
0.03826496 -0.13702248 0.012796097 2.8025969e-45
0.040044628 -0.13596557 0.016801409 0
0.041837327 -0.13515557 0.019870929 4.5917748e-40
0.043623254 -0.13437997 0.022810273 1.1960138e-39
0.045494217 -0.13437997 0.022810273 7.3540143e-40
0.047365181 -0.13437997 0.022810273 1.8437669e-38
0.049236145 -0.13437997 0.022810273 1.9543667e-38
0.050954685 -0.13331302 0.026853614 1.0785084e-38
0.052699719 -0.1325181 0.029866032 9.0344332e-39
0.054434892 -0.13172771 0.032861404 8.2968682e-39
0.05616029 -0.13094176 0.035839848 7.4678348e-39
0.058008406 -0.13094176 0.035839848 6.0845444e-39
0.059856527 -0.13094176 0.035839848 6.7302698e-39
0.061704643 -0.13094176 0.035839848 8.205397e-39
-0.035061821 -0.14898713 -0.025136895 2.3326213e-38
-0.033106789 -0.14898713 -0.025136895 2.341805e-38
-0.031151757 -0.14898713 -0.025136895 2.3509883e-38
-0.028946098 -0.14713491 -0.018163987 2.3509883e-38
-0.026899673 -0.14632986 -0.015133209 2.350988e-38
-0.024962183 -0.14632986 -0.015133209 2.3509879e-38
-0.022902712 -0.14527388 -0.011157817 2.3509879e-38
-0.020972192 -0.14527388 -0.011157817 2.3418042e-38
-0.018934414 -0.14422549 -0.007211036 2.3509883e-38
-0.017010808 -0.14422549 -0.007211036 2.3509886e-38
-0.015014075 -0.14340474 -0.0041212505 2.3509886e-38
-0.013007909 -0.14233841 -0.00010687765 2.3509886e-38
-0.011037625 -0.14155935 0.0028260285 2.3509886e-38
-0.0090757757 -0.14075352 0.0058596665 2.3509886e-38
-0.0071094409 -0.13970654 0.0098012025 2.3509886e-38
-0.0052156672 -0.13970654 0.0098012025 2.3509886e-38
-0.0032825135 -0.13891099 0.012796097 2.3509886e-38
-0.0013133623 -0.13703169 0.019870929 2.3509886e-38
0.00059109926 -0.13625093 0.022810273 2.3509886e-38
0.0024939664 -0.13517688 0.026853614 2.3509886e-38
0.004357839 -0.13517688 0.026853614 2.3509886e-38
0.0062349178 -0.13437669 0.029866032 2.3509886e-38
0.0081013869 -0.13358103 0.032861404 2.3509886e-38
0.0099573396 -0.13278987 0.035839848 2.3509886e-38
0.011805456 -0.13278987 0.035839848 2.341805e-38
0.013642911 -0.13171287 0.039894395 2.3325856e-38
0.01548392 -0.13171287 0.039894395 2.3509886e-38
0.017306894 -0.13093217 0.0428335 2.3233296e-38
0.019118838 -0.13012715 0.045864038 2.3509524e-38
0.02094938 -0.13012715 0.045864038 2.3508441e-38
0.022779923 -0.13012715 0.045864038 2.3415884e-38
0.024610465 -0.13012715 0.045864038 3.6734198e-40
0.027126128 -0.14233841 -0.00010687765 3.6734198e-40
0.029037273 -0.14233841 -0.00010687765 5.5137171e-40
0.030894421 -0.14155935 0.0028260285 4.5953621e-40
0.032739256 -0.14075352 0.0058596665 1.8402972e-40
0.034553554 -0.13970654 0.0098012025 9.1835496e-41
0.036447324 -0.13970654 0.0098012025 0
0.03826496 -0.13891099 0.012796097 2.8025969e-45
0.040153481 -0.13891099 0.012796097 9.2194229e-41
0.041837327 -0.13703169 0.019870929 4.5989495e-40
0.043623254 -0.13625093 0.022810273 3.6734198e-40
0.045494217 -0.13625093 0.022810273 6.4392467e-40
0.047365181 -0.13625093 0.022810273 1.7515714e-38
0.049236145 -0.13625093 0.022810273 1.8068534e-38
0.050954685 -0.13517688 0.026853614 9.9556749e-39
0.052818559 -0.13517688 0.026853614 8.4812609e-39
0.054434892 -0.13358103 0.032861404 7.5593046e-39
0.05616029 -0.13278987 0.035839848 7.467832e-39
0.058008406 -0.13278987 0.035839848 7.467832e-39
0.059856527 -0.13278987 0.035839848 8.205397e-39
0.061704643 -0.13278987 0.035839848 7.7444189e-39
0.063552767 -0.13278987 0.035839848 6.6380713e-39
-0.028946098 -0.14907773 -0.018163987 2.3509883e-38
-0.026899673 -0.14826734 -0.015133209 2.350988e-38
-0.024833232 -0.14720438 -0.011157817 2.3418042e-38
-0.022902712 -0.14720438 -0.011157817 2.3418042e-38
-0.020972192 -0.14720438 -0.011157817 2.350988e-38
-0.018934414 -0.14614908 -0.007211036 2.3509883e-38
-0.017010808 -0.14614908 -0.007211036 2.3509886e-38
-0.015014075 -0.14532293 -0.0041212505 2.3509886e-38
-0.013007909 -0.14424954 -0.00010687765 2.3509886e-38
-0.011037625 -0.14346536 0.0028260285 2.3509886e-38
-0.0090757757 -0.1426542 0.0058596665 2.3509886e-38
-0.0071094409 -0.1416003 0.0098012025 2.3509886e-38
-0.0051710345 -0.14079951 0.012796097 2.3509886e-38
-0.0032298416 -0.13972856 0.016801409 2.3509886e-38
-0.0013133623 -0.13890781 0.019870929 2.3509886e-38
0.00059109926 -0.13812189 0.022810273 2.3509886e-38
0.0024939664 -0.13704078 0.026853614 2.3509886e-38
0.0043763258 -0.13623528 0.029866032 2.3509886e-38
0.0062349178 -0.13623528 0.029866032 2.3509886e-38
0.0081013869 -0.13543437 0.032861404 2.3509886e-38
0.0099573396 -0.134638 0.035839848 2.3509886e-38
0.011805456 -0.134638 0.035839848 2.3141466e-38
0.013642911 -0.13355388 0.039894395 2.341805e-38
0.015471037 -0.13276802 0.0428335 2.341769e-38
0.017306894 -0.13276802 0.0428335 2.3233296e-38
0.019118838 -0.13195769 0.045864038 2.3509524e-38
0.02094938 -0.13195769 0.045864038 2.3231854e-38
0.022779923 -0.13195769 0.045864038 2.1203189e-38
0.024610465 -0.13195769 0.045864038 3.6734198e-40
0.027126128 -0.14424954 -0.00010687765 3.6734198e-40
0.029037273 -0.14424954 -0.00010687765 3.6734198e-40
0.030894421 -0.14346536 0.0028260285 2.7550649e-40
0.032739256 -0.1426542 0.0058596665 9.1835496e-41
0.03463994 -0.1426542 0.0058596665 9.1835496e-41
0.036447324 -0.1416003 0.0098012025 0
0.038341098 -0.1416003 0.0098012025 2.8025969e-45
0.040153481 -0.14079951 0.012796097 0
0.041837327 -0.13890781 0.019870929 4.5989495e-40
0.043623254 -0.13812189 0.022810273 2.7550649e-40
0.045494217 -0.13812189 0.022810273 1.197453e-39
0.047365181 -0.13812189 0.022810273 1.327508e-38
0.049090814 -0.13704078 0.026853614 1.6871063e-38
0.050954685 -0.13704078 0.026853614 1.3183237e-38
0.052699719 -0.13623528 0.029866032 7.9277312e-39
0.054434892 -0.13543437 0.032861404 7.9277312e-39
0.05616029 -0.134638 0.035839848 7.9280871e-39
0.058008406 -0.134638 0.035839848 8.204674e-39
0.059856527 -0.134638 0.035839848 8.1132014e-39
0.061704643 -0.134638 0.035839848 7.8366145e-39
-0.024833232 -0.14913492 -0.011157817 2.350988e-38
-0.022902712 -0.14913492 -0.011157817 2.3418043e-38
-0.020858012 -0.14807267 -0.007211036 2.3418043e-38
-0.018850438 -0.1472411 -0.0041212505 2.3509883e-38
-0.016932257 -0.1472411 -0.0041212505 2.3509886e-38
-0.015014075 -0.1472411 -0.0041212505 2.3509886e-38
-0.013007909 -0.14616071 -0.00010687765 2.3509886e-38
-0.011037625 -0.14537133 0.0028260285 2.3509886e-38
-0.0090757757 -0.14455487 0.0058596665 2.3509886e-38
-0.0071094409 -0.14349405 0.0098012025 2.3509886e-38
-0.0051710345 -0.14268802 0.012796097 2.3509886e-38
-0.0031894781 -0.14078392 0.019870929 2.3509886e-38
-0.0013133623 -0.14078392 0.019870929 2.3509886e-38
0.00063009188 -0.13890465 0.026853614 2.3509886e-38
0.0024939664 -0.13890465 0.026853614 2.3509886e-38
0.0043763258 -0.13809387 0.029866032 2.3509886e-38
0.0062480476 -0.13728772 0.032861404 2.3509886e-38
0.0081092212 -0.13648613 0.035839848 2.3509886e-38
0.0099573396 -0.13648613 0.035839848 2.3509886e-38
0.011801902 -0.13539489 0.039894395 2.3141466e-38
0.013642911 -0.13539489 0.039894395 2.341805e-38
0.015471037 -0.13460387 0.0428335 2.3509886e-38
0.017288296 -0.13378824 0.045864038 2.3417687e-38
0.019118838 -0.13378824 0.045864038 2.3509524e-38
0.02094938 -0.13378824 0.045864038 2.3509161e-38
0.022779923 -0.13378824 0.045864038 1.991245e-38
0.024610465 -0.13378824 0.045864038 6.4356594e-40
0.027126128 -0.14616071 -0.00010687765 3.6734198e-40
0.029037273 -0.14616071 -0.00010687765 3.6734198e-40
0.030894421 -0.14537133 0.0028260285 2.7550649e-40
0.032800421 -0.14537133 0.0028260285 9.1835496e-41
0.03463994 -0.14455487 0.0058596665 9.1835496e-41
0.036447324 -0.14349405 0.0098012025 0
0.038341098 -0.14349405 0.0098012025 2.8025969e-45
0.040153481 -0.14268802 0.012796097 0
0.041837327 -0.14078392 0.019870929 7.3755383e-40
0.043623254 -0.13999285 0.022810273 2.7550649e-40
0.045494217 -0.13999285 0.022810273 2.7550649e-40
0.047226939 -0.13890465 0.026853614 7.7433455e-39
0.049090814 -0.13890465 0.026853614 1.6502276e-38
0.050954685 -0.13890465 0.026853614 1.5856907e-38
0.052699719 -0.13809387 0.029866032 1.1707755e-38
0.054434892 -0.13728772 0.032861404 9.6794537e-39
0.05616029 -0.13648613 0.035839848 8.6656521e-39
0.058008406 -0.13648613 0.035839848 8.2968682e-39
0.059856527 -0.13648613 0.035839848 7.7444161e-39
0.061704643 -0.13648613 0.035839848 7.6522233e-39
-0.020858012 -0.1499963 -0.007211036 2.3417687e-38
-0.018850438 -0.1491593 -0.0041212505 2.3509886e-38
-0.016932257 -0.1491593 -0.0041212505 2.3509886e-38
-0.015014075 -0.1491593 -0.0041212505 2.3509886e-38
-0.013007909 -0.14807184 -0.00010687765 2.3509886e-38
-0.011037625 -0.14727734 0.0028260285 2.3509886e-38
-0.0090757757 -0.14645557 0.0058596665 2.3509886e-38
-0.0071094409 -0.14538784 0.0098012025 2.3509886e-38
-0.0051710345 -0.14457656 0.012796097 2.3509886e-38
-0.0031894781 -0.14266007 0.019870929 2.3509886e-38
-0.0013133623 -0.14266007 0.019870929 2.3509886e-38
0.00063009188 -0.14076851 0.026853614 2.3509886e-38
0.0025177337 -0.13995247 0.029866032 2.3509886e-38
0.0043947063 -0.13914107 0.032861404 2.3509886e-38
0.0062480476 -0.13914107 0.032861404 2.3509886e-38
0.0081092212 -0.13833423 0.035839848 2.3509886e-38
0.0099573396 -0.13833423 0.035839848 2.3509886e-38
0.011801902 -0.13723589 0.039894395 2.3233662e-38
0.013635181 -0.13643973 0.0428335 2.341805e-38
0.015471037 -0.13643973 0.0428335 2.3509886e-38
0.017288296 -0.13561879 0.045864038 2.3417687e-38
0.019118838 -0.13561879 0.045864038 2.3509164e-38
0.02094938 -0.13561879 0.045864038 2.3508441e-38
0.022779923 -0.13561879 0.045864038 1.6777798e-38
0.024610465 -0.13561879 0.045864038 6.4356594e-40
0.027126128 -0.14807184 -0.00010687765 3.6734198e-40
0.029037273 -0.14807184 -0.00010687765 3.6734198e-40
0.030894421 -0.14727734 0.0028260285 2.7550649e-40
0.032800421 -0.14727734 0.0028260285 9.1835496e-41
0.03463994 -0.14645557 0.0058596665 9.1835496e-41
0.036447324 -0.14538784 0.0098012025 0
0.03826496 -0.14457656 0.012796097 2.8025969e-45
0.040044628 -0.14349155 0.016801409 0
0.041837327 -0.14266007 0.019870929 2.7658269e-40
0.043623254 -0.14186381 0.022810273 3.6841818e-40
0.045494217 -0.14186381 0.022810273 2.7550929e-40
0.047226939 -0.14076851 0.026853614 2.8566226e-39
0.048982535 -0.13995247 0.029866032 1.4750915e-38
0.050841127 -0.13995247 0.029866032 1.7701176e-38
0.054434892 -0.13914107 0.032861404 9.4017934e-39
0.056288235 -0.13914107 0.032861404 9.4028612e-39
-0.014919054 -0.14998297 -0.00010687765 2.3509886e-38
-0.013007909 -0.14998297 -0.00010687765 2.3509886e-38
-0.011037625 -0.14918335 0.0028260285 2.3509886e-38
-0.0090757757 -0.14835624 0.0058596665 2.3509886e-38
-0.0071094409 -0.1472816 0.0098012025 2.3509886e-38
-0.0051710345 -0.14646508 0.012796097 2.3509886e-38
-0.0031894781 -0.14453618 0.019870929 2.3509886e-38
-0.0012337826 -0.14263238 0.026853614 2.3509886e-38
0.00063009188 -0.14263238 0.026853614 2.3509886e-38
0.0025177337 -0.14181106 0.029866032 2.3509886e-38
0.0043947063 -0.14099441 0.032861404 2.3509886e-38
0.0062480476 -0.14099441 0.032861404 2.3509886e-38
0.0081092212 -0.14018236 0.035839848 2.3509886e-38
0.0099608935 -0.1390769 0.039894395 2.3509886e-38
0.011801902 -0.1390769 0.039894395 2.341805e-38
0.013635181 -0.13827558 0.0428335 2.341805e-38
0.015471037 -0.13827558 0.0428335 2.3509886e-38
0.017288296 -0.13744931 0.045864038 2.3417687e-38
0.019118838 -0.13744931 0.045864038 2.3231857e-38
0.02094938 -0.13744931 0.045864038 2.184892e-38
0.022779923 -0.13744931 0.045864038 1.2444604e-38
0.024610465 -0.13744931 0.045864038 3.6734198e-40
0.027126128 -0.14998297 -0.00010687765 3.6734198e-40
0.029037273 -0.14998297 -0.00010687765 3.6734198e-40
0.030894421 -0.14918335 0.0028260285 2.7550649e-40
0.032800421 -0.14918335 0.0028260285 9.1835496e-41
0.03463994 -0.14835624 0.0058596665 9.1835496e-41
0.03654062 -0.14835624 0.0058596665 0
0.03826496 -0.14646508 0.012796097 2.8025969e-45
0.040044628 -0.14537306 0.016801409 3.5873241e-43
0.041837327 -0.14453618 0.019870929 3.5873241e-43
0.043623254 -0.14373477 0.022810273 8.2939493e-40
0.045494217 -0.14373477 0.022810273 4.5919009e-40
0.047226939 -0.14263238 0.026853614 2.7550929e-40
0.048982535 -0.14181106 0.029866032 9.7723514e-39
0.050728213 -0.14099441 0.032861404 1.7424586e-38
0.052581552 -0.14099441 0.032861404 1.6685251e-38
-0.0071094409 -0.14917539 0.0098012025 2.3509886e-38
-0.0051113442 -0.14725454 0.016801409 2.3509886e-38
-0.0031894781 -0.1464123 0.019870929 2.3509886e-38
-0.0012337826 -0.14449625 0.026853614 2.3509886e-38
0.00063009188 -0.14449625 0.026853614 2.3509886e-38
0.0025177337 -0.14366965 0.029866032 2.3509886e-38
0.0043947063 -0.14284773 0.032861404 2.3509886e-38
0.0062480476 -0.14284773 0.032861404 2.3509886e-38
0.0081092212 -0.14203046 0.035839848 2.3509886e-38
0.0099608935 -0.14091791 0.039894395 2.3509886e-38
0.011801902 -0.14091791 0.039894395 2.341805e-38
0.013635181 -0.14011143 0.0428335 2.3141466e-38
0.015471037 -0.14011143 0.0428335 2.3509886e-38
0.017288296 -0.13927986 0.045864038 2.3417687e-38
0.019118838 -0.13927986 0.045864038 2.3231857e-38
0.020920325 -0.13845308 0.048877172 1.9175246e-38
0.022745583 -0.13845308 0.048877172 8.2036048e-39
0.024570841 -0.13845308 0.048877172 3.6734198e-40
0.03826496 -0.14835359 0.012796097 2.8025969e-45
0.040153481 -0.14835359 0.012796097 3.5873241e-43
0.041837327 -0.1464123 0.019870929 3.5873241e-43
0.043623254 -0.14560573 0.022810273 4.6097535e-40
0.045494217 -0.14560573 0.022810273 9.185091e-41
0.047226939 -0.14449625 0.026853614 9.1842503e-41
0.048982535 -0.14366965 0.029866032 3.5952414e-39
0.050728213 -0.14284773 0.032861404 1.6779215e-38
0.052581552 -0.14284773 0.032861404 1.8621362e-38
-0.0051113442 -0.14913605 0.016801409 2.3509886e-38
-0.0031508282 -0.14747669 0.022810273 2.3509886e-38
-0.0012337826 -0.14636014 0.026853614 2.3509886e-38
0.00063009188 -0.14636014 0.026853614 2.3509886e-38
0.0025177337 -0.14552824 0.029866032 2.3509886e-38
0.0043947063 -0.14470108 0.032861404 2.3509886e-38
0.0062611029 -0.14387859 0.035839848 2.3509886e-38
0.0081092212 -0.14387859 0.035839848 2.3509886e-38
0.0099608935 -0.14275892 0.039894395 2.3509886e-38
0.011801902 -0.14275892 0.039894395 2.341805e-38
