# .PCD v0.7 - Point Cloud Data file format
VERSION 0.7
FIELDS x y z rgb
SIZE 4 4 4 4
TYPE F F F F
COUNT 1 1 1 1
WIDTH 940
HEIGHT 1
VIEWPOINT 0 0 0 1 0 0 0
POINTS 940
DATA ascii
0.019959632 -0.099835888 0.056930952 2.350988e-38
0.021765135 -0.10057923 0.05389183 2.3509873e-38
0.024252091 -0.11379938 -0.00015837699 1.7609703e-38
0.026123054 -0.11379938 -0.00015837699 1.687249e-38
0.027926669 -0.11281042 0.0038849637 1.797919e-38
0.029790543 -0.11281042 0.0038849637 1.8992261e-38
0.031593673 -0.11207359 0.0068973824 1.9084459e-38
0.033321343 -0.11061247 0.012871198 1.9176657e-38
0.035073489 -0.10962076 0.016925745 1.9821672e-38
0.036839776 -0.10890187 0.01986485 2.0097909e-38
0.03859327 -0.10816063 0.022895388 2.0005715e-38
0.040336646 -0.10742365 0.025908522 2.0558887e-38
0.042069986 -0.10669093 0.028904252 2.1665235e-38
0.043762445 -0.10572915 0.032836489 2.1758152e-38
0.045575552 -0.10572915 0.032836489 2.3049612e-38
0.047173008 -0.10426159 0.038836531 2.3418042e-38
0.048975594 -0.10426159 0.038836531 2.249645e-38
0.050778188 -0.10426159 0.038836531 2.3050347e-38
0.052580781 -0.10426159 0.038836531 2.3234379e-38
0.054383375 -0.10426159 0.038836531 1.9270329e-38
-0.066809125 -0.13390581 -0.074183054 2.2775202e-38
-0.064808376 -0.13390581 -0.074183054 2.2958873e-38
-0.062807627 -0.13390581 -0.074183054 2.3234379e-38
-0.060806863 -0.13390581 -0.074183054 2.2957431e-38
-0.058619447 -0.13314565 -0.071097203 2.3509886e-38
-0.05639144 -0.13216983 -0.067135997 2.3416971e-38
-0.054403044 -0.13216983 -0.067135997 2.3509527e-38
-0.052190401 -0.1311696 -0.063075729 2.3509886e-38
-0.05020912 -0.1311696 -0.063075729 2.3509886e-38
-0.04787039 -0.12946714 -0.056164809 2.3509886e-38
-0.045702234 -0.12848614 -0.052182622 2.3509886e-38
-0.043543473 -0.1274818 -0.048105545 2.3509886e-38
-0.041451536 -0.12675591 -0.04515893 2.3509886e-38
-0.039186142 -0.12501745 -0.038101859 2.3509886e-38
-0.037077881 -0.12403814 -0.034126468 2.3509886e-38
-0.034984745 -0.12306587 -0.030179687 2.3509886e-38
-0.033061139 -0.12306587 -0.030179687 2.3509886e-38
-0.031021072 -0.12230472 -0.027089901 2.3509886e-38
-0.02885318 -0.12059332 -0.020142622 2.3509886e-38
-0.026843457 -0.119846 -0.017108984 2.3509886e-38
-0.024814924 -0.11887501 -0.013167448 2.3509886e-38
-0.022706361 -0.11715056 -0.0061672404 2.3509886e-38
-0.020736063 -0.11639442 -0.0030977204 2.3509886e-38
-0.018859947 -0.11639442 -0.0030977204 2.3509886e-38
-0.016806306 -0.11467429 0.0038849637 2.3509886e-38
-0.014942432 -0.11467429 0.0038849637 2.3509886e-38
-0.013012538 -0.11393218 0.0068973824 2.3509886e-38
-0.011093544 -0.1131943 0.0098927543 2.3509886e-38
-0.0091853719 -0.11246057 0.012871198 2.3509886e-38
-0.0073372554 -0.11246057 0.012871198 2.3509886e-38
-0.005384909 -0.11073773 0.01986485 2.3509886e-38
-0.003509203 -0.10999118 0.022895388 2.3509886e-38
-0.0016786586 -0.10999118 0.022895388 2.3509886e-38
0.00020982884 -0.10851096 0.028904252 2.3509886e-38
0.0020608623 -0.10754226 0.032836489 2.3509886e-38
0.0038927607 -0.10678811 0.035897903 2.3509886e-38
0.0057133865 -0.10606419 0.038836531 2.3509886e-38
0.0075239372 -0.1053188 0.041862421 2.3509886e-38
0.0093238596 -0.10457774 0.044870667 2.3509886e-38
0.011113251 -0.10384102 0.047861271 2.3509886e-38
0.0128922 -0.1031086 0.05083435 2.3141106e-38
0.014660355 -0.10235542 0.05389183 2.3509886e-38
0.0164179 -0.10160676 0.056930952 2.3233302e-38
0.018165722 -0.1008873 0.05985146 2.3233299e-38
0.019931469 -0.1008873 0.05985146 2.350988e-38
0.021697216 -0.1008873 0.05985146 2.3509873e-38
0.024290744 -0.11639442 -0.0030977204 1.724092e-38
0.026123054 -0.11567034 -0.00015837699 1.7149077e-38
0.027994016 -0.11567034 -0.00015837699 1.8163582e-38
0.029790543 -0.11467429 0.0038849637 1.8992261e-38
0.031593673 -0.11393218 0.0068973824 1.8992263e-38
0.033386618 -0.1131943 0.0098927543 1.9176657e-38
0.03516946 -0.11246057 0.012871198 1.9913868e-38
0.036839776 -0.11073773 0.01986485 2.0558887e-38
0.03859327 -0.10999118 0.022895388 2.0558888e-38
0.040336646 -0.10924892 0.025908522 2.0190106e-38
0.042069986 -0.10851096 0.028904252 2.1941823e-38
0.043889992 -0.10851096 0.028904252 2.185035e-38
0.045575552 -0.10754226 0.032836489 2.2772669e-38
0.047278628 -0.10678811 0.035897903 2.350988e-38
0.048975594 -0.10606419 0.038836531 2.2680841e-38
0.050778188 -0.10606419 0.038836531 2.277376e-38
0.052456103 -0.1053188 0.041862421 2.3050349e-38
0.054253392 -0.1053188 0.041862421 2.1575217e-38
0.056050681 -0.1053188 0.041862421 6.6395245e-39
0.057847962 -0.1053188 0.041862421 7.5607577e-39
0.05964525 -0.1053188 0.041862421 8.1139287e-39
-0.069087647 -0.1369016 -0.078193732 5.9037601e-39
-0.066809125 -0.13590656 -0.074183054 2.2958873e-38
-0.064808376 -0.13590656 -0.074183054 2.2682286e-38
-0.062807627 -0.13590656 -0.074183054 2.3234379e-38
-0.060806863 -0.13590656 -0.074183054 2.3049626e-38
-0.058619447 -0.13514097 -0.071097203 2.3325494e-38
-0.05639144 -0.13415821 -0.067135997 2.3509527e-38
-0.054403044 -0.13415821 -0.067135997 2.3509527e-38
-0.052190401 -0.13315089 -0.063075729 2.3509527e-38
-0.050000258 -0.1321819 -0.059170075 2.3509886e-38
-0.04787039 -0.1314363 -0.056164809 2.3509886e-38
-0.045702234 -0.13044833 -0.052182622 2.3509886e-38
-0.043543473 -0.12943684 -0.048105545 2.3509886e-38
-0.041451536 -0.12870578 -0.04515893 2.3509886e-38
-0.039186142 -0.12695493 -0.038101859 2.3509886e-38
-0.037077881 -0.12596865 -0.034126468 2.3509886e-38
-0.034984745 -0.12498946 -0.030179687 2.3509886e-38
-0.032939248 -0.12422292 -0.027089901 2.3509886e-38
-0.030869743 -0.12322696 -0.023075528 2.3509886e-38
-0.02885318 -0.1224993 -0.020142622 2.3509886e-38
-0.026708698 -0.1207688 -0.013167448 2.3509886e-38
-0.02471778 -0.12002577 -0.010172553 2.3509886e-38
-0.022612179 -0.11827053 -0.0030977204 2.3509886e-38
-0.020651026 -0.1175413 -0.00015837699 2.3509886e-38
-0.018670181 -0.11653815 0.0038849637 2.3509886e-38
-0.016806306 -0.11653815 0.0038849637 2.3509886e-38
-0.01487113 -0.11579077 0.0068973824 2.3509886e-38
-0.012946887 -0.11504765 0.0098927543 2.3509886e-38
-0.011033492 -0.1143087 0.012871198 2.3509886e-38
-0.0091853719 -0.1143087 0.012871198 2.3509886e-38
-0.0072697196 -0.11330278 0.016925745 2.3509886e-38
-0.005384909 -0.11257361 0.01986485 2.3509886e-38
-0.003509203 -0.11182173 0.022895388 2.3509886e-38
-0.0016443189 -0.11107419 0.025908522 2.3509886e-38
0.00020982884 -0.11033095 0.028904252 2.3509886e-38
0.0020608623 -0.10935538 0.032836489 2.3509886e-38
0.0038927607 -0.10859586 0.035897903 2.3509886e-38
0.0057133865 -0.10786678 0.038836531 2.3509886e-38
0.0075239372 -0.10711606 0.041862421 2.3509886e-38
0.0093238596 -0.10636975 0.044870667 2.3509886e-38
0.011110645 -0.10489015 0.05083435 2.3509886e-38
0.012876166 -0.10337763 0.056930952 2.3325497e-38
0.014647033 -0.10337763 0.056930952 2.3509886e-38
0.016399978 -0.10265306 0.05985146 2.3048907e-38
0.018142026 -0.10190789 0.062854938 2.3509886e-38
0.019902505 -0.10190789 0.062854938 2.3509879e-38
0.021697216 -0.10265306 0.05985146 2.3048893e-38
0.024290744 -0.11827053 -0.0030977204 1.7333113e-38
0.026123054 -0.1175413 -0.00015837699 1.7333468e-38
0.027994016 -0.1175413 -0.00015837699 1.8071386e-38
0.029790543 -0.11653815 0.0038849637 1.8715674e-38
0.031593673 -0.11579077 0.0068973824 1.8623481e-38
0.033386618 -0.11504765 0.0098927543 1.8992266e-38
0.03516946 -0.1143087 0.012871198 2.0006064e-38
0.036914498 -0.11330278 0.016925745 2.0743278e-38
0.038675632 -0.11257361 0.01986485 2.074328e-38
0.040336646 -0.11107419 0.025908522 2.0190106e-38
0.042161904 -0.11107419 0.025908522 2.1941467e-38
0.043889992 -0.11033095 0.028904252 2.212694e-38
0.045709997 -0.11033095 0.028904252 2.3141455e-38
0.047388665 -0.10935538 0.032836489 2.350988e-38
0.048975594 -0.10786678 0.038836531 2.332621e-38
0.050778188 -0.10786678 0.038836531 2.3234379e-38
0.052456103 -0.10711606 0.041862421 2.2865958e-38
0.054253392 -0.10711606 0.041862421 2.2589368e-38
0.056050681 -0.10711606 0.041862421 7.8384236e-39
0.057847962 -0.10711606 0.041862421 7.5607549e-39
0.05964525 -0.10711606 0.041862421 7.376721e-39
0.061442539 -0.10711606 0.041862421 7.0068567e-39
-0.071372963 -0.13988586 -0.082102008 6.9179092e-39
-0.069087647 -0.13890938 -0.078193732 7.5632815e-39
-0.067079864 -0.13890938 -0.078193732 2.2958873e-38
-0.064808376 -0.13790731 -0.074183054 2.2866677e-38
-0.062807627 -0.13790731 -0.074183054 2.3234379e-38
-0.060806863 -0.13790731 -0.074183054 2.341805e-38
-0.058619447 -0.13713633 -0.071097203 2.3417691e-38
-0.05639144 -0.13614662 -0.067135997 2.3508807e-38
-0.054171674 -0.13513215 -0.063075729 2.3509527e-38
-0.051974691 -0.13415633 -0.059170075 2.3509527e-38
-0.049839549 -0.13340546 -0.056164809 2.3509886e-38
-0.04787039 -0.13340546 -0.056164809 2.3509886e-38
-0.045498498 -0.13139187 -0.048105545 2.3509886e-38
-0.043401398 -0.13065563 -0.04515893 2.3509886e-38
-0.041123636 -0.12889244 -0.038101859 2.3509886e-38
-0.039008401 -0.12789918 -0.034126468 2.3509886e-38
-0.036908351 -0.12691309 -0.030179687 2.3509886e-38
-0.034857437 -0.12614109 -0.027089901 2.3509886e-38
-0.032939248 -0.12614109 -0.027089901 2.3509886e-38
-0.030869743 -0.12513812 -0.023075528 2.3509886e-38
-0.028744141 -0.12364738 -0.017108984 2.3509886e-38
-0.026708698 -0.12266256 -0.013167448 2.3509886e-38
-0.02471778 -0.12191428 -0.010172553 2.3509886e-38
-0.022612179 -0.12014665 -0.0030977204 2.3509886e-38
-0.020651026 -0.11941226 -0.00015837699 2.3509886e-38
-0.018670181 -0.11840202 0.0038849637 2.3509886e-38
-0.016806306 -0.11840202 0.0038849637 2.3509886e-38
-0.014800226 -0.11690097 0.0098927543 2.3509886e-38
-0.012946887 -0.11690097 0.0098927543 2.3509886e-38
-0.011033492 -0.1161568 0.012871198 2.3509886e-38
-0.0091107283 -0.11514379 0.016925745 2.3509886e-38
-0.0072207619 -0.11440946 0.01986485 2.3509886e-38
-0.005384909 -0.11440946 0.01986485 2.3509886e-38
-0.003509203 -0.11365227 0.022895388 2.3509886e-38
-0.0016443189 -0.11289944 0.025908522 2.3509886e-38
0.00020982884 -0.11215095 0.028904252 2.3509886e-38
0.0020608623 -0.11116849 0.032836489 2.3509886e-38
0.0038927607 -0.11040358 0.035897903 2.3509886e-38
0.0057133865 -0.10966937 0.038836531 2.3509886e-38
0.0075239372 -0.10891335 0.041862421 2.3509886e-38
0.0093238596 -0.10816176 0.044870667 2.3509886e-38
0.011105299 -0.10514848 0.056930952 2.3417691e-38
0.012876166 -0.10514848 0.056930952 2.3509886e-38
0.014634231 -0.1044188 0.05985146 2.3509886e-38
0.016399978 -0.1044188 0.05985146 2.3048907e-38
0.018142026 -0.10366838 0.062854938 2.3509886e-38
0.019902505 -0.10366838 0.062854938 2.3325846e-38
0.021697216 -0.1044188 0.05985146 2.2126937e-38
0.024290744 -0.12014665 -0.0030977204 1.7240918e-38
0.026123054 -0.11941226 -0.00015837699 1.7333468e-38
0.027994016 -0.11941226 -0.00015837699 1.797919e-38
0.02986498 -0.11941226 -0.00015837699 1.8531282e-38
0.031654418 -0.11840202 0.0038849637 1.8531282e-38
0.033452269 -0.11764936 0.0068973824 1.9176657e-38
0.035239957 -0.11690097 0.0098927543 2.028265e-38
0.037017576 -0.1161568 0.012871198 2.0835474e-38
0.038755506 -0.11514379 0.016925745 2.0651084e-38
0.040423814 -0.11365227 0.022895388 2.0835119e-38
0.042161904 -0.11289944 0.025908522 2.1664883e-38
0.043889992 -0.11215095 0.028904252 2.2034744e-38
0.045709997 -0.11215095 0.028904252 2.3509879e-38
0.047388665 -0.11116849 0.032836489 2.350988e-38
0.048975594 -0.10966937 0.038836531 2.3141819e-38
0.050778188 -0.10966937 0.038836531 2.3234379e-38
0.052456103 -0.10891335 0.041862421 2.3234379e-38
0.054253392 -0.10891335 0.041862421 2.3234379e-38
0.056050681 -0.10891335 0.041862421 1.1434053e-38
0.057847962 -0.10891335 0.041862421 8.0217331e-39
0.05964525 -0.10891335 0.041862421 7.8376991e-39
0.061442539 -0.10891335 0.041862421 8.0210058e-39
0.063239828 -0.10891335 0.041862421 7.6522205e-39
-0.071372963 -0.14190049 -0.082102008 6.2732559e-39
-0.069358326 -0.14190049 -0.082102008 1.0514258e-38
-0.067079864 -0.14091717 -0.078193732 2.2958873e-38
-0.064808376 -0.13990806 -0.074183054 2.2958873e-38
-0.062807627 -0.13990806 -0.074183054 2.1944721e-38
-0.060806863 -0.13990806 -0.074183054 2.341805e-38
-0.058619447 -0.13913165 -0.071097203 2.3509886e-38
-0.05639144 -0.138135 -0.067135997 2.3048191e-38
-0.054171674 -0.13711344 -0.063075729 2.3509527e-38
-0.051974691 -0.13613077 -0.059170075 2.3509886e-38
-0.049839549 -0.13537462 -0.056164809 2.3509886e-38
-0.047664411 -0.1343727 -0.052182622 2.3509886e-38
-0.045498498 -0.13334687 -0.048105545 2.3509886e-38
-0.043401398 -0.13260551 -0.04515893 2.3509886e-38
-0.040938929 -0.12982969 -0.034126468 2.3509886e-38
-0.038831942 -0.12883668 -0.030179687 2.3509886e-38
-0.036775619 -0.12805928 -0.027089901 2.3509886e-38
-0.034692027 -0.12704925 -0.023075528 2.3509886e-38
-0.032780886 -0.12704925 -0.023075528 2.3509886e-38
-0.030759184 -0.12631132 -0.020142622 2.3509886e-38
-0.028744141 -0.12554805 -0.017108984 2.3509886e-38
-0.026708698 -0.12455635 -0.013167448 2.3509886e-38
-0.02458786 -0.12279506 -0.0061672404 2.3509886e-38
-0.022521989 -0.12128322 -0.00015837699 2.3509886e-38
-0.020651026 -0.12128322 -0.00015837699 2.3509886e-38
-0.018670181 -0.12026589 0.0038849637 2.3509886e-38
-0.016729722 -0.11950795 0.0068973824 2.3509886e-38
-0.014800226 -0.11875431 0.0098927543 2.3509886e-38
-0.012946887 -0.11875431 0.0098927543 2.3509886e-38
-0.011033492 -0.11800493 0.012871198 2.3509886e-38
-0.0091107283 -0.1169848 0.016925745 2.3509886e-38
-0.0072207619 -0.11624531 0.01986485 2.3509886e-38
-0.005384909 -0.11624531 0.01986485 2.3509886e-38
-0.003509203 -0.11548282 0.022895388 2.3509886e-38
-0.0016443189 -0.11472471 0.025908522 2.3509886e-38
0.00020982884 -0.11397095 0.028904252 2.3509886e-38
0.0020608623 -0.1129816 0.032836489 2.3509886e-38
0.003910793 -0.11147197 0.038836531 2.3509886e-38
0.0057133865 -0.11147197 0.038836531 2.3509886e-38
0.0075318478 -0.10995375 0.044870667 2.3509886e-38
0.009329088 -0.10845329 0.05083435 2.3509886e-38
0.011105299 -0.10691936 0.056930952 2.3233302e-38
0.012868484 -0.10618456 0.05985146 2.3509886e-38
0.014634231 -0.10618456 0.05985146 2.3509886e-38
0.016381547 -0.10542886 0.062854938 2.3048907e-38
0.018142026 -0.10542886 0.062854938 2.3509883e-38
0.019902505 -0.10542886 0.062854938 2.3140736e-38
0.021697216 -0.10618456 0.05985146 2.1389369e-38
0.024331108 -0.12279506 -0.0061672404 1.7240197e-38
0.02616686 -0.12202276 -0.0030977204 1.7608976e-38
0.028042976 -0.12202276 -0.0030977204 1.8162503e-38
0.02986498 -0.12128322 -0.00015837699 1.8531282e-38
0.031654418 -0.12026589 0.0038849637 1.8623478e-38
0.033518292 -0.12026589 0.0038849637 1.9453244e-38
0.035310861 -0.11950795 0.0068973824 2.0559237e-38
0.037017576 -0.11800493 0.012871198 2.0927667e-38
0.038755506 -0.1169848 0.016925745 2.0651084e-38
0.040511489 -0.11624531 0.01986485 2.1296097e-38
0.042161904 -0.11472471 0.025908522 2.1112788e-38
0.043889992 -0.11397095 0.028904252 2.1665962e-38
0.045709997 -0.11397095 0.028904252 2.3509876e-38
0.047388665 -0.1129816 0.032836489 2.3418042e-38
0.048975594 -0.11147197 0.038836531 2.2312056e-38
0.050778188 -0.11147197 0.038836531 2.332621e-38
0.052456103 -0.11071064 0.041862421 2.3234379e-38
0.054253392 -0.11071064 0.041862421 2.3234379e-38
0.056050681 -0.11071064 0.041862421 1.438396e-38
0.057708189 -0.10995375 0.044870667 8.4827168e-39
0.059500203 -0.10995375 0.044870667 8.9436894e-39
0.061292216 -0.10995375 0.044870667 9.4964988e-39
0.063239828 -0.11071064 0.041862421 7.1919612e-39
-0.073683508 -0.14494546 -0.086168714 5.0754316e-39
-0.071661733 -0.14494546 -0.086168714 7.6569092e-39
-0.069358326 -0.14391513 -0.082102008 1.3925856e-38
-0.066809125 -0.14190884 -0.074183054 2.2683365e-38
-0.064808376 -0.14190884 -0.074183054 2.2867037e-38
-0.062807627 -0.14190884 -0.074183054 2.2406778e-38
-0.060614802 -0.14112701 -0.071097203 2.3234379e-38
-0.058379836 -0.14012341 -0.067135997 2.3325856e-38
-0.056152962 -0.13909473 -0.063075729 2.3509527e-38
-0.054171674 -0.13909473 -0.063075729 2.3416974e-38
-0.051808707 -0.13734378 -0.056164809 2.3509886e-38
-0.049626596 -0.13633488 -0.052182622 2.3509886e-38
-0.047664411 -0.13633488 -0.052182622 2.3509886e-38
-0.045498498 -0.1353019 -0.048105545 2.3509886e-38
-0.04306113 -0.13276742 -0.038101859 2.3509886e-38
-0.040938929 -0.13176022 -0.034126468 2.3509886e-38
-0.038831942 -0.13076027 -0.030179687 2.3509886e-38
-0.036775619 -0.12997745 -0.027089901 2.3509886e-38
-0.034692027 -0.12896039 -0.023075528 2.3509886e-38
-0.032780886 -0.12896039 -0.023075528 2.3509886e-38
-0.030759184 -0.12821732 -0.020142622 2.3509886e-38
-0.028744141 -0.12744872 -0.017108984 2.3509886e-38
-0.026708698 -0.12645011 -0.013167448 2.3509886e-38
-0.024488294 -0.12389888 -0.0030977204 2.3509886e-38
-0.022521989 -0.12315418 -0.00015837699 2.3509886e-38
-0.020534055 -0.12212978 0.0038849637 2.3509886e-38
-0.018670181 -0.12212978 0.0038849637 2.3509886e-38
-0.016729722 -0.12136655 0.0068973824 2.3509886e-38
-0.014800226 -0.12060766 0.0098927543 2.3509886e-38
-0.012946887 -0.12060766 0.0098927543 2.3509886e-38
-0.011033492 -0.11985306 0.012871198 2.3509886e-38
-0.0091107283 -0.11882581 0.016925745 2.3509886e-38
-0.0072207619 -0.11808117 0.01986485 2.3509886e-38
-0.0053397436 -0.11731337 0.022895388 2.3509886e-38
-0.0034695771 -0.11654995 0.025908522 2.3509886e-38
-0.0016443189 -0.11654995 0.025908522 2.3509886e-38
0.00020982884 -0.11579098 0.028904252 2.3509886e-38
0.0020608623 -0.11479472 0.032836489 2.3509886e-38
0.003910793 -0.11327456 0.038836531 2.3509886e-38
0.0057133865 -0.11327456 0.038836531 2.3509886e-38
0.0075397138 -0.1109881 0.047861271 2.3509886e-38
0.0093317684 -0.10946019 0.05389183 2.3509886e-38
0.01110274 -0.10795029 0.05985146 2.341805e-38
0.012868484 -0.10795029 0.05985146 2.341805e-38
0.014634231 -0.10795029 0.05985146 2.3509886e-38
0.016381547 -0.10718934 0.062854938 2.3509883e-38
0.018142026 -0.10718934 0.062854938 2.3509879e-38
0.019902505 -0.10718934 0.062854938 2.0650728e-38
0.021662986 -0.10718934 0.062854938 1.8345473e-38
0.023423465 -0.10718934 0.062854938 1.7147283e-38
0.02616686 -0.12389888 -0.0030977204 1.7885202e-38
0.028042976 -0.12389888 -0.0030977204 1.8622762e-38
0.02986498 -0.12315418 -0.00015837699 1.8714958e-38
0.031654418 -0.12212978 0.0038849637 1.8714958e-38
0.033518292 -0.12212978 0.0038849637 1.9361049e-38
0.035310861 -0.12136655 0.0068973824 1.9729475e-38
0.0370933 -0.12060766 0.0098927543 2.0099338e-38
0.038865697 -0.11985306 0.012871198 2.1205333e-38
0.040511489 -0.11808117 0.01986485 2.1481568e-38
0.042161904 -0.11654995 0.025908522 2.1297539e-38
0.043987162 -0.11654995 0.025908522 2.1943265e-38
0.045709997 -0.11579098 0.028904252 2.3141805e-38
0.047388665 -0.11479472 0.032836489 2.3509869e-38
0.048975594 -0.11327456 0.038836531 2.3418035e-38
0.050778188 -0.11327456 0.038836531 2.3234369e-38
0.052456103 -0.11250792 0.041862421 2.3418047e-38
0.054253392 -0.11250792 0.041862421 2.2957078e-38
0.056050681 -0.11250792 0.041862421 1.7148398e-38
0.057708189 -0.11174576 0.044870667 1.1433348e-38
0.059500203 -0.11174576 0.044870667 8.1146602e-39
0.061442539 -0.11250792 0.041862421 9.5890616e-39
0.063239828 -0.11250792 0.041862421 8.5752614e-39
0.065037109 -0.11250792 0.041862421 8.0224393e-39
-0.0733876 -0.14592977 -0.082102008 6.6427573e-39
-0.071372963 -0.14592977 -0.082102008 1.3004976e-38
-0.069087647 -0.14493273 -0.078193732 1.7338173e-38
-0.066809125 -0.14390959 -0.074183054 2.2775202e-38
-0.064808376 -0.14390959 -0.074183054 2.2867037e-38
-0.062807627 -0.14390959 -0.074183054 2.2683365e-38
-0.060614802 -0.14312236 -0.071097203 2.3234379e-38
-0.058379836 -0.14211179 -0.067135997 2.2864882e-38
-0.056152962 -0.14107598 -0.063075729 2.3509527e-38
-0.053949125 -0.14007963 -0.059170075 2.3416974e-38
-0.051808707 -0.13931294 -0.056164809 2.3509886e-38
-0.049626596 -0.13829704 -0.052182622 2.3509886e-38
-0.04745353 -0.13725694 -0.048105545 2.3509886e-38
-0.044998623 -0.1347049 -0.038101859 2.3509886e-38
-0.04306113 -0.1347049 -0.038101859 2.3509886e-38
-0.040938929 -0.13369073 -0.034126468 2.3509886e-38
-0.039008401 -0.13369073 -0.034126468 2.3509886e-38
-0.036775619 -0.13189565 -0.027089901 2.3509886e-38
-0.034692027 -0.13087155 -0.023075528 2.3509886e-38
-0.032780886 -0.13087155 -0.023075528 2.3509886e-38
-0.030759184 -0.13012333 -0.020142622 2.3509886e-38
-0.028744141 -0.12934943 -0.017108984 2.3509886e-38
-0.026606301 -0.12757985 -0.010172553 2.3509886e-38
-0.024488294 -0.12577499 -0.0030977204 2.3509886e-38
-0.022521989 -0.12502514 -0.00015837699 2.3509886e-38
-0.020534055 -0.12399365 0.0038849637 2.3509886e-38
-0.018670181 -0.12399365 0.0038849637 2.3509886e-38
-0.016806306 -0.12399365 0.0038849637 2.3509886e-38
-0.01487113 -0.12322514 0.0068973824 2.3509886e-38
-0.012946887 -0.12246101 0.0098927543 2.3509886e-38
-0.011033492 -0.12170117 0.012871198 2.3509886e-38
-0.0091107283 -0.12066682 0.016925745 2.3509886e-38
-0.0072207619 -0.11991702 0.01986485 2.3509886e-38
-0.0053397436 -0.11914389 0.022895388 2.3509886e-38
-0.0034695771 -0.11837523 0.025908522 2.3509886e-38
-0.0016443189 -0.11837523 0.025908522 2.3509886e-38
0.00020982884 -0.11761098 0.028904252 2.3509886e-38
0.0020608623 -0.11660783 0.032836489 2.3509886e-38
0.003910793 -0.11507715 0.038836531 2.3509886e-38
0.0057266485 -0.11430521 0.041862421 2.3509886e-38
0.0075397138 -0.11277486 0.047861271 2.3509886e-38
0.0093317684 -0.11123641 0.05389183 2.3509886e-38
0.01110274 -0.10971604 0.05985146 2.341805e-38
0.012868484 -0.10971604 0.05985146 2.304927e-38
0.014634231 -0.10971604 0.05985146 2.3509886e-38
0.016381547 -0.10894983 0.062854938 2.3325492e-38
0.018142026 -0.10894983 0.062854938 2.3509516e-38
0.019902505 -0.10894983 0.062854938 1.8807171e-38
0.021662986 -0.10894983 0.062854938 1.7516068e-38
0.023423465 -0.10894983 0.062854938 1.714656e-38
0.026272299 -0.12757985 -0.010172553 1.7976319e-38
0.028094105 -0.12655805 -0.0061672404 1.8713881e-38
0.029919093 -0.12577499 -0.0030977204 1.8622762e-38
0.031735942 -0.12502514 -0.00015837699 1.8714958e-38
0.033518292 -0.12399365 0.0038849637 1.9361049e-38
0.035310861 -0.12322514 0.0068973824 1.9822027e-38
0.037169453 -0.12322514 0.0068973824 2.0191532e-38
0.03894664 -0.12246101 0.0098927543 2.1297525e-38
0.040596515 -0.12066682 0.016925745 2.1390091e-38
0.042254359 -0.11914389 0.022895388 2.1297539e-38
0.043987162 -0.11837523 0.025908522 2.1943262e-38
0.045812421 -0.11837523 0.025908522 2.3141804e-38
0.047530003 -0.11761098 0.028904252 2.3509866e-38
0.048975594 -0.11507715 0.038836531 2.3418032e-38
0.050778188 -0.11507715 0.038836531 2.3234367e-38
0.052456103 -0.11430521 0.041862421 2.3418047e-38
0.054253392 -0.11430521 0.041862421 2.341805e-38
0.056050681 -0.11430521 0.041862421 2.0006466e-38
0.057708189 -0.11353777 0.044870667 1.3922277e-38
0.059500203 -0.11353777 0.044870667 8.9440663e-39
0.061292216 -0.11353777 0.044870667 8.4834399e-39
0.063239828 -0.11430521 0.041862421 8.3915932e-39
0.065037109 -0.11430521 0.041862421 7.4703445e-39
-0.071372963 -0.14794444 -0.082102008 1.8351602e-38
-0.069087647 -0.14694051 -0.078193732 2.1393702e-38
-0.066809125 -0.14591034 -0.074183054 2.2775202e-38
-0.064808376 -0.14591034 -0.074183054 2.2499334e-38
-0.062807627 -0.14591034 -0.074183054 2.2958873e-38
-0.060614802 -0.14511769 -0.071097203 2.3234379e-38
-0.058379836 -0.1441002 -0.067135997 2.2680488e-38
-0.056152962 -0.14305727 -0.063075729 2.3509527e-38
-0.053777866 -0.1412821 -0.056164809 2.3509527e-38
-0.051588766 -0.14025922 -0.052182622 2.3509886e-38
-0.049408562 -0.13921197 -0.048105545 2.3509886e-38
-0.047301121 -0.13845511 -0.04515893 2.3509886e-38
-0.044998623 -0.13664238 -0.038101859 2.3509886e-38
-0.042869449 -0.13562126 -0.034126468 2.3509886e-38
-0.040755548 -0.13460748 -0.030179687 2.3509886e-38
-0.038831942 -0.13460748 -0.030179687 2.3509886e-38
-0.036775619 -0.13381381 -0.027089901 2.3509886e-38
-0.034692027 -0.13278268 -0.023075528 2.3509886e-38
-0.032665186 -0.13202934 -0.020142622 2.3509886e-38
-0.030759184 -0.13202934 -0.020142622 2.3509886e-38
-0.028744141 -0.1312501 -0.017108984 2.3509886e-38
-0.026606301 -0.1294684 -0.010172553 2.3509886e-38
-0.024488294 -0.12765111 -0.0030977204 2.3509886e-38
-0.022521989 -0.1268961 -0.00015837699 2.3509886e-38
-0.020534055 -0.12585752 0.0038849637 2.3509886e-38
-0.018670181 -0.12585752 0.0038849637 2.3509886e-38
-0.016806306 -0.12585752 0.0038849637 2.3509886e-38
-0.01487113 -0.12508373 0.0068973824 2.3509886e-38
-0.012946887 -0.12431435 0.0098927543 2.3509886e-38
-0.011033492 -0.1235493 0.012871198 2.3509886e-38
-0.0091107283 -0.12250783 0.016925745 2.3509886e-38
-0.0072207619 -0.12175287 0.01986485 2.3509886e-38
-0.0053397436 -0.12097444 0.022895388 2.3509886e-38
-0.0034695771 -0.12020047 0.025908522 2.3509886e-38
-0.0016101766 -0.11943097 0.028904252 2.3509886e-38
0.00020982884 -0.11943097 0.028904252 2.3509886e-38
0.0020608623 -0.11842094 0.032836489 2.3509886e-38
0.003910793 -0.11687975 0.038836531 2.3509886e-38
0.0057266485 -0.1161025 0.041862421 2.3509886e-38
0.0075397138 -0.11456163 0.047861271 2.3509886e-38
0.0093317684 -0.1130126 0.05389183 2.3509886e-38
0.01110274 -0.11148177 0.05985146 2.341805e-38
0.012868484 -0.11148177 0.05985146 2.2957075e-38
0.014634231 -0.11148177 0.05985146 2.3509886e-38
0.016381547 -0.11071031 0.062854938 2.3325847e-38
0.018142026 -0.11071031 0.062854938 2.3509516e-38
0.019902505 -0.11071031 0.062854938 1.714765e-38
0.021662986 -0.11071031 0.062854938 1.7147283e-38
0.024514884 -0.13202934 -0.020142622 1.7239476e-38
0.026316931 -0.13023765 -0.013167448 1.7791928e-38
0.02816082 -0.1294684 -0.010172553 1.8621686e-38
0.029975602 -0.12843956 -0.0061672404 1.8530566e-38
0.031795211 -0.12765111 -0.0030977204 1.8622762e-38
0.033606909 -0.1268961 -0.00015837699 1.9361049e-38
0.035382167 -0.12585752 0.0038849637 1.9822027e-38
0.037169453 -0.12508373 0.0068973824 2.0283728e-38
0.03894664 -0.12431435 0.0098927543 2.1389721e-38
0.040713813 -0.1235493 0.012871198 2.1482287e-38
0.042347342 -0.12175287 0.01986485 2.1297539e-38
0.044084899 -0.12097444 0.022895388 2.1943265e-38
0.045812421 -0.12020047 0.025908522 2.3141804e-38
0.047530003 -0.11943097 0.028904252 2.3509869e-38
0.048975594 -0.11687975 0.038836531 2.3418033e-38
0.050778188 -0.11687975 0.038836531 2.3142171e-38
0.052456103 -0.1161025 0.041862421 2.3418047e-38
0.054253392 -0.1161025 0.041862421 2.341805e-38
0.056050681 -0.1161025 0.041862421 2.2587941e-38
0.057708189 -0.11532979 0.044870667 1.6780698e-38
0.059500203 -0.11532979 0.044870667 9.1284548e-39
0.061292216 -0.11532979 0.044870667 7.5614808e-39
0.06308423 -0.11532979 0.044870667 8.4841447e-39
-0.069358326 -0.14995907 -0.082102008 2.2775202e-38
-0.067079864 -0.14894833 -0.078193732 2.2867037e-38
-0.064808376 -0.14791109 -0.074183054 2.2406778e-38
-0.062807627 -0.14791109 -0.074183054 2.3142544e-38
-0.060614802 -0.14711304 -0.071097203 2.341805e-38
-0.058134235 -0.14503856 -0.063075729 2.304891e-38
-0.055923544 -0.14402847 -0.059170075 2.3509527e-38
-0.053777866 -0.14325126 -0.056164809 2.3509527e-38
-0.051363595 -0.141167 -0.048105545 2.3509886e-38
-0.049408562 -0.141167 -0.048105545 2.3509886e-38
-0.047301121 -0.14040495 -0.04515893 2.3509886e-38
-0.044998623 -0.13857989 -0.038101859 2.3509886e-38
-0.042869449 -0.1375518 -0.034126468 2.3509886e-38
-0.040755548 -0.13653107 -0.030179687 2.3509886e-38
-0.038831942 -0.13653107 -0.030179687 2.3509886e-38
-0.036603175 -0.13469382 -0.023075528 2.3509886e-38
-0.034571186 -0.13393532 -0.020142622 2.3509886e-38
-0.032665186 -0.13393532 -0.020142622 2.3509886e-38
-0.030644825 -0.13315077 -0.017108984 2.3509886e-38
-0.028744141 -0.13315077 -0.017108984 2.3509886e-38
-0.026606301 -0.13135691 -0.010172553 2.3509886e-38
-0.024488294 -0.12952723 -0.0030977204 2.3509886e-38
-0.022521989 -0.12876706 -0.00015837699 2.3509886e-38
-0.020534055 -0.12772138 0.0038849637 2.3509886e-38
-0.018670181 -0.12772138 0.0038849637 2.3509886e-38
-0.016806306 -0.12772138 0.0038849637 2.3509886e-38
-0.01487113 -0.12694232 0.0068973824 2.3509886e-38
-0.012946887 -0.12616767 0.0098927543 2.3509886e-38
-0.011033492 -0.1253974 0.012871198 2.3509886e-38
-0.0091107283 -0.12434883 0.016925745 2.3509886e-38
-0.0071702842 -0.12280498 0.022895388 2.3509886e-38
-0.0052948389 -0.12202574 0.025908522 2.3509886e-38
-0.0034695771 -0.12202574 0.025908522 2.3509886e-38
-0.0016101766 -0.121251 0.028904252 2.3509886e-38
0.00020982884 -0.121251 0.028904252 2.3509886e-38
0.0020608623 -0.12023406 0.032836489 2.3509886e-38
0.003910793 -0.11868234 0.038836531 2.3509886e-38
0.0057266485 -0.11789979 0.041862421 2.3509886e-38
0.0075397138 -0.1163484 0.047861271 2.3509886e-38
0.009329088 -0.1155795 0.05083435 2.3509886e-38
0.01110274 -0.11324753 0.05985146 2.341805e-38
0.012868484 -0.11324753 0.05985146 2.2957075e-38
0.014634231 -0.11324753 0.05985146 2.3509886e-38
0.016381547 -0.11247079 0.062854938 2.350988e-38
0.018142026 -0.11247079 0.062854938 2.3509876e-38
0.019902505 -0.11247079 0.062854938 1.6133498e-38
0.021662986 -0.11247079 0.062854938 1.7055087e-38
0.024514884 -0.13393532 -0.020142622 1.7332029e-38
0.026316931 -0.13213144 -0.013167448 1.7607534e-38
0.028210705 -0.13213144 -0.013167448 1.8345099e-38
0.030049341 -0.13135691 -0.010172553 1.8346175e-38
0.031857103 -0.13032107 -0.0061672404 1.8530566e-38
0.033671327 -0.12952723 -0.0030977204 1.9268853e-38
0.035547443 -0.12952723 -0.0030977204 1.9822027e-38
0.037246037 -0.12772138 0.0038849637 2.0283728e-38
0.039028045 -0.12694232 0.0068973824 2.1481917e-38
0.040713813 -0.1253974 0.012871198 2.1482287e-38
0.042347342 -0.12358873 0.01986485 2.1389735e-38
0.044084899 -0.12280498 0.022895388 2.1943265e-38
0.045812421 -0.12202574 0.025908522 2.3141805e-38
0.047530003 -0.121251 0.028904252 2.350987e-38
0.049201779 -0.12023406 0.032836489 2.3418033e-38
0.050778188 -0.11868234 0.038836531 2.3142174e-38
0.052456103 -0.11789979 0.041862421 2.3418047e-38
0.054253392 -0.11789979 0.041862421 2.3141467e-38
0.056050681 -0.11789979 0.041862421 2.3417691e-38
0.057708189 -0.1171218 0.044870667 1.9546564e-38
0.059500203 -0.1171218 0.044870667 9.0362591e-39
0.061292216 -0.1171218 0.044870667 7.746228e-39
0.063239828 -0.11789979 0.041862421 8.9451229e-39
0.065037109 -0.11789979 0.041862421 8.9454746e-39
-0.064605482 -0.14910837 -0.071097203 2.295887e-38
-0.062610142 -0.14910837 -0.071097203 2.3234379e-38
-0.060368232 -0.148077 -0.067135997 2.3141466e-38
-0.058134235 -0.14701982 -0.063075729 2.3417691e-38
-0.055923544 -0.1460029 -0.059170075 2.3509527e-38
-0.053777866 -0.14522041 -0.056164809 2.3416974e-38
-0.051363595 -0.14312203 -0.048105545 2.3509886e-38
-0.049408562 -0.14312203 -0.048105545 2.3509886e-38
-0.047301121 -0.14235483 -0.04515893 2.3509886e-38
-0.044998623 -0.14051737 -0.038101859 2.3509886e-38
-0.042869449 -0.1394823 -0.034126468 2.3509886e-38
-0.040755548 -0.13845469 -0.030179687 2.3509886e-38
-0.038831942 -0.13845469 -0.030179687 2.3509886e-38
-0.036603175 -0.13660498 -0.023075528 2.3509886e-38
-0.034571186 -0.13584132 -0.020142622 2.3509886e-38
-0.032665186 -0.13584132 -0.020142622 2.3509886e-38
-0.030644825 -0.13505147 -0.017108984 2.3509886e-38
-0.028602468 -0.1340252 -0.013167448 2.3509886e-38
-0.026606301 -0.13324542 -0.010172553 2.3509886e-38
-0.024488294 -0.13140334 -0.0030977204 2.3509886e-38
-0.022521989 -0.13063805 -0.00015837699 2.3509886e-38
-0.020534055 -0.12958528 0.0038849637 2.3509886e-38
-0.018670181 -0.12958528 0.0038849637 2.3509886e-38
-0.016806306 -0.12958528 0.0038849637 2.3509886e-38
-0.01487113 -0.12880091 0.0068973824 2.3509886e-38
-0.012946887 -0.12802102 0.0098927543 2.3509886e-38
-0.010951737 -0.12618984 0.016925745 2.3509886e-38
-0.0090566222 -0.12542458 0.01986485 2.3509886e-38
-0.0071702842 -0.12463553 0.022895388 2.3509886e-38
-0.0052948389 -0.12385099 0.025908522 2.3509886e-38
-0.0034301821 -0.123071 0.028904252 2.3509886e-38
-0.0016101766 -0.123071 0.028904252 2.3509886e-38
0.00020982884 -0.123071 0.028904252 2.3509886e-38
0.0020608623 -0.12204717 0.032836489 2.3509886e-38
0.003910793 -0.12048493 0.038836531 2.3509886e-38
0.005739836 -0.11891381 0.044870667 2.3509886e-38
0.0075397138 -0.11813517 0.047861271 2.3509886e-38
0.009329088 -0.11736105 0.05083435 2.3509886e-38
0.011105299 -0.11577369 0.056930952 2.3325856e-38
0.012868484 -0.11501329 0.05985146 2.2773039e-38
0.014634231 -0.11501329 0.05985146 2.3509883e-38
0.016381547 -0.11423124 0.062854938 2.3418042e-38
0.018142026 -0.11423124 0.062854938 2.3509873e-38
0.019902505 -0.11423124 0.062854938 1.5672519e-38
0.022688057 -0.13765021 -0.027089901 1.6870696e-38
0.024553452 -0.13660498 -0.023075528 1.6963246e-38
0.026375674 -0.13505147 -0.017108984 1.7147635e-38
0.028210705 -0.1340252 -0.013167448 1.7977393e-38
0.030049341 -0.13324542 -0.010172553 1.8161784e-38
0.03193786 -0.13324542 -0.010172553 1.8346175e-38
0.033738598 -0.13220255 -0.0061672404 1.9084462e-38
0.035547443 -0.13140334 -0.0030977204 1.9729831e-38
0.037246037 -0.12958528 0.0038849637 2.0374845e-38
0.039028045 -0.12880091 0.0068973824 2.1389721e-38
0.040713813 -0.12724553 0.012871198 2.1390091e-38
0.042437524 -0.12618984 0.016925745 2.1297539e-38
0.044183202 -0.12542458 0.01986485 2.1943265e-38
0.04591544 -0.12463553 0.022895388 2.3141808e-38
0.047530003 -0.123071 0.028904252 2.3509873e-38
0.049201779 -0.12204717 0.032836489 2.3418036e-38
0.050778188 -0.12048493 0.038836531 2.3141816e-38
0.052456103 -0.11969708 0.041862421 2.341805e-38
0.054253392 -0.11969708 0.041862421 2.3233662e-38
0.055916183 -0.11891381 0.044870667 2.341805e-38
0.057708189 -0.11891381 0.044870667 2.1943647e-38
0.059212655 -0.11736105 0.05083435 9.5897902e-39
0.060994208 -0.11736105 0.05083435 8.7603799e-39
0.063239828 -0.11969708 0.041862421 9.3139054e-39
-0.058134235 -0.14900111 -0.063075729 2.3509527e-38
-0.055923544 -0.14797734 -0.059170075 2.3509168e-38
-0.053550951 -0.14614578 -0.052182622 2.3323699e-38
-0.051363595 -0.14507706 -0.048105545 2.3509527e-38
-0.049408562 -0.14507706 -0.048105545 2.3509886e-38
-0.047301121 -0.14430468 -0.04515893 2.3509886e-38
-0.044799969 -0.14141284 -0.034126468 2.3509886e-38
-0.042869449 -0.14141284 -0.034126468 2.3509886e-38
-0.040755548 -0.14037828 -0.030179687 2.3509886e-38
-0.038693801 -0.13956837 -0.027089901 2.3509886e-38
-0.036603175 -0.13851611 -0.023075528 2.3509886e-38
-0.034571186 -0.13774733 -0.020142622 2.3509886e-38
-0.032665186 -0.13774733 -0.020142622 2.3509886e-38
-0.030644825 -0.13695215 -0.017108984 2.3509886e-38
-0.028602468 -0.13591899 -0.013167448 2.3509886e-38
-0.026606301 -0.13513394 -0.010172553 2.3509886e-38
-0.024488294 -0.13327946 -0.0030977204 2.3509886e-38
-0.022521989 -0.13250901 -0.00015837699 2.3509886e-38
-0.020534055 -0.13144915 0.0038849637 2.3509886e-38
-0.018670181 -0.13144915 0.0038849637 2.3509886e-38
-0.016806306 -0.13144915 0.0038849637 2.3509886e-38
-0.01487113 -0.13065951 0.0068973824 2.3509886e-38
-0.012946887 -0.12987436 0.0098927543 2.3509886e-38
-0.010951737 -0.12803085 0.016925745 2.3509886e-38
-0.0090008248 -0.12646608 0.022895388 2.3509886e-38
-0.0071200971 -0.12567626 0.025908522 2.3509886e-38
-0.0052948389 -0.12567626 0.025908522 2.3509886e-38
-0.0034301821 -0.124891 0.028904252 2.3509886e-38
-0.0015653614 -0.12386028 0.032836489 2.3509886e-38
0.00024774857 -0.12386028 0.032836489 2.3509886e-38
0.002085017 -0.1230578 0.035897903 2.3509886e-38
0.003910793 -0.12228753 0.038836531 2.3509886e-38
0.005739836 -0.12070583 0.044870667 2.3509886e-38
0.0075397138 -0.11992194 0.047861271 2.3509886e-38
0.009329088 -0.11914261 0.05083435 2.3509886e-38
0.011105299 -0.11754455 0.056930952 2.3325856e-38
0.012868484 -0.11677901 0.05985146 2.341805e-38
0.014634231 -0.11677901 0.05985146 2.3417687e-38
0.016381547 -0.11599173 0.062854938 2.3509879e-38
0.018142026 -0.11599173 0.062854938 2.3417676e-38
0.02079967 -0.14037828 -0.030179687 1.5764714e-38
0.022688057 -0.13956837 -0.027089901 1.7147283e-38
0.024553452 -0.13851611 -0.023075528 1.7055442e-38
0.026375674 -0.13695215 -0.017108984 1.6871048e-38
0.028210705 -0.13591899 -0.013167448 1.7700806e-38
0.030104477 -0.13591899 -0.013167448 1.7977393e-38
0.03193786 -0.13513394 -0.010172553 1.8161784e-38
0.033826385 -0.13513394 -0.010172553 1.890007e-38
0.035620101 -0.13408406 -0.0061672404 1.954544e-38
0.037348833 -0.13250901 -0.00015837699 2.0190453e-38
0.039028045 -0.13065951 0.0068973824 2.1389001e-38
0.040799983 -0.12987436 0.0098927543 2.1389372e-38
0.042437524 -0.12803085 0.016925745 2.1205344e-38
0.044183202 -0.12726043 0.01986485 2.1943265e-38
0.04591544 -0.12646608 0.022895388 2.3141808e-38
0.047530003 -0.124891 0.028904252 2.3509873e-38
0.049201779 -0.12386028 0.032836489 2.3509876e-38
0.050778188 -0.12228753 0.038836531 2.3234012e-38
0.052456103 -0.12149437 0.041862421 2.341805e-38
0.054124169 -0.12070583 0.044870667 2.341805e-38
0.055916183 -0.12070583 0.044870667 2.341805e-38
0.057569236 -0.11992194 0.047861271 2.3050349e-38
0.059065238 -0.11834116 0.05389183 1.1249309e-38
0.060841426 -0.11834116 0.05389183 8.9447684e-39
0.062617622 -0.11834116 0.05389183 8.9451229e-39
-0.057897978 -0.14995177 -0.059170075 2.3509527e-38
-0.055747025 -0.14915876 -0.056164809 2.3508091e-38
-0.053550951 -0.14810793 -0.052182622 2.3509168e-38
-0.051363595 -0.1470321 -0.048105545 2.3509527e-38
-0.049408562 -0.1470321 -0.048105545 2.3509886e-38
-0.04693611 -0.14439236 -0.038101859 2.3509886e-38
-0.044799969 -0.14334334 -0.034126468 2.3509886e-38
-0.042679146 -0.14230187 -0.030179687 2.3509886e-38
-0.04061199 -0.14148657 -0.027089901 2.3509886e-38
-0.038693801 -0.14148657 -0.027089901 2.3509886e-38
-0.036603175 -0.14042725 -0.023075528 2.3509886e-38
-0.034571186 -0.13965334 -0.020142622 2.3509886e-38
-0.032545507 -0.13885282 -0.017108984 2.3509886e-38
-0.030644825 -0.13885282 -0.017108984 2.3509886e-38
-0.028602468 -0.13781275 -0.013167448 2.3509886e-38
-0.026469359 -0.13596557 -0.0061672404 2.3509886e-38
-0.024392953 -0.13437997 -0.00015837699 2.3509886e-38
-0.022397926 -0.13331302 0.0038849637 2.3509886e-38
-0.020534055 -0.13331302 0.0038849637 2.3509886e-38
-0.018670181 -0.13331302 0.0038849637 2.3509886e-38
-0.016729722 -0.1325181 0.0068973824 2.3509886e-38
-0.01487113 -0.1325181 0.0068973824 2.3509886e-38
-0.012946887 -0.13172771 0.0098927543 2.3509886e-38
-0.010951737 -0.12987186 0.016925745 2.3509886e-38
-0.0090008248 -0.1282966 0.022895388 2.3509886e-38
-0.0071200971 -0.1275015 0.025908522 2.3509886e-38
-0.0052501913 -0.126711 0.028904252 2.3509886e-38
-0.0033784751 -0.1256734 0.032836489 2.3509886e-38
-0.0015304741 -0.12486555 0.035897903 2.3509886e-38
0.00027727149 -0.12486555 0.035897903 2.3509886e-38
0.0021082014 -0.12409012 0.038836531 2.3509886e-38
0.003910793 -0.12409012 0.038836531 2.3509886e-38
0.0057266485 -0.12329166 0.041862421 2.3509886e-38
0.0075318478 -0.12249784 0.044870667 2.3509886e-38
0.009329088 -0.12092416 0.05083435 2.3509886e-38
0.011105299 -0.11931543 0.056930952 2.341769e-38
0.012868484 -0.11854477 0.05985146 2.3509883e-38
0.014621066 -0.11775221 0.062854938 2.3417324e-38
0.016381547 -0.11775221 0.062854938 2.3509876e-38
0.018142026 -0.11775221 0.062854938 2.2403521e-38
0.02079967 -0.14230187 -0.030179687 1.5397008e-38
0.022688057 -0.14148657 -0.027089901 1.7055803e-38
0.024553452 -0.14042725 -0.023075528 1.7147998e-38
0.026375674 -0.13885282 -0.017108984 1.6687375e-38
0.028210705 -0.13781275 -0.013167448 1.7424938e-38
0.030104477 -0.13781275 -0.013167448 1.7793001e-38
0.03193786 -0.13702248 -0.010172553 1.7977393e-38
0.033826385 -0.13702248 -0.010172553 1.8807156e-38
0.035620101 -0.13596557 -0.0061672404 1.936033e-38
0.037423559 -0.13515557 -0.0030977204 2.0097898e-38
0.039028045 -0.1325181 0.0068973824 2.120461e-38
0.040799983 -0.13172771 0.0098927543 2.1297174e-38
0.042437524 -0.12987186 0.016925745 2.1113504e-38
0.044183202 -0.12909628 0.01986485 2.1851069e-38
0.04591544 -0.1282966 0.022895388 2.3141808e-38
0.047530003 -0.126711 0.028904252 2.3509876e-38
0.049201779 -0.1256734 0.032836489 2.3509879e-38
0.050778188 -0.12409012 0.038836531 2.332621e-38
0.052456103 -0.12329166 0.041862421 2.341805e-38
0.054124169 -0.12249784 0.044870667 2.341805e-38
0.055916183 -0.12249784 0.044870667 2.304927e-38
0.057569236 -0.12170871 0.047861271 2.3234379e-38
0.059065238 -0.12011738 0.05389183 1.4199566e-38
0.060841426 -0.12011738 0.05389183 8.7603771e-39
0.062617622 -0.12011738 0.05389183 9.2217098e-39
-0.051363595 -0.14898713 -0.048105545 2.3509527e-38
-0.049408562 -0.14898713 -0.048105545 2.3509886e-38
-0.04693611 -0.14632986 -0.038101859 2.3509886e-38
-0.044799969 -0.14527388 -0.034126468 2.3509886e-38
-0.042679146 -0.14422549 -0.030179687 2.3509886e-38
-0.04061199 -0.14340474 -0.027089901 2.3509886e-38
-0.038693801 -0.14340474 -0.027089901 2.3509886e-38
-0.036603175 -0.14233841 -0.023075528 2.3509886e-38
-0.034571186 -0.14155935 -0.020142622 2.3509886e-38
-0.032545507 -0.14075352 -0.017108984 2.3509886e-38
-0.030496242 -0.13970654 -0.013167448 2.3509886e-38
-0.028494822 -0.13891099 -0.010172553 2.3509886e-38
-0.026469359 -0.13784705 -0.0061672404 2.3509886e-38
-0.024392953 -0.13625093 -0.00015837699 2.3509886e-38
-0.022397926 -0.13517688 0.0038849637 2.3509886e-38
-0.020446906 -0.13437669 0.0068973824 2.3509886e-38
-0.018588314 -0.13437669 0.0068973824 2.3509886e-38
-0.016729722 -0.13437669 0.0068973824 2.3509886e-38
-0.014800226 -0.13358103 0.0098927543 2.3509886e-38
-0.012881609 -0.13278987 0.012871198 2.3509886e-38
-0.010951737 -0.13171287 0.016925745 2.3509886e-38
-0.0089453552 -0.12932678 0.025908522 2.3509886e-38
-0.0070701968 -0.12853102 0.028904252 2.3509886e-38
-0.0052501913 -0.12853102 0.028904252 2.3509886e-38
-0.0033784751 -0.12748651 0.032836489 2.3509886e-38
-0.0015304741 -0.1266733 0.035897903 2.3509886e-38
0.00027727149 -0.1266733 0.035897903 2.3509886e-38
0.0021320749 -0.12508895 0.041862421 2.3509886e-38
0.0039293636 -0.12508895 0.041862421 2.3509886e-38
0.005739836 -0.12428986 0.044870667 2.3509886e-38
0.0075397138 -0.12349547 0.047861271 2.3509886e-38
0.009329088 -0.12270571 0.05083435 2.3509886e-38
0.011105299 -0.12108628 0.056930952 2.3048907e-38
0.012860587 -0.11951269 0.062854938 2.3509883e-38
0.014621066 -0.11951269 0.062854938 2.2956346e-38
0.016381547 -0.11951269 0.062854938 2.3417679e-38
0.018938575 -0.14632986 -0.038101859 2.1112782e-38
0.02083773 -0.14527388 -0.034126468 1.4659443e-38
0.022723271 -0.14422549 -0.030179687 1.650263e-38
0.024606239 -0.14340474 -0.027089901 1.6963962e-38
0.026375674 -0.14075352 -0.017108984 1.659518e-38
0.028276358 -0.14075352 -0.017108984 1.7332742e-38
0.030104477 -0.13970654 -0.013167448 1.7700806e-38
0.031998247 -0.13970654 -0.013167448 1.7885197e-38
0.033826385 -0.13891099 -0.010172553 1.871496e-38
0.035620101 -0.13784705 -0.0061672404 1.9268137e-38
0.037423559 -0.13703169 -0.0030977204 2.0005345e-38
0.039028045 -0.13437669 0.0068973824 2.1020218e-38
0.040799983 -0.13358103 0.0098927543 2.1205335e-38
0.042437524 -0.13171287 0.016925745 2.1021306e-38
0.044183202 -0.13093217 0.01986485 2.1758874e-38
0.046019055 -0.13093217 0.01986485 2.3141808e-38
0.047637679 -0.12932678 0.025908522 2.3509879e-38
0.049350008 -0.12853102 0.028904252 2.350988e-38
0.050778188 -0.12589271 0.038836531 2.341805e-38
0.052456103 -0.12508895 0.041862421 2.341805e-38
0.054253392 -0.12508895 0.041862421 2.341805e-38
0.055916183 -0.12428986 0.044870667 2.3141822e-38
0.057708189 -0.12428986 0.044870667 2.3234379e-38
0.059212655 -0.12270571 0.05083435 1.6965791e-38
0.060841426 -0.12189357 0.05389183 8.9447684e-39
0.062617622 -0.12189357 0.05389183 1.0419897e-38
-0.04693611 -0.14826734 -0.038101859 2.3509886e-38
-0.044602744 -0.14614908 -0.030179687 2.3509886e-38
-0.042530172 -0.14532293 -0.027089901 2.3509886e-38
-0.04061199 -0.14532293 -0.027089901 2.3509886e-38
-0.038514324 -0.14424954 -0.023075528 2.3509886e-38
-0.036477186 -0.14346536 -0.020142622 2.3509886e-38
-0.034446187 -0.1426542 -0.017108984 2.3509886e-38
-0.032390013 -0.1416003 -0.013167448 2.3509886e-38
-0.030383343 -0.14079951 -0.010172553 2.3509886e-38
-0.028350858 -0.13972856 -0.0061672404 2.3509886e-38
-0.026364414 -0.13890781 -0.0030977204 2.3509886e-38
-0.024261801 -0.13704078 0.0038849637 2.3509886e-38
-0.022397926 -0.13704078 0.0038849637 2.3509886e-38
-0.020446906 -0.13623528 0.0068973824 2.3509886e-38
-0.018588314 -0.13623528 0.0068973824 2.3509886e-38
-0.016653569 -0.13543437 0.0098927543 2.3509886e-38
-0.014729725 -0.134638 0.012871198 2.3509886e-38
-0.012881609 -0.134638 0.012871198 2.3509886e-38
-0.010892475 -0.13276802 0.01986485 2.3509886e-38
-0.0089453552 -0.13115202 0.025908522 2.3509886e-38
-0.0070701968 -0.13035102 0.028904252 2.3509886e-38
-0.0052501913 -0.13035102 0.028904252 2.3509886e-38
-0.0033382196 -0.12848105 0.035897903 2.3509886e-38
-0.0014969837 -0.12769531 0.038836531 2.3509886e-38
0.00030560978 -0.12769531 0.038836531 2.3509886e-38
0.0021320749 -0.12688623 0.041862421 2.3509886e-38
0.0039478224 -0.12608187 0.044870667 2.3509886e-38
0.0057529453 -0.12528224 0.047861271 2.3509886e-38
0.0075397138 -0.12528224 0.047861271 2.3509886e-38
0.009329088 -0.1244873 0.05083435 2.3509886e-38
0.011105299 -0.12285714 0.056930952 2.3417327e-38
0.012860587 -0.12127317 0.062854938 2.350988e-38
0.014621066 -0.12127317 0.062854938 2.3325127e-38
0.016381547 -0.12127317 0.062854938 2.0098633e-38
0.018938575 -0.14826734 -0.038101859 1.6872141e-38
0.02083773 -0.14720438 -0.034126468 1.6226766e-38
0.022723271 -0.14614908 -0.030179687 1.6319317e-38
0.024606239 -0.14532293 -0.027089901 1.6503704e-38
0.026464596 -0.14424954 -0.023075528 1.6687375e-38
0.028326888 -0.14346536 -0.020142622 1.6963959e-38
0.030104477 -0.1416003 -0.013167448 1.7332742e-38
0.031998247 -0.1416003 -0.013167448 1.779372e-38
0.033826385 -0.14079951 -0.010172553 1.8069591e-38
0.035620101 -0.13972856 -0.0061672404 1.8622768e-38
0.037501596 -0.13972856 -0.0061672404 2.0005345e-38
0.039109912 -0.13704078 0.0038849637 2.1204607e-38
0.040799983 -0.13543437 0.0098927543 2.083655e-38
0.042561933 -0.134638 0.012871198 2.1021304e-38
0.044278532 -0.13355388 0.016925745 2.1943262e-38
0.046019055 -0.13276802 0.01986485 2.2957417e-38
0.04774598 -0.13195769 0.022895388 2.3418042e-38
0.049462937 -0.13115202 0.025908522 2.3325492e-38
0.051014893 -0.1292996 0.032836489 2.3326213e-38
0.052580781 -0.12769531 0.038836531 2.341805e-38
0.054253392 -0.12688623 0.041862421 2.2773039e-38
0.055916183 -0.12608187 0.044870667 2.341805e-38
0.057708189 -0.12608187 0.044870667 2.3234379e-38
0.059212655 -0.1244873 0.05083435 1.8348725e-38
0.060841426 -0.12366976 0.05389183 1.4845289e-38
0.062617622 -0.12366976 0.05389183 1.014331e-38
0.064393818 -0.12366976 0.05389183 7.930615e-39
-0.044602744 -0.14807267 -0.030179687 2.3509886e-38
-0.042530172 -0.1472411 -0.027089901 2.3509886e-38
-0.040425465 -0.14616071 -0.023075528 2.3509886e-38
-0.038514324 -0.14616071 -0.023075528 2.3509886e-38
-0.036477186 -0.14537133 -0.020142622 2.3509886e-38
-0.034446187 -0.14455487 -0.017108984 2.3509886e-38
-0.032390013 -0.14349405 -0.013167448 2.3509886e-38
-0.030383343 -0.14268802 -0.010172553 2.3509886e-38
-0.028350858 -0.14161004 -0.0061672404 2.3509886e-38
-0.026263917 -0.13999285 -0.00015837699 2.3509886e-38
-0.024261801 -0.13890465 0.0038849637 2.3509886e-38
-0.022305494 -0.13809387 0.0068973824 2.3509886e-38
-0.020360248 -0.13728772 0.0098927543 2.3509886e-38
-0.018506909 -0.13728772 0.0098927543 2.3509886e-38
-0.016577845 -0.13648613 0.012871198 2.3509886e-38
-0.014729725 -0.13648613 0.012871198 2.3509886e-38
-0.012792746 -0.13539489 0.016925745 2.3509886e-38
-0.010831369 -0.13378824 0.022895388 2.3509886e-38
-0.0089453552 -0.13297729 0.025908522 2.3509886e-38
-0.0070701968 -0.13217102 0.028904252 2.3509886e-38
-0.0051915888 -0.13111271 0.032836489 2.3509886e-38
-0.0033382196 -0.13028879 0.035897903 2.3509886e-38
-0.0014969837 -0.1294979 0.038836531 2.3509886e-38
0.00030560978 -0.1294979 0.038836531 2.3509886e-38
0.0021320749 -0.12868352 0.041862421 2.3509886e-38
0.0039478224 -0.12787388 0.044870667 2.3509886e-38
0.0057659764 -0.12626885 0.05083435 2.3509886e-38
0.0075475331 -0.12626885 0.05083435 2.3509886e-38
0.0093344338 -0.12462802 0.056930952 2.3509886e-38
0.011100106 -0.12303366 0.062854938 2.3509523e-38
0.012860587 -0.12303366 0.062854938 2.350988e-38
0.014621066 -0.12303366 0.062854938 2.3232932e-38
0.02083773 -0.14913492 -0.034126468 1.6411157e-38
