# .PCD v0.7 - Point Cloud Data file format
VERSION 0.7
FIELDS x y z rgb
SIZE 4 4 4 4
TYPE F F F F
COUNT 1 1 1 1
WIDTH 942
HEIGHT 1
VIEWPOINT 0 0 0 1 0 0 0
POINTS 942
DATA ascii
-0.016480802 -0.10915731 -0.023879666 2.3509886e-38
-0.014518952 -0.1084419 -0.020846028 2.3509886e-38
-0.012552617 -0.1075124 -0.016904492 2.3509886e-38
-0.010614211 -0.10680611 -0.013909597 2.3509886e-38
-0.0086730178 -0.10586159 -0.009904284 2.3509886e-38
-0.006791519 -0.10586159 -0.009904284 2.3509886e-38
-0.0048804209 -0.10513772 -0.006834764 2.3509886e-38
-0.0029492099 -0.10349102 0.0001479201 2.3325494e-38
-0.0010668505 -0.10278064 0.0031603388 2.3141103e-38
0.00080487132 -0.10207425 0.0061557107 2.3233299e-38
0.0026767086 -0.10041572 0.013188701 2.3509886e-38
0.0045177173 -0.10041572 0.013188701 2.3509886e-38
0.0063534919 -0.099007934 0.019158345 2.3048907e-38
0.0081840344 -0.099007934 0.019158345 2.341769e-38
0.009988239 -0.097590908 0.025167208 2.3509886e-38
0.011808245 -0.097590908 0.025167208 2.3509886e-38
0.013597227 -0.096663594 0.029099446 2.3509886e-38
0.015352478 -0.09524864 0.035099488 2.3509886e-38
0.017120585 -0.094535068 0.038125377 2.3325131e-38
0.018838987 -0.093120396 0.044124227 2.2956349e-38
0.020581447 -0.092419267 0.047097307 2.2771958e-38
0.022312077 -0.091698244 0.050154787 2.1020241e-38
0.024088271 -0.091698244 0.050154787 1.9359638e-38
0.025926115 -0.092419267 0.047097307 3.8707717e-39
0.027707672 -0.092419267 0.047097307 2.7550649e-40
0.029489227 -0.092419267 0.047097307 1.3814897e-39
0.03134637 -0.093120396 0.044124227 6.4392467e-40
0.0333784 -0.09524864 0.035099488 4.5953621e-40
0.035180993 -0.09524864 0.035099488 9.1835496e-41
0.037073754 -0.095941633 0.03216086 1.1616647e-38
0.038881496 -0.095941633 0.03216086 1.2723e-38
-0.047254309 -0.12222783 -0.070873037 2.129863e-38
-0.045265913 -0.12222783 -0.070873037 2.2957075e-38
-0.043103099 -0.12126322 -0.066812769 2.341805e-38
-0.040960893 -0.12033533 -0.062907115 2.341805e-38
-0.038867906 -0.11962132 -0.059901852 2.341805e-38
-0.036748625 -0.11867525 -0.055919666 2.3509886e-38
-0.034786448 -0.11867525 -0.055919666 2.3509886e-38
-0.032684878 -0.11770664 -0.051842589 2.3509886e-38
-0.030634267 -0.11700659 -0.048895974 2.3509886e-38
-0.028467866 -0.11533 -0.041838903 2.3509883e-38
-0.026301188 -0.11344786 -0.03391673 2.3509883e-38
-0.024293615 -0.1127138 -0.030826945 2.3509886e-38
-0.022375433 -0.1127138 -0.030826945 2.3509886e-38
-0.02036223 -0.11176009 -0.026812572 2.3509886e-38
-0.018451085 -0.11176009 -0.026812572 2.3509886e-38
-0.016480802 -0.11106332 -0.023879666 2.3509886e-38
-0.014446391 -0.10940616 -0.016904492 2.3509886e-38
-0.012552617 -0.10940616 -0.016904492 2.341769e-38
-0.010614211 -0.10869466 -0.013909597 2.341769e-38
-0.0086730178 -0.10774307 -0.009904284 2.3509886e-38
-0.0067565385 -0.10701384 -0.006834764 2.341769e-38
-0.004852077 -0.10631551 -0.0038954206 2.3233299e-38
-0.0029492099 -0.10535492 0.0001479201 2.3509886e-38
-0.0010668505 -0.10463922 0.0031603388 2.3509886e-38
0.0008179266 -0.10322 0.0091341548 2.3509886e-38
0.0026767086 -0.10225673 0.013188701 2.3509886e-38
0.0045177173 -0.10225673 0.013188701 2.3141103e-38
0.0063534919 -0.10083848 0.019158345 2.3509886e-38
0.0081761107 -0.10012263 0.022171479 2.3509886e-38
0.009988239 -0.099410906 0.025167208 2.3509886e-38
0.011784114 -0.098476708 0.029099446 2.3325494e-38
0.013549887 -0.097051233 0.035099488 2.3141103e-38
0.015323299 -0.096332356 0.038125377 2.3325494e-38
0.017086301 -0.095617667 0.041133624 2.3509883e-38
0.018799892 -0.094200835 0.047097307 2.3509523e-38
0.020581447 -0.094200835 0.047097307 2.3509883e-38
0.022312077 -0.093474448 0.050154787 2.3232936e-38
0.024088271 -0.093474448 0.050154787 2.3509521e-38
0.025926115 -0.094200835 0.047097307 3.5941848e-39
0.027707672 -0.094200835 0.047097307 9.2051156e-40
0.029489227 -0.094200835 0.047097307 2.7550649e-40
0.03134637 -0.094907165 0.044124227 2.7550649e-40
0.0333784 -0.097051233 0.035099488 4.6061241e-40
0.035266005 -0.097749382 0.03216086 9.1835496e-41
0.037073754 -0.097749382 0.03216086 1.2538603e-38
-0.047065653 -0.12324448 -0.066812769 2.2220586e-38
-0.04508438 -0.12324448 -0.066812769 2.3233662e-38
-0.042935319 -0.12230973 -0.062907115 2.341805e-38
-0.040837072 -0.12159048 -0.059901852 2.341805e-38
-0.038867906 -0.12159048 -0.059901852 2.341805e-38
-0.036748625 -0.12063743 -0.055919666 2.3509886e-38
-0.034639902 -0.11966167 -0.051842589 2.3509886e-38
-0.032684878 -0.11966167 -0.051842589 2.3509886e-38
-0.030503666 -0.11799283 -0.04486968 2.3509886e-38
-0.028467866 -0.11726747 -0.041838903 2.3509886e-38
-0.026301188 -0.11537148 -0.03391673 2.3509886e-38
-0.024293615 -0.114632 -0.030826945 2.3509886e-38
-0.022375433 -0.114632 -0.030826945 2.3509886e-38
-0.02036223 -0.11367123 -0.026812572 2.3509886e-38
-0.018386809 -0.11296929 -0.023879666 2.3509886e-38
-0.016480802 -0.11296929 -0.023879666 2.3509886e-38
-0.014446391 -0.11129995 -0.016904492 2.3509886e-38
-0.012502732 -0.11058317 -0.013909597 2.3509886e-38
-0.010614211 -0.11058317 -0.013909597 2.3509886e-38
-0.0086730178 -0.10962458 -0.009904284 2.3509886e-38
-0.0067565385 -0.10888995 -0.006834764 2.3509886e-38
-0.004852077 -0.10818647 -0.0038954206 2.3509886e-38
-0.0029254425 -0.10649781 0.0031603388 2.3509886e-38
-0.0010484699 -0.10578094 0.0061557107 2.3509886e-38
0.0008179266 -0.1050681 0.0091341548 2.3509886e-38
0.0026767086 -0.10409774 0.013188701 2.3509886e-38
0.0045202933 -0.10339431 0.016127806 2.3509886e-38
0.0063534919 -0.10266902 0.019158345 2.3509886e-38
0.0081761107 -0.10194789 0.022171479 2.3509886e-38
0.009988239 -0.10123092 0.025167208 2.3509886e-38
0.011784114 -0.10028981 0.029099446 2.3509886e-38
0.013549887 -0.098853827 0.035099488 2.3509886e-38
0.015323299 -0.098129645 0.038125377 2.3509886e-38
0.017086301 -0.09740968 0.041133624 2.3509883e-38
0.018799892 -0.095982388 0.047097307 2.3509883e-38
0.020581447 -0.095982388 0.047097307 2.3509883e-38
0.022312077 -0.095250636 0.050154787 2.3417327e-38
0.024088271 -0.095250636 0.050154787 2.3509521e-38
0.025926115 -0.095982388 0.047097307 7.361203e-40
0.027640661 -0.095250636 0.050154787 2.7550649e-40
0.029416857 -0.095250636 0.050154787 5.5173044e-40
0.031193051 -0.095250636 0.050154787 5.5173044e-40
0.033541463 -0.10028981 0.029099446 1.8402972e-40
0.035354573 -0.10028981 0.029099446 6.4500647e-40
0.037167683 -0.10028981 0.029099446 1.3276168e-38
-0.047065653 -0.12522577 -0.066812769 2.2220586e-38
-0.04508438 -0.12522577 -0.066812769 2.341805e-38
-0.042935319 -0.12428416 -0.062907115 2.341805e-38
-0.040837072 -0.12355967 -0.059901852 2.341805e-38
-0.03871081 -0.12259962 -0.055919666 2.341805e-38
-0.036594935 -0.12161671 -0.051842589 2.3509886e-38
-0.034639902 -0.12161671 -0.051842589 2.3509886e-38
-0.032584131 -0.12090631 -0.048895974 2.3509886e-38
-0.030503666 -0.11993565 -0.04486968 2.3509886e-38
-0.028467866 -0.11920498 -0.041838903 2.3509886e-38
-0.026301188 -0.11729507 -0.03391673 2.3509886e-38
-0.024293615 -0.11655019 -0.030826945 2.3509886e-38
-0.022375433 -0.11655019 -0.030826945 2.3509886e-38
-0.02036223 -0.11558239 -0.026812572 2.3509886e-38
-0.018386809 -0.1148753 -0.023879666 2.3509886e-38
-0.016419636 -0.11414395 -0.020846028 2.3509886e-38
-0.014446391 -0.11319371 -0.016904492 2.3509886e-38
-0.012502732 -0.11247168 -0.013909597 2.3509886e-38
-0.010614211 -0.11247168 -0.013909597 2.3509886e-38
-0.0086326543 -0.11076607 -0.006834764 2.3509886e-38
-0.0067565385 -0.11076607 -0.006834764 2.3509886e-38
-0.004852077 -0.11005743 -0.0038954206 2.3509886e-38
-0.0029254425 -0.1083564 0.0031603388 2.3509886e-38
-0.0010484699 -0.10763429 0.0061557107 2.3509886e-38
0.0008179266 -0.10691623 0.0091341548 2.3509886e-38
0.0026767086 -0.10593875 0.013188701 2.3509886e-38
0.0045202933 -0.10523017 0.016127806 2.3509886e-38
0.0063534919 -0.10449956 0.019158345 2.3509886e-38
0.0081761107 -0.10377313 0.022171479 2.3509886e-38
0.009988239 -0.10305093 0.025167208 2.3509886e-38
0.011784114 -0.10210292 0.029099446 2.3509886e-38
0.013549887 -0.10065642 0.035099488 2.3509886e-38
0.015323299 -0.099926919 0.038125377 2.3509886e-38
0.017086301 -0.099201679 0.041133624 2.3509883e-38
0.018838987 -0.098480701 0.044124227 2.3509883e-38
0.020581447 -0.097763941 0.047097307 2.3509883e-38
0.022312077 -0.09702684 0.050154787 2.3325131e-38
0.023978554 -0.09559007 0.056114417 2.3509521e-38
0.0257443 -0.09559007 0.056114417 4.5953621e-40
0.027640661 -0.09702684 0.050154787 2.7550649e-40
0.029416857 -0.09702684 0.050154787 2.7550649e-40
0.031193051 -0.09702684 0.050154787 2.7550649e-40
0.033541463 -0.10210292 0.029099446 2.7550649e-40
0.035354573 -0.10210292 0.029099446 9.2159336e-40
0.037167683 -0.10210292 0.029099446 1.1709198e-38
-0.047065653 -0.12720706 -0.066812769 2.3050703e-38
-0.04508438 -0.12720706 -0.066812769 2.341805e-38
-0.042935319 -0.1262586 -0.062907115 2.341805e-38
-0.040837072 -0.12552883 -0.059901852 2.341805e-38
-0.03871081 -0.1245618 -0.055919666 2.341805e-38
-0.036594935 -0.12357174 -0.051842589 2.3509886e-38
-0.034533992 -0.12285618 -0.048895974 2.3509886e-38
-0.032446474 -0.12187846 -0.04486968 2.3509886e-38
-0.030405359 -0.12114246 -0.041838903 2.3509886e-38
-0.028345888 -0.12017711 -0.037863512 2.3509886e-38
-0.026301188 -0.11921866 -0.03391673 2.3509886e-38
-0.024293615 -0.11846836 -0.030826945 2.3509886e-38
-0.022375433 -0.11846836 -0.030826945 2.3509886e-38
-0.020292809 -0.11678131 -0.023879666 2.3509886e-38
-0.01832032 -0.11604463 -0.020846028 2.3509886e-38
-0.016340161 -0.11508749 -0.016904492 2.3509886e-38
-0.014446391 -0.11508749 -0.016904492 2.3509886e-38
-0.012502732 -0.1143602 -0.013909597 2.3509886e-38
-0.01055452 -0.11338757 -0.009904284 2.3509886e-38
-0.0086326543 -0.11264218 -0.006834764 2.3509886e-38
-0.0067565385 -0.11264218 -0.006834764 2.3509886e-38
-0.0048130844 -0.11094652 0.0001479201 2.3509886e-38
-0.0029254425 -0.11021499 0.0031603388 2.3509886e-38
-0.0010484699 -0.10948761 0.0061557107 2.3509886e-38
0.0008179266 -0.10876434 0.0091341548 2.3509886e-38
0.0026767086 -0.10777976 0.013188701 2.3509886e-38
0.0045202933 -0.10706602 0.016127806 2.3509886e-38
0.0063508507 -0.10559841 0.022171479 2.3509886e-38
0.0081682317 -0.10487093 0.025167208 2.3509886e-38
0.009988239 -0.10487093 0.025167208 2.3509886e-38
0.011784114 -0.10391603 0.029099446 2.3509886e-38
0.013549887 -0.10245901 0.035099488 2.3509886e-38
0.015323299 -0.10172421 0.038125377 2.3509886e-38
0.017120585 -0.10172421 0.038125377 2.3509883e-38
0.018878315 -0.10099369 0.041133624 2.3509883e-38
0.020625755 -0.10026747 0.044124227 2.3509883e-38
0.022363003 -0.099545494 0.047097307 2.3509523e-38
0.023978554 -0.097355813 0.056114417 2.3508801e-38
0.0257443 -0.097355813 0.056114417 3.6734198e-40
0.027707672 -0.099545494 0.047097307 3.6734198e-40
0.030008312 -0.10487093 0.025167208 3.6734198e-40
0.031828322 -0.10487093 0.025167208 2.7550649e-40
0.033648327 -0.10487093 0.025167208 5.5173044e-40
0.035354573 -0.10391603 0.029099446 9.2159336e-40
0.037167683 -0.10391603 0.029099446 8.4816308e-39
-0.049046934 -0.12918831 -0.066812769 1.0512094e-38
-0.047065653 -0.12918831 -0.066812769 2.3234376e-38
-0.04508438 -0.12918831 -0.066812769 2.3326213e-38
-0.042935319 -0.12823303 -0.062907115 2.2957431e-38
-0.040672988 -0.12652399 -0.055919666 2.341805e-38
-0.03871081 -0.12652399 -0.055919666 2.341805e-38
-0.036594935 -0.12552677 -0.051842589 2.3509886e-38
-0.034533992 -0.12480606 -0.048895974 2.3509886e-38
-0.032446474 -0.12382124 -0.04486968 2.3509886e-38
-0.030405359 -0.12307997 -0.041838903 2.3509886e-38
-0.028345888 -0.12210761 -0.037863512 2.3509886e-38
-0.026301188 -0.12114228 -0.03391673 2.3509886e-38
-0.024293615 -0.12038656 -0.030826945 2.3509886e-38
-0.022375433 -0.12038656 -0.030826945 2.3509886e-38
-0.020292809 -0.11868732 -0.023879666 2.3509886e-38
-0.01832032 -0.11794533 -0.020846028 2.3509886e-38
-0.016340161 -0.11698125 -0.016904492 2.3509886e-38
-0.014391253 -0.11624874 -0.013909597 2.3509886e-38
-0.012502732 -0.11624874 -0.013909597 2.3509886e-38
-0.01055452 -0.11526908 -0.009904284 2.3509886e-38
-0.0086326543 -0.1145183 -0.006834764 2.3509886e-38
-0.006723037 -0.11379938 -0.0038954206 2.3509886e-38
-0.0048130844 -0.11281042 0.0001479201 2.3509886e-38
-0.0029254425 -0.11207359 0.0031603388 2.3509886e-38
-0.0010484699 -0.11134095 0.0061557107 2.3509886e-38
0.00083569996 -0.10962076 0.013188701 2.3509886e-38
0.0026767086 -0.10962076 0.013188701 2.3509886e-38
0.0045229513 -0.10816063 0.019158345 2.3509886e-38
0.0063508507 -0.10742365 0.022171479 2.3509886e-38
0.0081682317 -0.10669093 0.025167208 2.3509886e-38
0.0099710021 -0.10572915 0.029099446 2.3509886e-38
0.011784114 -0.10572915 0.029099446 2.3509886e-38
0.013549887 -0.10426159 0.035099488 2.3509886e-38
0.015323299 -0.10352151 0.038125377 2.3509886e-38
0.017086301 -0.10278571 0.041133624 2.3509883e-38
0.018878315 -0.10278571 0.041133624 2.3509883e-38
0.020670326 -0.10278571 0.041133624 2.3509883e-38
0.022412525 -0.10205424 0.044124227 2.3509883e-38
0.023978554 -0.099121556 0.056114417 2.2586485e-38
0.0257443 -0.099121556 0.056114417 3.6734198e-40
0.027772831 -0.10205424 0.044124227 2.7550649e-40
0.030008312 -0.10669093 0.025167208 6.4392467e-40
0.031828322 -0.10669093 0.025167208 2.7550649e-40
0.033648327 -0.10669093 0.025167208 8.2831593e-40
0.035354573 -0.10572915 0.029099446 5.5173184e-40
0.037167683 -0.10572915 0.029099446 4.3331834e-39
0.038980797 -0.10572915 0.029099446 1.410519e-38
-0.051028214 -0.1311696 -0.066812769 7.8384194e-39
-0.049046934 -0.1311696 -0.066812769 1.2448202e-38
-0.046884187 -0.13020746 -0.062907115 2.3234376e-38
-0.044775389 -0.12946714 -0.059901852 2.341805e-38
-0.04280623 -0.12946714 -0.059901852 2.341805e-38
-0.040672988 -0.12848614 -0.055919666 2.341805e-38
-0.038549967 -0.1274818 -0.051842589 2.341805e-38
-0.036483862 -0.12675591 -0.048895974 2.3509886e-38
-0.034533992 -0.12675591 -0.048895974 2.3509886e-38
-0.032446474 -0.12576406 -0.04486968 2.3509886e-38
-0.030405359 -0.12501745 -0.041838903 2.3509886e-38
-0.028345888 -0.12403814 -0.037863512 2.3509886e-38
-0.026301188 -0.12306587 -0.03391673 2.3509886e-38
-0.024293615 -0.12230472 -0.030826945 2.3509886e-38
-0.022375433 -0.12230472 -0.030826945 2.3509886e-38
-0.020292809 -0.12059332 -0.023879666 2.3509886e-38
-0.01832032 -0.119846 -0.020846028 2.3509886e-38
-0.016340161 -0.11887501 -0.016904492 2.3509886e-38
-0.014391253 -0.11813726 -0.013909597 2.3509886e-38
-0.012502732 -0.11813726 -0.013909597 2.3509886e-38
-0.01055452 -0.11715056 -0.009904284 2.3509886e-38
-0.0086326543 -0.11639442 -0.006834764 2.3509886e-38
-0.006723037 -0.11567034 -0.0038954206 2.3509886e-38
-0.0048130844 -0.11467429 0.0001479201 2.3509886e-38
-0.0029254425 -0.11393218 0.0031603388 2.3509886e-38
-0.0010301918 -0.11246057 0.0091341548 2.3509886e-38
0.00083569996 -0.11146177 0.013188701 2.3509886e-38
0.0026844386 -0.11073773 0.016127806 2.3509886e-38
0.0045229513 -0.10999118 0.019158345 2.3509886e-38
0.0063508507 -0.10924892 0.022171479 2.3509886e-38
0.0081682317 -0.10851096 0.025167208 2.3509886e-38
0.0099710021 -0.10754226 0.029099446 2.3509886e-38
0.011784114 -0.10754226 0.029099446 2.3509886e-38
0.013549887 -0.10606419 0.035099488 2.3509886e-38
0.015323299 -0.1053188 0.038125377 2.3509886e-38
0.017086301 -0.10457774 0.041133624 2.3509883e-38
0.018878315 -0.10457774 0.041133624 2.3509883e-38
0.020670326 -0.10457774 0.041133624 2.3325131e-38
0.022412525 -0.10384102 0.044124227 2.3048545e-38
0.024199294 -0.10384102 0.044124227 1.972842e-38
0.025986062 -0.10384102 0.044124227 3.6734198e-40
0.028188305 -0.10851096 0.025167208 2.7550649e-40
0.030008312 -0.10851096 0.025167208 4.5953621e-40
0.031828322 -0.10851096 0.025167208 2.7550649e-40
0.033648327 -0.10851096 0.025167208 3.6734198e-40
0.035354573 -0.10754226 0.029099446 2.7550649e-40
0.037073754 -0.10678811 0.03216086 1.3818414e-39
0.038881496 -0.10678811 0.03216086 1.1338955e-38
0.040689237 -0.10678811 0.03216086 1.6226043e-38
-0.051028214 -0.13315089 -0.066812769 1.0973427e-38
-0.04885862 -0.1321819 -0.062907115 1.5767244e-38
-0.046884187 -0.1321819 -0.062907115 2.2866308e-38
-0.044775389 -0.1314363 -0.059901852 2.341805e-38
-0.04280623 -0.1314363 -0.059901852 2.341805e-38
-0.040672988 -0.13044833 -0.055919666 2.341805e-38
-0.038549967 -0.12943684 -0.051842589 2.341805e-38
-0.036483862 -0.12870578 -0.048895974 2.3509886e-38
-0.034533992 -0.12870578 -0.048895974 2.3509886e-38
-0.032342851 -0.12695493 -0.041838903 2.3509886e-38
-0.030276408 -0.12596865 -0.037863512 2.3509886e-38
-0.028224787 -0.12498946 -0.03391673 2.3509886e-38
-0.026301188 -0.12498946 -0.03391673 2.3509886e-38
-0.024184519 -0.12322696 -0.026812572 2.3509886e-38
-0.022273375 -0.12322696 -0.026812572 2.3509886e-38
-0.020292809 -0.1224993 -0.023879666 2.3509886e-38
-0.01832032 -0.12174667 -0.020846028 2.3509886e-38
-0.016340161 -0.1207688 -0.016904492 2.3509886e-38
-0.014391253 -0.12002577 -0.013909597 2.3509886e-38
-0.012502732 -0.12002577 -0.013909597 2.3509886e-38
-0.01055452 -0.11903207 -0.009904284 2.3509886e-38
-0.0086326543 -0.11827053 -0.006834764 2.3509886e-38
-0.006723037 -0.1175413 -0.0038954206 2.3509886e-38
-0.0048130844 -0.11653815 0.0001479201 2.3509886e-38
-0.0029254425 -0.11579077 0.0031603388 2.3509886e-38
-0.0010301918 -0.1143087 0.0091341548 2.3509886e-38
0.00083569996 -0.11330278 0.013188701 2.3509886e-38
0.0026844386 -0.11257361 0.016127806 2.3509886e-38
0.0045229513 -0.11182173 0.019158345 2.3509886e-38
0.0063482244 -0.11033095 0.025167208 2.3509886e-38
0.0081578903 -0.10935538 0.029099446 2.3509886e-38
0.0099710021 -0.10935538 0.029099446 2.3509886e-38
0.011747294 -0.10786678 0.035099488 2.3509886e-38
0.013549887 -0.10786678 0.035099488 2.3509886e-38
0.015323299 -0.10711606 0.038125377 2.3509886e-38
0.017086301 -0.10636975 0.041133624 2.3509883e-38
0.018878315 -0.10636975 0.041133624 2.3509883e-38
0.020670326 -0.10636975 0.041133624 2.3509883e-38
0.022412525 -0.10562779 0.044124227 2.1573414e-38
0.024199294 -0.10562779 0.044124227 1.4749856e-38
0.026107019 -0.10711606 0.038125377 9.2051156e-40
0.028253961 -0.11107419 0.022171479 2.7550649e-40
0.030008312 -0.11033095 0.025167208 4.5953621e-40
0.031828322 -0.11033095 0.025167208 4.5953621e-40
0.033648327 -0.11033095 0.025167208 2.7550649e-40
0.035354573 -0.10935538 0.029099446 3.6734198e-40
0.037073754 -0.10859586 0.03216086 3.6734198e-40
0.038881496 -0.10859586 0.03216086 8.2046586e-39
0.040689237 -0.10859586 0.03216086 1.6686657e-38
0.041528061 -0.10190789 0.059117895 1.4749848e-38
0.043175988 -0.10116716 0.06210361 8.3883632e-39
0.044931233 -0.10116716 0.06210361 8.2958158e-39
0.046686478 -0.10116716 0.06210361 8.1114232e-39
-0.051028214 -0.13513215 -0.066812769 1.4384665e-38
-0.04885862 -0.13415633 -0.062907115 1.963946e-38
-0.046884187 -0.13415633 -0.062907115 2.2866308e-38
-0.044775389 -0.13340546 -0.059901852 2.341805e-38
-0.04280623 -0.13340546 -0.059901852 2.3234018e-38
-0.040672988 -0.13241051 -0.055919666 2.341805e-38
-0.038549967 -0.13139187 -0.051842589 2.341805e-38
-0.036483862 -0.13065563 -0.048895974 2.3509886e-38
-0.034533992 -0.13065563 -0.048895974 2.3509886e-38
-0.032342851 -0.12889244 -0.041838903 2.3509886e-38
-0.030276408 -0.12789918 -0.037863512 2.3509886e-38
-0.028224787 -0.12691309 -0.03391673 2.3509886e-38
-0.0262118 -0.12614109 -0.030826945 2.3509886e-38
-0.024184519 -0.12513812 -0.026812572 2.3509886e-38
-0.022273375 -0.12513812 -0.026812572 2.3509886e-38
-0.020221001 -0.12364738 -0.020846028 2.3509886e-38
-0.018233934 -0.12266256 -0.016904492 2.3509886e-38
-0.016340161 -0.12266256 -0.016904492 2.3509886e-38
-0.014391253 -0.12191428 -0.013909597 2.3509886e-38
-0.012502732 -0.12191428 -0.013909597 2.3509886e-38
-0.01055452 -0.12091358 -0.009904284 2.3509886e-38
-0.0086326543 -0.12014665 -0.006834764 2.3509886e-38
-0.006723037 -0.11941226 -0.0038954206 2.3509886e-38
-0.0048130844 -0.11840202 0.0001479201 2.3509886e-38
-0.0029018093 -0.11690097 0.0061557107 2.3509886e-38
-0.0010301918 -0.1161568 0.0091341548 2.3509886e-38
0.00083569996 -0.11514379 0.013188701 2.3509886e-38
0.0026844386 -0.11440946 0.016127806 2.3509886e-38
0.0045255926 -0.11289944 0.022171479 2.3509886e-38
0.0063482244 -0.11215095 0.025167208 2.3509886e-38
0.0081578903 -0.11116849 0.029099446 2.3509886e-38
0.0099575836 -0.11040358 0.03216086 2.3509886e-38
0.011747294 -0.10966937 0.035099488 2.3509886e-38
0.013549887 -0.10966937 0.035099488 2.3509886e-38
0.015323299 -0.10891335 0.038125377 2.3509886e-38
0.017120585 -0.10891335 0.038125377 2.3509883e-38
0.018917874 -0.10891335 0.038125377 2.3509883e-38
0.020715158 -0.10891335 0.038125377 2.3509883e-38
0.022462338 -0.10816176 0.041133624 1.8346567e-38
0.02425435 -0.10816176 0.041133624 8.1117707e-39
0.026107019 -0.10891335 0.038125377 1.1970984e-39
0.028253961 -0.11289944 0.022171479 2.7550649e-40
0.030079221 -0.11289944 0.022171479 3.6734198e-40
0.031904481 -0.11289944 0.022171479 8.2831593e-40
0.033648327 -0.11215095 0.025167208 2.7550649e-40
0.035354573 -0.11116849 0.029099446 4.5917748e-40
0.037073754 -0.11040358 0.03216086 5.5101298e-40
0.038881496 -0.11040358 0.03216086 4.8848928e-39
0.040074028 -0.10590781 0.050154787 1.5949089e-38
0.041528061 -0.10366838 0.059117895 1.5671801e-38
0.043175988 -0.10292239 0.06210361 8.756424e-39
0.044931233 -0.10292239 0.06210361 8.0181541e-39
0.046686478 -0.10292239 0.06210361 7.7426406e-39
-0.051028214 -0.13711344 -0.066812769 1.6227496e-38
-0.04885862 -0.13613077 -0.062907115 2.1574848e-38
-0.046744548 -0.13537462 -0.059901852 2.2773034e-38
-0.044775389 -0.13537462 -0.059901852 2.3418047e-38
-0.04280623 -0.13537462 -0.059901852 2.341805e-38
-0.040672988 -0.1343727 -0.055919666 2.341805e-38
-0.038549967 -0.13334687 -0.051842589 2.341805e-38
-0.036483862 -0.13260551 -0.048895974 2.3509886e-38
-0.034389272 -0.13159247 -0.04486968 2.3509886e-38
-0.032342851 -0.13082992 -0.041838903 2.3509886e-38
-0.030276408 -0.12982969 -0.037863512 2.3509886e-38
-0.028224787 -0.12883668 -0.03391673 2.3509886e-38
-0.0262118 -0.12805928 -0.030826945 2.3509886e-38
-0.024184519 -0.12704925 -0.026812572 2.3509886e-38
-0.022273375 -0.12704925 -0.026812572 2.3509886e-38
-0.020221001 -0.12554805 -0.020846028 2.3509886e-38
-0.018233934 -0.12455635 -0.016904492 2.3509886e-38
-0.016340161 -0.12455635 -0.016904492 2.3509886e-38
-0.014391253 -0.12380283 -0.013909597 2.3509886e-38
-0.012436016 -0.12279506 -0.009904284 2.3509886e-38
-0.01055452 -0.12279506 -0.009904284 2.3509886e-38
-0.0086326543 -0.12202276 -0.006834764 2.3509886e-38
-0.006723037 -0.12128322 -0.0038954206 2.3509886e-38
-0.0048130844 -0.12026589 0.0001479201 2.3509886e-38
-0.0029018093 -0.11875431 0.0061557107 2.3509886e-38
-0.0010301918 -0.11800493 0.0091341548 2.3509886e-38
0.00084858201 -0.11624531 0.016127806 2.3509886e-38
0.0026924089 -0.11548282 0.019158345 2.3509886e-38
0.0045255926 -0.11472471 0.022171479 2.3509886e-38
0.0063447785 -0.1129816 0.029099446 2.3509886e-38
0.0081578903 -0.1129816 0.029099446 2.3509886e-38
0.0099575836 -0.11221133 0.03216086 2.3509886e-38
0.011747294 -0.11147197 0.035099488 2.3509886e-38
0.013526012 -0.11071064 0.038125377 2.3509886e-38
0.015323299 -0.11071064 0.038125377 2.3509883e-38
0.017086301 -0.10995375 0.041133624 2.3509883e-38
0.018878315 -0.10995375 0.041133624 2.350988e-38
0.020670326 -0.10995375 0.041133624 2.3325131e-38
0.022462338 -0.10995375 0.041133624 1.5027522e-38
0.024309732 -0.11071064 0.038125377 2.4889163e-39
0.026168032 -0.11147197 0.035099488 5.5280804e-40
0.028253961 -0.11472471 0.022171479 2.7550649e-40
0.030079221 -0.11472471 0.022171479 9.1835496e-41
0.031828322 -0.11397095 0.025167208 6.4392747e-40
0.033648327 -0.11397095 0.025167208 2.7550649e-40
0.035354573 -0.1129816 0.029099446 6.4356594e-40
0.036983587 -0.11147197 0.035099488 3.6734198e-40
0.038688026 -0.11071064 0.038125377 2.2108678e-39
0.040074028 -0.107684 0.050154787 1.4658355e-38
0.041528061 -0.10542886 0.059117895 1.5579605e-38
0.043175988 -0.10467763 0.06210361 8.75678e-39
0.044931233 -0.10467763 0.06210361 7.926313e-39
0.046686478 -0.10467763 0.06210361 8.1110602e-39
-0.051028214 -0.13909473 -0.066812769 2.046813e-38
-0.04885862 -0.1381052 -0.062907115 2.2404243e-38
-0.046744548 -0.13734378 -0.059901852 2.3509876e-38
-0.044775389 -0.13734378 -0.059901852 2.3509879e-38
-0.04280623 -0.13734378 -0.059901852 2.3325847e-38
-0.040672988 -0.13633488 -0.055919666 2.3509883e-38
-0.038549967 -0.1353019 -0.051842589 2.3509886e-38
-0.036483862 -0.13455538 -0.048895974 2.3509886e-38
-0.034389272 -0.13353528 -0.04486968 2.3509886e-38
-0.03220693 -0.13176022 -0.037863512 2.3509886e-38
-0.030276408 -0.13176022 -0.037863512 2.3509886e-38
-0.028129982 -0.12997745 -0.030826945 2.3509886e-38
-0.0262118 -0.12997745 -0.030826945 2.3509886e-38
-0.024184519 -0.12896039 -0.026812572 2.3509886e-38
-0.022273375 -0.12896039 -0.026812572 2.3509886e-38
-0.020221001 -0.12744872 -0.020846028 2.3509886e-38
-0.018233934 -0.12645011 -0.016904492 2.3509886e-38
-0.016279774 -0.12569134 -0.013909597 2.3509886e-38
-0.014391253 -0.12569134 -0.013909597 2.3509886e-38
-0.012436016 -0.12467657 -0.009904284 2.3509886e-38
-0.010508774 -0.12389888 -0.006834764 2.3509886e-38
-0.0085940044 -0.12315418 -0.0038954206 2.3509886e-38
-0.006723037 -0.12315418 -0.0038954206 2.3509886e-38
-0.0048130844 -0.12212978 0.0001479201 2.3509886e-38
-0.0029018093 -0.12060766 0.0061557107 2.3509886e-38
-0.0010053106 -0.11882581 0.013188701 2.3509886e-38
0.0008618664 -0.11731337 0.019158345 2.3509886e-38
0.0027003326 -0.11654995 0.022171479 2.3509886e-38
0.0045282189 -0.11579098 0.025167208 2.3509886e-38
0.0063447785 -0.11479472 0.029099446 2.3509886e-38
0.0081498381 -0.11401908 0.03216086 2.3509886e-38
0.0099447016 -0.11327456 0.035099488 2.3509886e-38
0.011728725 -0.11250792 0.038125377 2.3509886e-38
0.013526012 -0.11250792 0.038125377 2.3509883e-38
0.015294289 -0.11174576 0.041133624 2.350988e-38
0.017052218 -0.1109881 0.044124227 2.350988e-38
0.018838987 -0.1109881 0.044124227 2.3418042e-38
0.020625755 -0.1109881 0.044124227 2.350988e-38
0.022462338 -0.11174576 0.041133624 9.3121117e-39
0.02425435 -0.11174576 0.041133624 6.4572254e-40
0.026168032 -0.11327456 0.035099488 3.5873241e-43
0.028253961 -0.11654995 0.022171479 9.1835496e-41
0.030079221 -0.11654995 0.022171479 6.4536941e-40
0.031828322 -0.11579098 0.025167208 9.1835496e-41
0.033648327 -0.11579098 0.025167208 1.8367239e-40
0.035354573 -0.11479472 0.029099446 2.7550649e-40
0.036983587 -0.11327456 0.035099488 2.7550649e-40
0.038688026 -0.11250792 0.038125377 3.6734198e-40
0.040074028 -0.10946019 0.050154787 1.4842759e-38
0.041636012 -0.10795029 0.056114417 1.6962903e-38
0.043288536 -0.10718934 0.059117895 8.1121252e-39
0.045049019 -0.10718934 0.059117895 8.3883576e-39
0.046809502 -0.10718934 0.059117895 8.480556e-39
-0.050833046 -0.14007963 -0.062907115 2.1297891e-38
-0.04885862 -0.14007963 -0.062907115 2.3141089e-38
-0.046744548 -0.13931294 -0.059901852 2.3509876e-38
-0.04459735 -0.13829704 -0.055919666 2.3509879e-38
-0.042635165 -0.13829704 -0.055919666 2.3233652e-38
-0.040504999 -0.13725694 -0.051842589 2.3509883e-38
-0.038433723 -0.13650523 -0.048895974 2.3509883e-38
-0.036332078 -0.13547809 -0.04486968 2.3509886e-38
-0.034280337 -0.1347049 -0.041838903 2.3509886e-38
-0.03220693 -0.13369073 -0.037863512 2.3509886e-38
-0.030148389 -0.13268389 -0.03391673 2.3509886e-38
-0.028129982 -0.13189565 -0.030826945 2.3509886e-38
-0.026095664 -0.13087155 -0.026812572 2.3509886e-38
-0.024104813 -0.13012333 -0.023879666 2.3509886e-38
-0.022198809 -0.13012333 -0.023879666 2.3509886e-38
-0.020221001 -0.12934943 -0.020846028 2.3509886e-38
-0.018233934 -0.1283439 -0.016904492 2.3509886e-38
-0.016279774 -0.12757985 -0.013909597 2.3509886e-38
-0.014391253 -0.12757985 -0.013909597 2.3509886e-38
-0.012436016 -0.12655805 -0.009904284 2.3509886e-38
-0.010508774 -0.12577499 -0.006834764 2.3509886e-38
-0.0085940044 -0.12502514 -0.0038954206 2.3509886e-38
-0.0066769589 -0.12399365 0.0001479201 2.3509886e-38
-0.0047840346 -0.12322514 0.0031603388 2.3509886e-38
-0.0028783102 -0.12170117 0.0091341548 2.3509886e-38
-0.0010053106 -0.12066682 0.013188701 2.3509886e-38
0.0008618664 -0.11914389 0.019158345 2.3509886e-38
0.0027003326 -0.11837523 0.022171479 2.3509886e-38
0.0045282189 -0.11761098 0.025167208 2.3509886e-38
0.0063447785 -0.11660783 0.029099446 2.3509886e-38
0.0081498381 -0.11582683 0.03216086 2.3509886e-38
0.0099447016 -0.11507715 0.035099488 2.3509886e-38
0.011728725 -0.11430521 0.038125377 2.3509883e-38
0.013502277 -0.11353777 0.041133624 2.3509883e-38
0.01526545 -0.11277486 0.044124227 2.350988e-38
0.017018335 -0.11201639 0.047097307 2.3509879e-38
0.018799892 -0.11201639 0.047097307 2.3509879e-38
0.020581447 -0.11201639 0.047097307 2.3141455e-38
0.022363003 -0.11201639 0.047097307 5.9930677e-39
0.02414456 -0.11201639 0.047097307 3.5873241e-43
0.026168032 -0.11507715 0.035099488 3.5873241e-43
0.028188305 -0.11761098 0.025167208 0
0.030079221 -0.11837523 0.022171479 1.8439126e-40
0.031828322 -0.11761098 0.025167208 2.8025969e-45
0.033648327 -0.11761098 0.025167208 2.8025969e-45
0.035354573 -0.11660783 0.029099446 3.6734619e-40
0.037073754 -0.11582683 0.03216086 3.6734339e-40
0.038881496 -0.11582683 0.03216086 5.5173044e-40
0.040074028 -0.11123641 0.050154787 1.5211189e-38
0.041636012 -0.10971604 0.056114417 1.539558e-38
0.043288536 -0.10894983 0.059117895 9.0340787e-39
0.045049019 -0.10894983 0.059117895 9.0340815e-39
0.046809502 -0.10894983 0.059117895 8.5727488e-39
-0.050682873 -0.1412821 -0.059901852 2.2404959e-38
-0.048521705 -0.14025922 -0.055919666 2.3509873e-38
-0.04655952 -0.14025922 -0.055919666 2.3509876e-38
-0.04459735 -0.14025922 -0.055919666 2.350988e-38
-0.042460032 -0.13921197 -0.051842589 2.3325492e-38
-0.040383585 -0.13845511 -0.048895974 2.3509883e-38
-0.038274892 -0.13742088 -0.04486968 2.3509886e-38
-0.036217831 -0.13664238 -0.041838903 2.3509886e-38
-0.03413745 -0.13562126 -0.037863512 2.3509886e-38
-0.032071993 -0.13460748 -0.03391673 2.3509886e-38
-0.030048167 -0.13381381 -0.030826945 2.3509886e-38
-0.028006809 -0.13278268 -0.026812572 2.3509883e-38
-0.026095664 -0.13278268 -0.026812572 2.3509883e-38
-0.024104813 -0.13202934 -0.023879666 2.3509886e-38
-0.022121688 -0.1312501 -0.020846028 2.3509886e-38
-0.020221001 -0.1312501 -0.020846028 2.3509886e-38
-0.018233934 -0.13023765 -0.016904492 2.3509886e-38
-0.016279774 -0.1294684 -0.013909597 2.3509886e-38
-0.014317514 -0.12843956 -0.009904284 2.3509886e-38
-0.012436016 -0.12843956 -0.009904284 2.3509886e-38
-0.010508774 -0.12765111 -0.006834764 2.3509886e-38
-0.0085940044 -0.1268961 -0.0038954206 2.3509886e-38
-0.0066769589 -0.12585752 0.0001479201 2.3509886e-38
-0.0047840346 -0.12508373 0.0031603388 2.3509886e-38
-0.0028783102 -0.1235493 0.0091341548 2.3509886e-38
-0.0010053106 -0.12250783 0.013188701 2.3509886e-38
0.0008618664 -0.12097444 0.019158345 2.3509886e-38
0.0027003326 -0.12020047 0.022171479 2.3509886e-38
0.0045282189 -0.11943097 0.025167208 2.3509886e-38
0.0063447785 -0.11842094 0.029099446 2.3509886e-38
0.0081498381 -0.11763458 0.03216086 2.3509886e-38
0.0099447016 -0.11687975 0.035099488 2.3509886e-38
0.011728725 -0.1161025 0.038125377 2.3509883e-38
0.013502277 -0.11532979 0.041133624 2.3509883e-38
0.01526545 -0.11456163 0.044124227 2.350988e-38
0.017018335 -0.11379795 0.047097307 2.3509879e-38
0.018799892 -0.11379795 0.047097307 2.3509879e-38
0.020581447 -0.11379795 0.047097307 2.2772672e-38
0.022363003 -0.11379795 0.047097307 1.93646e-39
0.02414456 -0.11379795 0.047097307 3.5873241e-43
0.026168032 -0.11687975 0.035099488 9.2552961e-41
0.028188305 -0.11943097 0.025167208 0
0.030079221 -0.12020047 0.022171479 0
0.031828322 -0.11943097 0.025167208 2.8025969e-45
0.033648327 -0.11943097 0.025167208 2.8025969e-45
0.035468332 -0.11943097 0.025167208 3.6734619e-40
0.037167683 -0.11842094 0.029099446 5.5173465e-40
0.038881496 -0.11763458 0.03216086 8.2831593e-40
0.040588766 -0.11687975 0.035099488 1.4473624e-38
0.04239136 -0.11687975 0.035099488 1.4197037e-38
0.044193953 -0.11687975 0.035099488 1.0417013e-38
-0.050280146 -0.141167 -0.051842589 2.2958856e-38
-0.048325121 -0.141167 -0.051842589 2.341804e-38
-0.046370089 -0.141167 -0.051842589 2.3142174e-38
-0.044415064 -0.141167 -0.051842589 2.3418047e-38
-0.042333454 -0.14040495 -0.048895974 2.3509883e-38
-0.040383585 -0.14040495 -0.048895974 2.3509886e-38
-0.038274892 -0.13936369 -0.04486968 2.3509886e-38
-0.036217831 -0.13857989 -0.041838903 2.3509886e-38
-0.03413745 -0.1375518 -0.037863512 2.3509886e-38
-0.032071993 -0.13653107 -0.03391673 2.3509886e-38
-0.030048167 -0.13573201 -0.030826945 2.3509886e-38
-0.028006809 -0.13469382 -0.026812572 2.3509883e-38
-0.026010817 -0.13393532 -0.023879666 2.3509883e-38
-0.024104813 -0.13393532 -0.023879666 2.3509886e-38
-0.022121688 -0.13315077 -0.020846028 2.3509886e-38
-0.020221001 -0.13315077 -0.020846028 2.3509886e-38
-0.018168299 -0.13135691 -0.013909597 2.3509886e-38
-0.016279774 -0.13135691 -0.013909597 2.3509886e-38
-0.014317514 -0.13032107 -0.009904284 2.3509886e-38
-0.01238489 -0.12952723 -0.006834764 2.3509886e-38
-0.010464964 -0.12876706 -0.0038954206 2.3509886e-38
-0.0085408334 -0.12772138 0.0001479201 2.3509886e-38
-0.0066769589 -0.12772138 0.0001479201 2.3509886e-38
-0.0047551487 -0.12616767 0.0061557107 2.3509886e-38
-0.0028783102 -0.1253974 0.0091341548 2.3509886e-38
-0.0010053106 -0.12434883 0.013188701 2.3509886e-38
0.0008618664 -0.12280498 0.019158345 2.3509886e-38
0.0027082115 -0.121251 0.025167208 2.3509886e-38
0.0045282189 -0.121251 0.025167208 2.3509886e-38
0.0063420944 -0.11944233 0.03216086 2.3509886e-38
0.0081498381 -0.11944233 0.03216086 2.3509886e-38
0.0099314395 -0.11789979 0.038125377 2.341769e-38
0.011710265 -0.1171218 0.041133624 2.3417687e-38
0.013478681 -0.1163484 0.044124227 2.3417687e-38
0.01526545 -0.1163484 0.044124227 2.350988e-38
0.017018335 -0.1155795 0.047097307 2.3509879e-38
0.018799892 -0.1155795 0.047097307 2.3509879e-38
0.020581447 -0.1155795 0.047097307 2.3509879e-38
0.022363003 -0.1155795 0.047097307 3.5873241e-43
0.02414456 -0.1155795 0.047097307 3.5873241e-43
0.026550563 -0.12358873 0.016127806 2.7694142e-40
0.02838642 -0.12358873 0.016127806 9.219563e-41
0.030150542 -0.12280498 0.019158345 0
0.031904481 -0.12202574 0.022171479 1.8439406e-40
0.033729739 -0.12202574 0.022171479 2.8025969e-45
0.035468332 -0.121251 0.025167208 2.7550929e-40
0.037167683 -0.12023406 0.029099446 3.6734339e-40
0.038881496 -0.11944233 0.03216086 4.5953621e-40
0.040588766 -0.11868234 0.035099488 1.1615562e-38
0.04239136 -0.11868234 0.035099488 1.4750211e-38
0.044193953 -0.11868234 0.035099488 1.2076534e-38
-0.050280146 -0.14312203 -0.051842589 2.30507e-38
-0.048325121 -0.14312203 -0.051842589 2.3234374e-38
-0.046370089 -0.14312203 -0.051842589 2.2774116e-38
-0.044415064 -0.14312203 -0.051842589 2.3234376e-38
-0.042333454 -0.14235483 -0.048895974 2.341805e-38
-0.040383585 -0.14235483 -0.048895974 2.341805e-38
-0.038274892 -0.1413065 -0.04486968 2.341805e-38
-0.036217831 -0.14051737 -0.041838903 2.3509886e-38
-0.03413745 -0.1394823 -0.037863512 2.3509886e-38
-0.032071993 -0.13845469 -0.03391673 2.3509886e-38
-0.030048167 -0.13765021 -0.030826945 2.3509886e-38
-0.028006809 -0.13660498 -0.026812572 2.3509883e-38
-0.025923053 -0.13505147 -0.020846028 2.3509883e-38
-0.024022369 -0.13505147 -0.020846028 2.3509886e-38
-0.022121688 -0.13505147 -0.020846028 2.3509886e-38
-0.020127704 -0.1340252 -0.016904492 2.3509886e-38
-0.018168299 -0.13324542 -0.013909597 2.3509886e-38
-0.016279774 -0.13324542 -0.013909597 2.3509886e-38
-0.014261005 -0.13140334 -0.006834764 2.3509886e-38
-0.012335928 -0.13063805 -0.0038954206 2.3509886e-38
-0.010464964 -0.13063805 -0.0038954206 2.3509886e-38
-0.0085408334 -0.12958528 0.0001479201 2.3509886e-38
-0.0066426266 -0.12880091 0.0031603388 2.3509886e-38
-0.0047264267 -0.12724553 0.0091341548 2.3509886e-38
-0.0028463192 -0.12618984 0.013188701 2.3509886e-38
-0.00096867606 -0.12463553 0.019158345 2.3509886e-38
0.00087507255 -0.12385099 0.022171479 2.3509886e-38
0.0027082115 -0.123071 0.025167208 2.3509886e-38
0.0045282189 -0.123071 0.025167208 2.3509886e-38
0.0063420944 -0.12125005 0.03216086 2.3509886e-38
0.00814211 -0.12048493 0.035099488 2.3509886e-38
0.0099314395 -0.11969708 0.038125377 2.341769e-38
0.011710265 -0.11891381 0.041133624 2.3417687e-38
0.013478681 -0.11813517 0.044124227 2.3417687e-38
0.01526545 -0.11813517 0.044124227 2.350988e-38
0.017018335 -0.11736105 0.047097307 2.3509879e-38
0.018799892 -0.11736105 0.047097307 2.3509879e-38
0.020581447 -0.11736105 0.047097307 2.3509879e-38
0.022363003 -0.11736105 0.047097307 3.5873241e-43
0.02484346 -0.12724553 0.0091341548 3.5873241e-43
0.026609825 -0.12618984 0.013188701 1.8474719e-40
0.02838642 -0.12542458 0.016127806 9.219563e-41
0.030150542 -0.12463553 0.019158345 0
0.031904481 -0.12385099 0.022171479 3.6878532e-40
0.033729739 -0.12385099 0.022171479 2.8025969e-45
0.035468332 -0.123071 0.025167208 2.7550929e-40
0.037167683 -0.12204717 0.029099446 2.7550649e-40
0.038881496 -0.12125005 0.03216086 2.7550649e-40
0.040689237 -0.12125005 0.03216086 7.374563e-39
0.042496987 -0.12125005 0.03216086 1.5764362e-38
0.044304729 -0.12125005 0.03216086 1.3828251e-38
-0.050280146 -0.14507706 -0.051842589 2.2958864e-38
-0.048325121 -0.14507706 -0.051842589 2.3142541e-38
-0.046370089 -0.14507706 -0.051842589 2.2866671e-38
-0.044415064 -0.14507706 -0.051842589 2.3142542e-38
-0.042460032 -0.14507706 -0.051842589 2.3142542e-38
-0.04021769 -0.14324932 -0.04486968 2.341805e-38
-0.038274892 -0.14324932 -0.04486968 2.341805e-38
-0.036217831 -0.14245488 -0.041838903 2.3509886e-38
-0.03413745 -0.14141284 -0.037863512 2.3509886e-38
-0.032071993 -0.14037828 -0.03391673 2.3509886e-38
-0.030048167 -0.13956837 -0.030826945 2.3509883e-38
-0.028006809 -0.13851611 -0.026812572 2.3509883e-38
-0.025923053 -0.13695215 -0.020846028 2.3509883e-38
-0.024022369 -0.13695215 -0.020846028 2.3509886e-38
-0.022121688 -0.13695215 -0.020846028 2.3509886e-38
-0.020127704 -0.13591899 -0.016904492 2.3509886e-38
-0.018168299 -0.13513394 -0.013909597 2.3509886e-38
-0.016199013 -0.13408406 -0.009904284 2.3509886e-38
-0.014261005 -0.13327946 -0.006834764 2.3509886e-38
-0.012335928 -0.13250901 -0.0038954206 2.3509886e-38
-0.010404704 -0.13144915 0.0001479201 2.3509886e-38
-0.0085408334 -0.13144915 0.0001479201 2.3509886e-38
-0.0066426266 -0.13065951 0.0031603388 2.3509886e-38
-0.0047264267 -0.12909363 0.0091341548 2.3509886e-38
-0.0028463192 -0.12803085 0.013188701 2.3509886e-38
-0.00096867606 -0.12646608 0.019158345 2.3509886e-38
0.00087507255 -0.12567626 0.022171479 2.3509886e-38
0.0027082115 -0.124891 0.025167208 2.3509886e-38
0.0045282189 -0.124891 0.025167208 2.3509886e-38
0.0063420944 -0.1230578 0.03216086 2.3417691e-38
0.00814211 -0.12228753 0.035099488 2.3509886e-38
0.0099314395 -0.12149437 0.038125377 2.3509886e-38
0.011691912 -0.11992194 0.044124227 2.3509883e-38
0.013478681 -0.11992194 0.044124227 2.3509883e-38
0.015236779 -0.11914261 0.047097307 2.3418043e-38
0.017018335 -0.11914261 0.047097307 2.3325846e-38
0.018799892 -0.11914261 0.047097307 2.323365e-38
0.020581447 -0.11914261 0.047097307 2.2311694e-38
0.022363003 -0.11914261 0.047097307 3.5873241e-43
0.02484346 -0.12909363 0.0091341548 2.7694142e-40
0.026691578 -0.12909363 0.0091341548 3.5873241e-43
0.028450835 -0.12803085 0.013188701 0
0.030222274 -0.12726043 0.016127806 0
0.031981084 -0.12646608 0.019158345 2.7658969e-40
0.033729739 -0.12567626 0.022171479 2.8025969e-45
0.035468332 -0.124891 0.025167208 3.6734619e-40
0.037167683 -0.12386028 0.029099446 2.7550649e-40
0.038980797 -0.12386028 0.029099446 2.7550649e-40
0.040689237 -0.1230578 0.03216086 3.5023465e-39
0.042496987 -0.1230578 0.03216086 1.4197037e-38
0.044304729 -0.1230578 0.03216086 1.5395577e-38
0.04611247 -0.1230578 0.03216086 1.0048233e-38
-0.048521705 -0.14810793 -0.055919666 2.3142541e-38
-0.04655952 -0.14810793 -0.055919666 2.3050707e-38
-0.044415064 -0.1470321 -0.051842589 2.3050349e-38
-0.042333454 -0.14625455 -0.048895974 2.3234379e-38
-0.04021769 -0.1451921 -0.04486968 2.341805e-38
-0.038155325 -0.14439236 -0.041838903 2.341805e-38
-0.036217831 -0.14439236 -0.041838903 2.3509886e-38
-0.03413745 -0.14334334 -0.037863512 2.3509886e-38
-0.032071993 -0.14230187 -0.03391673 2.3509886e-38
-0.030048167 -0.14148657 -0.030826945 2.3509883e-38
-0.028006809 -0.14042725 -0.026812572 2.3509883e-38
-0.025923053 -0.13885282 -0.020846028 2.3509883e-38
-0.024022369 -0.13885282 -0.020846028 2.3509886e-38
-0.022121688 -0.13885282 -0.020846028 2.3509886e-38
-0.020127704 -0.13781275 -0.016904492 2.3509886e-38
-0.018168299 -0.13702248 -0.013909597 2.3509886e-38
-0.016199013 -0.13596557 -0.009904284 2.3509886e-38
-0.014206892 -0.13437997 -0.0038954206 2.3509886e-38
-0.012268579 -0.13331302 0.0001479201 2.3509886e-38
-0.010404704 -0.13331302 0.0001479201 2.3509886e-38
-0.0085012186 -0.1325181 0.0031603388 2.3509886e-38
-0.0065745469 -0.13094176 0.0091341548 2.3509886e-38
-0.0047264267 -0.13094176 0.0091341548 2.3509886e-38
-0.0028463192 -0.12987186 0.013188701 2.3509886e-38
-0.00096867606 -0.1282966 0.019158345 2.3509886e-38
0.00087507255 -0.1275015 0.022171479 2.3509886e-38
0.0027082115 -0.126711 0.025167208 2.3509886e-38
0.0045282189 -0.126711 0.025167208 2.3509886e-38
0.0063420944 -0.12486555 0.03216086 2.3417691e-38
0.0081341509 -0.12329166 0.038125377 2.3509886e-38
0.0099314395 -0.12329166 0.038125377 2.3509886e-38
0.011691912 -0.12170871 0.044124227 2.3509883e-38
0.013478681 -0.12170871 0.044124227 2.3509883e-38
0.015236779 -0.12092416 0.047097307 2.3418043e-38
0.017018335 -0.12092416 0.047097307 2.3141455e-38
0.018799892 -0.12092416 0.047097307 2.3049259e-38
0.020535881 -0.12011738 0.050154787 1.8255086e-38
0.022312077 -0.12011738 0.050154787 3.5873241e-43
0.024898294 -0.13172771 0.0061557107 3.6913565e-40
0.026751634 -0.13172771 0.0061557107 3.5873241e-43
0.028539697 -0.13094176 0.0091341548 0
0.030291844 -0.12987186 0.013188701 0
0.032058131 -0.12909628 0.016127806 1.8439406e-40
0.033811629 -0.1282966 0.019158345 2.8025969e-45
0.035554998 -0.1275015 0.022171479 2.7550929e-40
0.037288338 -0.126711 0.025167208 2.7550649e-40
0.038980797 -0.1256734 0.029099446 5.5173184e-40
0.040689237 -0.12486555 0.03216086 1.0130645e-39
0.042496987 -0.12486555 0.03216086 9.5872553e-39
0.044304729 -0.12486555 0.03216086 1.6317533e-38
0.046506554 -0.1275015 0.022171479 1.2260929e-38
-0.048325121 -0.14898713 -0.051842589 2.3142544e-38
-0.046370089 -0.14898713 -0.051842589 2.3050707e-38
-0.044415064 -0.14898713 -0.051842589 2.3050349e-38
-0.042333454 -0.14820443 -0.048895974 2.3234379e-38
-0.04021769 -0.14713491 -0.04486968 2.341805e-38
-0.038155325 -0.14632986 -0.041838903 2.341805e-38
-0.03606797 -0.14527388 -0.037863512 2.3509886e-38
-0.033995591 -0.14422549 -0.03391673 2.3509886e-38
-0.032071993 -0.14422549 -0.03391673 2.3509886e-38
-0.030048167 -0.14340474 -0.030826945 2.3509883e-38
-0.028006809 -0.14233841 -0.026812572 2.350988e-38
-0.025923053 -0.14075352 -0.020846028 2.350988e-38
-0.024022369 -0.14075352 -0.020846028 2.3509886e-38
-0.022021478 -0.13970654 -0.016904492 2.3509886e-38
-0.020127704 -0.13970654 -0.016904492 2.3509886e-38
-0.018168299 -0.13891099 -0.013909597 2.3509886e-38
-0.016137121 -0.13703169 -0.006834764 2.3509886e-38
-0.014206892 -0.13625093 -0.0038954206 2.3509886e-38
-0.012268579 -0.13517688 0.0001479201 2.3509886e-38
-0.010404704 -0.13517688 0.0001479201 2.3509886e-38
-0.0084618311 -0.13358103 0.0061557107 2.3509886e-38
-0.0065745469 -0.13278987 0.0091341548 2.3509886e-38
-0.0046873279 -0.13171287 0.013188701 2.3509886e-38
-0.0028231293 -0.13093217 0.016127806 2.3509886e-38
-0.00096867606 -0.13012715 0.019158345 2.3509886e-38
0.00087507255 -0.12932678 0.022171479 2.3509886e-38
0.0027082115 -0.12853102 0.025167208 2.3509886e-38
0.0045282189 -0.12853102 0.025167208 2.3509886e-38
0.0063420944 -0.1266733 0.03216086 2.3417691e-38
0.0081341509 -0.12508895 0.038125377 2.3509886e-38
0.0099314395 -0.12508895 0.038125377 2.3509886e-38
0.011691912 -0.12349547 0.044124227 2.3509883e-38
0.013478681 -0.12349547 0.044124227 2.3509883e-38
0.015236779 -0.12270571 0.047097307 2.3418043e-38
0.017018335 -0.12270571 0.047097307 2.3049259e-38
0.018799892 -0.12270571 0.047097307 2.2864868e-38
0.020535881 -0.12189357 0.050154787 1.4843848e-38
0.022312077 -0.12189357 0.050154787 3.5873241e-43
0.024898294 -0.13358103 0.0061557107 4.6133128e-40
0.026751634 -0.13358103 0.0061557107 3.5873241e-43
0.028539697 -0.13278987 0.0091341548 0
0.030291844 -0.13171287 0.013188701 1.8439126e-40
0.032058131 -0.13093217 0.016127806 2.7658969e-40
0.033811629 -0.13012715 0.019158345 9.2198432e-41
0.035554998 -0.12932678 0.022171479 2.7550929e-40
0.037288338 -0.12853102 0.025167208 2.7550649e-40
0.038980797 -0.12748651 0.029099446 8.2831873e-40
0.040793911 -0.12748651 0.029099446 2.7550649e-40
0.042607024 -0.12748651 0.029099446 5.3462563e-39
0.044681296 -0.12932678 0.022171479 1.6501925e-38
0.046506554 -0.12932678 0.022171479 1.4012646e-38
-0.042160496 -0.14907773 -0.04486968 2.3234379e-38
-0.040092818 -0.14826734 -0.041838903 2.341805e-38
-0.038155325 -0.14826734 -0.041838903 2.341805e-38
-0.03606797 -0.14720438 -0.037863512 2.3509886e-38
-0.033995591 -0.14614908 -0.03391673 2.3509886e-38
-0.032071993 -0.14614908 -0.03391673 2.3509886e-38
-0.030048167 -0.14532293 -0.030826945 2.3509883e-38
-0.028006809 -0.14424954 -0.026812572 2.350988e-38
-0.025923053 -0.1426542 -0.020846028 2.350988e-38
-0.024022369 -0.1426542 -0.020846028 2.3509886e-38
-0.022021478 -0.1416003 -0.016904492 2.3509886e-38
-0.020127704 -0.1416003 -0.016904492 2.3509886e-38
-0.018080512 -0.13972856 -0.009904284 2.3509886e-38
-0.016137121 -0.13890781 -0.006834764 2.3509886e-38
-0.014206892 -0.13812189 -0.0038954206 2.3509886e-38
-0.012268579 -0.13704078 0.0001479201 2.3509886e-38
-0.010359811 -0.13623528 0.0031603388 2.3509886e-38
-0.0084618311 -0.13543437 0.0061557107 2.3509886e-38
-0.0065745469 -0.134638 0.0091341548 2.3509886e-38
-0.0046873279 -0.13355388 0.013188701 2.3509886e-38
-0.0028231293 -0.13276802 0.016127806 2.3509886e-38
-0.00096867606 -0.13195769 0.019158345 2.3509886e-38
0.00087507255 -0.13115202 0.022171479 2.3509886e-38
0.0027082115 -0.13035102 0.025167208 2.3509886e-38
0.0045282189 -0.13035102 0.025167208 2.3509886e-38
0.0063420944 -0.12848105 0.03216086 2.3509886e-38
0.0081341509 -0.12688623 0.038125377 2.3509886e-38
0.0099314395 -0.12688623 0.038125377 2.3048907e-38
0.011691912 -0.12528224 0.044124227 2.3509883e-38
0.013478681 -0.12528224 0.044124227 2.3048905e-38
0.015236779 -0.1244873 0.047097307 2.350988e-38
0.017018335 -0.1244873 0.047097307 2.2680477e-38
0.018799892 -0.1244873 0.047097307 1.6872152e-38
0.020581447 -0.1244873 0.047097307 8.2057628e-39
0.023145024 -0.13704078 0.0001479201 1.7520687e-39
0.024898294 -0.13543437 0.0061557107 3.5873241e-43
0.026751634 -0.13543437 0.0061557107 3.6913565e-40
0.028539697 -0.134638 0.0091341548 1.8439126e-40
0.030291844 -0.13355388 0.013188701 0
0.032058131 -0.13276802 0.016127806 2.8025969e-45
0.033811629 -0.13195769 0.019158345 2.8025969e-45
0.035554998 -0.13115202 0.022171479 6.4357715e-40
0.037288338 -0.13035102 0.025167208 2.7550929e-40
0.039108343 -0.13035102 0.025167208 2.7550649e-40
0.040928356 -0.13035102 0.025167208 1.2896514e-39
0.042748362 -0.13035102 0.025167208 2.6725831e-39
0.044681296 -0.13115202 0.022171479 1.4565817e-38
0.046506554 -0.13115202 0.022171479 1.5672167e-38
0.048331812 -0.13115202 0.022171479 8.112128e-39
-0.03606797 -0.14913492 -0.037863512 2.3509886e-38
-0.033995591 -0.14807267 -0.03391673 2.3509886e-38
-0.032071993 -0.14807267 -0.03391673 2.3509886e-38
-0.029917954 -0.14616071 -0.026812572 2.3509883e-38
-0.027823737 -0.14455487 -0.020846028 2.3509883e-38
-0.025809025 -0.14349405 -0.016904492 2.3509883e-38
-0.023915252 -0.14349405 -0.016904492 2.3509886e-38
-0.022021478 -0.14349405 -0.016904492 2.3509886e-38
-0.02005682 -0.14268802 -0.013909597 2.3509886e-38
-0.018080512 -0.14161004 -0.009904284 2.3509886e-38
-0.016137121 -0.14078392 -0.006834764 2.3509886e-38
-0.014132453 -0.13890465 0.0001479201 2.3509886e-38
-0.012218403 -0.13809387 0.0031603388 2.3509886e-38
-0.010359811 -0.13809387 0.0031603388 2.3509886e-38
