# .PCD v0.7 - Point Cloud Data file format
VERSION 0.7
FIELDS x y z rgb
SIZE 4 4 4 4
TYPE F F F F
COUNT 1 1 1 1
WIDTH 936
HEIGHT 1
VIEWPOINT 0 0 0 1 0 0 0
POINTS 936
DATA ascii
0.043615088 -0.088826358 0.034277361 2.3509886e-38
0.045526233 -0.088826358 0.034277361 2.3415539e-38
0.047437377 -0.088826358 0.034277361 2.6707894e-39
0.049348526 -0.088826358 0.034277361 8.2723693e-40
0.051326536 -0.089695618 0.030262988 1.6130596e-38
0.053503245 -0.092736378 0.016220253 2.1844253e-38
0.055446051 -0.092736378 0.016220253 1.6127789e-38
-0.066313997 -0.10800649 -0.044833023 6.4607706e-40
-0.064264148 -0.10800649 -0.044833023 2.7765888e-40
-0.062535346 -0.10886608 -0.048770744 1.152517e-38
-0.060478587 -0.10886608 -0.048770744 2.0744733e-38
-0.058421824 -0.10886608 -0.048770744 2.2404254e-38
-0.056365076 -0.10886608 -0.048770744 2.3417687e-38
-0.054308314 -0.10886608 -0.048770744 2.3418047e-38
-0.051965047 -0.10800649 -0.044833023 2.3233296e-38
-0.049915198 -0.10800649 -0.044833023 2.3325494e-38
-0.047585133 -0.1071233 -0.04078706 2.3509886e-38
-0.045271147 -0.10624625 -0.036769111 2.3509886e-38
-0.04323544 -0.10624625 -0.036769111 2.3509886e-38
-0.041199718 -0.10624625 -0.036769111 2.341769e-38
-0.038915638 -0.10537519 -0.032778818 2.341769e-38
-0.036647204 -0.10451011 -0.028815825 2.3509886e-38
-0.03462543 -0.10451011 -0.028815825 2.3509886e-38
-0.03260367 -0.10451011 -0.028815825 2.3509886e-38
-0.03035729 -0.10362239 -0.024749119 2.2956712e-38
-0.028342653 -0.10362239 -0.024749119 2.3141103e-38
-0.026328016 -0.10362239 -0.024749119 2.3233299e-38
-0.024118084 -0.10276926 -0.020840842 2.341769e-38
-0.022110302 -0.10276926 -0.020840842 2.3509886e-38
-0.019916166 -0.10189377 -0.016830165 2.3509886e-38
-0.017777447 -0.10122015 -0.013744313 2.3509886e-38
-0.015782099 -0.10122015 -0.013744313 2.341769e-38
-0.013623539 -0.10035546 -0.0097831078 2.3325494e-38
-0.011635143 -0.10035546 -0.0097831078 2.341769e-38
-0.00949369 -0.09946914 -0.0057228394 2.3509886e-38
-0.007512413 -0.09946914 -0.0057228394 2.3509886e-38
-0.0055311322 -0.09946914 -0.0057228394 2.3509886e-38
-0.0035498552 -0.09946914 -0.0057228394 2.341769e-38
-0.0014487393 -0.098616585 -0.0018171854 2.2680125e-38
0.00061263517 -0.097960562 0.0011880808 2.2034756e-38
0.0025817938 -0.097960562 0.0011880808 2.0283036e-38
0.0045509599 -0.097960562 0.0011880808 2.0744014e-38
0.0065201186 -0.097960562 0.0011880808 2.0651818e-38
0.0085765533 -0.097091287 0.0051702671 2.019084e-38
0.010538734 -0.097091287 0.0051702671 2.1020601e-38
0.012575973 -0.096201301 0.009247344 2.2587927e-38
0.014531005 -0.096201301 0.009247344 2.3325494e-38
0.016486034 -0.096201301 0.009247344 2.2956712e-38
0.018479813 -0.095558092 0.012193959 2.2587929e-38
0.020429675 -0.095558092 0.012193959 2.2956712e-38
0.022418369 -0.094679192 0.016220253 2.3509886e-38
0.024361173 -0.094679192 0.016220253 2.3509886e-38
0.026322577 -0.094017595 0.01925103 2.3509886e-38
0.028277492 -0.093149811 0.023226421 2.3509886e-38
0.030218393 -0.092288271 0.027173202 2.3233302e-38
0.032144703 -0.091613799 0.030262988 2.3048191e-38
0.034062885 -0.091613799 0.030262988 2.3509527e-38
0.035981067 -0.091613799 0.030262988 2.3509527e-38
0.037881657 -0.090737507 0.034277361 2.3416974e-38
0.039792798 -0.090737507 0.034277361 2.3509527e-38
0.041703947 -0.090737507 0.034277361 2.3141106e-38
0.043586805 -0.090097278 0.037210267 2.3509527e-38
0.045492809 -0.090097278 0.037210267 2.3415898e-38
0.047437377 -0.090737507 0.034277361 1.1045427e-39
0.049348526 -0.090737507 0.034277361 9.1978989e-40
0.051326536 -0.091613799 0.030262988 1.1705934e-38
0.053503245 -0.094679192 0.016220253 2.0738625e-38
0.055384938 -0.094017595 0.01925103 1.7327406e-38
0.057322428 -0.094017595 0.01925103 8.3855143e-39
-0.066313997 -0.11005636 -0.044833023 9.2337722e-40
-0.064264148 -0.11005636 -0.044833023 7.1746481e-43
-0.062535346 -0.11092283 -0.048770744 1.5213718e-38
-0.060478587 -0.11092283 -0.048770744 2.2958154e-38
-0.058421824 -0.11092283 -0.048770744 2.3234379e-38
-0.056365076 -0.11092283 -0.048770744 2.3234379e-38
-0.054308314 -0.11092283 -0.048770744 2.341805e-38
-0.051965047 -0.11005636 -0.044833023 2.3234018e-38
-0.049915198 -0.11005636 -0.044833023 2.341805e-38
-0.047585133 -0.10916607 -0.04078706 2.3509886e-38
-0.045271147 -0.10828196 -0.036769111 2.3509886e-38
-0.04323544 -0.10828196 -0.036769111 2.3509886e-38
-0.041199718 -0.10828196 -0.036769111 2.341769e-38
-0.038915638 -0.10740392 -0.032778818 2.341769e-38
-0.036647204 -0.10653187 -0.028815825 2.341769e-38
-0.03462543 -0.10653187 -0.028815825 2.3509886e-38
-0.03260367 -0.10653187 -0.028815825 2.3509886e-38
-0.03035729 -0.10563703 -0.024749119 2.3509886e-38
-0.028342653 -0.10563703 -0.024749119 2.3509886e-38
-0.026328016 -0.10563703 -0.024749119 2.3509886e-38
-0.024118084 -0.10477705 -0.020840842 2.3509886e-38
-0.022110302 -0.10477705 -0.020840842 2.3509886e-38
-0.019772787 -0.1032155 -0.013744313 2.3325494e-38
-0.017777447 -0.1032155 -0.013744313 2.3233299e-38
-0.015611935 -0.10234386 -0.0097831078 2.3141103e-38
-0.013623539 -0.10234386 -0.0097831078 2.3509886e-38
-0.011635143 -0.10234386 -0.0097831078 2.341769e-38
-0.00949369 -0.10145043 -0.0057228394 2.3325494e-38
-0.007512413 -0.10145043 -0.0057228394 2.341769e-38
-0.0053975992 -0.100591 -0.0018171854 2.3509886e-38
-0.0034231693 -0.100591 -0.0018171854 2.3509886e-38
-0.0013565272 -0.09992972 0.0011880808 2.3509886e-38
0.00061263517 -0.09992972 0.0011880808 2.3325494e-38
0.0026900209 -0.099053472 0.0051702671 2.3509883e-38
0.0046521984 -0.099053472 0.0051702671 2.3509883e-38
0.0066143759 -0.099053472 0.0051702671 2.3325492e-38
0.0085765533 -0.099053472 0.0051702671 2.2956709e-38
0.01062094 -0.098156333 0.009247344 2.3509883e-38
0.012575973 -0.098156333 0.009247344 2.3509883e-38
0.014531005 -0.098156333 0.009247344 2.3509886e-38
0.016486034 -0.098156333 0.009247344 2.3509886e-38
0.018479813 -0.097507954 0.012193959 2.3509886e-38
0.020475563 -0.09662199 0.016220253 2.3509886e-38
0.022418369 -0.09662199 0.016220253 2.2311345e-38
0.024385085 -0.095955089 0.01925103 2.0375237e-38
0.026322577 -0.095955089 0.01925103 1.9084498e-38
0.028277492 -0.095080331 0.023226421 1.9729868e-38
0.030208014 -0.095080331 0.023226421 2.2034758e-38
0.032144703 -0.093531981 0.030262988 2.3509886e-38
0.034062885 -0.093531981 0.030262988 2.2034393e-38
0.035981067 -0.093531981 0.030262988 2.350988e-38
0.037881657 -0.09264864 0.034277361 2.350988e-38
0.039792798 -0.09264864 0.034277361 2.341805e-38
0.041703947 -0.09264864 0.034277361 2.3049273e-38
0.043586805 -0.092003286 0.037210267 2.341805e-38
0.045492809 -0.092003286 0.037210267 2.3509527e-38
0.047437377 -0.09264864 0.034277361 3.6734198e-40
0.049348526 -0.09264864 0.034277361 6.4284847e-40
0.051377997 -0.094211861 0.027173202 5.8050597e-39
0.053503245 -0.09662199 0.016220253 1.612884e-38
0.055384938 -0.095955089 0.01925103 1.5668239e-38
0.057322428 -0.095955089 0.01925103 1.0413815e-38
-0.066313997 -0.11210622 -0.044833023 7.1746481e-43
-0.064264148 -0.11210622 -0.044833023 7.1746481e-43
-0.062535346 -0.11297958 -0.048770744 1.81647e-38
-0.060478587 -0.11297958 -0.048770744 2.3142544e-38
-0.058421824 -0.11297958 -0.048770744 2.3142544e-38
-0.056365076 -0.11297958 -0.048770744 2.3142544e-38
-0.054014895 -0.11210622 -0.044833023 2.3142544e-38
-0.051965047 -0.11210622 -0.044833023 2.3050349e-38
-0.049915198 -0.11210622 -0.044833023 2.3234379e-38
-0.047585133 -0.11120884 -0.04078706 2.304927e-38
-0.045271147 -0.11031766 -0.036769111 2.3141466e-38
-0.04323544 -0.11031766 -0.036769111 2.341769e-38
-0.041199718 -0.11031766 -0.036769111 2.341769e-38
-0.038915638 -0.10943262 -0.032778818 2.3509886e-38
-0.036647204 -0.10855366 -0.028815825 2.3509886e-38
-0.03462543 -0.10855366 -0.028815825 2.3509527e-38
-0.032371927 -0.10765167 -0.024749119 2.3509527e-38
-0.03035729 -0.10765167 -0.024749119 2.3233299e-38
-0.028342653 -0.10765167 -0.024749119 2.3233299e-38
-0.026328016 -0.10765167 -0.024749119 2.3233299e-38
-0.024118084 -0.10678484 -0.020840842 2.3325494e-38
-0.022110302 -0.10678484 -0.020840842 2.341769e-38
-0.019772787 -0.10521083 -0.013744313 2.3509886e-38
-0.017600339 -0.10433225 -0.0097831078 2.3509886e-38
-0.015611935 -0.10433225 -0.0097831078 2.3509886e-38
-0.013623539 -0.10433225 -0.0097831078 2.3509886e-38
-0.011635143 -0.10433225 -0.0097831078 2.341769e-38
-0.00949369 -0.10343169 -0.0057228394 2.3233299e-38
-0.007512413 -0.10343169 -0.0057228394 2.3233299e-38
-0.0053975992 -0.10256544 -0.0018171854 2.3325494e-38
-0.0034231693 -0.10256544 -0.0018171854 2.3509886e-38
-0.0013565272 -0.10189888 0.0011880808 2.3509886e-38
0.00072783977 -0.10101564 0.0051702671 2.3509886e-38
0.0026900209 -0.10101564 0.0051702671 2.3417687e-38
0.0046521984 -0.10101564 0.0051702671 2.3509883e-38
0.0066143759 -0.10101564 0.0051702671 2.3509883e-38
0.0085765533 -0.10101564 0.0051702671 2.3509883e-38
0.01062094 -0.10011137 0.009247344 2.3509883e-38
0.012575973 -0.10011137 0.009247344 2.3325492e-38
0.014531005 -0.10011137 0.009247344 2.2864516e-38
0.016486034 -0.10011137 0.009247344 2.2403538e-38
0.018532757 -0.098564804 0.016220253 2.3141103e-38
0.020475563 -0.098564804 0.016220253 2.3509886e-38
0.022447594 -0.097892582 0.01925103 2.3509886e-38
0.024385085 -0.097892582 0.01925103 2.3233302e-38
0.026322577 -0.097892582 0.01925103 2.1389389e-38
0.028277492 -0.097010851 0.023226421 1.9822063e-38
0.030218393 -0.096135467 0.027173202 1.9268889e-38
0.032144703 -0.095450163 0.030262988 1.9268887e-38
0.034062885 -0.095450163 0.030262988 2.1204628e-38
0.035981067 -0.095450163 0.030262988 2.3509876e-38
0.037881657 -0.094559789 0.034277361 2.3234004e-38
0.039792798 -0.094559789 0.034277361 2.3418043e-38
0.041703947 -0.094559789 0.034277361 2.3233662e-38
0.043586805 -0.093909279 0.037210267 2.3141467e-38
0.045492809 -0.093909279 0.037210267 2.2679406e-38
0.047437377 -0.094559789 0.034277361 2.7550649e-40
0.04940835 -0.095450163 0.030262988 6.4320721e-40
0.051377997 -0.096135467 0.027173202 2.1176002e-39
0.053447448 -0.097892582 0.01925103 1.1427936e-38
0.055304781 -0.097010851 0.023226421 1.5668952e-38
0.057235301 -0.097010851 0.023226421 1.3180763e-38
-0.068012699 -0.11325158 -0.04078706 1.3850812e-39
-0.065969944 -0.11325158 -0.04078706 7.1746481e-43
-0.064264148 -0.11415605 -0.044833023 1.4377322e-42
-0.062535346 -0.11503632 -0.048770744 1.963983e-38
-0.060478587 -0.11503632 -0.048770744 2.2774125e-38
-0.058421824 -0.11503632 -0.048770744 2.3142544e-38
-0.056365076 -0.11503632 -0.048770744 2.2865958e-38
-0.054014895 -0.11415605 -0.044833023 2.3050349e-38
-0.051965047 -0.11415605 -0.044833023 2.3050349e-38
-0.049915198 -0.11415605 -0.044833023 2.341805e-38
-0.047585133 -0.11325158 -0.04078706 2.3325856e-38
-0.045542378 -0.11325158 -0.04078706 2.341805e-38
-0.04323544 -0.11235337 -0.036769111 2.3509886e-38
-0.041199718 -0.11235337 -0.036769111 2.3509886e-38
-0.038915638 -0.11146136 -0.032778818 2.341769e-38
-0.036647204 -0.11057542 -0.028815825 2.3325494e-38
-0.03462543 -0.11057542 -0.028815825 2.3324775e-38
-0.032371927 -0.1096663 -0.024749119 2.3416971e-38
-0.03035729 -0.1096663 -0.024749119 2.3509886e-38
-0.028342653 -0.1096663 -0.024749119 2.3509886e-38
-0.026125867 -0.10879262 -0.020840842 2.3509886e-38
-0.024118084 -0.10879262 -0.020840842 2.3509886e-38
-0.021916915 -0.10789602 -0.016830165 2.3509886e-38
-0.019772787 -0.10720618 -0.013744313 2.3509886e-38
-0.017600339 -0.10632066 -0.0097831078 2.341769e-38
-0.015611935 -0.10632066 -0.0097831078 2.341769e-38
-0.013623539 -0.10632066 -0.0097831078 2.3233299e-38
-0.011635143 -0.10632066 -0.0097831078 2.3509886e-38
-0.00949369 -0.10541297 -0.0057228394 2.3509886e-38
-0.007512413 -0.10541297 -0.0057228394 2.3509886e-38
-0.0053975992 -0.10453986 -0.0018171854 2.3509886e-38
-0.0033256859 -0.10386805 0.0011880808 2.3509886e-38
-0.0013565272 -0.10386805 0.0011880808 2.3509886e-38
0.00072783977 -0.10297783 0.0051702671 2.3509886e-38
0.0026900209 -0.10297783 0.0051702671 2.3325492e-38
0.0046521984 -0.10297783 0.0051702671 2.3325492e-38
0.0066143759 -0.10297783 0.0051702671 2.3417687e-38
0.0085765533 -0.10297783 0.0051702671 2.3509883e-38
0.01062094 -0.1020664 0.009247344 2.3417687e-38
0.012575973 -0.1020664 0.009247344 2.31411e-38
0.014531005 -0.1020664 0.009247344 2.341769e-38
0.016486034 -0.1020664 0.009247344 2.3509886e-38
0.018532757 -0.1005076 0.016220253 2.341769e-38
0.020475563 -0.1005076 0.016220253 2.3233299e-38
0.022447594 -0.099830076 0.01925103 2.3233302e-38
0.024385085 -0.099830076 0.01925103 2.3417691e-38
0.026322577 -0.099830076 0.01925103 2.3509886e-38
0.028277492 -0.098941371 0.023226421 2.3509886e-38
0.030218393 -0.098059073 0.027173202 2.3509886e-38
0.032144703 -0.097368345 0.030262988 2.3509883e-38
0.034062885 -0.097368345 0.030262988 2.2864149e-38
0.035981067 -0.097368345 0.030262988 2.3509876e-38
0.037881657 -0.096470937 0.034277361 2.2864865e-38
0.039792798 -0.096470937 0.034277361 2.3418047e-38
0.041703947 -0.096470937 0.034277361 2.3050349e-38
0.043586805 -0.095815286 0.037210267 2.0653266e-38
0.045492809 -0.095815286 0.037210267 2.0283392e-38
0.047437377 -0.096470937 0.034277361 2.7586522e-40
0.04940835 -0.097368345 0.030262988 7.3540143e-40
0.051377997 -0.098059073 0.027173202 7.3468397e-40
0.053447448 -0.099830076 0.01925103 1.1612685e-38
0.055225201 -0.098059073 0.027173202 2.1662017e-38
0.057148799 -0.098059073 0.027173202 1.9634804e-38
-0.068012699 -0.11529435 -0.04078706 1.4783699e-39
-0.065969944 -0.11529435 -0.04078706 2.1608022e-42
-0.064264148 -0.11620592 -0.044833023 1.0818024e-42
-0.062535346 -0.1170931 -0.048770744 2.2035474e-38
-0.060478587 -0.1170931 -0.048770744 2.2864879e-38
-0.058421824 -0.1170931 -0.048770744 2.341805e-38
-0.056365076 -0.1170931 -0.048770744 2.341805e-38
-0.054014895 -0.11620592 -0.044833023 2.2773039e-38
-0.051965047 -0.11620592 -0.044833023 2.341805e-38
-0.049915198 -0.11620592 -0.044833023 2.3141103e-38
-0.047585133 -0.11529435 -0.04078706 2.3509886e-38
-0.045542378 -0.11529435 -0.04078706 2.3509886e-38
-0.04323544 -0.11438908 -0.036769111 2.3509886e-38
-0.041199718 -0.11438908 -0.036769111 2.3509886e-38
-0.038915638 -0.11349006 -0.032778818 2.3509886e-38
-0.036647204 -0.11259718 -0.028815825 2.3509886e-38
-0.034386564 -0.11168094 -0.024749119 2.3509886e-38
-0.032371927 -0.11168094 -0.024749119 2.3509886e-38
-0.03035729 -0.11168094 -0.024749119 2.3509886e-38
-0.028133649 -0.1108004 -0.020840842 2.3509886e-38
-0.026125867 -0.1108004 -0.020840842 2.3509886e-38
-0.024118084 -0.1108004 -0.020840842 2.3509886e-38
-0.021916915 -0.10989676 -0.016830165 2.3509886e-38
-0.019772787 -0.10920154 -0.013744313 2.3509886e-38
-0.017600339 -0.10830905 -0.0097831078 2.3509886e-38
-0.015611935 -0.10830905 -0.0097831078 2.3509886e-38
-0.013623539 -0.10830905 -0.0097831078 2.3509886e-38
-0.011635143 -0.10830905 -0.0097831078 2.3509886e-38
-0.00949369 -0.10739426 -0.0057228394 2.3509886e-38
-0.007512413 -0.10739426 -0.0057228394 2.3509886e-38
-0.0053975992 -0.10651429 -0.0018171854 2.3509886e-38
-0.0033256859 -0.10583721 0.0011880808 2.3509886e-38
-0.0013565272 -0.10583721 0.0011880808 2.3509886e-38
0.00072783977 -0.10494001 0.0051702671 2.3509886e-38
0.0026900209 -0.10494001 0.0051702671 2.3509886e-38
0.0046521984 -0.10494001 0.0051702671 2.3509886e-38
0.0066143759 -0.10494001 0.0051702671 2.3509886e-38
0.0085765533 -0.10494001 0.0051702671 2.3509886e-38
0.01062094 -0.10402142 0.009247344 2.3509886e-38
0.012630221 -0.10335754 0.012193959 2.3509886e-38
0.014580082 -0.10335754 0.012193959 2.3509886e-38
0.016529948 -0.10335754 0.012193959 2.3509886e-38
0.018532757 -0.1024504 0.016220253 2.3509886e-38
0.020510104 -0.10176755 0.01925103 2.3509886e-38
0.022447594 -0.10176755 0.01925103 2.3509886e-38
0.024385085 -0.10176755 0.01925103 2.3509886e-38
0.026346972 -0.10087189 0.023226421 2.3509886e-38
0.028294792 -0.099982664 0.027173202 2.3509886e-38
0.030218393 -0.099982664 0.027173202 2.3509886e-38
0.032141991 -0.099982664 0.027173202 2.3509883e-38
0.034062885 -0.099286526 0.030262988 2.3509879e-38
0.035981067 -0.099286526 0.030262988 2.3508801e-38
0.037881657 -0.098382086 0.034277361 2.2956359e-38
0.039792798 -0.098382086 0.034277361 2.3234379e-38
0.041703947 -0.098382086 0.034277361 2.286632e-38
0.043615088 -0.098382086 0.034277361 2.2406049e-38
0.045526233 -0.098382086 0.034277361 1.8717134e-38
0.047437377 -0.098382086 0.034277361 9.2552961e-41
0.04940835 -0.099286526 0.030262988 5.5101298e-40
0.051443741 -0.10087189 0.023226421 7.3468397e-40
0.053447448 -0.10176755 0.01925103 8.4769519e-39
0.055225201 -0.099982664 0.027173202 2.2215899e-38
0.057148799 -0.099982664 0.027173202 2.046634e-38
-0.062858552 -0.12005 -0.052735168 2.2587929e-38
-0.060794849 -0.12005 -0.052735168 2.3233299e-38
-0.058421824 -0.11914985 -0.048770744 2.3509886e-38
-0.056365076 -0.11914985 -0.048770744 2.3509886e-38
-0.054014895 -0.11825575 -0.044833023 2.2864516e-38
-0.051965047 -0.11825575 -0.044833023 2.3509886e-38
-0.049627889 -0.11733709 -0.04078706 2.3325494e-38
-0.047585133 -0.11733709 -0.04078706 2.3509886e-38
-0.045271147 -0.11642478 -0.036769111 2.3509886e-38
-0.04323544 -0.11642478 -0.036769111 2.3509886e-38
-0.040944356 -0.11551876 -0.032778818 2.3509886e-38
-0.038668964 -0.11461894 -0.028815825 2.3509886e-38
-0.036401201 -0.11369558 -0.024749119 2.3509886e-38
-0.034386564 -0.11369558 -0.024749119 2.3509886e-38
-0.032371927 -0.11369558 -0.024749119 2.3509886e-38
-0.030141447 -0.11280818 -0.020840842 2.3509886e-38
-0.028133649 -0.11280818 -0.020840842 2.3509886e-38
-0.026125867 -0.11280818 -0.020840842 2.3509886e-38
-0.023917671 -0.11189754 -0.016830165 2.3509886e-38
-0.021768127 -0.11119686 -0.013744313 2.3509886e-38
-0.019772787 -0.11119686 -0.013744313 2.3509886e-38
-0.017600339 -0.11029746 -0.0097831078 2.3509886e-38
-0.015611935 -0.11029746 -0.0097831078 2.3509886e-38
-0.013623539 -0.11029746 -0.0097831078 2.3509886e-38
-0.011474971 -0.10937552 -0.0057228394 2.3509886e-38
-0.00949369 -0.10937552 -0.0057228394 2.3509886e-38
-0.0073720291 -0.10848872 -0.0018171854 2.3509886e-38
-0.0053975992 -0.10848872 -0.0018171854 2.3509886e-38
-0.0033256859 -0.10780637 0.0011880808 2.3509886e-38
-0.0013565272 -0.10780637 0.0011880808 2.3509886e-38
0.00072783977 -0.1069022 0.0051702671 2.3509886e-38
0.0026900209 -0.1069022 0.0051702671 2.3509886e-38
0.0046521984 -0.1069022 0.0051702671 2.3509886e-38
0.0066143759 -0.1069022 0.0051702671 2.3509886e-38
0.0086659119 -0.10597645 0.009247344 2.3509886e-38
0.01062094 -0.10597645 0.009247344 2.3509886e-38
0.012630221 -0.10530742 0.012193959 2.3509886e-38
0.014580082 -0.10530742 0.012193959 2.3509886e-38
0.016589951 -0.1043932 0.016220253 2.3509886e-38
0.018572614 -0.10370506 0.01925103 2.3509886e-38
0.020510104 -0.10370506 0.01925103 2.3509886e-38
0.022447594 -0.10370506 0.01925103 2.3509886e-38
0.02441645 -0.10280241 0.023226421 2.3509886e-38
0.026346972 -0.10280241 0.023226421 2.3509886e-38
0.028294792 -0.10190627 0.027173202 2.3509886e-38
0.030218393 -0.10190627 0.027173202 2.3509886e-38
0.032141991 -0.10190627 0.027173202 2.3509883e-38
0.034062885 -0.10120471 0.030262988 2.3508079e-38
0.035981067 -0.10120471 0.030262988 2.3509165e-38
0.037881657 -0.10029322 0.034277361 2.3509168e-38
0.039792798 -0.10029322 0.034277361 2.323402e-38
0.041703947 -0.10029322 0.034277361 2.2682286e-38
0.043615088 -0.10029322 0.034277361 2.3142537e-38
0.045526233 -0.10029322 0.034277361 2.1484077e-38
0.047437377 -0.10029322 0.034277361 2.7694142e-40
0.04940835 -0.10120471 0.030262988 1.1038196e-39
0.051560439 -0.1043932 0.016220253 7.3468397e-40
0.053503245 -0.1043932 0.016220253 5.3426564e-39
0.055446051 -0.1043932 0.016220253 2.1847468e-38
-0.064922258 -0.12211372 -0.052735168 4.6134109e-40
-0.062858552 -0.12211372 -0.052735168 2.3141103e-38
-0.060794849 -0.12211372 -0.052735168 2.3509886e-38
-0.058421824 -0.1212066 -0.048770744 2.3325494e-38
-0.056365076 -0.1212066 -0.048770744 2.3509886e-38
-0.054014895 -0.12030561 -0.044833023 2.2956712e-38
-0.051670644 -0.11937986 -0.04078706 2.3509886e-38
-0.049627889 -0.11937986 -0.04078706 2.3509886e-38
-0.047585133 -0.11937986 -0.04078706 2.3509886e-38
-0.045271147 -0.11846052 -0.036769111 2.3509886e-38
-0.04323544 -0.11846052 -0.036769111 2.3509886e-38
-0.040944356 -0.1175475 -0.032778818 2.3509886e-38
-0.038668964 -0.11664073 -0.028815825 2.3509886e-38
-0.036401201 -0.11571021 -0.024749119 2.3509886e-38
-0.034386564 -0.11571021 -0.024749119 2.3509886e-38
-0.032149229 -0.11481597 -0.020840842 2.3509886e-38
-0.030141447 -0.11481597 -0.020840842 2.3509886e-38
-0.028133649 -0.11481597 -0.020840842 2.3509886e-38
-0.025918428 -0.11389829 -0.016830165 2.3509886e-38
-0.023763467 -0.11319222 -0.013744313 2.3509886e-38
-0.021768127 -0.11319222 -0.013744313 2.3509886e-38
-0.019588735 -0.11228584 -0.0097831078 2.3509886e-38
-0.017600339 -0.11228584 -0.0097831078 2.3509886e-38
-0.015611935 -0.11228584 -0.0097831078 2.3509886e-38
-0.013623539 -0.11228584 -0.0097831078 2.3509886e-38
-0.011474971 -0.11135681 -0.0057228394 2.3509886e-38
-0.00949369 -0.11135681 -0.0057228394 2.3509886e-38
-0.0073720291 -0.11046316 -0.0018171854 2.3509886e-38
-0.0053975992 -0.11046316 -0.0018171854 2.3509886e-38
-0.0033256859 -0.10977553 0.0011880808 2.3509886e-38
-0.0013565272 -0.10977553 0.0011880808 2.3509886e-38
0.00072783977 -0.10886435 0.0051702671 2.3509886e-38
0.0028008185 -0.10793148 0.009247344 2.3509886e-38
0.0047558509 -0.10793148 0.009247344 2.3509886e-38
0.0066143759 -0.10886435 0.0051702671 2.3509886e-38
0.0086659119 -0.10793148 0.009247344 2.3509886e-38
0.010680355 -0.10725726 0.012193959 2.3509886e-38
0.012630221 -0.10725726 0.012193959 2.3509886e-38
0.014647149 -0.10633601 0.016220253 2.3509886e-38
0.016589951 -0.10633601 0.016220253 2.3509886e-38
0.018572614 -0.10564254 0.01925103 2.3509886e-38
0.020510104 -0.10564254 0.01925103 2.3509886e-38
0.02248593 -0.10473295 0.023226421 2.3509886e-38
0.02441645 -0.10473295 0.023226421 2.3509886e-38
0.026371192 -0.10382988 0.027173202 2.3509886e-38
0.028294792 -0.10382988 0.027173202 2.3509886e-38
0.030218393 -0.10382988 0.027173202 2.3509886e-38
0.032141991 -0.10382988 0.027173202 2.3509883e-38
0.034062885 -0.1031229 0.030262988 2.350952e-38
0.035981067 -0.1031229 0.030262988 2.3509165e-38
0.037881657 -0.10220437 0.034277361 2.3509168e-38
0.039792798 -0.10220437 0.034277361 2.2957438e-38
0.041703947 -0.10220437 0.034277361 2.2774481e-38
0.043615088 -0.10220437 0.034277361 2.3142537e-38
0.045526233 -0.10220437 0.034277361 2.3142523e-38
0.047490168 -0.1031229 0.030262988 2.7694142e-40
0.04940835 -0.1031229 0.030262988 6.4284847e-40
0.051560439 -0.10633601 0.016220253 7.3468397e-40
0.053503245 -0.10633601 0.016220253 3.0377656e-39
0.055446051 -0.10633601 0.016220253 2.2308446e-38
-0.062858552 -0.12417741 -0.052735168 2.3325494e-38
-0.060794849 -0.12417741 -0.052735168 2.3509886e-38
-0.058421824 -0.12326337 -0.048770744 2.3233299e-38
-0.056064744 -0.12235548 -0.044833023 2.3509886e-38
-0.054014895 -0.12235548 -0.044833023 2.3141103e-38
-0.051670644 -0.1214226 -0.04078706 2.341769e-38
-0.049627889 -0.1214226 -0.04078706 2.3509886e-38
-0.047585133 -0.1214226 -0.04078706 2.3509886e-38
-0.045271147 -0.12049623 -0.036769111 2.3509886e-38
-0.04323544 -0.12049623 -0.036769111 2.3509886e-38
-0.040944356 -0.1195762 -0.032778818 2.3509886e-38
-0.038668964 -0.11866249 -0.028815825 2.3509886e-38
-0.036164794 -0.11682375 -0.020840842 2.3509886e-38
-0.034157012 -0.11682375 -0.020840842 2.3509886e-38
-0.032149229 -0.11682375 -0.020840842 2.3509886e-38
-0.029919926 -0.11589904 -0.016830165 2.3509886e-38
-0.027919177 -0.11589904 -0.016830165 2.3509886e-38
-0.025918428 -0.11589904 -0.016830165 2.3509886e-38
-0.023763467 -0.11518754 -0.013744313 2.3509886e-38
-0.021768127 -0.11518754 -0.013744313 2.3509886e-38
-0.019588735 -0.11427425 -0.0097831078 2.3509886e-38
-0.017600339 -0.11427425 -0.0097831078 2.3509886e-38
-0.015611935 -0.11427425 -0.0097831078 2.3509886e-38
-0.013456244 -0.1133381 -0.0057228394 2.3509886e-38
-0.011474971 -0.1133381 -0.0057228394 2.3509886e-38
-0.00949369 -0.1133381 -0.0057228394 2.3509886e-38
-0.0073720291 -0.11243759 -0.0018171854 2.3509886e-38
-0.0053975992 -0.11243759 -0.0018171854 2.3509886e-38
-0.0033256859 -0.11174469 0.0011880808 2.3509886e-38
-0.0012343377 -0.11082654 0.0051702671 2.3509886e-38
0.00072783977 -0.11082654 0.0051702671 2.3509886e-38
0.0028008185 -0.10988651 0.009247344 2.3509886e-38
0.0047558509 -0.10988651 0.009247344 2.3509886e-38
0.0066143759 -0.11082654 0.0051702671 2.3509886e-38
0.0087304898 -0.10920714 0.012193959 2.3509886e-38
0.010680355 -0.10920714 0.012193959 2.3509886e-38
0.012704346 -0.10827883 0.016220253 2.3509886e-38
0.014647149 -0.10827883 0.016220253 2.3509886e-38
0.016635124 -0.10758002 0.01925103 2.3509886e-38
0.018572614 -0.10758002 0.01925103 2.3509886e-38
0.020555411 -0.10666345 0.023226421 2.3509886e-38
0.02248593 -0.10666345 0.023226421 2.3509886e-38
0.02444759 -0.10575347 0.027173202 2.3509886e-38
0.026371192 -0.10575347 0.027173202 2.3509886e-38
0.028308336 -0.10504107 0.030262988 2.3509886e-38
0.030226519 -0.10504107 0.030262988 2.3509886e-38
0.032144703 -0.10504107 0.030262988 2.3509883e-38
0.034062885 -0.10504107 0.030262988 2.350952e-38
0.035981067 -0.10504107 0.030262988 2.3323334e-38
0.037881657 -0.1041155 0.034277361 2.3140391e-38
0.039792798 -0.1041155 0.034277361 2.3417691e-38
0.041703947 -0.1041155 0.034277361 2.3050708e-38
0.043615088 -0.1041155 0.034277361 2.2867026e-38
0.045526233 -0.1041155 0.034277361 2.1483001e-38
0.0475308 -0.10575347 0.027173202 9.2552961e-41
0.049454398 -0.10575347 0.027173202 5.5101298e-40
0.051509954 -0.10758002 0.01925103 1.3786128e-39
0.053447448 -0.10758002 0.01925103 1.6555515e-39
0.055384938 -0.10758002 0.01925103 2.1939663e-38
-0.063183963 -0.12716834 -0.056726415 2.3141103e-38
-0.060794849 -0.12624113 -0.052735168 2.3509886e-38
-0.058421824 -0.12532012 -0.048770744 2.3325494e-38
-0.056064744 -0.12440531 -0.044833023 2.3509886e-38
-0.054014895 -0.12440531 -0.044833023 2.3325494e-38
-0.051670644 -0.12346537 -0.04078706 2.3233299e-38
-0.049627889 -0.12346537 -0.04078706 2.3509886e-38
-0.047306854 -0.12253194 -0.036769111 2.3509886e-38
-0.045271147 -0.12253194 -0.036769111 2.3509886e-38
-0.04323544 -0.12253194 -0.036769111 2.3509886e-38
-0.040944356 -0.12160493 -0.032778818 2.3509886e-38
-0.038415838 -0.11973949 -0.024749119 2.3509886e-38
-0.036164794 -0.11883153 -0.020840842 2.3509886e-38
-0.034157012 -0.11883153 -0.020840842 2.3509886e-38
-0.032149229 -0.11883153 -0.020840842 2.3509886e-38
-0.029919926 -0.11789979 -0.016830165 2.3509886e-38
-0.027919177 -0.11789979 -0.016830165 2.3509886e-38
-0.025918428 -0.11789979 -0.016830165 2.3509886e-38
-0.023763467 -0.1171829 -0.013744313 2.3509886e-38
-0.021768127 -0.1171829 -0.013744313 2.3509886e-38
-0.019588735 -0.11626263 -0.0097831078 2.3509886e-38
-0.017600339 -0.11626263 -0.0097831078 2.3509886e-38
-0.015611935 -0.11626263 -0.0097831078 2.3509886e-38
-0.013456244 -0.11531936 -0.0057228394 2.3509886e-38
-0.011474971 -0.11531936 -0.0057228394 2.3509886e-38
-0.00949369 -0.11531936 -0.0057228394 2.3509886e-38
-0.0073720291 -0.11441202 -0.0018171854 2.3509886e-38
-0.0053975992 -0.11441202 -0.0018171854 2.3509886e-38
-0.0033256859 -0.11371385 0.0011880808 2.3509886e-38
-0.0012343377 -0.11278872 0.0051702671 2.3509886e-38
0.00072783977 -0.11278872 0.0051702671 2.3509886e-38
0.0026900209 -0.11278872 0.0051702671 2.3509886e-38
0.0046521984 -0.11278872 0.0051702671 2.3509886e-38
0.0067108832 -0.11184154 0.009247344 2.3509886e-38
0.0087304898 -0.11115701 0.012193959 2.3509886e-38
0.010680355 -0.11115701 0.012193959 2.3509886e-38
0.012704346 -0.11022164 0.016220253 2.3509886e-38
0.014647149 -0.11022164 0.016220253 2.3509886e-38
0.016694371 -0.10859399 0.023226421 2.3509886e-38
0.018624891 -0.10859399 0.023226421 2.3509886e-38
0.02060039 -0.10767709 0.027173202 2.3509886e-38
0.022523992 -0.10767709 0.027173202 2.3509886e-38
0.02444759 -0.10767709 0.027173202 2.3509886e-38
0.026390154 -0.10695927 0.030262988 2.3509886e-38
0.028308336 -0.10695927 0.030262988 2.3509886e-38
0.030226519 -0.10695927 0.030262988 2.3509886e-38
0.032144703 -0.10695927 0.030262988 2.3509883e-38
0.034062885 -0.10695927 0.030262988 2.3509879e-38
0.035970509 -0.10602666 0.034277361 2.3231857e-38
0.037881657 -0.10602666 0.034277361 2.3416615e-38
0.039792798 -0.10602666 0.034277361 2.3417691e-38
0.041703947 -0.10602666 0.034277361 2.3234379e-38
0.043615088 -0.10602666 0.034277361 2.2681917e-38
0.045571983 -0.10695927 0.030262988 1.9085916e-38
0.047490168 -0.10695927 0.030262988 9.2194229e-41
0.049454398 -0.10767709 0.027173202 3.6734198e-40
0.051509954 -0.10951753 0.01925103 1.1949404e-39
0.053447448 -0.10951753 0.01925103 6.4284847e-40
0.055384938 -0.10951753 0.01925103 2.0465252e-38
-0.062858552 -0.12830482 -0.052735168 2.3048907e-38
-0.060794849 -0.12830482 -0.052735168 2.3509886e-38
-0.058421824 -0.12737687 -0.048770744 2.3509886e-38
-0.056064744 -0.12645517 -0.044833023 2.3509886e-38
-0.0537134 -0.12550814 -0.04078706 2.341769e-38
-0.051670644 -0.12550814 -0.04078706 2.3325494e-38
-0.049627889 -0.12550814 -0.04078706 2.341769e-38
-0.047306854 -0.12456764 -0.036769111 2.3509886e-38
-0.045271147 -0.12456764 -0.036769111 2.3509886e-38
-0.042973075 -0.12363364 -0.032778818 2.3509886e-38
-0.040690739 -0.12270601 -0.028815825 2.3509886e-38
-0.038415838 -0.12175412 -0.024749119 2.3509886e-38
-0.036164794 -0.12083931 -0.020840842 2.3509886e-38
-0.034157012 -0.12083931 -0.020840842 2.3509886e-38
-0.032149229 -0.12083931 -0.020840842 2.3509886e-38
-0.029919926 -0.11990054 -0.016830165 2.3509886e-38
-0.027919177 -0.11990054 -0.016830165 2.3509886e-38
-0.025758814 -0.11917825 -0.013744313 2.3509886e-38
-0.023763467 -0.11917825 -0.013744313 2.3509886e-38
-0.021577131 -0.11825104 -0.0097831078 2.3509886e-38
-0.019588735 -0.11825104 -0.0097831078 2.3509886e-38
-0.017600339 -0.11825104 -0.0097831078 2.3509886e-38
-0.015437525 -0.11730064 -0.0057228394 2.3509886e-38
-0.013456244 -0.11730064 -0.0057228394 2.3509886e-38
-0.011474971 -0.11730064 -0.0057228394 2.3509886e-38
-0.00949369 -0.11730064 -0.0057228394 2.3509886e-38
-0.0072640106 -0.115683 0.0011880808 2.3509886e-38
-0.0052948482 -0.115683 0.0011880808 2.3509886e-38
-0.0033256859 -0.115683 0.0011880808 2.3509886e-38
-0.0012343377 -0.11475091 0.0051702671 2.3509886e-38
0.00072783977 -0.11475091 0.0051702671 2.3509886e-38
0.0026900209 -0.11475091 0.0051702671 2.3509886e-38
0.0046521984 -0.11475091 0.0051702671 2.3509886e-38
0.0067108832 -0.11379658 0.009247344 2.3509886e-38
0.0087304898 -0.11310686 0.012193959 2.3509886e-38
0.01082265 -0.11145501 0.01925103 2.3509886e-38
0.01276014 -0.11145501 0.01925103 2.3509886e-38
0.01469763 -0.11145501 0.01925103 2.3509886e-38
0.016694371 -0.11052449 0.023226421 2.3509886e-38
0.018624891 -0.11052449 0.023226421 2.3509886e-38
0.02060039 -0.10960068 0.027173202 2.3509886e-38
0.022523992 -0.10960068 0.027173202 2.3509886e-38
0.02444759 -0.10960068 0.027173202 2.3509886e-38
0.026390154 -0.10887744 0.030262988 2.3509886e-38
0.028308336 -0.10887744 0.030262988 2.3509886e-38
0.030226519 -0.10887744 0.030262988 2.3509886e-38
0.032144703 -0.10887744 0.030262988 2.3509883e-38
0.034062885 -0.10887744 0.030262988 2.3140016e-38
0.035970509 -0.1079378 0.034277361 2.3509524e-38
0.037881657 -0.1079378 0.034277361 2.3509168e-38
0.039792798 -0.1079378 0.034277361 2.3509168e-38
0.041703947 -0.1079378 0.034277361 2.341805e-38
0.043615088 -0.1079378 0.034277361 2.3418045e-38
0.045571983 -0.10887744 0.030262988 1.650372e-38
0.047490168 -0.10887744 0.030262988 9.2194229e-41
0.049454398 -0.10960068 0.027173202 8.279558e-40
0.051443741 -0.11052449 0.023226421 5.5101298e-40
0.053374261 -0.11052449 0.023226421 5.5101298e-40
0.055304781 -0.11052449 0.023226421 1.9358905e-38
-0.062858552 -0.13036855 -0.052735168 2.3233299e-38
-0.060794849 -0.13036855 -0.052735168 2.3509886e-38
-0.058421824 -0.12943362 -0.048770744 2.3509886e-38
-0.056064744 -0.12850504 -0.044833023 2.3325494e-38
-0.0537134 -0.12755089 -0.04078706 2.341769e-38
-0.051670644 -0.12755089 -0.04078706 2.3509886e-38
-0.049342576 -0.12660335 -0.036769111 2.341769e-38
-0.047306854 -0.12660335 -0.036769111 2.3509886e-38
-0.045001794 -0.12566237 -0.032778818 2.3509886e-38
-0.042973075 -0.12566237 -0.032778818 2.3509886e-38
-0.040690739 -0.1247278 -0.028815825 2.3509886e-38
-0.038415838 -0.12376876 -0.024749119 2.3509886e-38
-0.036164794 -0.1228471 -0.020840842 2.3509886e-38
-0.033921439 -0.12190129 -0.016830165 2.3509886e-38
-0.03192069 -0.12190129 -0.016830165 2.3509886e-38
-0.029749501 -0.12117358 -0.013744313 2.3509886e-38
-0.027754154 -0.12117358 -0.013744313 2.3509886e-38
-0.025553931 -0.12023942 -0.0097831078 2.3509886e-38
-0.023565535 -0.12023942 -0.0097831078 2.3509886e-38
-0.021577131 -0.12023942 -0.0097831078 2.3509886e-38
-0.019588735 -0.12023942 -0.0097831078 2.3509886e-38
-0.017600339 -0.12023942 -0.0097831078 2.3509886e-38
-0.015437525 -0.11928193 -0.0057228394 2.3509886e-38
-0.013456244 -0.11928193 -0.0057228394 2.3509886e-38
-0.011320893 -0.11836089 -0.0018171854 2.3509886e-38
-0.0092331655 -0.11765216 0.0011880808 2.3509886e-38
-0.0072640106 -0.11765216 0.0011880808 2.3509886e-38
-0.0052948482 -0.11765216 0.0011880808 2.3509886e-38
-0.0031965189 -0.11671309 0.0051702671 2.3509886e-38
-0.0012343377 -0.11671309 0.0051702671 2.3509886e-38
0.00072783977 -0.11671309 0.0051702671 2.3509886e-38
0.0026900209 -0.11671309 0.0051702671 2.3509886e-38
0.0046521984 -0.11671309 0.0051702671 2.3509886e-38
0.0067108832 -0.11575161 0.009247344 2.3509886e-38
0.0087304898 -0.11505674 0.012193959 2.3509886e-38
0.01082265 -0.11339252 0.01925103 2.3509886e-38
0.01276014 -0.11339252 0.01925103 2.3509886e-38
0.01469763 -0.11339252 0.01925103 2.3509886e-38
0.016635124 -0.11339252 0.01925103 2.3509886e-38
0.018624891 -0.11245503 0.023226421 2.3509886e-38
0.020555411 -0.11245503 0.023226421 2.3509886e-38
0.022523992 -0.11152427 0.027173202 2.3509886e-38
0.02444759 -0.11152427 0.027173202 2.3509886e-38
0.026390154 -0.11079563 0.030262988 2.3509886e-38
0.028308336 -0.11079563 0.030262988 2.3509886e-38
0.030226519 -0.11079563 0.030262988 2.3509886e-38
0.032144703 -0.11079563 0.030262988 2.3509883e-38
0.034059368 -0.10984896 0.034277361 2.2864149e-38
0.035970509 -0.10984896 0.034277361 2.3509883e-38
0.037881657 -0.10984896 0.034277361 2.3509168e-38
0.039792798 -0.10984896 0.034277361 2.3232585e-38
0.041703947 -0.10984896 0.034277361 2.3509527e-38
0.043615088 -0.10984896 0.034277361 2.2772674e-38
0.045526233 -0.10984896 0.034277361 1.1801745e-38
0.0475308 -0.11152427 0.027173202 1.8438846e-40
0.049454398 -0.11152427 0.027173202 8.279558e-40
0.051377997 -0.11152427 0.027173202 3.6734198e-40
0.053374261 -0.11245503 0.023226421 1.0127016e-39
0.055304781 -0.11245503 0.023226421 1.6224974e-38
0.057322428 -0.11339252 0.01925103 2.1481196e-38
-0.062858552 -0.13243224 -0.052735168 2.3509886e-38
-0.060478587 -0.13149039 -0.048770744 2.341769e-38
-0.058114592 -0.13055487 -0.044833023 2.3509886e-38
-0.055756155 -0.12959366 -0.04078706 2.3141103e-38
-0.0537134 -0.12959366 -0.04078706 2.341769e-38
-0.051378284 -0.12863909 -0.036769111 2.3509886e-38
-0.049342576 -0.12863909 -0.036769111 2.341769e-38
-0.047306854 -0.12863909 -0.036769111 2.3509886e-38
-0.045001794 -0.12769108 -0.032778818 2.3509886e-38
-0.042973075 -0.12769108 -0.032778818 2.3509886e-38
-0.040690739 -0.12674956 -0.028815825 2.3509886e-38
-0.038668964 -0.12674956 -0.028815825 2.3509886e-38
-0.036164794 -0.12485488 -0.020840842 2.3509886e-38
-0.033921439 -0.12390204 -0.016830165 2.3509886e-38
-0.031744841 -0.12316893 -0.013744313 2.3509886e-38
-0.029749501 -0.12316893 -0.013744313 2.3509886e-38
-0.027754154 -0.12316893 -0.013744313 2.3509886e-38
-0.025553931 -0.12222783 -0.0097831078 2.3509886e-38
-0.023565535 -0.12222783 -0.0097831078 2.3509886e-38
-0.021577131 -0.12222783 -0.0097831078 2.3509886e-38
-0.019588735 -0.12222783 -0.0097831078 2.3509886e-38
-0.017600339 -0.12222783 -0.0097831078 2.3509886e-38
-0.015437525 -0.12126322 -0.0057228394 2.3509886e-38
-0.013456244 -0.12126322 -0.0057228394 2.3509886e-38
-0.011320893 -0.12033533 -0.0018171854 2.3509886e-38
-0.0092331655 -0.11962132 0.0011880808 2.3509886e-38
-0.0072640106 -0.11962132 0.0011880808 2.3509886e-38
-0.0052948482 -0.11962132 0.0011880808 2.3509886e-38
-0.0031965189 -0.11867525 0.0051702671 2.3509886e-38
-0.0012343377 -0.11867525 0.0051702671 2.3509886e-38
0.00072783977 -0.11867525 0.0051702671 2.3509886e-38
0.0026900209 -0.11867525 0.0051702671 2.3509886e-38
0.0046521984 -0.11867525 0.0051702671 2.3509886e-38
0.0067108832 -0.11770664 0.009247344 2.3509886e-38
0.0087304898 -0.11700659 0.012193959 2.3509886e-38
0.010680355 -0.11700659 0.012193959 2.3509886e-38
0.012704346 -0.11605005 0.016220253 2.3509886e-38
0.01469763 -0.11533 0.01925103 2.3509886e-38
0.016635124 -0.11533 0.01925103 2.3509886e-38
0.018624891 -0.11438553 0.023226421 2.3509886e-38
0.020555411 -0.11438553 0.023226421 2.3509886e-38
0.022523992 -0.11344786 0.027173202 2.3509886e-38
0.02444759 -0.11344786 0.027173202 2.3509886e-38
0.026390154 -0.1127138 0.030262988 2.3509886e-38
0.028308336 -0.1127138 0.030262988 2.3509886e-38
0.030226519 -0.1127138 0.030262988 2.3509886e-38
0.03214822 -0.11176009 0.034277361 2.3509883e-38
0.034059368 -0.11176009 0.034277361 2.3509879e-38
0.035970509 -0.11176009 0.034277361 2.3509883e-38
0.037881657 -0.11176009 0.034277361 2.3232585e-38
0.039792798 -0.11176009 0.034277361 2.332478e-38
0.041703947 -0.11176009 0.034277361 2.3509527e-38
0.043615088 -0.11176009 0.034277361 2.0743651e-38
0.045526233 -0.11176009 0.034277361 7.3756364e-39
0.0475308 -0.11344786 0.027173202 2.7550649e-40
0.049454398 -0.11344786 0.027173202 3.6734198e-40
0.051377997 -0.11344786 0.027173202 2.7550649e-40
0.053374261 -0.11438553 0.023226421 1.0123429e-39
0.055304781 -0.11438553 0.023226421 1.1615911e-38
0.057148799 -0.11344786 0.027173202 1.8991914e-38
0.059072401 -0.11344786 0.027173202 2.0466691e-38
-0.062858552 -0.13449596 -0.052735168 2.3233299e-38
-0.060164455 -0.13260473 -0.044833023 2.3509886e-38
-0.057798911 -0.1316364 -0.04078706 2.2864516e-38
-0.055756155 -0.1316364 -0.04078706 2.3509886e-38
-0.053414006 -0.13067479 -0.036769111 2.3141103e-38
-0.051378284 -0.13067479 -0.036769111 2.3509886e-38
-0.049342576 -0.13067479 -0.036769111 2.341769e-38
-0.047030512 -0.12971978 -0.032778818 2.3509886e-38
-0.044734273 -0.12877132 -0.028815825 2.3509886e-38
-0.042712513 -0.12877132 -0.028815825 2.3509886e-38
-0.040690739 -0.12877132 -0.028815825 2.3509886e-38
-0.038172577 -0.12686269 -0.020840842 2.3509886e-38
-0.036164794 -0.12686269 -0.020840842 2.3509886e-38
-0.033921439 -0.12590279 -0.016830165 2.3509886e-38
-0.031744841 -0.12516426 -0.013744313 2.3509886e-38
-0.029749501 -0.12516426 -0.013744313 2.3509886e-38
-0.027754154 -0.12516426 -0.013744313 2.3509886e-38
-0.025553931 -0.12421621 -0.0097831078 2.3509886e-38
-0.023565535 -0.12421621 -0.0097831078 2.3509886e-38
-0.021577131 -0.12421621 -0.0097831078 2.3509886e-38
-0.019588735 -0.12421621 -0.0097831078 2.3509886e-38
-0.017418806 -0.12324448 -0.0057228394 2.3509886e-38
-0.015437525 -0.12324448 -0.0057228394 2.3509886e-38
-0.013171498 -0.12159048 0.0011880808 2.3509886e-38
-0.011202332 -0.12159048 0.0011880808 2.3509886e-38
-0.0092331655 -0.12159048 0.0011880808 2.3509886e-38
-0.0072640106 -0.12159048 0.0011880808 2.3509886e-38
-0.0052948482 -0.12159048 0.0011880808 2.3509886e-38
-0.0031965189 -0.12063743 0.0051702671 2.3509886e-38
-0.0012343377 -0.12063743 0.0051702671 2.3509886e-38
0.00084578991 -0.11966167 0.009247344 2.3509886e-38
0.0028008185 -0.11966167 0.009247344 2.3509886e-38
0.0046521984 -0.12063743 0.0051702671 2.3509886e-38
0.0067108832 -0.11966167 0.009247344 2.3509886e-38
0.0086659119 -0.11966167 0.009247344 2.3509886e-38
0.010680355 -0.11895646 0.012193959 2.3509886e-38
0.012704346 -0.11799283 0.016220253 2.3509886e-38
0.01469763 -0.11726747 0.01925103 2.3509886e-38
0.016635124 -0.11726747 0.01925103 2.3509886e-38
0.018624891 -0.11631607 0.023226421 2.3509886e-38
0.020555411 -0.11631607 0.023226421 2.3509886e-38
0.022523992 -0.11537148 0.027173202 2.3509886e-38
0.02444759 -0.11537148 0.027173202 2.3509886e-38
0.026390154 -0.114632 0.030262988 2.3509886e-38
0.028308336 -0.114632 0.030262988 2.3509886e-38
0.030226519 -0.114632 0.030262988 2.3509886e-38
0.03214822 -0.11367123 0.034277361 2.3509883e-38
0.034059368 -0.11367123 0.034277361 2.323365e-38
0.035970509 -0.11367123 0.034277361 2.3509883e-38
0.037868798 -0.11296929 0.037210267 2.3508809e-38
0.039774802 -0.11296929 0.037210267 2.3508809e-38
0.041680805 -0.11296929 0.037210267 2.3232227e-38
0.043615088 -0.11367123 0.034277361 1.7607923e-38
0.045526233 -0.11367123 0.034277361 5.8994301e-39
0.0475308 -0.11537148 0.027173202 5.5208917e-40
0.049454398 -0.11537148 0.027173202 2.7550649e-40
0.051377997 -0.11537148 0.027173202 6.4500647e-40
0.053374261 -0.11631607 0.023226421 8.2867186e-40
0.055304781 -0.11631607 0.023226421 4.5168474e-39
0.057148799 -0.11537148 0.027173202 1.9360694e-38
0.059072401 -0.11537148 0.027173202 2.009719e-38
0.060996003 -0.11537148 0.027173202 1.5393433e-38
-0.065969944 -0.13367917 -0.04078706 9.9599937e-39
-0.063927189 -0.13367917 -0.04078706 1.5489582e-38
-0.061884437 -0.13367917 -0.04078706 2.3509886e-38
-0.060164455 -0.13465457 -0.044833023 2.3509886e-38
-0.057798911 -0.13367917 -0.04078706 2.2864516e-38
-0.055756155 -0.13367917 -0.04078706 2.3509886e-38
-0.053414006 -0.1327105 -0.036769111 2.3325494e-38
-0.051378284 -0.1327105 -0.036769111 2.3509886e-38
-0.049342576 -0.1327105 -0.036769111 2.3325494e-38
-0.047030512 -0.13174851 -0.032778818 2.3509886e-38
-0.044734273 -0.13079311 -0.028815825 2.3509886e-38
-0.042712513 -0.13079311 -0.028815825 2.3509886e-38
-0.040430475 -0.12981267 -0.024749119 2.3509886e-38
-0.038172577 -0.12887047 -0.020840842 2.3509886e-38
-0.036164794 -0.12887047 -0.020840842 2.3509886e-38
-0.033921439 -0.12790357 -0.016830165 2.3509886e-38
-0.03192069 -0.12790357 -0.016830165 2.3509886e-38
-0.029749501 -0.12715961 -0.013744313 2.3509886e-38
-0.027542327 -0.12620462 -0.0097831078 2.3509886e-38
-0.025553931 -0.12620462 -0.0097831078 2.3509886e-38
-0.023565535 -0.12620462 -0.0097831078 2.3509886e-38
-0.021577131 -0.12620462 -0.0097831078 2.3509886e-38
-0.019400079 -0.12522577 -0.0057228394 2.3509886e-38
-0.017418806 -0.12522577 -0.0057228394 2.3509886e-38
-0.015437525 -0.12522577 -0.0057228394 2.3509886e-38
-0.013171498 -0.12355967 0.0011880808 2.3509886e-38
-0.011202332 -0.12355967 0.0011880808 2.3509886e-38
-0.0090830512 -0.12259962 0.0051702671 2.3509886e-38
-0.0071208775 -0.12259962 0.0051702671 2.3509886e-38
-0.0051586963 -0.12259962 0.0051702671 2.3509886e-38
-0.0030642711 -0.12161671 0.009247344 2.3509886e-38
-0.0011092424 -0.12161671 0.009247344 2.3509886e-38
0.00084578991 -0.12161671 0.009247344 2.3509886e-38
0.0028008185 -0.12161671 0.009247344 2.3509886e-38
0.0047558509 -0.12161671 0.009247344 2.3509886e-38
0.0067108832 -0.12161671 0.009247344 2.3509886e-38
0.0086659119 -0.12161671 0.009247344 2.3509886e-38
0.010680355 -0.12090631 0.012193959 2.3509886e-38
0.012704346 -0.11993565 0.016220253 2.3509886e-38
0.01469763 -0.11920498 0.01925103 2.3509886e-38
0.016635124 -0.11920498 0.01925103 2.3509886e-38
0.018572614 -0.11920498 0.01925103 2.3509886e-38
0.020555411 -0.11824657 0.023226421 2.3509886e-38
0.022523992 -0.11729507 0.027173202 2.3509886e-38
0.02444759 -0.11729507 0.027173202 2.3509886e-38
0.026390154 -0.11655019 0.030262988 2.3509886e-38
0.028308336 -0.11655019 0.030262988 2.3509886e-38
0.030226519 -0.11655019 0.030262988 2.3509886e-38
0.03214822 -0.11558239 0.034277361 2.3509883e-38
0.034059368 -0.11558239 0.034277361 2.323365e-38
0.035962798 -0.1148753 0.037210267 2.3509883e-38
0.037868798 -0.1148753 0.037210267 2.3508451e-38
0.039774802 -0.1148753 0.037210267 2.3508451e-38
0.041680805 -0.1148753 0.037210267 2.3323703e-38
0.043586805 -0.1148753 0.037210267 1.5948402e-38
0.045526233 -0.11558239 0.034277361 4.1477131e-39
0.047490168 -0.11655019 0.030262988 2.7550649e-40
0.049454398 -0.11729507 0.027173202 5.5281084e-40
0.051443741 -0.11824657 0.023226421 5.5281084e-40
0.053374261 -0.11824657 0.023226421 9.2194229e-41
0.055304781 -0.11824657 0.023226421 2.858405e-39
0.057148799 -0.11729507 0.027173202 1.6962889e-38
0.058999266 -0.11655019 0.030262988 2.129501e-38
0.060917452 -0.11655019 0.030262988 1.7790157e-38
-0.065969944 -0.13572191 -0.04078706 1.2817337e-38
-0.063927189 -0.13572191 -0.04078706 1.8808622e-38
-0.061884437 -0.13572191 -0.04078706 2.3509886e-38
-0.059841681 -0.13572191 -0.04078706 2.3509886e-38
-0.057798911 -0.13572191 -0.04078706 2.3141103e-38
-0.055449713 -0.13474621 -0.036769111 2.3509886e-38
-0.053414006 -0.13474621 -0.036769111 2.3509886e-38
-0.051378284 -0.13474621 -0.036769111 2.3509886e-38
-0.049059216 -0.13377722 -0.032778818 2.3141103e-38
-0.046756048 -0.13281487 -0.028815825 2.3509886e-38
-0.044734273 -0.13281487 -0.028815825 2.3509886e-38
-0.042445127 -0.13182731 -0.024749119 2.3509886e-38
-0.040430475 -0.13182731 -0.024749119 2.3509886e-38
-0.038172577 -0.13087825 -0.020840842 2.3509886e-38
-0.036164794 -0.13087825 -0.020840842 2.3509886e-38
-0.033921439 -0.12990431 -0.016830165 2.3509886e-38
-0.031744841 -0.12915494 -0.013744313 2.3509886e-38
-0.029749501 -0.12915494 -0.013744313 2.3509886e-38
-0.027542327 -0.12819304 -0.0097831078 2.3509886e-38
-0.025553931 -0.12819304 -0.0097831078 2.3509886e-38
-0.023565535 -0.12819304 -0.0097831078 2.3509886e-38
-0.021577131 -0.12819304 -0.0097831078 2.3509886e-38
-0.019400079 -0.12720706 -0.0057228394 2.3509886e-38
-0.017418806 -0.12720706 -0.0057228394 2.3509886e-38
-0.015269745 -0.1262586 -0.0018171854 2.3509886e-38
-0.013171498 -0.12552883 0.0011880808 2.3509886e-38
-0.011045236 -0.1245618 0.0051702671 2.3509886e-38
-0.0090830512 -0.1245618 0.0051702671 2.3509886e-38
-0.006974332 -0.12357174 0.009247344 2.3509886e-38
-0.0050193034 -0.12357174 0.009247344 2.3509886e-38
-0.0030642711 -0.12357174 0.009247344 2.3509886e-38
-0.0011092424 -0.12357174 0.009247344 2.3509886e-38
0.00084578991 -0.12357174 0.009247344 2.3509886e-38
0.0028008185 -0.12357174 0.009247344 2.3509886e-38
0.0047558509 -0.12357174 0.009247344 2.3509886e-38
0.0067108832 -0.12357174 0.009247344 2.3509886e-38
0.0086659119 -0.12357174 0.009247344 2.3509886e-38
0.010680355 -0.12285618 0.012193959 2.3509886e-38
0.012704346 -0.12187846 0.016220253 2.3509886e-38
0.01469763 -0.12114246 0.01925103 2.3509886e-38
0.016635124 -0.12114246 0.01925103 2.3509886e-38
0.018572614 -0.12114246 0.01925103 2.3509886e-38
0.020555411 -0.12017711 0.023226421 2.3509886e-38
0.022523992 -0.11921866 0.027173202 2.3509886e-38
0.02444759 -0.11921866 0.027173202 2.3509886e-38
0.026390154 -0.11846836 0.030262988 2.3509886e-38
0.028308336 -0.11846836 0.030262988 2.3509886e-38
0.030237077 -0.11749353 0.034277361 2.3509886e-38
0.03214822 -0.11749353 0.034277361 2.3509883e-38
0.034056798 -0.11678131 0.037210267 2.341804e-38
0.035962798 -0.11678131 0.037210267 2.3141819e-38
0.037855502 -0.11604463 0.040243905 2.3508809e-38
0.039756186 -0.11604463 0.040243905 2.3507374e-38
0.041680805 -0.11678131 0.037210267 2.3507374e-38
0.043586805 -0.11678131 0.037210267 1.3458404e-38
0.045492809 -0.11678131 0.037210267 1.934302e-39
0.047490168 -0.11846836 0.030262988 2.7550649e-40
0.049454398 -0.11921866 0.027173202 7.372021e-40
0.051443741 -0.12017711 0.023226421 0
0.053374261 -0.12017711 0.023226421 3.5873241e-43
0.055304781 -0.12017711 0.023226421 8.3010679e-40
0.057148799 -0.11921866 0.027173202 1.1707738e-38
0.058999266 -0.11846836 0.030262988 2.1202096e-38
0.060917452 -0.11846836 0.030262988 2.0369836e-38
0.062835634 -0.11846836 0.030262988 1.0874768e-38
0.064753816 -0.11846836 0.030262988 9.9553189e-39
-0.068012699 -0.13776468 -0.04078706 1.0697908e-38
-0.065969944 -0.13776468 -0.04078706 1.4753442e-38
-0.063927189 -0.13776468 -0.04078706 2.1390099e-38
-0.061884437 -0.13776468 -0.04078706 2.3509886e-38
-0.059841681 -0.13776468 -0.04078706 2.3325494e-38
-0.057798911 -0.13776468 -0.04078706 2.3509886e-38
-0.055449713 -0.13678192 -0.036769111 2.3509886e-38
-0.053414006 -0.13678192 -0.036769111 2.3509886e-38
