# .PCD v0.7 - Point Cloud Data file format
VERSION 0.7
FIELDS x y z rgb
SIZE 4 4 4 4
TYPE F F F F
COUNT 1 1 1 1
WIDTH 941
HEIGHT 1
VIEWPOINT 0 0 0 1 0 0 0
POINTS 941
DATA ascii
0.084720373 -0.14711304 -0.069105133 7.6540422e-39
-0.074050233 -0.12204717 0.034828555 8.7585708e-39
-0.072237119 -0.12204717 0.034828555 8.8511294e-39
-0.070424005 -0.12204717 0.034828555 2.2496083e-38
-0.068610892 -0.12204717 0.034828555 2.2680474e-38
-0.066797778 -0.12204717 0.034828555 2.2588278e-38
-0.06528458 -0.123071 0.030896317 2.203546e-38
-0.063464582 -0.123071 0.030896317 1.9546178e-38
-0.061862547 -0.12385099 0.027900588 2.0098633e-38
-0.060251255 -0.12463553 0.024887454 2.0006435e-38
-0.058630604 -0.12542458 0.021856915 2.009863e-38
-0.056794737 -0.12542458 0.021856915 2.0191183e-38
-0.055152137 -0.12618984 0.01891781 1.9544735e-38
-0.053311128 -0.12618984 0.01891781 1.7885214e-38
-0.051722486 -0.12724553 0.014863264 1.6871059e-38
-0.049874369 -0.12724553 0.014863264 1.6778863e-38
-0.048201192 -0.12802102 0.01188482 1.6778863e-38
-0.046518538 -0.12880091 0.0088894479 1.6502276e-38
-0.044659946 -0.12880091 0.0088894479 1.5949105e-38
-0.042801354 -0.12880091 0.0088894479 1.4934954e-38
-0.040942762 -0.12880091 0.0088894479 1.6041303e-38
-0.03908417 -0.12880091 0.0088894479 2.3232206e-38
-0.034813125 -0.11577369 0.058923017 2.3508795e-38
-0.033042256 -0.11577369 0.058923017 2.3509879e-38
-0.031271387 -0.11577369 0.058923017 2.3509883e-38
-0.029500525 -0.11577369 0.058923017 2.3509883e-38
-0.027729657 -0.11577369 0.058923017 2.3509527e-38
-0.026078686 -0.11656497 0.055883896 2.3509527e-38
-0.02430249 -0.11656497 0.055883896 2.3509886e-38
-0.02263619 -0.11736105 0.052826416 2.3509886e-38
-0.020854633 -0.11736105 0.052826416 2.3509886e-38
-0.019169517 -0.11813517 0.049853336 2.3509886e-38
-0.01747451 -0.11891381 0.046862733 2.3509886e-38
-0.015769523 -0.11969708 0.043854486 2.3509886e-38
-0.014054473 -0.12048493 0.040828597 2.3509886e-38
-0.012326587 -0.12125005 0.037889969 2.3509886e-38
-0.01059131 -0.12204717 0.034828555 2.3509886e-38
-0.0088643767 -0.123071 0.030896317 2.3509886e-38
-0.0070443712 -0.123071 0.030896317 2.3509886e-38
-0.0052243657 -0.123071 0.030896317 2.3509886e-38
-0.0034542568 -0.12385099 0.027900588 2.3509886e-38
-0.0017190687 -0.12542458 0.021856915 2.3509886e-38
0.00011678785 -0.12542458 0.021856915 2.3509886e-38
0.0019526444 -0.12542458 0.021856915 2.3509886e-38
0.003788501 -0.12542458 0.021856915 2.3509886e-38
0.0056011658 -0.12618984 0.01891781 2.3509886e-38
0.0074172933 -0.12724553 0.014863264 2.3509886e-38
0.0092523564 -0.12802102 0.01188482 2.3509886e-38
0.011097819 -0.12880091 0.0088894479 2.3509886e-38
0.012953769 -0.12958528 0.0058770292 2.3509886e-38
0.014821189 -0.13063805 0.0018336885 2.3509886e-38
0.016692152 -0.13063805 0.0018336885 2.3509886e-38
0.018576 -0.13140334 -0.001105655 2.3509886e-38
0.020452116 -0.13140334 -0.001105655 2.3509886e-38
0.022328231 -0.13140334 -0.001105655 2.3509886e-38
0.024204349 -0.13140334 -0.001105655 2.3509886e-38
0.026080467 -0.13140334 -0.001105655 2.3509886e-38
0.027996946 -0.13220255 -0.004175175 2.3509886e-38
0.029878447 -0.13220255 -0.004175175 2.3509886e-38
0.03182666 -0.13324542 -0.0081804879 2.3509886e-38
0.033715181 -0.13324542 -0.0081804879 2.3509886e-38
0.035743564 -0.13505147 -0.015116919 2.3509886e-38
0.037775014 -0.13660498 -0.021083463 2.3509886e-38
0.039686158 -0.13660498 -0.021083463 2.3509886e-38
0.041597303 -0.13660498 -0.021083463 2.3509886e-38
0.043617547 -0.13765021 -0.025097836 2.3509886e-38
0.045625117 -0.13845469 -0.028187621 2.3509886e-38
0.047669817 -0.1394823 -0.032134403 2.3509886e-38
0.049729288 -0.14051737 -0.036109794 2.3509886e-38
0.051666778 -0.14051737 -0.036109794 2.3509886e-38
0.053604268 -0.14051737 -0.036109794 2.3509886e-38
0.055656008 -0.1413065 -0.039140571 2.3509886e-38
0.057598814 -0.1413065 -0.039140571 2.3509886e-38
0.059541617 -0.1413065 -0.039140571 2.3509886e-38
0.06165738 -0.14235483 -0.043166865 2.3509886e-38
0.063738987 -0.14312203 -0.04611348 2.3509886e-38
0.06588345 -0.14418359 -0.050190557 2.341769e-38
0.068037637 -0.14522041 -0.054172743 2.341769e-38
0.070006803 -0.14522041 -0.054172743 2.3509886e-38
0.072131403 -0.1460029 -0.057178009 2.3509886e-38
0.074105829 -0.1460029 -0.057178009 2.3509886e-38
0.076080263 -0.1460029 -0.057178009 2.341805e-38
0.078277253 -0.14701982 -0.061083663 2.2958873e-38
0.080258533 -0.14701982 -0.061083663 9.8681806e-39
0.082485415 -0.148077 -0.065143928 8.4848832e-39
0.084720373 -0.14910837 -0.069105133 8.0224645e-39
-0.074050233 -0.12386028 0.034828555 9.4039402e-39
-0.072237119 -0.12386028 0.034828555 1.180139e-38
-0.070424005 -0.12386028 0.034828555 2.3509876e-38
-0.068610892 -0.12386028 0.034828555 2.3233648e-38
-0.066797778 -0.12386028 0.034828555 2.2403887e-38
-0.06528458 -0.124891 0.030896317 2.1942909e-38
-0.063687801 -0.12567626 0.027900588 2.0099352e-38
-0.061862547 -0.12567626 0.027900588 1.9822046e-38
-0.060251255 -0.12646608 0.024887454 1.9822046e-38
-0.058630604 -0.12726043 0.021856915 2.009863e-38
-0.056993145 -0.12803085 0.01891781 2.0190826e-38
-0.055152137 -0.12803085 0.01891781 1.9452539e-38
-0.053311128 -0.12803085 0.01891781 1.7885214e-38
-0.051722486 -0.12909363 0.014863264 1.6778863e-38
-0.050054524 -0.12987436 0.01188482 1.6778863e-38
-0.048201192 -0.12987436 0.01188482 1.6778863e-38
-0.046518538 -0.13065951 0.0088894479 1.6594472e-38
-0.044826318 -0.13144915 0.0058770292 1.5949105e-38
-0.042962451 -0.13144915 0.0058770292 1.5395932e-38
-0.041098569 -0.13144915 0.0058770292 1.6041303e-38
-0.039234702 -0.13144915 0.0058770292 2.1296097e-38
-0.034813125 -0.11754455 0.058923017 2.34166e-38
-0.033042256 -0.11754455 0.058923017 2.3509879e-38
-0.031271387 -0.11754455 0.058923017 2.350988e-38
-0.029500525 -0.11754455 0.058923017 2.3509883e-38
-0.027729657 -0.11754455 0.058923017 2.3509527e-38
-0.026078686 -0.11834116 0.055883896 2.3509527e-38
-0.02430249 -0.11834116 0.055883896 2.3509886e-38
-0.022526294 -0.11834116 0.055883896 2.3509886e-38
-0.020750098 -0.11834116 0.055883896 2.3509886e-38
-0.01907308 -0.11914261 0.052826416 2.3509886e-38
-0.01747451 -0.12070583 0.046862733 2.3509886e-38
-0.015769523 -0.12149437 0.043854486 2.3509886e-38
-0.014054473 -0.12228753 0.040828597 2.3509886e-38
-0.012326587 -0.1230578 0.037889969 2.3509886e-38
-0.01059131 -0.12386028 0.034828555 2.3509886e-38
-0.0088643767 -0.124891 0.030896317 2.3509886e-38
-0.0070443712 -0.124891 0.030896317 2.3509886e-38
-0.0052243657 -0.124891 0.030896317 2.3509886e-38
-0.0034542568 -0.12567626 0.027900588 2.3509886e-38
-0.0016739033 -0.12646608 0.024887454 2.3509886e-38
0.00015663728 -0.12646608 0.024887454 2.3509886e-38
0.0019526444 -0.12726043 0.021856915 2.3509886e-38
0.003788501 -0.12726043 0.021856915 2.3509886e-38
0.0056243557 -0.12726043 0.021856915 2.3509886e-38
0.0074421745 -0.12803085 0.01891781 2.3509886e-38
0.0092654116 -0.12909363 0.014863264 2.3509886e-38
0.01111353 -0.12909363 0.014863264 2.3509886e-38
0.012956411 -0.13065951 0.0088894479 2.3509886e-38
0.014817644 -0.13144915 0.0058770292 2.3509886e-38
0.016692152 -0.13250901 0.0018336885 2.3509886e-38
0.018576 -0.13327946 -0.001105655 2.3509886e-38
0.020452116 -0.13327946 -0.001105655 2.3509886e-38
0.022328231 -0.13327946 -0.001105655 2.3509886e-38
0.024176005 -0.13250901 0.0018336885 2.3509886e-38
0.026046967 -0.13250901 0.0018336885 2.3509886e-38
0.027956583 -0.13327946 -0.001105655 2.3509886e-38
0.029878447 -0.13408406 -0.004175175 2.3509886e-38
0.03182666 -0.13513394 -0.0081804879 2.3509886e-38
0.033715181 -0.13513394 -0.0081804879 2.3509886e-38
0.035743564 -0.13695215 -0.015116919 2.3509886e-38
0.037775014 -0.13851611 -0.021083463 2.3509886e-38
0.039686158 -0.13851611 -0.021083463 2.3509886e-38
0.041597303 -0.13851611 -0.021083463 2.3509886e-38
0.043617547 -0.13956837 -0.025097836 2.3509886e-38
0.045625117 -0.14037828 -0.028187621 2.3509886e-38
0.047669817 -0.14141284 -0.032134403 2.3509886e-38
0.049729288 -0.14245488 -0.036109794 2.3509886e-38
0.051666778 -0.14245488 -0.036109794 2.3509886e-38
0.053604268 -0.14245488 -0.036109794 2.3509886e-38
0.055656008 -0.14324932 -0.039140571 2.3509886e-38
0.057598814 -0.14324932 -0.039140571 2.3509886e-38
0.059541617 -0.14324932 -0.039140571 2.3509886e-38
0.06165738 -0.14430468 -0.043166865 2.3509886e-38
0.063738987 -0.14507706 -0.04611348 2.3509886e-38
0.06588345 -0.14614578 -0.050190557 2.3509886e-38
0.067845628 -0.14614578 -0.050190557 2.341769e-38
0.070006803 -0.1471896 -0.054172743 2.341769e-38
0.072131403 -0.14797734 -0.057178009 2.341769e-38
0.074105829 -0.14797734 -0.057178009 2.341769e-38
0.076080263 -0.14797734 -0.057178009 2.3325856e-38
0.078277253 -0.14900111 -0.061083663 2.2406423e-38
0.080258533 -0.14900111 -0.061083663 1.23571e-38
0.082239807 -0.14900111 -0.061083663 8.6681941e-39
-0.074050233 -0.1256734 0.034828555 1.0695042e-38
-0.072237119 -0.1256734 0.034828555 1.4936044e-38
-0.070424005 -0.1256734 0.034828555 2.3509879e-38
-0.068610892 -0.1256734 0.034828555 2.3509879e-38
-0.067104593 -0.126711 0.030896317 2.21273e-38
-0.06528458 -0.126711 0.030896317 2.1574126e-38
-0.063687801 -0.1275015 0.027900588 2.065217e-38
-0.062081803 -0.1282966 0.024887454 1.9637655e-38
-0.060466457 -0.12909628 0.021856915 1.9914242e-38
-0.058630604 -0.12909628 0.021856915 2.0190826e-38
-0.056993145 -0.12987186 0.01891781 2.0190826e-38
-0.055152137 -0.12987186 0.01891781 1.9452539e-38
-0.053570602 -0.13094176 0.014863264 1.7793018e-38
-0.051722486 -0.13094176 0.014863264 1.6778863e-38
-0.050235722 -0.1325181 0.0088894479 1.6686668e-38
-0.04837713 -0.1325181 0.0088894479 1.6778863e-38
-0.0466902 -0.13331302 0.0058770292 1.6594472e-38
-0.044826318 -0.13331302 0.0058770292 1.6317885e-38
-0.042962451 -0.13331302 0.0058770292 1.585691e-38
-0.041307706 -0.13437997 0.0018336885 1.5488129e-38
-0.039436746 -0.13437997 0.0018336885 1.8438033e-38
-0.037370827 -0.13331302 0.0058770292 2.3140013e-38
-0.033042256 -0.11931543 0.058923017 2.3509518e-38
-0.031271387 -0.11931543 0.058923017 2.350988e-38
-0.029500525 -0.11931543 0.058923017 2.3417327e-38
-0.027729657 -0.11931543 0.058923017 2.3509527e-38
-0.026078686 -0.12011738 0.055883896 2.3509527e-38
-0.02430249 -0.12011738 0.055883896 2.3509886e-38
-0.022526294 -0.12011738 0.055883896 2.3509886e-38
-0.020750098 -0.12011738 0.055883896 2.3509886e-38
-0.01907308 -0.12092416 0.052826416 2.3509886e-38
-0.017382748 -0.12170871 0.049853336 2.3509886e-38
-0.015682496 -0.12249784 0.046862733 2.3509886e-38
-0.014054473 -0.12409012 0.040828597 2.3509886e-38
-0.01225188 -0.12409012 0.040828597 2.3509886e-38
-0.01059131 -0.1256734 0.034828555 2.3509886e-38
-0.0088643767 -0.126711 0.030896317 2.3509886e-38
-0.0070443712 -0.126711 0.030896317 2.3509886e-38
-0.0052243657 -0.126711 0.030896317 2.3509886e-38
-0.0034043565 -0.126711 0.030896317 2.3509886e-38
-0.0016739033 -0.1282966 0.024887454 2.3509886e-38
0.00015663728 -0.1282966 0.024887454 2.3509886e-38
0.0019526444 -0.12909628 0.021856915 2.3509886e-38
0.003788501 -0.12909628 0.021856915 2.3509886e-38
0.0056243557 -0.12909628 0.021856915 2.3509886e-38
0.0074421745 -0.12987186 0.01891781 2.3509886e-38
0.009283185 -0.12987186 0.01891781 2.3509886e-38
0.011124194 -0.12987186 0.01891781 2.3509886e-38
0.012959037 -0.13172771 0.01188482 2.3509886e-38
0.014815003 -0.1325181 0.0088894479 2.3509886e-38
0.016681518 -0.13331302 0.0058770292 2.3509886e-38
0.018563114 -0.13437997 0.0018336885 2.3509886e-38
0.020434078 -0.13437997 0.0018336885 2.3509886e-38
0.022305042 -0.13437997 0.0018336885 2.3509886e-38
0.024176005 -0.13437997 0.0018336885 2.3509886e-38
0.026046967 -0.13437997 0.0018336885 2.3509886e-38
0.027956583 -0.13515557 -0.001105655 2.3509886e-38
0.0298327 -0.13515557 -0.001105655 2.3509886e-38
0.03182666 -0.13702248 -0.0081804879 2.3509886e-38
0.03384288 -0.13885282 -0.015116919 2.3509886e-38
0.035743564 -0.13885282 -0.015116919 2.3509886e-38
0.037710734 -0.13965334 -0.018150557 2.3509886e-38
0.039686158 -0.14042725 -0.021083463 2.3509886e-38
0.041597303 -0.14042725 -0.021083463 2.3509886e-38
0.043617547 -0.14148657 -0.025097836 2.3509886e-38
0.045625117 -0.14230187 -0.028187621 2.3509886e-38
0.047669817 -0.14334334 -0.032134403 2.3509886e-38
0.049600337 -0.14334334 -0.032134403 2.3509886e-38
0.051530857 -0.14334334 -0.032134403 2.3509886e-38
0.05346138 -0.14334334 -0.032134403 2.3509886e-38
0.055541757 -0.14439236 -0.036109794 2.3509886e-38
0.057479247 -0.14439236 -0.036109794 2.3509886e-38
0.059541617 -0.1451921 -0.039140571 2.3509886e-38
0.061484423 -0.1451921 -0.039140571 2.3509886e-38
0.063607246 -0.14625455 -0.043166865 2.3509886e-38
0.06588345 -0.14810793 -0.050190557 2.3509886e-38
0.067845628 -0.14810793 -0.050190557 2.3509886e-38
0.070006803 -0.14915876 -0.054172743 2.341769e-38
0.072131403 -0.14995177 -0.057178009 2.341769e-38
0.074105829 -0.14995177 -0.057178009 2.341769e-38
0.076080263 -0.14995177 -0.057178009 2.341805e-38
0.078054696 -0.14995177 -0.057178009 2.2497539e-38
-0.074050233 -0.12748651 0.034828555 1.143261e-38
-0.072237119 -0.12748651 0.034828555 1.6503369e-38
-0.070424005 -0.12748651 0.034828555 2.3509879e-38
-0.068924591 -0.12853102 0.030896317 2.3325846e-38
-0.067104593 -0.12853102 0.030896317 2.1666325e-38
-0.06528458 -0.12853102 0.030896317 2.1205344e-38
-0.063912332 -0.13012715 0.024887454 2.1113148e-38
-0.06230231 -0.13093217 0.021856915 1.9729851e-38
-0.060466457 -0.13093217 0.021856915 2.0190829e-38
-0.058834154 -0.13171287 0.01891781 2.0190826e-38
-0.056993145 -0.13171287 0.01891781 2.0190826e-38
-0.055152137 -0.13171287 0.01891781 1.9452541e-38
-0.053570602 -0.13278987 0.014863264 1.7793018e-38
-0.051907871 -0.13358103 0.01188482 1.6686671e-38
-0.050235722 -0.13437669 0.0088894479 1.6686668e-38
-0.04837713 -0.13437669 0.0088894479 1.6778863e-38
-0.0466902 -0.13517688 0.0058770292 1.6594472e-38
-0.044826318 -0.13517688 0.0058770292 1.6594472e-38
-0.042962451 -0.13517688 0.0058770292 1.6041298e-38
-0.041307706 -0.13625093 0.0018336885 1.4842758e-38
-0.039436746 -0.13625093 0.0018336885 1.6317889e-38
-0.037370827 -0.13517688 0.0058770292 2.2863423e-38
-0.033042256 -0.12108628 0.058923017 2.3508798e-38
-0.031271387 -0.12108628 0.058923017 2.350988e-38
-0.029500525 -0.12108628 0.058923017 2.314074e-38
-0.027729657 -0.12108628 0.058923017 2.3509527e-38
-0.025958791 -0.12108628 0.058923017 2.3509527e-38
-0.02430249 -0.12189357 0.055883896 2.3509886e-38
-0.022526294 -0.12189357 0.055883896 2.3509886e-38
-0.020750098 -0.12189357 0.055883896 2.3509886e-38
-0.018973906 -0.12189357 0.055883896 2.3509886e-38
-0.017291524 -0.12270571 0.052826416 2.3509886e-38
-0.015682496 -0.12428986 0.046862733 2.3509886e-38
-0.014054473 -0.12589271 0.040828597 2.3509886e-38
-0.01225188 -0.12589271 0.040828597 2.3509886e-38
-0.010518845 -0.1266733 0.037889969 2.3509886e-38
-0.0087781958 -0.12748651 0.034828555 2.3509886e-38
-0.0069650821 -0.12748651 0.034828555 2.3509886e-38
-0.0051519722 -0.12748651 0.034828555 2.3509886e-38
-0.0034043565 -0.12853102 0.030896317 2.3509886e-38
-0.0016739033 -0.13012715 0.024887454 2.3509886e-38
0.00011678785 -0.13093217 0.021856915 2.3509886e-38
0.0019526444 -0.13093217 0.021856915 2.3509886e-38
0.003788501 -0.13093217 0.021856915 2.3509886e-38
0.0056243557 -0.13093217 0.021856915 2.3509886e-38
0.0074421745 -0.13171287 0.01891781 2.3509886e-38
0.009283185 -0.13171287 0.01891781 2.3509886e-38
0.011124194 -0.13171287 0.01891781 2.3509886e-38
0.012961648 -0.13278987 0.014863264 2.3509886e-38
0.014812376 -0.13358103 0.01188482 2.3509886e-38
0.016673595 -0.13437669 0.0088894479 2.3509886e-38
0.018563114 -0.13625093 0.0018336885 2.3509886e-38
0.020434078 -0.13625093 0.0018336885 2.3509886e-38
0.022305042 -0.13625093 0.0018336885 2.3509886e-38
0.024176005 -0.13625093 0.0018336885 2.3509886e-38
0.026046967 -0.13625093 0.0018336885 2.3509886e-38
0.027917931 -0.13625093 0.0018336885 2.3509886e-38
0.0298327 -0.13703169 -0.001105655 2.3509886e-38
0.031708814 -0.13703169 -0.001105655 2.3509886e-38
0.033715181 -0.13891099 -0.0081804879 2.3509886e-38
0.035664089 -0.13970654 -0.011175383 2.3509886e-38
0.037710734 -0.14155935 -0.018150557 2.3509886e-38
0.039616738 -0.14155935 -0.018150557 2.3509886e-38
0.041597303 -0.14233841 -0.021083463 2.3509886e-38
0.043617547 -0.14340474 -0.025097836 2.3509886e-38
0.045535728 -0.14340474 -0.025097836 2.3509886e-38
0.047548715 -0.14422549 -0.028187621 2.3509886e-38
0.049600337 -0.14527388 -0.032134403 2.3509886e-38
0.051530857 -0.14527388 -0.032134403 2.3509886e-38
0.05346138 -0.14527388 -0.032134403 2.3509886e-38
0.055541757 -0.14632986 -0.036109794 2.3509886e-38
0.057479247 -0.14632986 -0.036109794 2.3509886e-38
0.059541617 -0.14713491 -0.039140571 2.3509886e-38
0.061484423 -0.14713491 -0.039140571 2.3325494e-38
0.063607246 -0.14820443 -0.043166865 2.3509886e-38
-0.072564617 -0.13035102 0.030896317 1.8623869e-38
-0.070744604 -0.13035102 0.030896317 2.323365e-38
-0.068924591 -0.13035102 0.030896317 2.3509879e-38
-0.067338333 -0.13115202 0.027900588 2.0836564e-38
-0.065513074 -0.13115202 0.027900588 2.1481931e-38
-0.064138159 -0.13276802 0.021856915 2.0191192e-38
-0.06230231 -0.13276802 0.021856915 1.9729851e-38
-0.060466457 -0.13276802 0.021856915 2.037522e-38
-0.058834154 -0.13355388 0.01891781 2.0651807e-38
-0.056993145 -0.13355388 0.01891781 2.0375217e-38
-0.055418719 -0.134638 0.014863264 1.9544736e-38
-0.053570602 -0.134638 0.014863264 1.8253996e-38
-0.051907871 -0.13543437 0.01188482 1.7239844e-38
-0.050235722 -0.13623528 0.0088894479 1.6871062e-38
-0.04837713 -0.13623528 0.0088894479 1.6594475e-38
-0.046920601 -0.13812189 0.0018336885 1.6317888e-38
-0.045049634 -0.13812189 0.0018336885 1.6686668e-38
-0.043178666 -0.13812189 0.0018336885 1.6686668e-38
-0.041307706 -0.13812189 0.0018336885 1.5488127e-38
-0.039436746 -0.13812189 0.0018336885 1.6041303e-38
-0.037370827 -0.13704078 0.0058770292 1.871462e-38
-0.033042256 -0.12285714 0.058923017 2.3509158e-38
-0.031271387 -0.12285714 0.058923017 2.350952e-38
-0.029500525 -0.12285714 0.058923017 2.350988e-38
-0.027729657 -0.12285714 0.058923017 2.3509883e-38
-0.025958791 -0.12285714 0.058923017 2.3509883e-38
-0.02430249 -0.12366976 0.055883896 2.3509886e-38
-0.022526294 -0.12366976 0.055883896 2.3509886e-38
-0.020750098 -0.12366976 0.055883896 2.3509886e-38
-0.018973906 -0.12366976 0.055883896 2.3509886e-38
-0.017291524 -0.1244873 0.052826416 2.3509883e-38
-0.015682496 -0.12608187 0.046862733 2.3509883e-38
-0.013972238 -0.12688623 0.043854486 2.3509886e-38
-0.01225188 -0.12769531 0.040828597 2.3509886e-38
-0.010518845 -0.12848105 0.037889969 2.3509886e-38
-0.0087781958 -0.1292996 0.034828555 2.3509886e-38
-0.0069650821 -0.1292996 0.034828555 2.3509886e-38
-0.0051519722 -0.1292996 0.034828555 2.3509886e-38
-0.0033388585 -0.1292996 0.034828555 2.3509886e-38
-0.0016289987 -0.13115202 0.027900588 2.3509886e-38
0.00019626319 -0.13115202 0.027900588 2.3509886e-38
0.0019871816 -0.13195769 0.024887454 2.3509886e-38
0.003788501 -0.13276802 0.021856915 2.3509886e-38
0.0056243557 -0.13276802 0.021856915 2.3509886e-38
0.0074421745 -0.13355388 0.01891781 2.3509886e-38
0.009283185 -0.13355388 0.01891781 2.3509886e-38
0.011124194 -0.13355388 0.01891781 2.3509886e-38
0.012961648 -0.134638 0.014863264 2.3509886e-38
0.014812376 -0.13543437 0.01188482 2.3509886e-38
0.016673595 -0.13623528 0.0088894479 2.3509886e-38
0.018545391 -0.13704078 0.0058770292 2.3509886e-38
0.020409266 -0.13704078 0.0058770292 2.3509886e-38
0.022273138 -0.13704078 0.0058770292 2.3509886e-38
0.024137013 -0.13704078 0.0058770292 2.3509886e-38
0.026000887 -0.13704078 0.0058770292 2.3509886e-38
0.027917931 -0.13812189 0.0018336885 2.3509886e-38
0.029788895 -0.13812189 0.0018336885 2.3509886e-38
0.031708814 -0.13890781 -0.001105655 2.3509886e-38
0.033641443 -0.13972856 -0.004175175 2.3509886e-38
0.035603702 -0.14079951 -0.0081804879 2.3509886e-38
0.037557863 -0.1416003 -0.011175383 2.3509886e-38
0.039544933 -0.1426542 -0.015116919 2.3509886e-38
0.041522741 -0.14346536 -0.018150557 2.3509886e-38
0.043508448 -0.14424954 -0.021083463 2.3509886e-38
0.045535728 -0.14532293 -0.025097836 2.3509886e-38
0.047548715 -0.14614908 -0.028187621 2.3509886e-38
0.049472317 -0.14614908 -0.028187621 2.3509886e-38
0.051530857 -0.14720438 -0.032134403 2.3509886e-38
0.05346138 -0.14720438 -0.032134403 2.3509886e-38
0.055541757 -0.14826734 -0.036109794 2.3509886e-38
0.057479247 -0.14826734 -0.036109794 2.3509886e-38
0.059541617 -0.14907773 -0.039140571 2.3509886e-38
0.061484423 -0.14907773 -0.039140571 2.3509886e-38
-0.075403228 -0.13539489 0.01891781 1.631934e-38
-0.072814107 -0.13297729 0.027900588 1.926924e-38
-0.070988849 -0.13297729 0.027900588 2.3049259e-38
-0.069163591 -0.13297729 0.027900588 2.3509879e-38
-0.067338333 -0.13297729 0.027900588 2.0744368e-38
-0.065513074 -0.13297729 0.027900588 2.1481931e-38
-0.064138159 -0.13460387 0.021856915 2.0191192e-38
-0.06230231 -0.13460387 0.021856915 1.9914245e-38
-0.060466457 -0.13460387 0.021856915 2.0744003e-38
-0.058834154 -0.13539489 0.01891781 2.0190829e-38
-0.057266835 -0.13648613 0.014863264 2.0190829e-38
-0.055418719 -0.13648613 0.014863264 1.9729128e-38
-0.053761218 -0.13728772 0.01188482 1.8346193e-38
-0.052094314 -0.13809387 0.0088894479 1.7239844e-38
-0.050417949 -0.13890465 0.0058770292 1.6686671e-38
-0.048554067 -0.13890465 0.0058770292 1.6686671e-38
-0.046920601 -0.13999285 0.0018336885 1.6594475e-38
-0.045211975 -0.14078392 -0.001105655 1.622569e-38
-0.043335859 -0.14078392 -0.001105655 1.6502276e-38
-0.041307706 -0.13999285 0.0018336885 1.5672519e-38
-0.039436746 -0.13999285 0.0018336885 1.567252e-38
-0.037565786 -0.13999285 0.0018336885 1.7608272e-38
-0.033042256 -0.12462802 0.058923017 2.3509876e-38
-0.031271387 -0.12462802 0.058923017 2.3232932e-38
-0.029500525 -0.12462802 0.058923017 2.350988e-38
-0.027729657 -0.12462802 0.058923017 2.3509883e-38
-0.025958791 -0.12462802 0.058923017 2.3509883e-38
-0.024187926 -0.12462802 0.058923017 2.3509886e-38
-0.022526294 -0.12544595 0.055883896 2.3509886e-38
-0.020750098 -0.12544595 0.055883896 2.3509886e-38
-0.018973906 -0.12544595 0.055883896 2.3509886e-38
-0.017291524 -0.12626885 0.052826416 2.3509883e-38
-0.015595976 -0.12706901 0.049853336 2.3509883e-38
-0.013972238 -0.12868352 0.043854486 2.3509886e-38
-0.012174953 -0.12868352 0.043854486 2.3509886e-38
-0.010518845 -0.13028879 0.037889969 2.3509886e-38
-0.0087110996 -0.13028879 0.037889969 2.3509886e-38
-0.0069033541 -0.13028879 0.037889969 2.3509886e-38
-0.0050956123 -0.13028879 0.037889969 2.3509886e-38
-0.0033388585 -0.13111271 0.034828555 2.3509886e-38
-0.0016289987 -0.13297729 0.027900588 2.3509886e-38
0.00019626319 -0.13297729 0.027900588 2.3509886e-38
0.0019871816 -0.13378824 0.024887454 2.3509886e-38
0.0038177241 -0.13378824 0.024887454 2.3509886e-38
0.0056482665 -0.13378824 0.024887454 2.3509886e-38
0.0074602105 -0.13460387 0.021856915 2.3509886e-38
0.0092960671 -0.13460387 0.021856915 2.3509886e-38
0.011124194 -0.13539489 0.01891781 2.3509886e-38
0.012965202 -0.13539489 0.01891781 2.3509886e-38
0.014809765 -0.13648613 0.014863264 2.3509886e-38
0.016665718 -0.13728772 0.01188482 2.3509886e-38
0.018532187 -0.13809387 0.0088894479 2.3509886e-38
0.020409266 -0.13890465 0.0058770292 2.3509886e-38
0.022273138 -0.13890465 0.0058770292 2.3509886e-38
0.024137013 -0.13890465 0.0058770292 2.3509886e-38
0.026000887 -0.13890465 0.0058770292 2.3509886e-38
0.027917931 -0.13999285 0.0018336885 2.3509886e-38
0.029788895 -0.13999285 0.0018336885 2.3509886e-38
0.031708814 -0.14078392 -0.001105655 2.3509886e-38
0.033641443 -0.14161004 -0.004175175 2.3509886e-38
0.035603702 -0.14268802 -0.0081804879 2.3509886e-38
0.037557863 -0.14349405 -0.011175383 2.3509886e-38
0.039451636 -0.14349405 -0.011175383 2.3509886e-38
0.041445613 -0.14455487 -0.015116919 2.3509886e-38
0.043428741 -0.14537133 -0.018150557 2.3509886e-38
0.045419592 -0.14616071 -0.021083463 2.3509886e-38
0.04745391 -0.1472411 -0.025097836 2.3509886e-38
0.049472317 -0.14807267 -0.028187621 2.3509886e-38
0.051395919 -0.14807267 -0.028187621 2.3509886e-38
0.053319518 -0.14807267 -0.028187621 2.3509886e-38
-0.075403228 -0.13723589 0.01891781 1.92696e-38
-0.073065042 -0.13561879 0.024887454 2.1020957e-38
-0.071234509 -0.13561879 0.024887454 2.3418043e-38
-0.069403961 -0.13561879 0.024887454 2.3418042e-38
-0.067573428 -0.13561879 0.024887454 2.0836564e-38
-0.065974012 -0.13643973 0.021856915 2.1574129e-38
-0.064138159 -0.13643973 0.021856915 2.0191192e-38
-0.06230231 -0.13643973 0.021856915 2.0098636e-38
-0.060675163 -0.13723589 0.01891781 2.0928397e-38
-0.058834154 -0.13723589 0.01891781 1.9914242e-38
-0.057266835 -0.13833423 0.014863264 2.0190829e-38
-0.055418719 -0.13833423 0.014863264 1.9913519e-38
-0.053761218 -0.13914107 0.01188482 1.8530585e-38
-0.052094314 -0.13995247 0.0088894479 1.7239844e-38
-0.050417949 -0.14076851 0.0058770292 1.6686671e-38
-0.048554067 -0.14076851 0.0058770292 1.6686671e-38
-0.046920601 -0.14186381 0.0018336885 1.6871062e-38
-0.045211975 -0.14266007 -0.001105655 1.5856907e-38
-0.043335859 -0.14266007 -0.001105655 1.6317885e-38
-0.041307706 -0.14186381 0.0018336885 1.585691e-38
-0.039436746 -0.14186381 0.0018336885 1.5027151e-38
-0.037565786 -0.14186381 0.0018336885 1.6133142e-38
-0.033042256 -0.12639888 0.058923017 2.3509876e-38
-0.031140815 -0.12560774 0.061843526 2.304854e-38
-0.029375065 -0.12560774 0.061843526 2.350952e-38
-0.027729657 -0.12639888 0.058923017 2.3509883e-38
-0.025958791 -0.12639888 0.058923017 2.3509883e-38
-0.024187926 -0.12639888 0.058923017 2.3509883e-38
-0.022417057 -0.12639888 0.058923017 2.3509883e-38
-0.020750098 -0.12722217 0.055883896 2.3509883e-38
-0.018973906 -0.12722217 0.055883896 2.3509883e-38
-0.017291524 -0.1280504 0.052826416 2.3509883e-38
-0.015595976 -0.12885578 0.049853336 2.3509883e-38
-0.013972238 -0.13048081 0.043854486 2.3509886e-38
-0.012174953 -0.13048081 0.043854486 2.3509886e-38
-0.010449287 -0.13130049 0.040828597 2.3509886e-38
-0.0087110996 -0.13209651 0.037889969 2.3509886e-38
-0.0069033541 -0.13209651 0.037889969 2.3509886e-38
-0.0050956123 -0.13209651 0.037889969 2.3509886e-38
-0.0034043565 -0.13399105 0.030896317 2.3509886e-38
-0.0015843511 -0.13399105 0.030896317 2.3509886e-38
0.00019626319 -0.13480256 0.027900588 2.3509886e-38
0.0020215213 -0.13480256 0.027900588 2.3509886e-38
0.0038177241 -0.13561879 0.024887454 2.3509886e-38
0.0056482665 -0.13561879 0.024887454 2.3509886e-38
0.007478809 -0.13561879 0.024887454 2.3509886e-38
0.0092960671 -0.13643973 0.021856915 2.3509886e-38
0.011131924 -0.13643973 0.021856915 2.3509886e-38
0.012965202 -0.13723589 0.01891781 2.3509886e-38
0.014806211 -0.13723589 0.01891781 2.3509886e-38
0.016657883 -0.13833423 0.014863264 2.3509886e-38
0.018519057 -0.13914107 0.01188482 2.3509886e-38
0.020409266 -0.14076851 0.0058770292 2.3509886e-38
0.022273138 -0.14076851 0.0058770292 2.3509886e-38
0.024137013 -0.14076851 0.0058770292 2.3509886e-38
0.026000887 -0.14076851 0.0058770292 2.3509886e-38
0.027917931 -0.14186381 0.0018336885 2.3509886e-38
0.029788895 -0.14186381 0.0018336885 2.3509886e-38
0.031708814 -0.14266007 -0.001105655 2.3509886e-38
0.033715181 -0.14457656 -0.0081804879 2.3509886e-38
0.035603702 -0.14457656 -0.0081804879 2.3509886e-38
0.037557863 -0.14538784 -0.011175383 2.3509886e-38
0.039451636 -0.14538784 -0.011175383 2.3509886e-38
0.041445613 -0.14645557 -0.015116919 2.3509886e-38
0.043346297 -0.14645557 -0.015116919 2.3509886e-38
0.045334745 -0.14727734 -0.018150557 2.3509886e-38
0.047330737 -0.14807184 -0.021083463 2.3509886e-38
0.049372096 -0.1491593 -0.025097836 2.3509886e-38
0.051290277 -0.1491593 -0.025097836 2.3509886e-38
0.053319518 -0.1499963 -0.028187621 2.3509886e-38
-0.077244237 -0.1390769 0.01891781 1.1341858e-38
-0.075153291 -0.13827558 0.021856915 2.0284834e-38
-0.073065042 -0.13744931 0.024887454 2.2957065e-38
-0.071234509 -0.13744931 0.024887454 2.350988e-38
-0.069403961 -0.13744931 0.024887454 2.3418042e-38
-0.067573428 -0.13744931 0.024887454 2.1020955e-38
-0.065974012 -0.13827558 0.021856915 2.1666325e-38
-0.064138159 -0.13827558 0.021856915 2.0191195e-38
-0.062516168 -0.1390769 0.01891781 2.0098636e-38
-0.060675163 -0.1390769 0.01891781 2.0836201e-38
-0.058834154 -0.1390769 0.01891781 2.0190829e-38
-0.057266835 -0.14018236 0.014863264 2.0190829e-38
-0.05561455 -0.14099441 0.01188482 1.9821323e-38
-0.053761218 -0.14099441 0.01188482 1.8530585e-38
-0.052094314 -0.14181106 0.0088894479 1.7424236e-38
-0.050417949 -0.14263238 0.0058770292 1.6871062e-38
-0.048554067 -0.14263238 0.0058770292 1.6778866e-38
-0.046920601 -0.14373477 0.0018336885 1.6686668e-38
-0.045211975 -0.14453618 -0.001105655 1.5856907e-38
-0.043335859 -0.14453618 -0.001105655 1.6226045e-38
-0.041459743 -0.14453618 -0.001105655 1.585691e-38
-0.039583627 -0.14453618 -0.001105655 1.4658367e-38
-0.037565786 -0.14373477 0.0018336885 1.5303382e-38
-0.035694819 -0.14373477 0.0018336885 2.3509876e-38
-0.031140815 -0.1273735 0.061843526 2.3417323e-38
-0.029375065 -0.1273735 0.061843526 2.350952e-38
-0.027729657 -0.12816976 0.058923017 2.3509883e-38
-0.025958791 -0.12816976 0.058923017 2.3509883e-38
-0.024187926 -0.12816976 0.058923017 2.3509883e-38
-0.022417057 -0.12816976 0.058923017 2.3509883e-38
-0.020750098 -0.12899835 0.055883896 2.3509883e-38
-0.018973906 -0.12899835 0.055883896 2.3509883e-38
-0.017291524 -0.12983195 0.052826416 2.3509883e-38
-0.015595976 -0.13064255 0.049853336 2.3509883e-38
-0.013972238 -0.1322781 0.043854486 2.3509886e-38
-0.012174953 -0.1322781 0.043854486 2.3509886e-38
-0.010449287 -0.13310309 0.040828597 2.3509886e-38
-0.0087110996 -0.13390426 0.037889969 2.3509886e-38
-0.0069033541 -0.13390426 0.037889969 2.3509886e-38
-0.0050956123 -0.13390426 0.037889969 2.3509886e-38
-0.0034043565 -0.13581105 0.030896317 2.3509886e-38
-0.0015843511 -0.13581105 0.030896317 2.3509886e-38
0.00019626319 -0.13662781 0.027900588 2.3509886e-38
0.0020215213 -0.13662781 0.027900588 2.3509886e-38
0.0038467795 -0.13662781 0.027900588 2.3509886e-38
0.0056720413 -0.13662781 0.027900588 2.3509886e-38
0.007478809 -0.13744931 0.024887454 2.3509886e-38
0.0092960671 -0.13827558 0.021856915 2.3509886e-38
0.011131924 -0.13827558 0.021856915 2.3509886e-38
0.012967778 -0.13827558 0.021856915 2.3509886e-38
0.014806211 -0.1390769 0.01891781 2.3509886e-38
0.016657883 -0.14018236 0.014863264 2.3509886e-38
0.018519057 -0.14099441 0.01188482 2.3509886e-38
0.020390779 -0.14181106 0.0088894479 2.3509886e-38
0.022249371 -0.14181106 0.0088894479 2.3509886e-38
0.024137013 -0.14263238 0.0058770292 2.3509886e-38
0.026000887 -0.14263238 0.0058770292 2.3509886e-38
0.027864762 -0.14263238 0.0058770292 2.3509886e-38
0.029788895 -0.14373477 0.0018336885 2.3509886e-38
0.031708814 -0.14453618 -0.001105655 2.3509886e-38
0.033715181 -0.14646508 -0.0081804879 2.3509886e-38
0.035603702 -0.14646508 -0.0081804879 2.3509886e-38
0.037557863 -0.1472816 -0.011175383 2.3509886e-38
0.039451636 -0.1472816 -0.011175383 2.3509886e-38
0.041445613 -0.14835624 -0.015116919 2.3509886e-38
0.043346297 -0.14835624 -0.015116919 2.3509886e-38
0.045334745 -0.14918335 -0.018150557 2.3509886e-38
0.047240745 -0.14918335 -0.018150557 2.3509886e-38
0.049241882 -0.14998297 -0.021083463 2.3509886e-38
-0.080115139 -0.13845308 0.027900588 1.1063476e-38
-0.078825012 -0.14011143 0.021856915 1.0234434e-38
-0.076989159 -0.14011143 0.021856915 1.1249306e-38
-0.075153291 -0.14011143 0.021856915 2.0930203e-38
-0.073065042 -0.13927986 0.024887454 2.350988e-38
-0.071234509 -0.13927986 0.024887454 2.350988e-38
-0.069403961 -0.13927986 0.024887454 2.3141456e-38
-0.067573428 -0.13927986 0.024887454 2.1020957e-38
-0.065974012 -0.14011143 0.021856915 2.1574129e-38
-0.064357176 -0.14091791 0.01891781 2.028339e-38
-0.062516168 -0.14091791 0.01891781 2.0375223e-38
-0.060675163 -0.14091791 0.01891781 2.0744006e-38
-0.058834154 -0.14091791 0.01891781 2.0836198e-38
-0.057467896 -0.14284773 0.01188482 2.0467416e-38
-0.05561455 -0.14284773 0.01188482 1.9636932e-38
-0.053952906 -0.14366965 0.0088894479 1.8438389e-38
-0.052281816 -0.14449625 0.0058770292 1.7608628e-38
-0.050417949 -0.14449625 0.0058770292 1.7239846e-38
-0.048791561 -0.14560573 0.0018336885 1.6871062e-38
-0.04708809 -0.1464123 -0.001105655 1.6317885e-38
-0.045381505 -0.14725454 -0.004175175 1.622569e-38
-0.04350001 -0.14725454 -0.004175175 1.6226045e-38
-0.041618507 -0.14725454 -0.004175175 1.585691e-38
-0.039737005 -0.14725454 -0.004175175 1.4566171e-38
-0.03785551 -0.14725454 -0.004175175 1.5303382e-38
-0.035974015 -0.14725454 -0.004175175 2.3509876e-38
-0.031140815 -0.12913923 0.061843526 2.3509879e-38
-0.029375065 -0.12913923 0.061843526 2.350988e-38
-0.027729657 -0.12994061 0.058923017 2.3509883e-38
-0.025958791 -0.12994061 0.058923017 2.3509883e-38
-0.024187926 -0.12994061 0.058923017 2.3509883e-38
-0.022417057 -0.12994061 0.058923017 2.3509883e-38
-0.020646192 -0.12994061 0.058923017 2.3509883e-38
-0.018973906 -0.13077454 0.055883896 2.3509883e-38
-0.017291524 -0.13161351 0.052826416 2.350988e-38
-0.015595976 -0.13242932 0.049853336 2.3509883e-38
-0.013890486 -0.13324992 0.046862733 2.3509886e-38
-0.012174953 -0.13407536 0.043854486 2.3509886e-38
-0.010449287 -0.13490568 0.040828597 2.3509886e-38
-0.0086466931 -0.13490568 0.040828597 2.3509886e-38
-0.0069033541 -0.13571201 0.037889969 2.3509886e-38
-0.0050956123 -0.13571201 0.037889969 2.3509886e-38
-0.0034043565 -0.13763104 0.030896317 2.3509886e-38
-0.0015843511 -0.13763104 0.030896317 2.3509886e-38
0.00023565814 -0.13763104 0.030896317 2.3509886e-38
0.0020215213 -0.13845308 0.027900588 2.3509886e-38
0.0038467795 -0.13845308 0.027900588 2.3509886e-38
0.0056720413 -0.13845308 0.027900588 2.3509886e-38
0.007478809 -0.13927986 0.024887454 2.3509886e-38
0.0092960671 -0.14011143 0.021856915 2.3509886e-38
0.011131924 -0.14011143 0.021856915 2.3509886e-38
0.012967778 -0.14011143 0.021856915 2.3509886e-38
0.014806211 -0.14091791 0.01891781 2.3509886e-38
0.016657883 -0.14203046 0.014863264 2.3509886e-38
0.018519057 -0.14284773 0.01188482 2.3509886e-38
0.020390779 -0.14366965 0.0088894479 2.3509886e-38
0.022249371 -0.14366965 0.0088894479 2.3509886e-38
0.024137013 -0.14449625 0.0058770292 2.3509886e-38
0.026000887 -0.14449625 0.0058770292 2.3509886e-38
0.027864762 -0.14449625 0.0058770292 2.3509886e-38
0.029788895 -0.14560573 0.0018336885 2.3509886e-38
0.031659856 -0.14560573 0.0018336885 2.3509886e-38
0.033641443 -0.14725454 -0.004175175 2.3509886e-38
0.035603702 -0.14835359 -0.0081804879 2.3509886e-38
0.037557863 -0.14917539 -0.011175383 2.3509886e-38
0.039451636 -0.14917539 -0.011175383 2.3509886e-38
0.041345406 -0.14917539 -0.011175383 2.3509886e-38
-0.080115139 -0.14027832 0.027900588 1.244641e-38
-0.078289881 -0.14027832 0.027900588 1.1248586e-38
-0.076464623 -0.14027832 0.027900588 1.1894675e-38
-0.074895591 -0.14111041 0.024887454 2.1667768e-38
-0.073065042 -0.14111041 0.024887454 2.3418047e-38
-0.071234509 -0.14111041 0.024887454 2.3418043e-38
-0.069403961 -0.14111041 0.024887454 2.2864869e-38
-0.067573428 -0.14111041 0.024887454 2.0928761e-38
-0.065974012 -0.14194728 0.021856915 2.1481933e-38
-0.064357176 -0.14275892 0.01891781 2.0559977e-38
-0.062516168 -0.14275892 0.01891781 2.0928397e-38
-0.060675163 -0.14275892 0.01891781 2.065181e-38
-0.058834154 -0.14275892 0.01891781 2.1389372e-38
-0.057467896 -0.14470108 0.01188482 2.0651807e-38
-0.055811498 -0.14552824 0.0088894479 1.9636932e-38
-0.053952906 -0.14552824 0.0088894479 1.8438389e-38
-0.052281816 -0.14636014 0.0058770292 1.7793019e-38
-0.050662521 -0.14747669 0.0018336885 1.7516433e-38
-0.048791561 -0.14747669 0.0018336885 1.7055453e-38
-0.047263 -0.14913605 -0.004175175 1.6410084e-38
-0.045381505 -0.14913605 -0.004175175 1.6594472e-38
-0.04350001 -0.14913605 -0.004175175 1.6226045e-38
-0.041618507 -0.14913605 -0.004175175 1.5949103e-38
-0.039737005 -0.14913605 -0.004175175 1.5027149e-38
-0.03785551 -0.14913605 -0.004175175 1.5580324e-38
-0.032767009 -0.13007559 0.064847007 2.1757076e-38
-0.031006534 -0.13007559 0.064847007 2.3509879e-38
-0.029375065 -0.13090499 0.061843526 2.3509518e-38
-0.027729657 -0.1317115 0.058923017 2.3509883e-38
-0.025958791 -0.1317115 0.058923017 2.3509883e-38
-0.024187926 -0.1317115 0.058923017 2.3509883e-38
-0.022417057 -0.1317115 0.058923017 2.3509883e-38
-0.020646192 -0.1317115 0.058923017 2.3509883e-38
-0.018973906 -0.13255073 0.055883896 2.3509883e-38
-0.017291524 -0.13339506 0.052826416 2.350988e-38
-0.015595976 -0.13421609 0.049853336 2.350988e-38
-0.013890486 -0.13504194 0.046862733 2.3509886e-38
-0.012174953 -0.13587265 0.043854486 2.3509886e-38
-0.010449287 -0.13670824 0.040828597 2.3509886e-38
-0.0086466931 -0.13670824 0.040828597 2.3509886e-38
-0.0069033541 -0.13751976 0.037889969 2.3509886e-38
-0.0050956123 -0.13751976 0.037889969 2.3509886e-38
-0.0033388585 -0.13836516 0.034828555 2.3509886e-38
-0.0015843511 -0.13945107 0.030896317 2.3509886e-38
0.00023565814 -0.13945107 0.030896317 2.3509886e-38
0.0020556636 -0.13945107 0.030896317 2.3509886e-38
0.0038467795 -0.14027832 0.027900588 2.3509886e-38
0.0056720413 -0.14027832 0.027900588 2.3509886e-38
0.007478809 -0.14111041 0.024887454 2.3509886e-38
0.0092960671 -0.14194728 0.021856915 2.3509886e-38
0.011131924 -0.14194728 0.021856915 2.3509886e-38
0.012967778 -0.14194728 0.021856915 2.3509886e-38
0.014803635 -0.14194728 0.021856915 2.3509886e-38
0.01664722 -0.14275892 0.01891781 2.3509886e-38
0.018506002 -0.14387859 0.014863264 2.3509886e-38
0.020372398 -0.14470108 0.01188482 2.3509886e-38
0.022249371 -0.14552824 0.0088894479 2.3509886e-38
0.024107963 -0.14552824 0.0088894479 2.3509886e-38
0.026000887 -0.14636014 0.0058770292 2.3509886e-38
0.027864762 -0.14636014 0.0058770292 2.3509886e-38
0.029728634 -0.14636014 0.0058770292 2.3509886e-38
0.031659856 -0.14747669 0.0018336885 2.3509886e-38
0.033584934 -0.14828841 -0.001105655 2.3509886e-38
-0.078024626 -0.14127107 0.030896317 1.1340781e-38
-0.076204628 -0.14127107 0.030896317 1.2263458e-38
-0.074639365 -0.1421036 0.027900588 2.2497529e-38
-0.072814107 -0.1421036 0.027900588 2.3141819e-38
-0.071234509 -0.14294095 0.024887454 2.3325847e-38
-0.069403961 -0.14294095 0.024887454 2.3141456e-38
-0.067573428 -0.14294095 0.024887454 2.1113152e-38
-0.065974012 -0.14378314 0.021856915 2.1481933e-38
-0.064357176 -0.14459993 0.01891781 2.1020955e-38
-0.062516168 -0.14459993 0.01891781 2.1389375e-38
-0.060675163 -0.14459993 0.01891781 2.0559614e-38
-0.059321228 -0.14655443 0.01188482 2.1389372e-38
-0.05767009 -0.14738683 0.0088894479 2.0836198e-38
-0.055811498 -0.14738683 0.0088894479 1.9820967e-38
-0.053952906 -0.14738683 0.0088894479 1.8530229e-38
-0.052281816 -0.14822401 0.0058770292 1.7793019e-38
-0.050662521 -0.14934768 0.0018336885 1.7516433e-38
-0.048791561 -0.14934768 0.0018336885 1.7332041e-38
-0.032767009 -0.13183604 0.064847007 1.8806815e-38
-0.031006534 -0.13183604 0.064847007 2.3509879e-38
-0.029375065 -0.13267075 0.061843526 2.3325127e-38
-0.027609322 -0.13267075 0.061843526 2.3509883e-38
-0.025958791 -0.13348235 0.058923017 2.3509883e-38
-0.024077833 -0.13267075 0.061843526 2.3509883e-38
-0.022312086 -0.13267075 0.061843526 2.3509883e-38
-0.020646192 -0.13348235 0.058923017 2.3509883e-38
-0.018973906 -0.13432692 0.055883896 2.3509883e-38
-0.017291524 -0.13517661 0.052826416 2.350988e-38
-0.015595976 -0.13600285 0.049853336 2.350988e-38
-0.013890486 -0.13683395 0.046862733 2.3509886e-38
-0.012174953 -0.13766994 0.043854486 2.3509886e-38
-0.010449287 -0.13851084 0.040828597 2.3509886e-38
-0.0086466931 -0.13851084 0.040828597 2.3509886e-38
-0.0069033541 -0.13932751 0.037889969 2.3509886e-38
-0.0050956123 -0.13932751 0.037889969 2.3509886e-38
-0.0033388585 -0.14017828 0.034828555 2.3509886e-38
-0.0015257485 -0.14017828 0.034828555 2.3509886e-38
0.00023565814 -0.14127107 0.030896317 2.3509886e-38
0.0020556636 -0.14127107 0.030896317 2.3509886e-38
0.0038467795 -0.1421036 0.027900588 2.3509886e-38
0.0056720413 -0.1421036 0.027900588 2.3509886e-38
0.007478809 -0.14294095 0.024887454 2.3509886e-38
0.0092960671 -0.14378314 0.021856915 2.3509886e-38
0.011131924 -0.14378314 0.021856915 2.3509886e-38
0.012967778 -0.14378314 0.021856915 2.3509886e-38
0.014803635 -0.14378314 0.021856915 2.3509886e-38
0.01664722 -0.14459993 0.01891781 2.3509886e-38
0.018506002 -0.1457267 0.014863264 2.3509886e-38
0.02035412 -0.1457267 0.014863264 2.3509886e-38
0.022225738 -0.14655443 0.01188482 2.3509886e-38
0.024107963 -0.14738683 0.0088894479 2.3509886e-38
0.025966555 -0.14738683 0.0088894479 2.3509886e-38
0.027864762 -0.14822401 0.0058770292 2.3509886e-38
0.029728634 -0.14822401 0.0058770292 2.3509886e-38
0.031659856 -0.14934768 0.0018336885 2.3509886e-38
-0.078024626 -0.14309107 0.030896317 9.6812572e-39
-0.076204628 -0.14309107 0.030896317 1.1986151e-38
-0.074384615 -0.14309107 0.030896317 2.341805e-38
-0.072814107 -0.14392884 0.027900588 2.3509883e-38
-0.071234509 -0.1447715 0.024887454 2.350988e-38
-0.069403961 -0.1447715 0.024887454 2.350988e-38
-0.067573428 -0.1447715 0.024887454 2.1481935e-38
-0.065974012 -0.14561899 0.021856915 2.1666325e-38
-0.064357176 -0.14644094 0.01891781 2.1389738e-38
-0.062516168 -0.14644094 0.01891781 2.1574126e-38
-0.060963068 -0.14757483 0.014863264 2.0283743e-38
-0.059528682 -0.14924543 0.0088894479 2.1113504e-38
-0.05767009 -0.14924543 0.0088894479 2.0836917e-38
-0.031006534 -0.13359652 0.064847007 2.3416597e-38
-0.029246051 -0.13359652 0.064847007 2.3324407e-38
-0.027609322 -0.13443647 0.061843526 2.3509521e-38
-0.025958791 -0.13525321 0.058923017 2.3509521e-38
-0.024077833 -0.13443647 0.061843526 2.3509883e-38
-0.022312086 -0.13443647 0.061843526 2.3509883e-38
-0.020646192 -0.13525321 0.058923017 2.3509883e-38
-0.018973906 -0.13610314 0.055883896 2.3509883e-38
-0.017291524 -0.13695817 0.052826416 2.3509883e-38
-0.015509967 -0.13695817 0.052826416 2.3509883e-38
-0.013890486 -0.13862596 0.046862733 2.3509886e-38
-0.012174953 -0.13946722 0.043854486 2.3509886e-38
-0.010449287 -0.14031343 0.040828597 2.3509886e-38
-0.0086466931 -0.14031343 0.040828597 2.3509886e-38
-0.0068441033 -0.14031343 0.040828597 2.3509886e-38
-0.0050956123 -0.14113526 0.037889969 2.3509886e-38
-0.0032878667 -0.14113526 0.037889969 2.3509886e-38
-0.0015257485 -0.14199139 0.034828555 2.3509886e-38
0.00028736517 -0.14199139 0.034828555 2.3509886e-38
0.0020556636 -0.14309107 0.030896317 2.3509886e-38
0.0038756691 -0.14309107 0.030896317 2.3509886e-38
0.0056956764 -0.14309107 0.030896317 2.3509886e-38
0.0074972995 -0.14392884 0.027900588 2.3509886e-38
0.0093093514 -0.1447715 0.024887454 2.3509886e-38
0.011139894 -0.1447715 0.024887454 2.3509886e-38
0.012970436 -0.1447715 0.024887454 2.3509886e-38
0.014800977 -0.1447715 0.024887454 2.3509886e-38
0.01663949 -0.14561899 0.021856915 2.3509886e-38
0.018488228 -0.14644094 0.01891781 2.3509886e-38
0.02035412 -0.14757483 0.014863264 2.3509886e-38
0.022225738 -0.14840777 0.01188482 2.3509886e-38
0.024107963 -0.14924543 0.0088894479 2.3509886e-38
0.025966555 -0.14924543 0.0088894479 2.3509886e-38
-0.078024626 -0.14491107 0.030896317 9.1273561e-39
-0.076204628 -0.14491107 0.030896317 1.2906672e-38
-0.074384615 -0.14491107 0.030896317 2.3048194e-38
-0.072814107 -0.14575411 0.027900588 2.3509527e-38
-0.071234509 -0.14660202 0.024887454 2.3509883e-38
-0.069403961 -0.14660202 0.024887454 2.2680478e-38
-0.067573428 -0.14660202 0.024887454 2.1481935e-38
-0.066198185 -0.14828195 0.01891781 2.0745087e-38
-0.064357176 -0.14828195 0.01891781 2.0837283e-38
-0.062516168 -0.14828195 0.01891781 2.1113867e-38
-0.060963068 -0.14942293 0.014863264 2.1113864e-38
-0.031006534 -0.13535701 0.064847007 2.0280142e-38
-0.029246051 -0.13535701 0.064847007 2.3508435e-38
-0.027609322 -0.13620223 0.061843526 2.3509517e-38
-0.025843579 -0.13620223 0.061843526 2.3509161e-38
-0.024187926 -0.13702409 0.058923017 2.3509521e-38
-0.022312086 -0.13620223 0.061843526 2.3509524e-38
-0.020546339 -0.13620223 0.061843526 2.3509527e-38
-0.018973906 -0.13787933 0.055883896 2.3509886e-38
-0.01719771 -0.13787933 0.055883896 2.341805e-38
-0.015509967 -0.13873972 0.052826416 2.341805e-38
-0.013890486 -0.14041798 0.046862733 2.3509886e-38
-0.012174953 -0.14126451 0.043854486 2.3509883e-38
-0.010377664 -0.14126451 0.043854486 2.3509883e-38
-0.0085803755 -0.14126451 0.043854486 2.3509883e-38
-0.0068441033 -0.14211603 0.040828597 2.3509883e-38
-0.0050415136 -0.14211603 0.040828597 2.3509883e-38
-0.0032389201 -0.14211603 0.040828597 2.3509883e-38
-0.0014801212 -0.14294298 0.037889969 2.3509883e-38
0.00032762066 -0.14294298 0.037889969 2.3509883e-38
0.0021004789 -0.14380451 0.034828555 2.3509883e-38
0.0038756691 -0.14491107 0.030896317 2.3509883e-38
0.0056956764 -0.14491107 0.030896317 2.3509883e-38
0.0074972995 -0.14575411 0.027900588 2.3509883e-38
0.0093093514 -0.14660202 0.024887454 2.3509883e-38
0.011139894 -0.14660202 0.024887454 2.3509883e-38
0.012970436 -0.14660202 0.024887454 2.3509883e-38
0.014800977 -0.14660202 0.024887454 2.3509886e-38
0.01663949 -0.14745484 0.021856915 2.3509886e-38
0.018488228 -0.14828195 0.01891781 2.3509886e-38
0.02035412 -0.14942293 0.014863264 2.3509886e-38
-0.078024626 -0.14673109 0.030896317 9.402864e-39
-0.076204628 -0.14673109 0.030896317 1.3919745e-38
-0.074384615 -0.14673109 0.030896317 2.3509168e-38
-0.072814107 -0.14757936 0.027900588 2.3509527e-38
-0.071234509 -0.14843257 0.024887454 2.3509523e-38
-0.069403961 -0.14843257 0.024887454 2.2772674e-38
-0.06780988 -0.14929073 0.021856915 2.1850717e-38
-0.031006534 -0.13711749 0.064847007 1.8804293e-38
-0.029246051 -0.13711749 0.064847007 2.3506992e-38
-0.027609322 -0.13796796 0.061843526 2.3509158e-38
-0.025843579 -0.13796796 0.061843526 2.3509161e-38
-0.024077833 -0.13796796 0.061843526 2.3509521e-38
-0.022312086 -0.13796796 0.061843526 2.3509524e-38
-0.020546339 -0.13796796 0.061843526 2.3509527e-38
-0.018973906 -0.13965552 0.055883896 2.3509886e-38
-0.01719771 -0.13965552 0.055883896 2.341805e-38
-0.015421513 -0.13965552 0.055883896 2.341805e-38
-0.013809208 -0.14136316 0.049853336 2.3509886e-38
-0.012098473 -0.14220999 0.046862733 2.3509883e-38
-0.010377664 -0.1430618 0.043854486 2.3509883e-38
-0.0085803755 -0.1430618 0.043854486 2.3509883e-38
-0.0067830905 -0.1430618 0.043854486 2.3509883e-38
-0.0050415136 -0.14391862 0.040828597 2.3509883e-38
-0.0032389201 -0.14391862 0.040828597 2.3509883e-38
-0.0014801212 -0.14475073 0.037889969 2.3509883e-38
0.00032762066 -0.14475073 0.037889969 2.3509883e-38
0.0021004789 -0.14561762 0.034828555 2.3509883e-38
0.0038756691 -0.14673109 0.030896317 2.3509883e-38
0.0056956764 -0.14673109 0.030896317 2.3509883e-38
0.0075156838 -0.14673109 0.030896317 2.3509883e-38
0.0093225576 -0.14757936 0.027900588 2.3509883e-38
0.011139894 -0.14843257 0.024887454 2.3509883e-38
0.012970436 -0.14843257 0.024887454 2.3509883e-38
0.014800977 -0.14843257 0.024887454 2.3509886e-38
0.01663949 -0.14929073 0.021856915 2.3509886e-38
-0.078024626 -0.14855109 0.030896317 1.1340051e-38
-0.076204628 -0.14855109 0.030896317 1.5949125e-38
-0.074384615 -0.14855109 0.030896317 2.3509527e-38
-0.072814107 -0.14940463 0.027900588 2.3509167e-38
-0.029375065 -0.13973372 0.061843526 2.3506635e-38
-0.027609322 -0.13973372 0.061843526 2.3509158e-38
-0.025843579 -0.13973372 0.061843526 2.3509161e-38
-0.024077833 -0.13973372 0.061843526 2.3509521e-38
-0.022312086 -0.13973372 0.061843526 2.3509524e-38
-0.020546339 -0.13973372 0.061843526 2.3509527e-38
-0.018875327 -0.14056583 0.058923017 2.3509886e-38
-0.01719771 -0.1414317 0.055883896 2.341805e-38
-0.015421513 -0.1414317 0.055883896 2.341805e-38
-0.013809208 -0.14314993 0.049853336 2.3509886e-38
-0.012098473 -0.14400201 0.046862733 2.3509883e-38
-0.010377664 -0.14485909 0.043854486 2.3509883e-38
-0.0085803755 -0.14485909 0.043854486 2.3509883e-38
-0.0067830905 -0.14485909 0.043854486 2.3509883e-38
-0.0050415136 -0.14572121 0.040828597 2.3509883e-38
-0.0032389201 -0.14572121 0.040828597 2.3509883e-38
-0.0014363267 -0.14572121 0.040828597 2.3509883e-38
0.00032762066 -0.14655848 0.037889969 2.3509883e-38
0.0021004789 -0.14743073 0.034828555 2.3509883e-38
0.0039135888 -0.14743073 0.034828555 2.3509883e-38
0.0057267025 -0.14743073 0.034828555 2.3509883e-38
