# .PCD v0.7 - Point Cloud Data file format
VERSION 0.7
FIELDS x y z rgb
SIZE 4 4 4 4
TYPE F F F F
COUNT 1 1 1 1
WIDTH 938
HEIGHT 1
VIEWPOINT 0 0 0 1 0 0 0
POINTS 938
DATA ascii
-0.0051486269 -0.09992972 0.0014435463 2.3141816e-38
-0.0030153841 -0.099053472 0.0054257326 2.350988e-38
-0.00089236349 -0.098156333 0.0095028095 2.3233652e-38
0.0011737421 -0.097507954 0.012449425 2.1942197e-38
0.0032683276 -0.09662199 0.016475718 1.9913893e-38
0.0053147525 -0.095955089 0.019506495 1.8437331e-38
0.0073811933 -0.095080331 0.023481887 1.8713918e-38
0.009432815 -0.094211861 0.027428668 2.1203203e-38
0.011445802 -0.093531981 0.030518454 2.3509168e-38
0.013473082 -0.09264864 0.034532826 2.3509883e-38
0.015384227 -0.09264864 0.034532826 2.350988e-38
0.017295372 -0.09264864 0.034532826 2.3509161e-38
0.019206516 -0.09264864 0.034532826 7.3468397e-40
0.0211768 -0.092003286 0.037465733 7.3468397e-40
0.0230828 -0.092003286 0.037465733 1.5622824e-39
0.024939947 -0.09264864 0.034532826 1.2867745e-39
0.026851095 -0.09264864 0.034532826 2.230774e-38
0.028709449 -0.093531981 0.030518454 2.3509521e-38
0.030627631 -0.093531981 0.030518454 1.7701558e-38
0.032545816 -0.093531981 0.030518454 9.2202819e-39
0.034463998 -0.093531981 0.030518454 5.6253754e-39
-0.03743615 -0.11740504 -0.068468049 2.314075e-38
-0.035344414 -0.11740504 -0.068468049 2.3509886e-38
-0.032742061 -0.11563541 -0.060489494 2.3509886e-38
-0.030414186 -0.11474411 -0.056470949 2.3233299e-38
-0.028102048 -0.11385889 -0.052479703 2.3417687e-38
-0.026038341 -0.11385889 -0.052479703 2.3417687e-38
-0.023524351 -0.11210622 -0.044577558 2.3509883e-38
-0.021251045 -0.11120884 -0.040531594 2.2864879e-38
-0.018993415 -0.11031766 -0.036513645 2.3049273e-38
-0.016751312 -0.10943262 -0.032523353 2.341805e-38
-0.013573505 -0.10433225 -0.0095276423 2.341805e-38
-0.011585101 -0.10433225 -0.0095276423 2.341805e-38
-0.0095967054 -0.10433225 -0.0095276423 2.3234015e-38
-0.007426776 -0.10343169 -0.0054673739 2.3326208e-38
-0.0051486269 -0.10189888 0.0014435463 2.3418045e-38
-0.0030153841 -0.10101564 0.0054257326 2.2588282e-38
-0.00089236349 -0.10011137 0.0095028095 2.350988e-38
0.0011737421 -0.099457815 0.012449425 2.3509883e-38
0.0032683276 -0.098564804 0.016475718 2.2587566e-38
0.0053147525 -0.097892582 0.019506495 2.0834417e-38
0.0073811933 -0.097010851 0.023481887 2.055783e-38
0.009432815 -0.096135467 0.027428668 2.212444e-38
0.011445802 -0.095450163 0.030518454 2.3508091e-38
0.013473082 -0.094559789 0.034532826 2.2310979e-38
0.015384227 -0.094559789 0.034532826 2.350988e-38
0.017295372 -0.094559789 0.034532826 2.2586124e-38
0.019206516 -0.094559789 0.034532826 1.2871361e-39
0.021117661 -0.094559789 0.034532826 8.2651947e-40
0.023028806 -0.094559789 0.034532826 9.1835496e-40
0.024939947 -0.094559789 0.034532826 7.3468397e-40
0.026851095 -0.094559789 0.034532826 1.7882349e-38
0.02876224 -0.094559789 0.034532826 2.1941118e-38
0.030673385 -0.094559789 0.034532826 1.9729865e-38
0.032584529 -0.094559789 0.034532826 1.2354577e-38
0.034495674 -0.094559789 0.034532826 5.0722044e-39
0.036406815 -0.094559789 0.034532826 4.6097927e-39
-0.041619621 -0.11949678 -0.068468049 2.3509527e-38
-0.039527886 -0.11949678 -0.068468049 2.3509527e-38
-0.03743615 -0.11949678 -0.068468049 2.314075e-38
-0.035085835 -0.11861761 -0.064535335 2.3509886e-38
-0.032742061 -0.11771317 -0.060489494 2.3509886e-38
-0.030165754 -0.11592259 -0.052479703 2.2864516e-38
-0.028102048 -0.11592259 -0.052479703 2.3325492e-38
-0.026038341 -0.11592259 -0.052479703 2.3509883e-38
-0.023524351 -0.11415605 -0.044577558 2.3509883e-38
-0.021251045 -0.11325158 -0.040531594 2.341805e-38
-0.018993415 -0.11235337 -0.036513645 2.3141466e-38
-0.016751312 -0.11146136 -0.032523353 2.2957075e-38
-0.013573505 -0.10632066 -0.0095276423 2.341805e-38
-0.011585101 -0.10632066 -0.0095276423 2.341805e-38
-0.0095967054 -0.10632066 -0.0095276423 2.3234015e-38
-0.007426776 -0.10541297 -0.0054673739 2.3234015e-38
-0.0051486269 -0.10386805 0.0014435463 2.3418045e-38
-0.0030153841 -0.10297783 0.0054257326 2.3509883e-38
-0.00089236349 -0.1020664 0.0095028095 2.3509883e-38
0.0011737421 -0.10140768 0.012449425 2.3232936e-38
0.0032683276 -0.1005076 0.016475718 2.3140384e-38
0.0053147525 -0.099830076 0.019506495 2.3509527e-38
0.0075092129 -0.098059073 0.027428668 2.3509168e-38
0.0095276199 -0.097368345 0.030518454 2.3047112e-38
0.011561938 -0.096470937 0.034532826 2.1387591e-38
0.013473082 -0.096470937 0.034532826 2.2034393e-38
0.015384227 -0.096470937 0.034532826 1.4935329e-38
0.017295372 -0.096470937 0.034532826 1.2813751e-38
0.019206516 -0.096470937 0.034532826 5.5101298e-40
0.021117661 -0.096470937 0.034532826 6.4284847e-40
0.023028806 -0.096470937 0.034532826 1.3793345e-39
0.024939947 -0.096470937 0.034532826 6.4284847e-40
0.026851095 -0.096470937 0.034532826 6.0816718e-39
0.02876224 -0.096470937 0.034532826 1.7422813e-38
0.030673385 -0.096470937 0.034532826 1.8714994e-38
0.032584529 -0.096470937 0.034532826 1.3091782e-38
0.034495674 -0.096470937 0.034532826 4.425756e-39
-0.041619621 -0.12158851 -0.068468049 2.3232583e-38
-0.039527886 -0.12158851 -0.068468049 2.3509527e-38
-0.037170671 -0.12070246 -0.064535335 2.3509527e-38
-0.034819819 -0.11979093 -0.060489494 2.3509886e-38
-0.032484896 -0.11888553 -0.056470949 2.3509886e-38
-0.030165754 -0.11798631 -0.052479703 2.3509886e-38
-0.027862243 -0.1170931 -0.048515279 2.3509886e-38
-0.025805496 -0.1170931 -0.048515279 2.3509886e-38
-0.023524351 -0.11620592 -0.044577558 2.3509886e-38
-0.021251045 -0.11529435 -0.040531594 2.3509886e-38
-0.018993415 -0.11438908 -0.036513645 2.3509886e-38
-0.016546331 -0.11259718 -0.028560359 2.3509886e-38
-0.013771437 -0.10920154 -0.013488848 2.3509886e-38
-0.011776097 -0.10920154 -0.013488848 2.3509886e-38
-0.0095967054 -0.10830905 -0.0095276423 2.3509886e-38
-0.007426776 -0.10739426 -0.0054673739 2.3509886e-38
-0.0051486269 -0.10583721 0.0014435463 2.3509883e-38
-0.0030153841 -0.10494001 0.0054257326 2.3509886e-38
-0.00089236349 -0.10402142 0.0095028095 2.3509886e-38
0.0011737421 -0.10335754 0.012449425 2.3509886e-38
0.0033772625 -0.10176755 0.019506495 2.3509886e-38
0.0054506734 -0.10087189 0.023481887 2.3509886e-38
0.0075092129 -0.099982664 0.027428668 2.3509527e-38
0.0095276199 -0.099286526 0.030518454 2.3509527e-38
0.011561938 -0.098382086 0.034532826 2.3509527e-38
0.013473082 -0.098382086 0.034532826 2.1573059e-38
0.015384227 -0.098382086 0.034532826 1.7700845e-38
0.017295372 -0.098382086 0.034532826 9.6798251e-39
0.019206516 -0.098382086 0.034532826 7.3685178e-40
0.021117661 -0.098382086 0.034532826 6.4357715e-40
0.023028806 -0.098382086 0.034532826 2.7550929e-40
0.024939947 -0.098382086 0.034532826 3.6734198e-40
0.026851095 -0.098382086 0.034532826 1.8417518e-39
0.02876224 -0.098382086 0.034532826 1.3181091e-38
0.030673385 -0.098382086 0.034532826 1.9359277e-38
0.032584529 -0.098382086 0.034532826 1.8898662e-38
0.034495674 -0.098382086 0.034532826 6.0849116e-39
0.036406815 -0.098382086 0.034532826 3.043546e-39
-0.041619621 -0.12368025 -0.068468049 2.3509527e-38
-0.039527886 -0.12368025 -0.068468049 2.3509527e-38
-0.036897562 -0.12186868 -0.060489494 2.3509527e-38
-0.034819819 -0.12186868 -0.060489494 2.3509886e-38
-0.032484896 -0.12095623 -0.056470949 2.3509886e-38
-0.030165754 -0.12005 -0.052479703 2.3509886e-38
-0.027862243 -0.11914985 -0.048515279 2.3509886e-38
-0.025805496 -0.11914985 -0.048515279 2.3509886e-38
-0.023293801 -0.11733709 -0.040531594 2.3509886e-38
-0.021029122 -0.11642478 -0.036513645 2.3509886e-38
-0.01878003 -0.11551876 -0.032523353 2.3509886e-38
-0.016335987 -0.11369558 -0.024493653 2.3509886e-38
-0.013771437 -0.11119686 -0.013488848 2.3509886e-38
-0.011585101 -0.11029746 -0.0095276423 2.3509886e-38
-0.0095967054 -0.11029746 -0.0095276423 2.3509886e-38
-0.007426776 -0.10937552 -0.0054673739 2.3509886e-38
-0.0051486269 -0.10780637 0.0014435463 2.3509886e-38
-0.0030153841 -0.1069022 0.0054257326 2.3509886e-38
-0.00089236349 -0.10597645 0.0095028095 2.3509886e-38
0.0011737421 -0.10530742 0.012449425 2.3509886e-38
0.0033772625 -0.10370506 0.019506495 2.3509886e-38
0.0054506734 -0.10280241 0.023481887 2.3509886e-38
0.0076094344 -0.10120471 0.030518454 2.3509886e-38
0.0095276199 -0.10120471 0.030518454 2.3509886e-38
0.011561938 -0.10029322 0.034532826 2.3509886e-38
0.013473082 -0.10029322 0.034532826 2.3508809e-38
0.015384227 -0.10029322 0.034532826 2.0927692e-38
0.017295372 -0.10029322 0.034532826 1.3920827e-38
0.019206516 -0.10029322 0.034532826 9.1843904e-41
0.021117661 -0.10029322 0.034532826 7.0064923e-45
0.0229549 -0.10120471 0.030518454 3.6842939e-40
0.024873085 -0.10120471 0.030518454 4.5918309e-40
0.026791267 -0.10120471 0.030518454 7.3540424e-40
0.02876224 -0.10029322 0.034532826 1.2627917e-38
0.030673385 -0.10029322 0.034532826 2.3230413e-38
0.032584529 -0.10029322 0.034532826 2.3509163e-38
0.034495674 -0.10029322 0.034532826 6.2689399e-39
0.036406815 -0.10029322 0.034532826 2.4903694e-39
-0.041619621 -0.12577201 -0.068468049 2.3509886e-38
-0.039527886 -0.12577201 -0.068468049 2.3509527e-38
-0.036897562 -0.12394641 -0.060489494 2.3509527e-38
-0.034819819 -0.12394641 -0.060489494 2.3509886e-38
-0.032484896 -0.12302695 -0.056470949 2.3509886e-38
-0.030165754 -0.12211372 -0.052479703 2.3509886e-38
-0.027624048 -0.12030561 -0.044577558 2.3509886e-38
-0.0255742 -0.12030561 -0.044577558 2.3509886e-38
-0.023064844 -0.11846052 -0.036513645 2.3509886e-38
-0.021029122 -0.11846052 -0.036513645 2.3509886e-38
-0.018568106 -0.11664073 -0.028560359 2.3509886e-38
-0.016335987 -0.11571021 -0.024493653 2.3509886e-38
-0.013771437 -0.11319222 -0.013488848 2.3509886e-38
-0.011585101 -0.11228584 -0.0095276423 2.3509886e-38
-0.0095967054 -0.11228584 -0.0095276423 2.3509886e-38
-0.007426776 -0.11135681 -0.0054673739 2.3509886e-38
-0.0049775615 -0.10886435 0.0054257326 2.3509886e-38
-0.0028473958 -0.10793148 0.0095028095 2.3509886e-38
-0.00077611953 -0.10725726 0.012449425 2.3509886e-38
0.0013255216 -0.10633601 0.016475718 2.3509886e-38
0.0033772625 -0.10564254 0.019506495 2.3509886e-38
0.0054506734 -0.10473295 0.023481887 2.3509886e-38
0.0076094344 -0.1031229 0.030518454 2.3509886e-38
0.0095276199 -0.1031229 0.030518454 2.3509886e-38
0.011561938 -0.10220437 0.034532826 2.3509886e-38
0.013473082 -0.10220437 0.034532826 2.3509527e-38
0.015384227 -0.10220437 0.034532826 2.1941844e-38
0.017295372 -0.10220437 0.034532826 1.5395957e-38
0.019206516 -0.10220437 0.034532826 5.6051939e-45
0.021117661 -0.10220437 0.034532826 5.6051939e-45
0.0229549 -0.1031229 0.030518454 1.8439406e-40
0.024873085 -0.1031229 0.030518454 5.5173465e-40
0.026791267 -0.1031229 0.030518454 3.6734198e-40
0.02876224 -0.10220437 0.034532826 7.3727651e-39
0.030673385 -0.10220437 0.034532826 2.3508797e-38
0.032584529 -0.10220437 0.034532826 2.3509161e-38
0.034495674 -0.10220437 0.034532826 7.3752875e-39
-0.041619621 -0.12786375 -0.068468049 2.3325497e-38
-0.039527886 -0.12786375 -0.068468049 2.3509527e-38
-0.037170671 -0.12695698 -0.064535335 2.3509527e-38
-0.034819819 -0.12602417 -0.060489494 2.3509886e-38
-0.032484896 -0.12509765 -0.056470949 2.3509886e-38
-0.030165754 -0.12417741 -0.052479703 2.3509886e-38
-0.027624048 -0.12235548 -0.044577558 2.3509886e-38
-0.0255742 -0.12235548 -0.044577558 2.3509886e-38
-0.023064844 -0.12049623 -0.036513645 2.3509886e-38
-0.020589866 -0.11866249 -0.028560359 2.3509886e-38
-0.018350624 -0.11772485 -0.024493653 2.3509886e-38
-0.016335987 -0.11772485 -0.024493653 2.3509886e-38
-0.013925642 -0.11589904 -0.016574699 2.3509886e-38
-0.011585101 -0.11427425 -0.0095276423 2.3509886e-38
-0.0095967054 -0.11427425 -0.0095276423 2.3509886e-38
-0.007426776 -0.1133381 -0.0054673739 2.3509886e-38
-0.0049775615 -0.11082654 0.0054257326 2.3509886e-38
-0.0028473958 -0.10988651 0.0095028095 2.3509886e-38
-0.00077611953 -0.10920714 0.012449425 2.3509886e-38
0.0013255216 -0.10827883 0.016475718 2.3509886e-38
0.0033772625 -0.10758002 0.019506495 2.3509886e-38
0.0054506734 -0.10666345 0.023481887 2.3509886e-38
0.0076094344 -0.10504107 0.030518454 2.3509886e-38
0.0095276199 -0.10504107 0.030518454 2.3509886e-38
0.011561938 -0.1041155 0.034532826 2.3509886e-38
0.013473082 -0.1041155 0.034532826 2.3508446e-38
0.015384227 -0.1041155 0.034532826 1.9083777e-38
0.017295372 -0.1041155 0.034532826 1.0970564e-38
0.019206516 -0.1041155 0.034532826 3.6878532e-40
0.021036718 -0.10504107 0.030518454 1.8403813e-40
0.0229549 -0.10504107 0.030518454 2.8025969e-45
0.024873085 -0.10504107 0.030518454 1.8402972e-40
0.026791267 -0.10504107 0.030518454 3.6734198e-40
0.02876224 -0.1041155 0.034532826 4.0540784e-39
0.030673385 -0.1041155 0.034532826 2.3507716e-38
0.032584529 -0.1041155 0.034532826 2.3323685e-38
0.034542747 -0.10273984 0.040499371 9.2181182e-39
0.036443431 -0.10273984 0.040499371 3.7803838e-39
-0.041619621 -0.12995549 -0.068468049 2.341805e-38
-0.039527886 -0.12995549 -0.068468049 2.341805e-38
-0.037170671 -0.12904184 -0.064535335 2.341805e-38
-0.034819819 -0.12810193 -0.060489494 2.3509886e-38
-0.032484896 -0.12716834 -0.056470949 2.3509886e-38
-0.030165754 -0.12624113 -0.052479703 2.3509886e-38
-0.027624048 -0.12440531 -0.044577558 2.3509886e-38
-0.025336556 -0.12346537 -0.040531594 2.3509527e-38
-0.02261164 -0.12068425 -0.028560359 2.3509527e-38
-0.020365261 -0.11973949 -0.024493653 2.3509886e-38
-0.018350624 -0.11973949 -0.024493653 2.3509886e-38
-0.016133837 -0.11883153 -0.020585377 2.3509886e-38
-0.013771437 -0.1171829 -0.013488848 2.3509886e-38
-0.011585101 -0.11626263 -0.0095276423 2.3509886e-38
-0.0094080493 -0.11531936 -0.0054673739 2.3509886e-38
-0.007426776 -0.11531936 -0.0054673739 2.3509886e-38
-0.0049775615 -0.11278872 0.0054257326 2.3509886e-38
-0.0028473958 -0.11184154 0.0095028095 2.3509886e-38
-0.00077611953 -0.11115701 0.012449425 2.3509886e-38
0.0013255216 -0.11022164 0.016475718 2.3509886e-38
0.0033772625 -0.10951753 0.019506495 2.3509886e-38
0.0054506734 -0.10859399 0.023481887 2.3509886e-38
0.0076094344 -0.10695927 0.030518454 2.3509886e-38
0.0096507929 -0.10602666 0.034532826 2.3509886e-38
0.011561938 -0.10602666 0.034532826 2.3509886e-38
0.013552789 -0.10534529 0.037465733 2.3139661e-38
0.015458792 -0.10534529 0.037465733 1.576509e-38
0.017295372 -0.10602666 0.034532826 4.7012583e-39
0.019206516 -0.10602666 0.034532826 5.5317378e-40
0.021036718 -0.10695927 0.030518454 3.629363e-43
0.0229549 -0.10695927 0.030518454 0
0.024873085 -0.10695927 0.030518454 5.5281084e-40
0.026791267 -0.10695927 0.030518454 3.6734198e-40
0.02876224 -0.10602666 0.034532826 2.3945542e-39
0.030673385 -0.10602666 0.034532826 2.3322962e-38
0.032584529 -0.10602666 0.034532826 2.3509513e-38
0.034542747 -0.10464053 0.040499371 1.2353127e-38
0.036443431 -0.10464053 0.040499371 7.0997796e-39
-0.041619621 -0.13204722 -0.068468049 2.3234379e-38
-0.039255522 -0.13112669 -0.064535335 2.341805e-38
-0.036897562 -0.13017969 -0.060489494 2.341805e-38
-0.034819819 -0.13017969 -0.060489494 2.3509886e-38
-0.032229461 -0.12830482 -0.052479703 2.3509886e-38
-0.029919006 -0.12737687 -0.048515279 2.3509886e-38
-0.027379312 -0.12550814 -0.040531594 2.3509886e-38
-0.025336556 -0.12550814 -0.040531594 2.3509527e-38
-0.02261164 -0.12270601 -0.028560359 2.3509527e-38
-0.020365261 -0.12175412 -0.024493653 2.3509886e-38
-0.018350624 -0.12175412 -0.024493653 2.3509886e-38
-0.016133837 -0.12083931 -0.020585377 2.3509886e-38
-0.013771437 -0.11917825 -0.013488848 2.3509886e-38
-0.011585101 -0.11825104 -0.0095276423 2.3509886e-38
-0.0094080493 -0.11730064 -0.0054673739 2.3509886e-38
-0.0072521493 -0.11638646 -0.0015617199 2.3509886e-38
-0.0049775615 -0.11475091 0.0054257326 2.3509886e-38
-0.0028473958 -0.11379658 0.0095028095 2.3509886e-38
-0.00077611953 -0.11310686 0.012449425 2.3509886e-38
0.0013255216 -0.11216442 0.016475718 2.3509886e-38
0.0033772625 -0.11145501 0.019506495 2.3509886e-38
0.0054506734 -0.11052449 0.023481887 2.3509886e-38
0.0076094344 -0.10887744 0.030518454 2.3509886e-38
0.0096507929 -0.1079378 0.034532826 2.3509886e-38
0.011646785 -0.1072513 0.037465733 2.3509883e-38
0.013552789 -0.1072513 0.037465733 2.3509521e-38
0.015458792 -0.1072513 0.037465733 1.2998139e-38
0.017295372 -0.1079378 0.034532826 1.1059846e-39
0.019206516 -0.1079378 0.034532826 1.8439126e-40
0.021036718 -0.10887744 0.030518454 3.5873241e-43
0.022898018 -0.10960068 0.027428668 0
0.024821617 -0.10960068 0.027428668 1.0137862e-39
0.026791267 -0.10887744 0.030518454 2.7550649e-40
0.02876224 -0.1079378 0.034532826 3.6734198e-40
0.030673385 -0.1079378 0.034532826 2.2493199e-38
0.032584529 -0.1079378 0.034532826 2.350843e-38
0.034542747 -0.1065412 0.040499371 1.9175601e-38
0.036443431 -0.1065412 0.040499371 9.2199161e-39
-0.041619621 -0.13413896 -0.068468049 2.3142544e-38
-0.039255522 -0.13321154 -0.064535335 2.3234379e-38
-0.036897562 -0.13225742 -0.060489494 2.3234379e-38
-0.034819819 -0.13225742 -0.060489494 2.341805e-38
-0.032229461 -0.13036855 -0.052479703 2.341805e-38
-0.029673912 -0.12850504 -0.044577558 2.3509886e-38
-0.027379312 -0.12755089 -0.040531594 2.3509886e-38
-0.024866171 -0.12566237 -0.032523353 2.3509527e-38
-0.02261164 -0.1247278 -0.028560359 2.3509527e-38
-0.020365261 -0.12376876 -0.024493653 2.3509886e-38
-0.01814162 -0.1228471 -0.020585377 2.3509886e-38
-0.015766785 -0.12117358 -0.013488848 2.3509886e-38
-0.013573505 -0.12023942 -0.0095276423 2.3509886e-38
-0.011585101 -0.12023942 -0.0095276423 2.3509886e-38
-0.0094080493 -0.11928193 -0.0054673739 2.3509886e-38
-0.0069397464 -0.11671309 0.0054257326 2.3509886e-38
-0.0048024282 -0.11575161 0.0095028095 2.3509886e-38
-0.0027259812 -0.11505674 0.012449425 2.3509886e-38
-0.00061728805 -0.11410724 0.016475718 2.3509886e-38
0.0013255216 -0.11410724 0.016475718 2.3509886e-38
0.0035201497 -0.11245503 0.023481887 2.3509886e-38
0.0055856109 -0.11152427 0.027428668 2.3509886e-38
0.0076094344 -0.11079563 0.030518454 2.3509886e-38
0.0096507929 -0.10984896 0.034532826 2.3509886e-38
0.011646785 -0.10915731 0.037465733 2.3509883e-38
0.013552789 -0.10915731 0.037465733 2.3509879e-38
0.015458792 -0.10915731 0.037465733 8.112128e-39
0.017295372 -0.10984896 0.034532826 9.1835496e-41
0.019206516 -0.10984896 0.034532826 9.2194229e-41
0.021036718 -0.11079563 0.030518454 3.5873241e-43
0.022898018 -0.11152427 0.027428668 2.7658409e-40
0.024821617 -0.11152427 0.027428668 2.7622395e-40
0.026791267 -0.11079563 0.030518454 2.7550649e-40
0.028709449 -0.11079563 0.030518454 5.5173044e-40
0.030673385 -0.10984896 0.034532826 1.8344753e-38
0.032584529 -0.10984896 0.034532826 2.3507708e-38
0.034495674 -0.10984896 0.034532826 2.3509873e-38
-0.041619621 -0.13623069 -0.068468049 2.2774481e-38
-0.039527886 -0.13623069 -0.068468049 2.3234379e-38
-0.037170671 -0.13529639 -0.064535335 2.3234379e-38
-0.034819819 -0.13433518 -0.060489494 2.341805e-38
-0.032229461 -0.13243224 -0.052479703 2.341805e-38
-0.029673912 -0.13055487 -0.044577558 2.3509886e-38
-0.027136274 -0.12863909 -0.036513645 2.3509886e-38
-0.024866171 -0.12769108 -0.032523353 2.3509527e-38
-0.022379898 -0.1257834 -0.024493653 2.3509527e-38
-0.020149417 -0.12485488 -0.020585377 2.3509886e-38
-0.017927147 -0.12390204 -0.016574699 2.3509886e-38
-0.015766785 -0.12316893 -0.013488848 2.3509886e-38
-0.013573505 -0.12222783 -0.0095276423 2.3509886e-38
-0.01138933 -0.12126322 -0.0054673739 2.3509886e-38
-0.0094080493 -0.12126322 -0.0054673739 2.3509886e-38
-0.0069397464 -0.11867525 0.0054257326 2.3509886e-38
-0.0048024282 -0.11770664 0.0095028095 2.3509886e-38
-0.0025600865 -0.11605005 0.016475718 2.3509886e-38
-0.00049772114 -0.11533 0.019506495 2.3509886e-38
0.0015896298 -0.11438553 0.023481887 2.3509886e-38
0.0036620125 -0.11344786 0.027428668 2.3509886e-38
0.0055856109 -0.11344786 0.027428668 2.3509886e-38
0.0077396482 -0.11176009 0.034532826 2.3509886e-38
0.0097407848 -0.11106332 0.037465733 2.3509886e-38
0.011646785 -0.11106332 0.037465733 2.3509883e-38
0.013552789 -0.11106332 0.037465733 2.304782e-38
0.015458792 -0.11106332 0.037465733 3.1335612e-39
0.017295372 -0.11176009 0.034532826 9.1835496e-41
0.019206516 -0.11176009 0.034532826 3.6913565e-40
0.021036718 -0.1127138 0.030518454 4.6169421e-40
0.02275217 -0.11533 0.019506495 7.1746481e-43
0.024689659 -0.11533 0.019506495 9.1835496e-41
0.026745219 -0.11344786 0.027428668 9.2086609e-40
0.028709449 -0.1127138 0.030518454 4.5953621e-40
0.030627631 -0.1127138 0.030518454 1.0415929e-38
0.032584529 -0.11176009 0.034532826 2.3507708e-38
0.034495674 -0.11176009 0.034532826 2.350951e-38
-0.041619621 -0.13832243 -0.068468049 2.3142544e-38
-0.039255522 -0.13738121 -0.064535335 2.3234379e-38
-0.036897562 -0.13641293 -0.060489494 2.3234379e-38
-0.034555592 -0.13545118 -0.056470949 2.341805e-38
-0.031975754 -0.13354714 -0.048515279 2.341805e-38
-0.029422067 -0.1316364 -0.040531594 2.3509886e-38
-0.027136274 -0.13067479 -0.036513645 2.3509886e-38
-0.024866171 -0.12971978 -0.032523353 2.3509527e-38
-0.022379898 -0.12779804 -0.024493653 2.3509527e-38
-0.020149417 -0.12686269 -0.020585377 2.3509886e-38
-0.017927147 -0.12590279 -0.016574699 2.3509886e-38
-0.015561901 -0.12421621 -0.0095276423 2.3509886e-38
-0.013573505 -0.12421621 -0.0095276423 2.3509886e-38
-0.01138933 -0.12324448 -0.0054673739 2.3509886e-38
-0.0092265829 -0.12230973 -0.0015617199 2.3509886e-38
-0.0067574605 -0.11966167 0.0095028095 2.3509886e-38
-0.0045028925 -0.11799283 0.016475718 2.3509886e-38
-0.0024352148 -0.11726747 0.019506495 2.3509886e-38
-0.00049772114 -0.11726747 0.019506495 2.3325494e-38
0.0015896298 -0.11631607 0.023481887 2.3509886e-38
0.0036620125 -0.11537148 0.027428668 2.3509886e-38
0.0056912526 -0.114632 0.030518454 2.3141103e-38
0.0077396482 -0.11367123 0.034532826 2.3509886e-38
0.0097407848 -0.11296929 0.037465733 2.3509886e-38
0.011646785 -0.11296929 0.037465733 2.3509883e-38
0.013552789 -0.11296929 0.037465733 2.3509517e-38
0.015458792 -0.11296929 0.037465733 4.5917748e-40
0.016606405 -0.12063743 0.0054257326 1.0130645e-39
0.018810764 -0.11799283 0.016475718 3.5873241e-43
0.02075357 -0.11799283 0.016475718 2.7730295e-40
0.022696376 -0.11799283 0.016475718 9.2911693e-41
0.024639178 -0.11799283 0.016475718 9.1835496e-41
0.026627153 -0.11726747 0.019506495 3.6770072e-40
0.028709449 -0.114632 0.030518454 3.6734198e-40
0.030627631 -0.114632 0.030518454 2.5793e-39
0.032584529 -0.11367123 0.034532826 1.8529141e-38
0.034495674 -0.11367123 0.034532826 2.3509149e-38
0.036363222 -0.11537148 0.027428668 2.2587915e-38
-0.041619621 -0.14041416 -0.068468049 2.3142544e-38
-0.039255522 -0.13946606 -0.064535335 2.3234379e-38
-0.036626302 -0.13752188 -0.056470949 2.3234379e-38
-0.034293167 -0.13655965 -0.052479703 2.341805e-38
-0.031975754 -0.13560389 -0.048515279 2.341805e-38
-0.029422067 -0.13367917 -0.040531594 2.3509886e-38
-0.027136274 -0.1327105 -0.036513645 2.3509886e-38
-0.024866171 -0.13174851 -0.032523353 2.3509527e-38
-0.022379898 -0.12981267 -0.024493653 2.3509527e-38
-0.020149417 -0.12887047 -0.020585377 2.3509886e-38
-0.017762125 -0.12715961 -0.013488848 2.3509886e-38
-0.015561901 -0.12620462 -0.0095276423 2.3509886e-38
-0.013370611 -0.12522577 -0.0054673739 2.3509886e-38
-0.01138933 -0.12522577 -0.0054673739 2.3509886e-38
-0.0092265829 -0.12428416 -0.0015617199 2.3509886e-38
-0.0066257119 -0.12090631 0.012449425 2.3509886e-38
-0.0045028925 -0.11993565 0.016475718 2.3509886e-38
-0.0024352148 -0.11920498 0.019506495 2.3509886e-38
-0.00049772114 -0.11920498 0.019506495 2.341769e-38
0.0015896298 -0.11824657 0.023481887 2.3509886e-38
0.0036620125 -0.11729507 0.027428668 2.3509886e-38
0.0056912526 -0.11655019 0.030518454 2.3509886e-38
0.0077396482 -0.11558239 0.034532826 2.3509886e-38
0.0097407848 -0.1148753 0.037465733 2.341769e-38
0.011646785 -0.1148753 0.037465733 2.3509523e-38
0.013552789 -0.1148753 0.037465733 2.2954903e-38
0.016606405 -0.12259962 0.0054257326 5.5208917e-40
0.018568583 -0.12259962 0.0054257326 3.5873241e-43
0.02075357 -0.11993565 0.016475718 3.5873241e-43
0.022696376 -0.11993565 0.016475718 9.2911693e-41
0.024639178 -0.11993565 0.016475718 3.5873241e-43
0.026627153 -0.11920498 0.019506495 7.3647763e-40
0.028564643 -0.11920498 0.019506495 3.6734198e-40
0.030592419 -0.11729507 0.027428668 7.3540143e-40
0.032516021 -0.11729507 0.027428668 1.3642773e-38
0.034463998 -0.11655019 0.030518454 2.3508428e-38
0.036382183 -0.11655019 0.030518454 2.3509873e-38
-0.041340359 -0.14155091 -0.064535335 2.3234379e-38
-0.038975321 -0.14056842 -0.060489494 2.341805e-38
-0.036626302 -0.13959257 -0.056470949 2.341805e-38
-0.034032516 -0.13766064 -0.048515279 2.3509886e-38
-0.03172376 -0.13670443 -0.044577558 2.3509886e-38
-0.029422067 -0.13572191 -0.040531594 2.3509886e-38
-0.027136274 -0.13474621 -0.036513645 2.3509886e-38
-0.024866171 -0.13377722 -0.032523353 2.3509527e-38
-0.022379898 -0.13182731 -0.024493653 2.3509527e-38
-0.019927897 -0.12990431 -0.016574699 2.3509886e-38
-0.017762125 -0.12915494 -0.013488848 2.3509886e-38
-0.015561901 -0.12819304 -0.0095276423 2.3509886e-38
-0.013370611 -0.12720706 -0.0054673739 2.3509886e-38
-0.011201017 -0.1262586 -0.0015617199 2.3509886e-38
-0.0092265829 -0.1262586 -0.0015617199 2.3509886e-38
-0.0066257119 -0.12285618 0.012449425 2.3509886e-38
-0.0045028925 -0.12187846 0.016475718 2.3509886e-38
-0.0024352148 -0.12114246 0.019506495 2.3509886e-38
-0.00034088641 -0.12017711 0.023481887 2.3509886e-38
0.0015896298 -0.12017711 0.023481887 2.3325494e-38
0.0036620125 -0.11921866 0.027428668 2.3325494e-38
0.0056912526 -0.11846836 0.030518454 2.3509886e-38
0.0077396482 -0.11749353 0.034532826 2.3509886e-38
0.0097407848 -0.11678131 0.037465733 2.3325494e-38
0.011646785 -0.11678131 0.037465733 2.3509883e-38
0.013552789 -0.11678131 0.037465733 2.2125142e-38
0.016606405 -0.1245618 0.0054257326 6.442834e-40
0.018568583 -0.1245618 0.0054257326 3.5873241e-43
0.020672385 -0.12285618 0.012449425 3.5873241e-43
0.022696376 -0.12187846 0.016475718 9.2911693e-41
0.024639178 -0.12187846 0.016475718 1.8474719e-40
0.026627153 -0.12114246 0.019506495 1.8402972e-40
0.028564643 -0.12114246 0.019506495 4.5953621e-40
0.030592419 -0.11921866 0.027428668 5.5101298e-40
0.032516021 -0.11921866 0.027428668 7.8337293e-39
0.034463998 -0.11846836 0.030518454 2.3508068e-38
0.036382183 -0.11846836 0.030518454 2.350987e-38
-0.045510046 -0.14363576 -0.064535335 2.3234379e-38
-0.04342521 -0.14363576 -0.064535335 2.3142544e-38
-0.041340359 -0.14363576 -0.064535335 2.341805e-38
-0.038975321 -0.14264618 -0.060489494 2.341805e-38
-0.036626302 -0.1416633 -0.056470949 2.341805e-38
-0.034032516 -0.13971741 -0.048515279 2.3509886e-38
-0.031464823 -0.13776468 -0.040531594 2.3509886e-38
-0.029171981 -0.13678192 -0.036513645 2.3509886e-38
-0.02689489 -0.13580595 -0.032523353 2.3509886e-38
-0.024394535 -0.13384195 -0.024493653 2.3509527e-38
-0.0221572 -0.13288604 -0.020585377 2.3509527e-38
-0.019927897 -0.13190506 -0.016574699 2.3509886e-38
-0.017762125 -0.13115029 -0.013488848 2.3509886e-38
-0.015561901 -0.13018142 -0.0095276423 2.3509886e-38
-0.013370611 -0.12918831 -0.0054673739 2.3509886e-38
-0.011201017 -0.12823303 -0.0015617199 2.3509886e-38
-0.0090869442 -0.12749799 0.0014435463 2.3509886e-38
-0.0067574605 -0.12552677 0.0095028095 2.3509886e-38
-0.0045028925 -0.12382124 0.016475718 2.3509886e-38
-0.0024352148 -0.12307997 0.019506495 2.341769e-38
-0.00034088641 -0.12210761 0.023481887 2.3509886e-38
0.0015896298 -0.12210761 0.023481887 2.3141103e-38
0.0037730671 -0.12038656 0.030518454 2.3233299e-38
0.0056912526 -0.12038656 0.030518454 2.3509886e-38
0.0077396482 -0.11940466 0.034532826 2.3509886e-38
0.0097407848 -0.11868732 0.037465733 2.341769e-38
0.011646785 -0.11868732 0.037465733 2.3509883e-38
0.013552789 -0.11868732 0.037465733 2.0650012e-38
0.015458792 -0.11868732 0.037465733 3.6734198e-40
0.016512148 -0.12749799 0.0014435463 2.7550649e-40
0.018481307 -0.12749799 0.0014435463 6.4536661e-40
0.02061297 -0.12552677 0.0095028095 7.1886611e-43
0.02262225 -0.12480606 0.012449425 7.1886611e-43
0.024639178 -0.12382124 0.016475718 9.2194229e-41
0.026627153 -0.12307997 0.019506495 9.1835496e-41
0.028564643 -0.12307997 0.019506495 4.5953621e-40
0.03054744 -0.12210761 0.023481887 1.1038196e-39
0.03247796 -0.12210761 0.023481887 3.3161462e-39
0.03440848 -0.12210761 0.023481887 2.3508428e-38
-0.045510046 -0.14572059 -0.064535335 2.341805e-38
-0.04342521 -0.14572059 -0.064535335 2.3233662e-38
-0.041053064 -0.14472394 -0.060489494 2.3325497e-38
-0.038697012 -0.14373399 -0.056470949 2.3509527e-38
-0.036356874 -0.14275078 -0.052479703 2.3509527e-38
-0.034032516 -0.14177416 -0.048515279 2.3509886e-38
-0.031464823 -0.13980745 -0.040531594 2.3509886e-38
-0.029171981 -0.13881765 -0.036513645 2.3509886e-38
-0.02689489 -0.13783465 -0.032523353 2.3509886e-38
-0.024394535 -0.13585658 -0.024493653 2.3509886e-38
-0.0221572 -0.13489382 -0.020585377 2.3509886e-38
-0.019927897 -0.13390581 -0.016574699 2.3509886e-38
-0.017762125 -0.13314565 -0.013488848 2.3509886e-38
-0.015561901 -0.13216983 -0.0095276423 2.3509886e-38
-0.013370611 -0.1311696 -0.0054673739 2.3509886e-38
-0.011201017 -0.13020746 -0.0015617199 2.3509886e-38
-0.0089019164 -0.12848614 0.0054257326 2.3509886e-38
-0.0066257119 -0.12675591 0.012449425 2.3509886e-38
-0.0045028925 -0.12576406 0.016475718 2.3509886e-38
-0.0024352148 -0.12501745 0.019506495 2.3233299e-38
-0.00034088641 -0.12403814 0.023481887 2.3509886e-38
0.0015896298 -0.12403814 0.023481887 2.3233299e-38
0.0037730671 -0.12230472 0.030518454 2.3325494e-38
0.0058285035 -0.12131582 0.034532826 2.3509886e-38
0.0077396482 -0.12131582 0.034532826 2.3325494e-38
0.0097407848 -0.12059332 0.037465733 2.3509886e-38
0.011646785 -0.12059332 0.037465733 2.2679762e-38
0.013552789 -0.12059332 0.037465733 1.8344401e-38
0.015458792 -0.12059332 0.037465733 5.5101298e-40
0.016441014 -0.13020746 -0.0015617199 2.7550649e-40
0.018481307 -0.12946714 0.0014435463 4.6097535e-40
0.020530764 -0.12848614 0.0054257326 7.1886611e-43
0.022568002 -0.1274818 0.0095028095 3.5873241e-43
0.024572112 -0.12675591 0.012449425 9.2194229e-41
0.02658198 -0.12576406 0.016475718 9.1835496e-41
0.028564643 -0.12501745 0.019506495 3.6734198e-40
0.030502133 -0.12501745 0.019506495 1.2882081e-39
0.032439623 -0.12501745 0.019506495 6.4284847e-40
0.034377113 -0.12501745 0.019506495 2.3509509e-38
0.036314607 -0.12501745 0.019506495 2.350843e-38
-0.045510046 -0.14780544 -0.064535335 2.3509886e-38
-0.043130822 -0.14680167 -0.060489494 2.3325497e-38
-0.041053064 -0.14680167 -0.060489494 2.3509886e-38
-0.038697012 -0.14580469 -0.056470949 2.3509527e-38
-0.036356874 -0.14481448 -0.052479703 2.3509527e-38
-0.033773609 -0.14285399 -0.044577558 2.3509886e-38
-0.031464823 -0.14185019 -0.040531594 2.3509886e-38
-0.029171981 -0.14085336 -0.036513645 2.3509886e-38
-0.026655175 -0.13888018 -0.028560359 2.3509886e-38
-0.024394535 -0.13787122 -0.024493653 2.3509886e-38
-0.0221572 -0.1369016 -0.020585377 2.3509886e-38
-0.019927897 -0.13590656 -0.016574699 2.3509886e-38
-0.017762125 -0.13514097 -0.013488848 2.3509886e-38
-0.015561901 -0.13415821 -0.0095276423 2.3509886e-38
-0.013175443 -0.1321819 -0.0015617199 2.3509886e-38
-0.011056103 -0.1314363 0.0014435463 2.3509886e-38
-0.0089019164 -0.13044833 0.0054257326 2.3509886e-38
-0.0066257119 -0.12870578 0.012449425 2.3509886e-38
-0.0045028925 -0.12770687 0.016475718 2.3509886e-38
-0.0024352148 -0.12695493 0.019506495 2.3233299e-38
-0.00034088641 -0.12596865 0.023481887 2.3509886e-38
0.0017384104 -0.12498946 0.027428668 2.3233299e-38
0.0039173588 -0.12322696 0.034532826 2.3509886e-38
0.0058285035 -0.12322696 0.034532826 2.341769e-38
0.007834781 -0.1224993 0.037465733 2.341769e-38
0.0098338649 -0.12174667 0.040499371 2.3509886e-38
0.011734549 -0.12174667 0.040499371 2.019048e-38
0.013552789 -0.1224993 0.037465733 1.5301945e-38
0.015458792 -0.1224993 0.037465733 1.1960138e-39
0.016441014 -0.1321819 -0.0015617199 2.7550649e-40
0.018481307 -0.1314363 0.0014435463 2.7658689e-40
0.020530764 -0.13044833 0.0054257326 2.8025969e-45
0.022568002 -0.12943684 0.0095028095 3.61535e-43
0.024572112 -0.12870578 0.012449425 3.5873241e-43
0.02658198 -0.12770687 0.016475718 2.7622395e-40
0.028564643 -0.12695493 0.019506495 4.5917748e-40
0.030502133 -0.12695493 0.019506495 8.2723693e-40
0.032439623 -0.12695493 0.019506495 6.4284847e-40
0.034377113 -0.12695493 0.019506495 2.2585033e-38
0.036314607 -0.12695493 0.019506495 2.3509514e-38
0.038252097 -0.12695493 0.019506495 1.8253645e-38
-0.045510046 -0.14989029 -0.064535335 2.3509167e-38
-0.043130822 -0.14887942 -0.060489494 2.3416974e-38
-0.040767707 -0.14787538 -0.056470949 2.3509527e-38
-0.03842058 -0.1468782 -0.052479703 2.3509527e-38
-0.036089264 -0.14588766 -0.048515279 2.3509527e-38
-0.033773609 -0.14490382 -0.044577558 2.3509886e-38
-0.031464823 -0.14389296 -0.040531594 2.3509886e-38
-0.029171981 -0.14288907 -0.036513645 2.3509886e-38
-0.026655175 -0.14090194 -0.028560359 2.3509886e-38
-0.024394535 -0.13988586 -0.024493653 2.3509886e-38
-0.0221572 -0.13890938 -0.020585377 2.3509886e-38
-0.019757472 -0.13713633 -0.013488848 2.3509886e-38
-0.017550297 -0.13614662 -0.0095276423 2.3509886e-38
-0.015561901 -0.13614662 -0.0095276423 2.3509886e-38
-0.013175443 -0.13415633 -0.0015617199 2.3509886e-38
-0.011056103 -0.13340546 0.0014435463 2.3509886e-38
-0.0089019164 -0.13241051 0.0054257326 2.3509886e-38
-0.0066257119 -0.13065563 0.012449425 2.3509886e-38
-0.004372701 -0.12889244 0.019506495 2.3509886e-38
-0.0024352148 -0.12889244 0.019506495 2.341769e-38
-0.00034088641 -0.12789918 0.023481887 2.3509886e-38
0.0017384104 -0.12691309 0.027428668 2.3048907e-38
0.0039173588 -0.12513812 0.034532826 2.3509886e-38
0.0058285035 -0.12513812 0.034532826 2.3233299e-38
0.007834781 -0.12440531 0.037465733 2.3509886e-38
0.0098338649 -0.12364738 0.040499371 2.341769e-38
0.011734549 -0.12364738 0.040499371 1.6779242e-38
0.013552789 -0.12440531 0.037465733 9.7698515e-39
0.015458792 -0.12440531 0.037465733 1.3800492e-39
0.016441014 -0.13415633 -0.0015617199 6.4392467e-40
0.018481307 -0.13340546 0.0014435463 1.8439126e-40
0.020530764 -0.13241051 0.0054257326 2.8025969e-45
0.022492945 -0.13241051 0.0054257326 3.61535e-43
0.024523035 -0.13139187 0.0095028095 3.5873241e-43
0.02658198 -0.12964968 0.016475718 0
0.028564643 -0.12889244 0.019506495 4.5989495e-40
0.030502133 -0.12889244 0.019506495 5.5101298e-40
0.032439623 -0.12889244 0.019506495 7.3468397e-40
0.034377113 -0.12889244 0.019506495 1.7145491e-38
0.036314607 -0.12889244 0.019506495 2.3509154e-38
-0.040767707 -0.14994611 -0.056470949 2.3417691e-38
-0.03842058 -0.14894189 -0.052479703 2.3509527e-38
-0.036089264 -0.14794444 -0.048515279 2.3509527e-38
-0.033773609 -0.14695369 -0.044577558 2.3509527e-38
-0.031464823 -0.1459357 -0.040531594 2.3509527e-38
-0.029171981 -0.14492477 -0.036513645 2.3509886e-38
-0.026655175 -0.1429237 -0.028560359 2.3509883e-38
-0.024164982 -0.14091717 -0.020585377 2.350988e-38
-0.021928661 -0.13990806 -0.016574699 2.350988e-38
-0.019757472 -0.13913165 -0.013488848 2.3509883e-38
-0.017550297 -0.138135 -0.0095276423 2.3509886e-38
-0.015351884 -0.13711344 -0.0054673739 2.3509886e-38
-0.013175443 -0.13613077 -0.0015617199 2.3509886e-38
-0.011056103 -0.13537462 0.0014435463 2.3509886e-38
-0.008575581 -0.13260551 0.012449425 2.3509886e-38
-0.0064456984 -0.13159247 0.016475718 2.3509886e-38
-0.004372701 -0.13082992 0.019506495 2.3509886e-38
-0.0024352148 -0.13082992 0.019506495 2.3509886e-38
-0.00034088641 -0.12982969 0.023481887 2.3509886e-38
0.0017384104 -0.12883668 0.027428668 2.2864519e-38
0.0039173588 -0.12704925 0.034532826 2.3509886e-38
0.0058285035 -0.12704925 0.034532826 2.3416971e-38
0.0079331845 -0.12554805 0.040499371 2.3509886e-38
0.0098338649 -0.12554805 0.040499371 2.3140384e-38
0.011734549 -0.12554805 0.040499371 1.4197764e-38
0.013552789 -0.12631132 0.037465733 3.4083544e-39
0.015458792 -0.12631132 0.037465733 5.5101298e-40
0.016348567 -0.13711344 -0.0054673739 5.5173044e-40
0.018481307 -0.13537462 0.0014435463 9.1835496e-41
0.020450473 -0.13537462 0.0014435463 2.8025969e-45
0.022492945 -0.1343727 0.0054257326 1.847542e-40
0.024523035 -0.13334687 0.0095028095 2.7730576e-40
0.02658198 -0.13159247 0.016475718 0
0.028564643 -0.13082992 0.019506495 2.7550649e-40
0.030502133 -0.13082992 0.019506495 3.6734198e-40
0.032439623 -0.13082992 0.019506495 1.5640733e-39
0.034377113 -0.13082992 0.019506495 1.1152417e-38
0.036314607 -0.13082992 0.019506495 2.2215896e-38
-0.033773609 -0.14900355 -0.044577558 2.3509168e-38
-0.031464823 -0.14797847 -0.040531594 2.3509527e-38
-0.029171981 -0.14696048 -0.036513645 2.3509886e-38
-0.026655175 -0.14494546 -0.028560359 2.3509879e-38
-0.024164982 -0.14292495 -0.020585377 2.3509869e-38
-0.021928661 -0.14190884 -0.016574699 2.3418032e-38
-0.019538693 -0.14012341 -0.0095276423 2.3509879e-38
-0.017550297 -0.14012341 -0.0095276423 2.3509883e-38
-0.015351884 -0.13909473 -0.0054673739 2.3509883e-38
-0.013175443 -0.1381052 -0.0015617199 2.3509883e-38
-0.011056103 -0.13734378 0.0014435463 2.3509886e-38
-0.008575581 -0.13455538 0.012449425 2.3509886e-38
-0.0064456984 -0.13353528 0.016475718 2.3509527e-38
-0.004372701 -0.13276742 0.019506495 2.3509527e-38
-0.0022714064 -0.13176022 0.023481887 2.3509527e-38
-0.00018518418 -0.13076027 0.027428668 2.2679409e-38
0.0018548854 -0.12997745 0.030518454 2.3509527e-38
0.0039173588 -0.12896039 0.034532826 2.3509527e-38
0.0059287809 -0.12821732 0.037465733 2.3508091e-38
0.0079331845 -0.12744872 0.040499371 2.3324778e-38
0.0098338649 -0.12744872 0.040499371 2.3509527e-38
0.011734549 -0.12744872 0.040499371 1.0601058e-38
0.013635233 -0.12744872 0.040499371 1.5651649e-39
0.015535913 -0.12744872 0.040499371 1.1045427e-39
0.016441014 -0.1381052 -0.0015617199 3.6734198e-40
0.018415444 -0.1381052 -0.0015617199 9.1835496e-41
0.020450473 -0.13734378 0.0014435463 1.8367239e-40
0.022419631 -0.13734378 0.0014435463 1.8439126e-40
0.024523035 -0.1353019 0.0095028095 9.219563e-41
0.026521977 -0.13455538 0.012449425 9.1835496e-41
0.028524786 -0.13353528 0.016475718 2.7550649e-40
0.030502133 -0.13276742 0.019506495 1.6577151e-39
0.032439623 -0.13276742 0.019506495 3.6734198e-40
0.03443962 -0.13076027 0.027428668 1.3804023e-39
0.036382183 -0.12997745 0.030518454 1.8804657e-38
0.038317963 -0.12896039 0.034532826 2.3509153e-38
0.040229104 -0.12896039 0.034532826 2.2676871e-38
0.042140253 -0.12896039 0.034532826 9.9549504e-39
-0.029171981 -0.14899619 -0.036513645 2.3509883e-38
-0.026655175 -0.14696725 -0.028560359 2.3509876e-38
-0.024164982 -0.14493273 -0.020585377 2.3509869e-38
-0.021928661 -0.14390959 -0.016574699 2.350987e-38
-0.019538693 -0.14211179 -0.0095276423 2.3509879e-38
-0.017550297 -0.14211179 -0.0095276423 2.350988e-38
-0.015351884 -0.14107598 -0.0054673739 2.3509883e-38
-0.013025269 -0.13931294 0.0014435463 2.3509883e-38
-0.010864101 -0.13829704 0.0054257326 2.3509886e-38
-0.0087124854 -0.13725694 0.0095028095 2.3509886e-38
-0.0064456984 -0.13547809 0.016475718 2.3509527e-38
-0.0042019263 -0.13369073 0.023481887 2.3509527e-38
-0.00210879 -0.13268389 0.027428668 2.3509527e-38
-6.3292682e-05 -0.13189565 0.030518454 2.3048194e-38
0.0020062141 -0.13087155 0.034532826 2.3509168e-38
0.0040227771 -0.13012333 0.037465733 2.3509168e-38
0.0059287809 -0.13012333 0.037465733 2.3508451e-38
0.0079331845 -0.12934943 0.040499371 2.3509527e-38
0.0098338649 -0.12934943 0.040499371 2.3509527e-38
0.011734549 -0.12934943 0.040499371 7.8351866e-39
0.013635233 -0.12934943 0.040499371 1.01271e-39
0.016441014 -0.14007963 -0.0015617199 2.7550649e-40
0.018415444 -0.14007963 -0.0015617199 9.1835496e-41
0.020450473 -0.13931294 0.0014435463 9.1835496e-41
0.022419631 -0.13931294 0.0014435463 2.7586802e-40
0.024455123 -0.13829704 0.0054257326 1.8402972e-40
0.026478063 -0.13725694 0.0095028095 9.1835496e-41
0.028524786 -0.13547809 0.016475718 3.6734198e-40
0.030467592 -0.13547809 0.016475718 9.2086889e-40
0.03247796 -0.13369073 0.023481887 3.6734198e-40
0.03443962 -0.13268389 0.027428668 9.1943116e-40
0.036382183 -0.13189565 0.030518454 1.2719743e-38
0.038317963 -0.13087155 0.034532826 2.3321879e-38
0.04023682 -0.13012333 0.037465733 2.3321156e-38
0.042142823 -0.13012333 0.037465733 1.0598879e-38
0.044048823 -0.13012333 0.037465733 8.5734551e-39
-0.026655175 -0.14898901 -0.028560359 2.3418045e-38
-0.024164982 -0.14694051 -0.020585377 2.3418047e-38
-0.021928661 -0.14591034 -0.016574699 2.341805e-38
-0.019538693 -0.1441002 -0.0095276423 2.3509883e-38
-0.017550297 -0.1441002 -0.0095276423 2.3509883e-38
-0.015351884 -0.14305727 -0.0054673739 2.3509886e-38
-0.013025269 -0.1412821 0.0014435463 2.3509886e-38
-0.010864101 -0.14025922 0.0054257326 2.3509886e-38
-0.0087124854 -0.13921197 0.0095028095 2.3509886e-38
-0.0064456984 -0.13742088 0.016475718 2.3509527e-38
-0.0042019263 -0.13562126 0.023481887 2.3509527e-38
-0.00210879 -0.13460748 0.027428668 2.3509527e-38
9.5069408e-05 -0.13278268 0.034532826 2.3509527e-38
0.0020062141 -0.13278268 0.034532826 2.3508809e-38
0.0040227771 -0.13202934 0.037465733 2.3509168e-38
0.0060325004 -0.1312501 0.040499371 2.3508446e-38
0.0079331845 -0.1312501 0.040499371 2.3509524e-38
0.0098338649 -0.1312501 0.040499371 2.3508804e-38
0.011734549 -0.1312501 0.040499371 3.6863833e-39
0.013635233 -0.1312501 0.040499371 3.6734198e-40
0.014163356 -0.14511769 -0.013488848 9.1835496e-41
0.016348567 -0.14305727 -0.0054673739 9.1835496e-41
0.018329844 -0.14305727 -0.0054673739 9.1835496e-41
0.020389874 -0.14205404 -0.0015617199 9.1835496e-41
0.022364303 -0.14205404 -0.0015617199 1.8439126e-40
0.024455123 -0.14025922 0.0054257326 1.8367239e-40
0.026521977 -0.13845511 0.012449425 9.1835496e-41
0.028564643 -0.13664238 0.019506495 3.6734198e-40
0.030502133 -0.13664238 0.019506495 2.7550649e-40
0.032516021 -0.13460748 0.027428668 4.5917748e-40
0.03443962 -0.13460748 0.027428668 1.0116254e-39
0.036382183 -0.13381381 0.030518454 6.266049e-39
0.038300365 -0.13381381 0.030518454 2.3507351e-38
0.04023682 -0.13202934 0.037465733 2.3509149e-38
0.042142823 -0.13202934 0.037465733 1.1981814e-38
0.044048823 -0.13202934 0.037465733 9.8641953e-39
-0.024164982 -0.14894833 -0.020585377 2.341805e-38
-0.021752812 -0.14711304 -0.013488848 2.3417691e-38
-0.019538693 -0.14608859 -0.0095276423 2.3509886e-38
-0.017333165 -0.14503856 -0.0054673739 2.3509883e-38
-0.015351884 -0.14503856 -0.0054673739 2.3509886e-38
-0.013025269 -0.14325126 0.0014435463 2.3509886e-38
-0.010864101 -0.14222141 0.0054257326 2.3509886e-38
-0.008575581 -0.14040495 0.012449425 2.3509886e-38
-0.0063101873 -0.13857989 0.019506495 2.3509527e-38
-0.0042019263 -0.1375518 0.023481887 2.3509527e-38
-0.0019814819 -0.13573201 0.030518454 2.3509168e-38
9.5069408e-05 -0.13469382 0.034532826 2.3509527e-38
0.0020062141 -0.13469382 0.034532826 2.3508091e-38
0.0040227771 -0.13393532 0.037465733 2.3509527e-38
0.0060325004 -0.13315077 0.040499371 2.3508444e-38
0.0080610327 -0.13213144 0.044440906 2.3509521e-38
0.0099548064 -0.13213144 0.044440906 2.3047463e-38
0.011848576 -0.13213144 0.044440906 3.6734198e-40
0.01374235 -0.13213144 0.044440906 9.1835496e-41
0.014163356 -0.14711304 -0.013488848 9.1835496e-41
0.0161587 -0.14711304 -0.013488848 9.1838299e-41
0.018329844 -0.14503856 -0.0054673739 0
0.020389874 -0.14402847 -0.0015617199 9.219563e-41
0.022364303 -0.14402847 -0.0015617199 9.219563e-41
0.024455123 -0.14222141 0.0054257326 9.1835496e-41
0.026521977 -0.14040495 0.012449425 9.1835496e-41
0.028564643 -0.13857989 0.019506495 2.7550649e-40
0.030502133 -0.13857989 0.019506495 2.7550649e-40
0.032516021 -0.13653107 0.027428668 9.1943116e-40
0.03443962 -0.13653107 0.027428668 1.2874906e-39
0.036382183 -0.13573201 0.030518454 2.9466448e-39
0.038300365 -0.13573201 0.030518454 2.3509149e-38
0.040229104 -0.13469382 0.034532826 2.3508787e-38
0.042140253 -0.13469382 0.034532826 1.2995966e-38
0.044051394 -0.13469382 0.034532826 9.9563909e-39
-0.021752812 -0.14910837 -0.013488848 2.3417691e-38
-0.019538693 -0.148077 -0.0095276423 2.3509527e-38
-0.017333165 -0.14701982 -0.0054673739 2.3509886e-38
-0.015149869 -0.1460029 -0.0015617199 2.3509886e-38
-0.012826279 -0.14418359 0.0054257326 2.3509886e-38
-0.010667518 -0.14312203 0.0095028095 2.3509527e-38
-0.0083884969 -0.1413065 0.016475718 2.3509527e-38
-0.0063101873 -0.14051737 0.019506495 2.3509527e-38
-0.0042019263 -0.1394823 0.023481887 2.3509527e-38
-0.0019814819 -0.13765021 0.030518454 2.3416974e-38
9.5069408e-05 -0.13660498 0.034532826 2.3509527e-38
0.0021167733 -0.13584132 0.037465733 2.3324055e-38
0.0041318163 -0.13505147 0.040499371 2.3509164e-38
0.0061672591 -0.1340252 0.044440906 2.3509521e-38
0.0081581771 -0.13324542 0.047435801 2.3509879e-38
0.010046698 -0.13324542 0.047435801 2.2310255e-38
0.011848576 -0.1340252 0.044440906 2.7550649e-40
0.01374235 -0.1340252 0.044440906 9.1835496e-41
0.0161587 -0.14910837 -0.013488848 5.6051939e-45
0.018240858 -0.148077 -0.0095276423 3.629363e-43
0.020311125 -0.14701982 -0.0054673739 3.629363e-43
0.022292402 -0.14701982 -0.0054673739 3.629363e-43
0.02438879 -0.14522041 0.0014435463 0
0.026478063 -0.14312203 0.0095028095 9.1835496e-41
0.028524786 -0.1413065 0.016475718 2.7550649e-40
0.030467592 -0.1413065 0.016475718 2.7550649e-40
0.032516021 -0.13845469 0.027428668 6.4284847e-40
0.03443962 -0.13845469 0.027428668 8.2651947e-40
0.036382183 -0.13765021 0.030518454 2.1168841e-39
0.038300365 -0.13765021 0.030518454 2.3413352e-38
0.040229104 -0.13660498 0.034532826 2.3505546e-38
0.042145483 -0.13505147 0.040499371 1.4839878e-38
0.04404271 -0.1340252 0.044440906 1.0877991e-38
0.04593648 -0.1340252 0.044440906 9.7738046e-39
0.047830254 -0.1340252 0.044440906 1.0603565e-38
-0.019314446 -0.14900111 -0.0054673739 2.3509527e-38
-0.017124303 -0.14797734 -0.0015617199 2.3509886e-38
-0.014994435 -0.1471896 0.0014435463 2.3509886e-38
-0.012622543 -0.14507706 0.0095028095 2.3509886e-38
-0.010525443 -0.14430468 0.012449425 2.3509527e-38
-0.008247681 -0.14245488 0.019506495 2.3509527e-38
-0.0061324462 -0.14141284 0.023481887 2.3509527e-38
-0.0040323958 -0.14037828 0.027428668 2.3509527e-38
-0.0019814819 -0.13956837 0.030518454 2.3324778e-38
9.5069408e-05 -0.13851611 0.034532826 2.3509527e-38
0.0021167733 -0.13774733 0.037465733 2.3416248e-38
0.0041318163 -0.13695215 0.040499371 2.3509521e-38
0.0061672591 -0.13591899 0.044440906 2.3509879e-38
0.0081581771 -0.13513394 0.047435801 2.3508795e-38
0.010046698 -0.13513394 0.047435801 2.0742927e-38
0.011935219 -0.13513394 0.047435801 9.1835496e-41
0.02438879 -0.1471896 0.0014435463 2.8025969e-45
0.0264173 -0.14614578 0.0054257326 0
0.028471842 -0.14430468 0.012449425 1.8402972e-40
0.030421704 -0.14430468 0.012449425 4.5989495e-40
0.03247796 -0.14141284 0.023481887 3.6734198e-40
0.03443962 -0.14037828 0.027428668 6.4284847e-40
0.036382183 -0.13956837 0.030518454 2.2090798e-39
0.038300365 -0.13956837 0.030518454 1.9448937e-38
0.040218547 -0.13956837 0.030518454 2.3506626e-38
0.042145483 -0.13695215 0.040499371 1.9173073e-38
0.04404271 -0.13591899 0.044440906 1.0140429e-38
0.04593648 -0.13591899 0.044440906 7.0079385e-39
0.047830254 -0.13591899 0.044440906 8.4830685e-39
-0.017124303 -0.14995177 -0.0015617199 2.3509886e-38
-0.014994435 -0.14915876 0.0014435463 2.3509527e-38
-0.012622543 -0.1470321 0.0095028095 2.3509527e-38
-0.01033131 -0.1451921 0.016475718 2.3509527e-38
-0.008247681 -0.14439236 0.019506495 2.3509527e-38
-0.0061324462 -0.14334334 0.023481887 2.3509527e-38
-0.0040323958 -0.14230187 0.027428668 2.3509527e-38
-0.0019814819 -0.14148657 0.030518454 2.3416974e-38
9.5069408e-05 -0.14042725 0.034532826 2.3509527e-38
0.0021167733 -0.13965334 0.037465733 2.3508804e-38
0.0041318163 -0.13885282 0.040499371 2.3509161e-38
0.0061672591 -0.13781275 0.044440906 2.3509879e-38
0.0081581771 -0.13702248 0.047435801 2.194147e-38
0.010046698 -0.13702248 0.047435801 1.7792664e-38
0.011935219 -0.13702248 0.047435801 2.7622395e-40
0.0264173 -0.14810793 0.0054257326 0
0.028433092 -0.1470321 0.0095028095 1.8402972e-40
0.030421704 -0.14625455 0.012449425 2.7550649e-40
0.032439623 -0.14439236 0.019506495 3.6734198e-40
0.03440848 -0.14334334 0.023481887 7.3468397e-40
0.036363222 -0.14230187 0.027428668 1.4715203e-39
0.03828682 -0.14230187 0.027428668 1.2903047e-38
0.040218547 -0.14148657 0.030518454 2.3506266e-38
0.042136732 -0.14148657 0.030518454 2.2676507e-38
