# .PCD v0.7 - Point Cloud Data file format
VERSION 0.7
FIELDS x y z rgb
SIZE 4 4 4 4
TYPE F F F F
COUNT 1 1 1 1
WIDTH 938
HEIGHT 1
VIEWPOINT 0 0 0 1 0 0 0
POINTS 938
DATA ascii
-0.028937902 -0.094679192 0.023243148 2.3509527e-38
-0.027210411 -0.095558092 0.019216854 2.3509886e-38
-0.025260542 -0.095558092 0.019216854 2.3509886e-38
-0.023457918 -0.096201301 0.016270239 2.3509886e-38
-0.021502893 -0.096201301 0.016270239 2.3509886e-38
-0.019737292 -0.097091287 0.012193162 2.3509886e-38
-0.017775122 -0.097091287 0.012193162 2.3509886e-38
-0.015812937 -0.097091287 0.012193162 2.3509886e-38
-0.01385076 -0.097091287 0.012193162 2.3509886e-38
-0.011888582 -0.097091287 0.012193162 2.3509886e-38
-0.0099263974 -0.097091287 0.012193162 2.3509886e-38
-0.0081073567 -0.097960562 0.0082109757 2.3509886e-38
-0.0061381944 -0.097960562 0.0082109757 2.3509886e-38
-0.0042665154 -0.098616585 0.0052057095 2.3509886e-38
-0.0022920854 -0.098616585 0.0052057095 2.3509886e-38
-0.00043064356 -0.09946914 0.0013000555 2.3509886e-38
0.0015506335 -0.09946914 0.0013000555 2.3509886e-38
0.0034286864 -0.10035546 -0.0027602129 2.3509886e-38
0.0053233244 -0.10122015 -0.0067214184 2.3509886e-38
0.0073186643 -0.10122015 -0.0067214184 2.3509886e-38
0.0092517845 -0.10189377 -0.00980727 2.3509886e-38
0.011252541 -0.10189377 -0.00980727 2.3509886e-38
0.01325329 -0.10189377 -0.00980727 2.3509886e-38
0.015194274 -0.10276926 -0.013817947 2.3509886e-38
0.017150667 -0.10362239 -0.017726224 2.3509886e-38
0.019165304 -0.10362239 -0.017726224 2.3509886e-38
0.021140724 -0.10451011 -0.02179293 2.3509886e-38
0.023162492 -0.10451011 -0.02179293 2.3509886e-38
0.025184259 -0.10451011 -0.02179293 2.3509886e-38
0.027206028 -0.10451011 -0.02179293 2.3509886e-38
0.029217374 -0.10537519 -0.025755923 2.3509886e-38
0.03124259 -0.10624625 -0.029746216 2.3509886e-38
0.033278305 -0.10624625 -0.029746216 2.3509886e-38
0.035324585 -0.1071233 -0.033764165 2.3509886e-38
0.037385076 -0.10800649 -0.037810128 2.3509886e-38
0.039459094 -0.10886608 -0.041747849 2.3509886e-38
0.04151585 -0.10886608 -0.041747849 2.3509886e-38
0.043572605 -0.10886608 -0.041747849 2.3509886e-38
0.04567454 -0.10973148 -0.045712274 2.341805e-38
0.047738247 -0.10973148 -0.045712274 2.341805e-38
0.049801953 -0.10973148 -0.045712274 2.341805e-38
0.05186566 -0.10973148 -0.045712274 2.3141466e-38
0.054002844 -0.11060272 -0.04970352 2.3142542e-38
0.05607355 -0.11060272 -0.04970352 2.3234376e-38
0.05823233 -0.11147992 -0.053722065 2.3234376e-38
-0.055895377 -0.095955089 0.026273925 9.219591e-40
-0.053957898 -0.095955089 0.026273925 7.361203e-40
-0.052020404 -0.095955089 0.026273925 5.5101298e-40
-0.049786676 -0.095080331 0.030249316 6.4284847e-40
-0.047856156 -0.095080331 0.030249316 5.6217558e-39
-0.045925636 -0.095080331 0.030249316 2.350987e-38
-0.043721769 -0.094211861 0.034196097 2.3509876e-38
-0.041798178 -0.094211861 0.034196097 2.350988e-38
-0.039874572 -0.094211861 0.034196097 2.3418047e-38
-0.037950967 -0.094211861 0.034196097 2.3234379e-38
-0.036027376 -0.094211861 0.034196097 2.3509886e-38
-0.03410377 -0.094211861 0.034196097 2.3509883e-38
-0.032180164 -0.094211861 0.034196097 2.3509524e-38
-0.030708004 -0.095955089 0.026273925 2.3509883e-38
-0.028937902 -0.09662199 0.023243148 2.3509527e-38
-0.027210411 -0.097507954 0.019216854 2.3509886e-38
-0.025260542 -0.097507954 0.019216854 2.3509886e-38
-0.023457918 -0.098156333 0.016270239 2.3509886e-38
-0.021502893 -0.098156333 0.016270239 2.3509886e-38
-0.019737292 -0.099053472 0.012193162 2.3509886e-38
-0.017775122 -0.099053472 0.012193162 2.3509886e-38
-0.015812937 -0.099053472 0.012193162 2.3509886e-38
-0.01385076 -0.099053472 0.012193162 2.3509886e-38
-0.011888582 -0.099053472 0.012193162 2.3509886e-38
-0.0099263974 -0.099053472 0.012193162 2.3509886e-38
-0.0079642236 -0.099053472 0.012193162 2.3509886e-38
-0.0061381944 -0.09992972 0.0082109757 2.3509886e-38
-0.0042665154 -0.100591 0.0052057095 2.3509886e-38
-0.0022920854 -0.100591 0.0052057095 2.3509886e-38
-0.00043064356 -0.10145043 0.0013000555 2.3509886e-38
0.0015506335 -0.10145043 0.0013000555 2.3509886e-38
0.0034286864 -0.10234386 -0.0027602129 2.3509886e-38
0.0053233244 -0.1032155 -0.0067214184 2.3509886e-38
0.0073186643 -0.1032155 -0.0067214184 2.3509886e-38
0.0092517845 -0.10389452 -0.00980727 2.3509886e-38
0.011252541 -0.10389452 -0.00980727 2.3509886e-38
0.01325329 -0.10389452 -0.00980727 2.3509886e-38
0.015194274 -0.10477705 -0.013817947 2.3509886e-38
0.017202061 -0.10477705 -0.013817947 2.3325494e-38
0.019165304 -0.10563703 -0.017726224 2.3509886e-38
0.021179941 -0.10563703 -0.017726224 2.3509886e-38
0.023162492 -0.10653187 -0.02179293 2.341769e-38
0.025184259 -0.10653187 -0.02179293 2.3325494e-38
0.027206028 -0.10653187 -0.02179293 2.3325494e-38
0.029217374 -0.10740392 -0.025755923 2.3509886e-38
0.03124259 -0.10828196 -0.029746216 2.3509886e-38
0.033278305 -0.10828196 -0.029746216 2.3509886e-38
0.035324585 -0.10916607 -0.033764165 2.3509886e-38
0.037385076 -0.11005636 -0.037810128 2.3509886e-38
0.039459094 -0.11092283 -0.041747849 2.3509886e-38
0.04151585 -0.11092283 -0.041747849 2.3509886e-38
0.043572605 -0.11092283 -0.041747849 2.3509886e-38
0.04567454 -0.11179517 -0.045712274 2.341805e-38
0.047738247 -0.11179517 -0.045712274 2.341805e-38
0.049801953 -0.11179517 -0.045712274 2.341805e-38
0.05186566 -0.11179517 -0.045712274 2.3325856e-38
0.053929366 -0.11179517 -0.045712274 2.3234379e-38
0.05607355 -0.11267342 -0.04970352 2.2958507e-38
0.058144256 -0.11267342 -0.04970352 2.3234376e-38
-0.055895377 -0.097892582 0.026273925 4.6098095e-40
-0.053957898 -0.097892582 0.026273925 7.361203e-40
-0.052020404 -0.097892582 0.026273925 5.5101298e-40
-0.049786676 -0.097010851 0.030249316 6.4284847e-40
-0.047856156 -0.097010851 0.030249316 3.7778432e-39
-0.045645375 -0.096135467 0.034196097 2.2678669e-38
-0.043721769 -0.096135467 0.034196097 2.3509876e-38
-0.041798178 -0.096135467 0.034196097 2.350988e-38
-0.039874572 -0.096135467 0.034196097 2.3418047e-38
-0.037950967 -0.096135467 0.034196097 2.3234379e-38
-0.036027376 -0.096135467 0.034196097 2.3509883e-38
-0.034342516 -0.097010851 0.030249316 2.3509883e-38
-0.032411996 -0.097010851 0.030249316 2.3509524e-38
-0.030708004 -0.097892582 0.026273925 2.3509883e-38
-0.028937902 -0.098564804 0.023243148 2.3509527e-38
-0.026995096 -0.098564804 0.023243148 2.3509886e-38
-0.02505229 -0.098564804 0.023243148 2.3509886e-38
-0.02331068 -0.099457815 0.019216854 2.3509886e-38
-0.021502893 -0.10011137 0.016270239 2.3509886e-38
-0.019737292 -0.10101564 0.012193162 2.3509886e-38
-0.017775122 -0.10101564 0.012193162 2.3509886e-38
-0.015812937 -0.10101564 0.012193162 2.3509886e-38
-0.01385076 -0.10101564 0.012193162 2.3509886e-38
-0.011888582 -0.10101564 0.012193162 2.3509886e-38
-0.0099263974 -0.10101564 0.012193162 2.3509886e-38
-0.0079642236 -0.10101564 0.012193162 2.3509886e-38
-0.0061381944 -0.10189888 0.0082109757 2.3509886e-38
-0.0042665154 -0.10256544 0.0052057095 2.3509886e-38
-0.0022920854 -0.10256544 0.0052057095 2.3509886e-38
-0.00043064356 -0.10343169 0.0013000555 2.3509886e-38
0.0015506335 -0.10343169 0.0013000555 2.3509886e-38
0.0034286864 -0.10433225 -0.0027602129 2.3509886e-38
0.0053233244 -0.10521083 -0.0067214184 2.3509886e-38
0.0073186643 -0.10521083 -0.0067214184 2.3509886e-38
0.0092517845 -0.10589527 -0.00980727 2.3509886e-38
0.011252541 -0.10589527 -0.00980727 2.3509886e-38
0.01325329 -0.10589527 -0.00980727 2.3509886e-38
0.015194274 -0.10678484 -0.013817947 2.3509886e-38
0.017202061 -0.10678484 -0.013817947 2.3141103e-38
0.019165304 -0.10765167 -0.017726224 2.3233299e-38
0.021179941 -0.10765167 -0.017726224 2.3325494e-38
0.023162492 -0.10855366 -0.02179293 2.3325494e-38
0.025184259 -0.10855366 -0.02179293 2.3325494e-38
0.027206028 -0.10855366 -0.02179293 2.3325494e-38
0.029217374 -0.10943262 -0.025755923 2.3509886e-38
0.03124259 -0.11031766 -0.029746216 2.3509886e-38
0.033278305 -0.11031766 -0.029746216 2.3509886e-38
0.035324585 -0.11120884 -0.033764165 2.3509886e-38
0.037385076 -0.11210622 -0.037810128 2.3509886e-38
0.039459094 -0.11297958 -0.041747849 2.3509886e-38
0.04151585 -0.11297958 -0.041747849 2.3509886e-38
0.043572605 -0.11297958 -0.041747849 2.3509886e-38
0.04562936 -0.11297958 -0.041747849 2.341805e-38
0.047686115 -0.11297958 -0.041747849 2.341805e-38
0.049801953 -0.11385889 -0.045712274 2.341805e-38
0.05186566 -0.11385889 -0.045712274 2.341805e-38
0.053929366 -0.11385889 -0.045712274 2.3234379e-38
0.05607355 -0.11474411 -0.04970352 2.2866311e-38
0.058144256 -0.11474411 -0.04970352 2.3234376e-38
0.060214959 -0.11474411 -0.04970352 3.9662043e-39
-0.055895377 -0.099830076 0.026273925 1.8439406e-40
-0.053957898 -0.099830076 0.026273925 1.3825715e-39
-0.052020404 -0.099830076 0.026273925 6.4356594e-40
-0.049786676 -0.098941371 0.030249316 5.5101298e-40
-0.047856156 -0.098941371 0.030249316 3.6734198e-40
-0.045645375 -0.098059073 0.034196097 1.723913e-38
-0.043721769 -0.098059073 0.034196097 2.3509876e-38
-0.041798178 -0.098059073 0.034196097 2.3509879e-38
-0.039874572 -0.098059073 0.034196097 2.3418045e-38
-0.037950967 -0.098059073 0.034196097 2.3418047e-38
-0.036027376 -0.098059073 0.034196097 2.3418047e-38
-0.034342516 -0.098941371 0.030249316 2.3509883e-38
-0.032411996 -0.098941371 0.030249316 2.3509883e-38
-0.030708004 -0.099830076 0.026273925 2.3509527e-38
-0.028937902 -0.1005076 0.023243148 2.3509886e-38
-0.026995096 -0.1005076 0.023243148 2.3509886e-38
-0.02505229 -0.1005076 0.023243148 2.3509886e-38
-0.02331068 -0.10140768 0.019216854 2.3509886e-38
-0.021360818 -0.10140768 0.019216854 2.3509886e-38
-0.019737292 -0.10297783 0.012193162 2.3509886e-38
-0.017775122 -0.10297783 0.012193162 2.3509886e-38
-0.015637804 -0.1020664 0.016270239 2.3509886e-38
-0.013682771 -0.1020664 0.016270239 2.3509886e-38
-0.011888582 -0.10297783 0.012193162 2.3509886e-38
-0.0099263974 -0.10297783 0.012193162 2.3509886e-38
-0.0079642236 -0.10297783 0.012193162 2.3509886e-38
-0.0061381944 -0.10386805 0.0082109757 2.3509886e-38
-0.0042665154 -0.10453986 0.0052057095 2.3509886e-38
-0.0022920854 -0.10453986 0.0052057095 2.3509886e-38
-0.00043064356 -0.10541297 0.0013000555 2.3509886e-38
0.0015506335 -0.10541297 0.0013000555 2.3509886e-38
0.0034286864 -0.10632066 -0.0027602129 2.3509886e-38
0.0053233244 -0.10720618 -0.0067214184 2.3509886e-38
0.0072510354 -0.10789602 -0.00980727 2.3509886e-38
0.0092517845 -0.10789602 -0.00980727 2.3509886e-38
0.011252541 -0.10789602 -0.00980727 2.3509886e-38
0.01325329 -0.10789602 -0.00980727 2.3509886e-38
0.015194274 -0.10879262 -0.013817947 2.3509886e-38
0.017202061 -0.10879262 -0.013817947 2.3509886e-38
0.019165304 -0.1096663 -0.017726224 2.3509886e-38
0.021179941 -0.1096663 -0.017726224 2.3509886e-38
0.023162492 -0.11057542 -0.02179293 2.3509886e-38
0.025184259 -0.11057542 -0.02179293 2.3509886e-38
0.027206028 -0.11057542 -0.02179293 2.3509886e-38
0.029217374 -0.11146136 -0.025755923 2.3509886e-38
0.03124609 -0.11146136 -0.025755923 2.3325494e-38
0.033278305 -0.11235337 -0.029746216 2.341805e-38
0.035324585 -0.11325158 -0.033764165 2.341805e-38
0.037367344 -0.11325158 -0.033764165 2.3509886e-38
0.039434928 -0.11415605 -0.037810128 2.3509886e-38
0.041484781 -0.11415605 -0.037810128 2.3509886e-38
0.043572605 -0.11503632 -0.041747849 2.3509886e-38
0.04562936 -0.11503632 -0.041747849 2.3509886e-38
0.047686115 -0.11503632 -0.041747849 2.3509886e-38
0.049801953 -0.11592259 -0.045712274 2.3233302e-38
0.051799625 -0.11503632 -0.041747849 2.341805e-38
0.05385638 -0.11503632 -0.041747849 2.3234379e-38
0.055993073 -0.11592259 -0.045712274 2.2958154e-38
0.058144256 -0.11681484 -0.04970352 2.3050708e-38
0.060214959 -0.11681484 -0.04970352 5.0729176e-39
-0.055895377 -0.10176755 0.026273925 1.6598843e-39
-0.053957898 -0.10176755 0.026273925 1.1063504e-39
-0.052020404 -0.10176755 0.026273925 1.8367239e-40
-0.050082911 -0.10176755 0.026273925 9.1835496e-41
-0.047856156 -0.10087189 0.030249316 2.7550649e-40
-0.045925636 -0.10087189 0.030249316 1.8622072e-38
-0.043721769 -0.099982664 0.034196097 2.3417323e-38
-0.041798178 -0.099982664 0.034196097 2.3509876e-38
-0.039874572 -0.099982664 0.034196097 2.3509879e-38
-0.037950967 -0.099982664 0.034196097 2.2404251e-38
-0.036027376 -0.099982664 0.034196097 2.3418047e-38
-0.034342516 -0.10087189 0.030249316 2.3234018e-38
-0.032411996 -0.10087189 0.030249316 2.3141467e-38
-0.030708004 -0.10176755 0.026273925 2.341805e-38
-0.028937902 -0.1024504 0.023243148 2.3509886e-38
-0.026995096 -0.1024504 0.023243148 2.3509886e-38
-0.02505229 -0.1024504 0.023243148 2.3509886e-38
-0.023109484 -0.1024504 0.023243148 2.3509886e-38
-0.021360818 -0.10335754 0.019216854 2.3509886e-38
-0.019547861 -0.10402142 0.016270239 2.3509886e-38
-0.017592836 -0.10402142 0.016270239 2.3509886e-38
-0.015637804 -0.10402142 0.016270239 2.3509886e-38
-0.013682771 -0.10402142 0.016270239 2.3509886e-38
-0.011888582 -0.10494001 0.012193162 2.3509886e-38
-0.0099263974 -0.10494001 0.012193162 2.3509886e-38
-0.0079642236 -0.10494001 0.012193162 2.3509886e-38
-0.0060020424 -0.10494001 0.012193162 2.3509886e-38
-0.004169032 -0.10583721 0.0082109757 2.3509886e-38
-0.0021998733 -0.10583721 0.0082109757 2.3509886e-38
-0.00031765178 -0.10651429 0.0052057095 2.3509886e-38
0.0015506335 -0.10739426 0.0013000555 2.3509886e-38
0.0035319142 -0.10739426 0.0013000555 2.3509886e-38
0.0053233244 -0.10920154 -0.0067214184 2.3509886e-38
0.0072510354 -0.10989676 -0.00980727 2.3509886e-38
0.0092517845 -0.10989676 -0.00980727 2.3509886e-38
0.011252541 -0.10989676 -0.00980727 2.3509886e-38
0.013186488 -0.1108004 -0.013817947 2.3509886e-38
0.015194274 -0.1108004 -0.013817947 2.3509886e-38
0.017202061 -0.1108004 -0.013817947 2.3509886e-38
0.019165304 -0.11168094 -0.017726224 2.3509886e-38
0.021179941 -0.11168094 -0.017726224 2.3509886e-38
0.023162492 -0.11259718 -0.02179293 2.3509886e-38
0.025184259 -0.11259718 -0.02179293 2.3509886e-38
0.027206028 -0.11259718 -0.02179293 2.3509886e-38
0.029217374 -0.11349006 -0.025755923 2.3509886e-38
0.03124609 -0.11349006 -0.025755923 2.341805e-38
0.033278305 -0.11438908 -0.029746216 2.3234379e-38
0.035324585 -0.11529435 -0.033764165 2.3234379e-38
0.037367344 -0.11529435 -0.033764165 2.341805e-38
0.039434928 -0.11620592 -0.037810128 2.3509883e-38
0.041484781 -0.11620592 -0.037810128 2.350988e-38
0.043572605 -0.1170931 -0.041747849 2.350988e-38
0.04562936 -0.1170931 -0.041747849 2.350988e-38
0.047686115 -0.1170931 -0.041747849 2.3509883e-38
0.049801953 -0.11798631 -0.045712274 2.3509523e-38
0.051799625 -0.1170931 -0.041747849 2.3325494e-38
0.05385638 -0.1170931 -0.041747849 2.341805e-38
0.055993073 -0.11798631 -0.045712274 2.3142544e-38
0.058144256 -0.11888553 -0.04970352 2.2958873e-38
0.060310081 -0.11979093 -0.053722065 8.7621988e-39
0.064356372 -0.11888553 -0.04970352 3.2308169e-39
-0.055895377 -0.10370506 0.026273925 1.1992621e-39
-0.053957898 -0.10370506 0.026273925 1.847542e-40
-0.052251551 -0.1043932 0.023243148 5.6051939e-45
-0.050082911 -0.10370506 0.026273925 3.6878532e-40
-0.048145417 -0.10370506 0.026273925 9.2123743e-40
-0.045925636 -0.10280241 0.030249316 1.9545111e-38
-0.043995116 -0.10280241 0.030249316 2.3509879e-38
-0.041798178 -0.10190627 0.034196097 2.3509876e-38
-0.039874572 -0.10190627 0.034196097 2.3509876e-38
-0.037950967 -0.10190627 0.034196097 2.2772672e-38
-0.036027376 -0.10190627 0.034196097 2.3418047e-38
-0.034342516 -0.10280241 0.030249316 2.3233662e-38
-0.032411996 -0.10280241 0.030249316 2.3142185e-38
-0.030481476 -0.10280241 0.030249316 2.3234379e-38
-0.028937902 -0.1043932 0.023243148 2.3509886e-38
-0.026833016 -0.10370506 0.026273925 2.3509886e-38
-0.02489553 -0.10370506 0.026273925 2.3509886e-38
-0.023109484 -0.1043932 0.023243148 2.3509886e-38
-0.021360818 -0.10530742 0.019216854 2.3509886e-38
-0.019547861 -0.10597645 0.016270239 2.3509886e-38
-0.017592836 -0.10597645 0.016270239 2.3509886e-38
-0.015637804 -0.10597645 0.016270239 2.3509886e-38
-0.013682771 -0.10597645 0.016270239 2.3509886e-38
-0.011888582 -0.1069022 0.012193162 2.3509886e-38
-0.0099263974 -0.1069022 0.012193162 2.3509886e-38
-0.0079642236 -0.1069022 0.012193162 2.3509886e-38
-0.0060020424 -0.1069022 0.012193162 2.3509886e-38
-0.004169032 -0.10780637 0.0082109757 2.3509886e-38
-0.0021998733 -0.10780637 0.0082109757 2.3509886e-38
-0.00031765178 -0.10848872 0.0052057095 2.3509886e-38
0.0015506335 -0.10937552 0.0013000555 2.3509886e-38
0.0035319142 -0.10937552 0.0013000555 2.3509886e-38
0.0053233244 -0.11119686 -0.0067214184 2.3509886e-38
0.0073186643 -0.11119686 -0.0067214184 2.3509886e-38
0.0092517845 -0.11189754 -0.00980727 2.3509886e-38
0.011252541 -0.11189754 -0.00980727 2.3509886e-38
0.01325329 -0.11189754 -0.00980727 2.3509886e-38
0.015194274 -0.11280818 -0.013817947 2.3509886e-38
0.017202061 -0.11280818 -0.013817947 2.3509886e-38
0.019165304 -0.11369558 -0.017726224 2.3509886e-38
0.021179941 -0.11369558 -0.017726224 2.3509886e-38
0.023162492 -0.11461894 -0.02179293 2.3509886e-38
0.025184259 -0.11461894 -0.02179293 2.3509886e-38
0.027206028 -0.11461894 -0.02179293 2.3509886e-38
0.029227795 -0.11461894 -0.02179293 2.3509886e-38
0.03124609 -0.11551876 -0.025755923 2.341805e-38
0.033278305 -0.11642478 -0.029746216 2.3234379e-38
0.035314016 -0.11642478 -0.029746216 2.3142544e-38
0.037367344 -0.11733709 -0.033764165 2.341805e-38
0.039434928 -0.11825575 -0.037810128 2.3418047e-38
0.041484781 -0.11825575 -0.037810128 2.350988e-38
0.043534629 -0.11825575 -0.037810128 2.3509879e-38
0.04562936 -0.11914985 -0.041747849 2.3509879e-38
0.047686115 -0.11914985 -0.041747849 2.3509521e-38
0.049801953 -0.12005 -0.045712274 2.3509883e-38
0.051799625 -0.11914985 -0.041747849 2.3509886e-38
0.05385638 -0.11914985 -0.041747849 2.341805e-38
0.055993073 -0.12005 -0.045712274 2.2865961e-38
0.058144256 -0.12095623 -0.04970352 2.2867037e-38
0.060214959 -0.12095623 -0.04970352 1.116001e-38
0.062285662 -0.12095623 -0.04970352 2.8627687e-39
-0.055895377 -0.10564254 0.026273925 1.6602402e-39
-0.053957898 -0.10564254 0.026273925 2.8025969e-45
-0.052251551 -0.10633601 0.023243148 5.6051939e-45
-0.050608773 -0.10725726 0.019216854 1.836752e-40
-0.048145417 -0.10564254 0.026273925 5.5245491e-40
-0.046207923 -0.10564254 0.026273925 1.7424608e-38
-0.043995116 -0.10473295 0.030249316 2.3509876e-38
-0.042064596 -0.10473295 0.030249316 2.3417676e-38
-0.040134076 -0.10473295 0.030249316 2.3509873e-38
-0.038203556 -0.10473295 0.030249316 2.3141452e-38
-0.036273036 -0.10473295 0.030249316 2.3418045e-38
-0.034342516 -0.10473295 0.030249316 2.3141822e-38
-0.032411996 -0.10473295 0.030249316 2.3234379e-38
-0.030481476 -0.10473295 0.030249316 2.3234379e-38
-0.02877051 -0.10564254 0.026273925 2.3509886e-38
-0.026833016 -0.10564254 0.026273925 2.3509886e-38
-0.02489553 -0.10564254 0.026273925 2.3509886e-38
-0.022958044 -0.10564254 0.026273925 2.3509886e-38
-0.021166686 -0.10633601 0.023243148 2.3509886e-38
-0.019547861 -0.10793148 0.016270239 2.3509886e-38
-0.017592836 -0.10793148 0.016270239 2.3509886e-38
-0.015637804 -0.10793148 0.016270239 2.3509886e-38
-0.013682771 -0.10793148 0.016270239 2.3509886e-38
-0.011888582 -0.10886435 0.012193162 2.3509886e-38
-0.0099263974 -0.10886435 0.012193162 2.3509886e-38
-0.0079642236 -0.10886435 0.012193162 2.3509886e-38
-0.0061381944 -0.10977553 0.0082109757 2.3509886e-38
-0.0042665154 -0.11046316 0.0052057095 2.3509886e-38
-0.0022920854 -0.11046316 0.0052057095 2.3509886e-38
-0.00043064356 -0.11135681 0.0013000555 2.3509886e-38
0.0015506335 -0.11135681 0.0013000555 2.3509886e-38
0.0035319142 -0.11135681 0.0013000555 2.3509886e-38
0.0053233244 -0.11319222 -0.0067214184 2.3509886e-38
0.0073186643 -0.11319222 -0.0067214184 2.3509886e-38
0.0093140081 -0.11319222 -0.0067214184 2.3509886e-38
0.011252541 -0.11389829 -0.00980727 2.3509886e-38
0.01325329 -0.11389829 -0.00980727 2.3509886e-38
0.015194274 -0.11481597 -0.013817947 2.3509886e-38
0.017202061 -0.11481597 -0.013817947 2.3509886e-38
0.019165304 -0.11571021 -0.017726224 2.3509886e-38
0.021179941 -0.11571021 -0.017726224 2.3509886e-38
0.023162492 -0.11664073 -0.02179293 2.3509886e-38
0.025184259 -0.11664073 -0.02179293 2.3509886e-38
0.027206028 -0.11664073 -0.02179293 2.3509886e-38
0.029227795 -0.11664073 -0.02179293 2.3509886e-38
0.03124609 -0.1175475 -0.025755923 2.341805e-38
0.033274807 -0.1175475 -0.025755923 2.3234379e-38
0.035314016 -0.11846052 -0.029746216 2.3142544e-38
0.037367344 -0.11937986 -0.033764165 2.341805e-38
0.039434928 -0.12030561 -0.037810128 2.3418047e-38
0.041484781 -0.12030561 -0.037810128 2.350988e-38
0.043534629 -0.12030561 -0.037810128 2.350988e-38
0.04562936 -0.1212066 -0.041747849 2.3509521e-38
0.047686115 -0.1212066 -0.041747849 2.3509521e-38
0.04974287 -0.1212066 -0.041747849 2.3509883e-38
0.051799625 -0.1212066 -0.041747849 2.3509886e-38
0.05385638 -0.1212066 -0.041747849 2.341805e-38
0.055993073 -0.12211372 -0.045712274 2.2681931e-38
0.058056779 -0.12211372 -0.045712274 2.2867037e-38
0.060120486 -0.12211372 -0.045712274 1.5124422e-38
0.062285662 -0.12302695 -0.04970352 5.6289935e-39
0.064356372 -0.12302695 -0.04970352 5.813019e-39
-0.056693438 -0.10988651 0.016270239 2.3056068e-39
-0.054508511 -0.10920714 0.019216854 0
-0.052558649 -0.10920714 0.019216854 2.7587083e-40
-0.050828356 -0.10988651 0.016270239 9.1838299e-41
-0.048365954 -0.10827883 0.023243148 9.1835496e-41
-0.046207923 -0.10758002 0.026273925 1.2907022e-38
-0.044270445 -0.10758002 0.026273925 2.2680114e-38
-0.042064596 -0.10666345 0.030249316 2.332548e-38
-0.040134076 -0.10666345 0.030249316 2.3509872e-38
-0.038203556 -0.10666345 0.030249316 2.3509876e-38
-0.036273036 -0.10666345 0.030249316 2.350988e-38
-0.034342516 -0.10666345 0.030249316 2.3141822e-38
-0.032411996 -0.10666345 0.030249316 2.341805e-38
-0.030481476 -0.10666345 0.030249316 2.3141467e-38
-0.02877051 -0.10758002 0.026273925 2.3509886e-38
-0.026833016 -0.10758002 0.026273925 2.3509886e-38
-0.02489553 -0.10758002 0.026273925 2.3509886e-38
-0.022958044 -0.10758002 0.026273925 2.3509886e-38
-0.021166686 -0.10827883 0.023243148 2.3509886e-38
-0.019410957 -0.10920714 0.019216854 2.3509886e-38
-0.017461088 -0.10920714 0.019216854 2.3509886e-38
-0.015637804 -0.10988651 0.016270239 2.3509886e-38
-0.013682771 -0.10988651 0.016270239 2.3509886e-38
-0.011888582 -0.11082654 0.012193162 2.3509886e-38
-0.0099263974 -0.11082654 0.012193162 2.3509886e-38
-0.0079642236 -0.11082654 0.012193162 2.3509886e-38
-0.0061381944 -0.11174469 0.0082109757 2.3509886e-38
-0.0042665154 -0.11243759 0.0052057095 2.3509886e-38
-0.0022920854 -0.11243759 0.0052057095 2.3509886e-38
-0.00043064356 -0.1133381 0.0013000555 2.3509886e-38
0.0015506335 -0.1133381 0.0013000555 2.3509886e-38
0.0035319142 -0.1133381 0.0013000555 2.3509886e-38
0.0053233244 -0.11518754 -0.0067214184 2.3509886e-38
0.0073186643 -0.11518754 -0.0067214184 2.3509886e-38
0.0093140081 -0.11518754 -0.0067214184 2.3509886e-38
0.011252541 -0.11589904 -0.00980727 2.3509886e-38
0.01325329 -0.11589904 -0.00980727 2.3509886e-38
0.015194274 -0.11682375 -0.013817947 2.3509886e-38
0.017150667 -0.11772485 -0.017726224 2.3509886e-38
0.019165304 -0.11772485 -0.017726224 2.3509886e-38
0.021179941 -0.11772485 -0.017726224 2.3509886e-38
0.023194578 -0.11772485 -0.017726224 2.3509886e-38
0.025184259 -0.11866249 -0.02179293 2.3509886e-38
0.027206028 -0.11866249 -0.02179293 2.3509886e-38
0.029227795 -0.11866249 -0.02179293 2.3509886e-38
0.03124609 -0.1195762 -0.025755923 2.341805e-38
0.033274807 -0.1195762 -0.025755923 2.3234379e-38
0.035314016 -0.12049623 -0.029746216 2.3234379e-38
0.037367344 -0.1214226 -0.033764165 2.341805e-38
0.039434928 -0.12235548 -0.037810128 2.341805e-38
0.041484781 -0.12235548 -0.037810128 2.3509883e-38
0.043534629 -0.12235548 -0.037810128 2.350988e-38
0.045584481 -0.12235548 -0.037810128 2.3509521e-38
0.047686115 -0.12326337 -0.041747849 2.3509521e-38
0.04974287 -0.12326337 -0.041747849 2.3232936e-38
0.051734038 -0.12235548 -0.037810128 2.3509886e-38
0.053783886 -0.12235548 -0.037810128 2.341805e-38
0.055913135 -0.12326337 -0.041747849 2.286632e-38
0.058056779 -0.12417741 -0.045712274 2.2867037e-38
0.060120486 -0.12417741 -0.045712274 1.9088111e-38
0.062184192 -0.12417741 -0.045712274 8.8551189e-39
-0.056458373 -0.11115701 0.019216854 2.2126923e-39
-0.054508511 -0.11115701 0.019216854 0
-0.052783389 -0.11184154 0.016270239 5.5245491e-40
-0.050828356 -0.11184154 0.016270239 9.1835496e-41
-0.048365954 -0.11022164 0.023243148 2.7550649e-40
-0.046207923 -0.10951753 0.026273925 9.4028668e-39
-0.044270445 -0.10951753 0.026273925 2.0650728e-38
-0.042064596 -0.10859399 0.030249316 2.3416953e-38
-0.040134076 -0.10859399 0.030249316 2.3417673e-38
-0.038203556 -0.10859399 0.030249316 2.3509873e-38
-0.036027376 -0.10767709 0.034196097 2.3418042e-38
-0.03410377 -0.10767709 0.034196097 2.3234015e-38
-0.032411996 -0.10859399 0.030249316 2.341805e-38
-0.030481476 -0.10859399 0.030249316 2.3049273e-38
-0.02877051 -0.10951753 0.026273925 2.3509886e-38
-0.026833016 -0.10951753 0.026273925 2.3509886e-38
-0.02489553 -0.10951753 0.026273925 2.3509886e-38
-0.022958044 -0.10951753 0.026273925 2.3509886e-38
-0.021166686 -0.11022164 0.023243148 2.3509886e-38
-0.019410957 -0.11115701 0.019216854 2.3509886e-38
-0.017461088 -0.11115701 0.019216854 2.3509886e-38
-0.015637804 -0.11184154 0.016270239 2.3509886e-38
-0.013682771 -0.11184154 0.016270239 2.3509886e-38
-0.011888582 -0.11278872 0.012193162 2.3509886e-38
-0.0099263974 -0.11278872 0.012193162 2.3509886e-38
-0.0079642236 -0.11278872 0.012193162 2.3509886e-38
-0.0060020424 -0.11278872 0.012193162 2.3509886e-38
-0.0042665154 -0.11441202 0.0052057095 2.3509886e-38
-0.0022920854 -0.11441202 0.0052057095 2.3509886e-38
-0.00043064356 -0.11531936 0.0013000555 2.3509886e-38
0.0015506335 -0.11531936 0.0013000555 2.3509886e-38
0.0035319142 -0.11531936 0.0013000555 2.3509886e-38
0.0053233244 -0.1171829 -0.0067214184 2.3509886e-38
0.0073186643 -0.1171829 -0.0067214184 2.3509886e-38
0.0093140081 -0.1171829 -0.0067214184 2.3509886e-38
0.011252541 -0.11789979 -0.00980727 2.3509886e-38
0.01325329 -0.11789979 -0.00980727 2.3509886e-38
0.015254047 -0.11789979 -0.00980727 2.3509886e-38
0.0172548 -0.11789979 -0.00980727 2.3509886e-38
0.019165304 -0.11973949 -0.017726224 2.3509886e-38
0.021179941 -0.11973949 -0.017726224 2.3509886e-38
0.023194578 -0.11973949 -0.017726224 2.3509886e-38
0.025209216 -0.11973949 -0.017726224 2.3509886e-38
0.027206028 -0.12068425 -0.02179293 2.3509886e-38
0.029227795 -0.12068425 -0.02179293 2.3509886e-38
0.031249564 -0.12068425 -0.02179293 2.341805e-38
0.033274807 -0.12160493 -0.025755923 2.3234379e-38
0.035314016 -0.12253194 -0.029746216 2.3234379e-38
0.037367344 -0.12346537 -0.033764165 2.341805e-38
0.039434928 -0.12440531 -0.037810128 2.341805e-38
0.041484781 -0.12440531 -0.037810128 2.3509527e-38
0.043534629 -0.12440531 -0.037810128 2.3509883e-38
0.045584481 -0.12440531 -0.037810128 2.3509521e-38
0.047634333 -0.12440531 -0.037810128 2.3509521e-38
0.049684186 -0.12440531 -0.037810128 2.3232936e-38
0.051734038 -0.12440531 -0.037810128 2.3509886e-38
0.053783886 -0.12440531 -0.037810128 2.341805e-38
0.055833742 -0.12440531 -0.037810128 2.286632e-38
0.057969891 -0.12532012 -0.041747849 2.2958873e-38
0.060026649 -0.12532012 -0.041747849 2.194653e-38
0.062083405 -0.12532012 -0.041747849 1.3096472e-38
-0.058648471 -0.11379658 0.016270239 2.7669367e-39
-0.056458373 -0.11310686 0.019216854 2.028657e-39
-0.054508511 -0.11310686 0.019216854 0
-0.052558649 -0.11310686 0.019216854 2.7586802e-40
-0.050608773 -0.11310686 0.019216854 9.1835496e-41
-0.048365954 -0.11216442 0.023243148 4.5953621e-40
-0.046207923 -0.11145501 0.026273925 6.0838242e-39
-0.044270445 -0.11145501 0.026273925 1.7608272e-38
-0.042064596 -0.11052449 0.030249316 2.3324757e-38
-0.039874572 -0.10960068 0.034196097 2.3417673e-38
-0.037950967 -0.10960068 0.034196097 2.3509873e-38
-0.036027376 -0.10960068 0.034196097 2.3418042e-38
-0.033916865 -0.10887744 0.037285883 2.3417687e-38
-0.031998683 -0.10887744 0.037285883 2.341805e-38
-0.030256573 -0.10960068 0.034196097 2.3141466e-38
-0.028550956 -0.11052449 0.030249316 2.3509886e-38
-0.026833016 -0.11145501 0.026273925 2.3509886e-38
-0.02489553 -0.11145501 0.026273925 2.3509886e-38
-0.022958044 -0.11145501 0.026273925 2.3509886e-38
-0.021166686 -0.11216442 0.023243148 2.3509886e-38
-0.019410957 -0.11310686 0.019216854 2.3509886e-38
-0.017461088 -0.11310686 0.019216854 2.3509886e-38
-0.015637804 -0.11379658 0.016270239 2.3509886e-38
-0.013682771 -0.11379658 0.016270239 2.3509886e-38
-0.011888582 -0.11475091 0.012193162 2.3509886e-38
-0.0099263974 -0.11475091 0.012193162 2.3509886e-38
-0.0079642236 -0.11475091 0.012193162 2.3509886e-38
-0.0060020424 -0.11475091 0.012193162 2.3509886e-38
-0.004169032 -0.115683 0.0082109757 2.3509886e-38
-0.0022920854 -0.11638646 0.0052057095 2.3509886e-38
-0.00031765178 -0.11638646 0.0052057095 2.3509886e-38
0.0015506335 -0.11730064 0.0013000555 2.3509886e-38
0.0035319142 -0.11730064 0.0013000555 2.3509886e-38
0.0053233244 -0.11917825 -0.0067214184 2.3509886e-38
0.0074054822 -0.11825104 -0.0027602129 2.3509886e-38
0.0093938783 -0.11825104 -0.0027602129 2.3509886e-38
0.011382278 -0.11825104 -0.0027602129 2.3509886e-38
0.013304692 -0.11917825 -0.0067214184 2.3509886e-38
0.015300035 -0.11917825 -0.0067214184 2.3509886e-38
0.0172548 -0.11990054 -0.00980727 2.3509886e-38
0.019255552 -0.11990054 -0.00980727 2.3509886e-38
0.021256305 -0.11990054 -0.00980727 2.3509886e-38
0.023257058 -0.11990054 -0.00980727 2.3509886e-38
0.025209216 -0.12175412 -0.017726224 2.3509886e-38
0.027223853 -0.12175412 -0.017726224 2.3509886e-38
0.029227795 -0.12270601 -0.02179293 2.3509886e-38
0.031249564 -0.12270601 -0.02179293 2.341805e-38
0.033271331 -0.12270601 -0.02179293 2.341805e-38
0.035303522 -0.12363364 -0.025755923 2.3234379e-38
0.037367344 -0.12550814 -0.033764165 2.341805e-38
0.039410099 -0.12550814 -0.033764165 2.341805e-38
0.041452855 -0.12550814 -0.033764165 2.3509527e-38
0.043495614 -0.12550814 -0.033764165 2.3509527e-38
0.045584481 -0.12645517 -0.037810128 2.3509524e-38
0.047634333 -0.12645517 -0.037810128 2.3509521e-38
0.049684186 -0.12645517 -0.037810128 2.3509883e-38
0.051666647 -0.12550814 -0.033764165 2.3417687e-38
0.053709403 -0.12550814 -0.033764165 2.341805e-38
0.055833742 -0.12645517 -0.037810128 2.2773763e-38
0.057969891 -0.12737687 -0.041747849 2.2958873e-38
0.060026649 -0.12737687 -0.041747849 2.2867037e-38
0.061983295 -0.12645517 -0.037810128 1.7982118e-38
0.064033151 -0.12645517 -0.037810128 8.3930505e-39
-0.060358096 -0.11505674 0.019216854 4.6204874e-40
-0.058408234 -0.11505674 0.019216854 2.6747411e-39
-0.056458373 -0.11505674 0.019216854 2.2130482e-39
-0.054508511 -0.11505674 0.019216854 3.5873241e-43
-0.052558649 -0.11505674 0.019216854 9.1835496e-41
-0.050608773 -0.11505674 0.019216854 9.1835496e-41
-0.048365954 -0.11410724 0.023243148 3.6734198e-40
-0.046207923 -0.11339252 0.026273925 2.3959962e-39
-0.044270445 -0.11339252 0.026273925 1.4566172e-38
-0.042064596 -0.11245503 0.030249316 2.3416952e-38
-0.039874572 -0.11152427 0.034196097 2.3509869e-38
-0.037950967 -0.11152427 0.034196097 2.350987e-38
-0.036027376 -0.11152427 0.034196097 2.3509876e-38
-0.033916865 -0.11079563 0.037285883 2.350988e-38
-0.031998683 -0.11079563 0.037285883 2.341805e-38
-0.030256573 -0.11152427 0.034196097 2.3325856e-38
-0.028550956 -0.11245503 0.030249316 2.3509886e-38
-0.026620429 -0.11245503 0.030249316 2.3509886e-38
-0.024689909 -0.11245503 0.030249316 2.3509886e-38
-0.022958044 -0.11339252 0.026273925 2.3509886e-38
-0.021166686 -0.11410724 0.023243148 2.3509886e-38
-0.019410957 -0.11505674 0.019216854 2.3509886e-38
-0.017461088 -0.11505674 0.019216854 2.3509886e-38
-0.015511226 -0.11505674 0.019216854 2.3509886e-38
-0.013682771 -0.11575161 0.016270239 2.3509886e-38
-0.011727739 -0.11575161 0.016270239 2.3509886e-38
-0.0097727068 -0.11575161 0.016270239 2.3509886e-38
-0.0078176782 -0.11575161 0.016270239 2.3509886e-38
-0.0060020424 -0.11671309 0.012193162 2.3509886e-38
-0.004169032 -0.11765216 0.0082109757 2.3509886e-38
-0.0021998733 -0.11765216 0.0082109757 2.3509886e-38
-0.00023071095 -0.11765216 0.0082109757 2.3509886e-38
0.0017384477 -0.11765216 0.0082109757 2.3509886e-38
0.0035319142 -0.11928193 0.0013000555 2.3509886e-38
0.0054170825 -0.12023942 -0.0027602129 2.3509886e-38
0.0074054822 -0.12023942 -0.0027602129 2.3509886e-38
0.0093938783 -0.12023942 -0.0027602129 2.3509886e-38
0.011382278 -0.12023942 -0.0027602129 2.3509886e-38
0.013304692 -0.12117358 -0.0067214184 2.3509886e-38
0.015300035 -0.12117358 -0.0067214184 2.3509886e-38
0.0172548 -0.12190129 -0.00980727 2.3509886e-38
0.019255552 -0.12190129 -0.00980727 2.3509886e-38
0.021256305 -0.12190129 -0.00980727 2.3509886e-38
0.023257058 -0.12190129 -0.00980727 2.3509886e-38
0.025257811 -0.12190129 -0.00980727 2.3509886e-38
0.027240984 -0.1228471 -0.013817947 2.3509886e-38
0.02923849 -0.12376876 -0.017726224 2.3509886e-38
0.031249564 -0.1247278 -0.02179293 2.341805e-38
0.033271331 -0.1247278 -0.02179293 2.341805e-38
0.035303522 -0.12566237 -0.025755923 2.3234379e-38
0.037367344 -0.12755089 -0.033764165 2.341805e-38
0.039410099 -0.12755089 -0.033764165 2.341805e-38
0.041452855 -0.12755089 -0.033764165 2.3509527e-38
0.043495614 -0.12755089 -0.033764165 2.3509527e-38
0.045584481 -0.12850504 -0.037810128 2.3509883e-38
0.047634333 -0.12850504 -0.037810128 2.3509883e-38
0.049684186 -0.12850504 -0.037810128 2.3509883e-38
0.051666647 -0.12755089 -0.033764165 2.3048905e-38
0.053709403 -0.12755089 -0.033764165 2.341805e-38
0.055833742 -0.12850504 -0.037810128 2.2958154e-38
0.057969891 -0.12943362 -0.041747849 2.3142544e-38
0.060026649 -0.12943362 -0.041747849 2.2958873e-38
0.061983295 -0.12850504 -0.037810128 2.139299e-38
0.064033151 -0.12850504 -0.037810128 8.4856021e-39
0.066082999 -0.12850504 -0.037810128 6.4558549e-39
0.068132848 -0.12850504 -0.037810128 8.1146546e-39
-0.060358096 -0.11700659 0.019216854 9.3270426e-41
-0.058079977 -0.11605005 0.023243148 2.2137629e-39
-0.056137163 -0.11605005 0.023243148 2.2130468e-39
-0.054508511 -0.11700659 0.019216854 4.6133128e-40
-0.052558649 -0.11700659 0.019216854 1.8402972e-40
-0.050608773 -0.11700659 0.019216854 9.1835496e-41
-0.048658911 -0.11700659 0.019216854 2.7550649e-40
-0.046423141 -0.11605005 0.023243148 2.7550649e-40
-0.044270445 -0.11533 0.026273925 1.272226e-38
-0.042064596 -0.11438553 0.030249316 2.3416952e-38
-0.039874572 -0.11344786 0.034196097 2.3509869e-38
-0.037950967 -0.11344786 0.034196097 2.350987e-38
-0.036027376 -0.11344786 0.034196097 2.3509876e-38
-0.03410377 -0.11344786 0.034196097 2.350988e-38
-0.032180164 -0.11344786 0.034196097 2.3234018e-38
-0.030481476 -0.11438553 0.030249316 2.341805e-38
-0.028550956 -0.11438553 0.030249316 2.3509886e-38
-0.026620429 -0.11438553 0.030249316 2.3509886e-38
-0.024689909 -0.11438553 0.030249316 2.3509886e-38
-0.022958044 -0.11533 0.026273925 2.3509886e-38
-0.021166686 -0.11605005 0.023243148 2.3509886e-38
-0.019223873 -0.11605005 0.023243148 2.3509886e-38
-0.017281074 -0.11605005 0.023243148 2.3509886e-38
-0.015511226 -0.11700659 0.019216854 2.3509886e-38
-0.013682771 -0.11770664 0.016270239 2.3509886e-38
-0.011727739 -0.11770664 0.016270239 2.3509886e-38
-0.0097727068 -0.11770664 0.016270239 2.3509886e-38
-0.0078176782 -0.11770664 0.016270239 2.3509886e-38
-0.0060020424 -0.11867525 0.012193162 2.3509886e-38
-0.004039865 -0.11867525 0.012193162 2.3509886e-38
-0.0021998733 -0.11962132 0.0082109757 2.3509886e-38
-0.00023071095 -0.11962132 0.0082109757 2.3509886e-38
0.0017384477 -0.11962132 0.0082109757 2.3509886e-38
0.0037076138 -0.11962132 0.0082109757 2.3509886e-38
0.0055131912 -0.12126322 0.0013000555 2.3509886e-38
0.0074054822 -0.12222783 -0.0027602129 2.3509886e-38
0.0093938783 -0.12222783 -0.0027602129 2.3509886e-38
0.011382278 -0.12222783 -0.0027602129 2.3509886e-38
0.013304692 -0.12316893 -0.0067214184 2.3509886e-38
0.015300035 -0.12316893 -0.0067214184 2.3509886e-38
0.017295379 -0.12316893 -0.0067214184 2.3509886e-38
0.019255552 -0.12390204 -0.00980727 2.3509886e-38
0.021256305 -0.12390204 -0.00980727 2.3509886e-38
0.023257058 -0.12390204 -0.00980727 2.3509886e-38
0.025257811 -0.12390204 -0.00980727 2.3509886e-38
0.027258564 -0.12390204 -0.00980727 2.3509886e-38
0.02923849 -0.1257834 -0.017726224 2.3509886e-38
0.031253129 -0.1257834 -0.017726224 2.3509886e-38
0.033267766 -0.1257834 -0.017726224 2.341805e-38
0.035293102 -0.12674956 -0.02179293 2.3234379e-38
0.037349731 -0.12863909 -0.029746216 2.341805e-38
0.039385442 -0.12863909 -0.029746216 2.3509527e-38
0.041421156 -0.12863909 -0.029746216 2.3509886e-38
0.043456867 -0.12863909 -0.029746216 2.3509527e-38
0.045538373 -0.12959366 -0.033764165 2.3509527e-38
0.047634333 -0.13055487 -0.037810128 2.3509883e-38
0.049684186 -0.13055487 -0.037810128 2.3509883e-38
0.051666647 -0.12959366 -0.033764165 2.2772318e-38
0.053709403 -0.12959366 -0.033764165 2.341805e-38
0.055913135 -0.13149039 -0.041747849 2.341805e-38
0.057969891 -0.13149039 -0.041747849 2.3234379e-38
0.060026649 -0.13149039 -0.041747849 2.3142544e-38
0.061983295 -0.13055487 -0.037810128 2.2683007e-38
0.063923195 -0.12959366 -0.033764165 7.6551212e-39
0.06596595 -0.12959366 -0.033764165 6.916833e-39
0.068008706 -0.12959366 -0.033764165 8.1146546e-39
-0.061965588 -0.11799283 0.023243148 2.5821965e-39
-0.060022775 -0.11799283 0.023243148 1.9371788e-39
-0.058079977 -0.11799283 0.023243148 1.2918066e-39
-0.056137163 -0.11799283 0.023243148 2.674025e-39
-0.054508511 -0.11895646 0.019216854 3.5873241e-43
-0.052558649 -0.11895646 0.019216854 9.1835496e-41
-0.050608773 -0.11895646 0.019216854 1.0127072e-39
-0.048658911 -0.11895646 0.019216854 3.6734198e-40
-0.046423141 -0.11799283 0.023243148 8.279544e-40
-0.044480342 -0.11799283 0.023243148 8.8493245e-39
-0.042064596 -0.11631607 0.030249316 2.3509507e-38
-0.039874572 -0.11537148 0.034196097 2.3509869e-38
-0.037950967 -0.11537148 0.034196097 2.350987e-38
-0.036027376 -0.11537148 0.034196097 2.2957061e-38
-0.03410377 -0.11537148 0.034196097 2.350988e-38
-0.032180164 -0.11537148 0.034196097 2.341805e-38
-0.030256573 -0.11537148 0.034196097 2.341805e-38
-0.028550956 -0.11631607 0.030249316 2.3509886e-38
-0.026620429 -0.11631607 0.030249316 2.3509886e-38
-0.024689909 -0.11631607 0.030249316 2.3509886e-38
-0.022759389 -0.11631607 0.030249316 2.3509886e-38
-0.02102055 -0.11726747 0.026273925 2.3509886e-38
-0.019223873 -0.11799283 0.023243148 2.3509886e-38
-0.017281074 -0.11799283 0.023243148 2.3509886e-38
-0.015511226 -0.11895646 0.019216854 2.3509886e-38
-0.013682771 -0.11966167 0.016270239 2.3509886e-38
-0.011727739 -0.11966167 0.016270239 2.3509886e-38
-0.0097727068 -0.11966167 0.016270239 2.3509886e-38
-0.0078176782 -0.11966167 0.016270239 2.3509886e-38
-0.0060020424 -0.12063743 0.012193162 2.3509886e-38
-0.004039865 -0.12063743 0.012193162 2.3509886e-38
-0.0020776838 -0.12063743 0.012193162 2.3509886e-38
-0.00011550635 -0.12063743 0.012193162 2.3509886e-38
0.0017384477 -0.12159048 0.0082109757 2.3509886e-38
0.0037076138 -0.12159048 0.0082109757 2.3509886e-38
0.0055131912 -0.12324448 0.0013000555 2.3509886e-38
0.0074054822 -0.12421621 -0.0027602129 2.3509886e-38
0.0093938783 -0.12421621 -0.0027602129 2.3509886e-38
0.011382278 -0.12421621 -0.0027602129 2.3509886e-38
0.013304692 -0.12516426 -0.0067214184 2.3509886e-38
0.015300035 -0.12516426 -0.0067214184 2.3509886e-38
0.017295379 -0.12516426 -0.0067214184 2.3509886e-38
0.019290719 -0.12516426 -0.0067214184 2.3509886e-38
0.021286063 -0.12516426 -0.0067214184 2.3509886e-38
0.023281407 -0.12516426 -0.0067214184 2.3509886e-38
0.025276748 -0.12516426 -0.0067214184 2.3509886e-38
0.027258564 -0.12590279 -0.00980727 2.3509886e-38
0.02923849 -0.12779804 -0.017726224 2.3509886e-38
0.031253129 -0.12779804 -0.017726224 2.3509886e-38
0.033267766 -0.12779804 -0.017726224 2.341805e-38
0.035293102 -0.12877132 -0.02179293 2.341805e-38
0.037349731 -0.13067479 -0.029746216 2.3509527e-38
0.039385442 -0.13067479 -0.029746216 2.3509527e-38
0.041421156 -0.13067479 -0.029746216 2.3509886e-38
0.043456867 -0.13067479 -0.029746216 2.3509886e-38
0.045538373 -0.1316364 -0.033764165 2.3509527e-38
0.047581129 -0.1316364 -0.033764165 2.3509527e-38
0.049623884 -0.1316364 -0.033764165 2.3509883e-38
0.051666647 -0.1316364 -0.033764165 2.31411e-38
0.053783886 -0.13260473 -0.037810128 2.3418047e-38
0.055913135 -0.13354714 -0.041747849 2.332621e-38
0.057969891 -0.13354714 -0.041747849 2.3234379e-38
0.060026649 -0.13354714 -0.041747849 2.3142544e-38
0.061983295 -0.13260473 -0.037810128 2.3050708e-38
0.063923195 -0.1316364 -0.033764165 8.66855e-39
0.06596595 -0.1316364 -0.033764165 7.7458748e-39
0.068132848 -0.13260473 -0.037810128 8.3912443e-39
0.070182696 -0.13260473 -0.037810128 7.5614808e-39
-0.063908383 -0.11993565 0.023243148 1.0786889e-38
-0.061965588 -0.11993565 0.023243148 9.3117558e-39
-0.060022775 -0.11993565 0.023243148 7.7447846e-39
-0.058079977 -0.11993565 0.023243148 3.9654799e-39
-0.056458373 -0.12090631 0.019216854 2.028657e-39
-0.054508511 -0.12090631 0.019216854 9.1835496e-41
-0.052558649 -0.12090631 0.019216854 2.7550649e-40
-0.050608773 -0.12090631 0.019216854 9.2051436e-40
-0.048658911 -0.12090631 0.019216854 3.6734198e-40
-0.046423141 -0.11993565 0.023243148 3.6734198e-40
-0.044270445 -0.11920498 0.026273925 6.5444338e-39
-0.042064596 -0.11824657 0.030249316 2.3509869e-38
-0.039874572 -0.11729507 0.034196097 2.3509869e-38
-0.037950967 -0.11729507 0.034196097 2.350987e-38
-0.035835061 -0.11655019 0.037285883 2.3233288e-38
-0.033916865 -0.11655019 0.037285883 2.350988e-38
-0.031998683 -0.11655019 0.037285883 2.341769e-38
-0.030256573 -0.11729507 0.034196097 2.341805e-38
-0.028332967 -0.11729507 0.034196097 2.3509886e-38
-0.026409369 -0.11729507 0.034196097 2.3509886e-38
-0.024485771 -0.11729507 0.034196097 2.3509886e-38
-0.022759389 -0.11824657 0.030249316 2.3509886e-38
-0.02102055 -0.11920498 0.026273925 2.3509886e-38
-0.019083057 -0.11920498 0.026273925 2.3509886e-38
-0.017281074 -0.11993565 0.023243148 2.3509886e-38
-0.015338268 -0.11993565 0.023243148 2.3509886e-38
-0.013682771 -0.12161671 0.016270239 2.3509886e-38
-0.011727739 -0.12161671 0.016270239 2.3509886e-38
-0.0097727068 -0.12161671 0.016270239 2.3509886e-38
-0.0078176782 -0.12161671 0.016270239 2.3509886e-38
-0.0060020424 -0.12259962 0.012193162 2.3509886e-38
-0.004039865 -0.12259962 0.012193162 2.3509886e-38
-0.0020776838 -0.12259962 0.012193162 2.3509886e-38
-0.00011550635 -0.12259962 0.012193162 2.3509886e-38
0.0018466748 -0.12259962 0.012193162 2.3509886e-38
0.0037076138 -0.12355967 0.0082109757 2.3509886e-38
0.0055131912 -0.12522577 0.0013000555 2.3509886e-38
0.0074944682 -0.12522577 0.0013000555 2.3509886e-38
0.0093938783 -0.12620462 -0.0027602129 2.3509886e-38
0.011382278 -0.12620462 -0.0027602129 2.3509886e-38
0.013370674 -0.12620462 -0.0027602129 2.3509886e-38
0.015300035 -0.12715961 -0.0067214184 2.3509886e-38
0.017295379 -0.12715961 -0.0067214184 2.3509886e-38
0.019290719 -0.12715961 -0.0067214184 2.3509886e-38
0.021286063 -0.12715961 -0.0067214184 2.3509886e-38
0.023281407 -0.12715961 -0.0067214184 2.3509886e-38
0.025276748 -0.12715961 -0.0067214184 2.3509886e-38
0.027258564 -0.12790357 -0.00980727 2.3509886e-38
0.02923849 -0.12981267 -0.017726224 2.3509886e-38
0.031253129 -0.12981267 -0.017726224 2.3509886e-38
0.033267766 -0.12981267 -0.017726224 2.341805e-38
0.035293102 -0.13079311 -0.02179293 2.341805e-38
0.037349731 -0.1327105 -0.029746216 2.3509527e-38
0.039385442 -0.1327105 -0.029746216 2.3509527e-38
0.041421156 -0.1327105 -0.029746216 2.3509886e-38
0.043456867 -0.1327105 -0.029746216 2.3509886e-38
0.045538373 -0.13367917 -0.033764165 2.3509527e-38
0.047581129 -0.13367917 -0.033764165 2.3509527e-38
0.049623884 -0.13367917 -0.033764165 2.3509883e-38
0.051666647 -0.13367917 -0.033764165 2.3417687e-38
0.053783886 -0.13465457 -0.037810128 2.3418047e-38
0.055913135 -0.13560389 -0.041747849 2.3234015e-38
0.057969891 -0.13560389 -0.041747849 2.341805e-38
0.060026649 -0.13560389 -0.041747849 2.3234379e-38
0.061983295 -0.13465457 -0.037810128 2.277376e-38
0.064033151 -0.13465457 -0.037810128 8.9444152e-39
0.06596595 -0.13367917 -0.033764165 7.6536792e-39
0.067641392 -0.13079311 -0.02179293 9.1288093e-39
0.069531247 -0.12981267 -0.017726224 9.4975918e-39
0.071545884 -0.12981267 -0.017726224 8.9444152e-39
-0.063908383 -0.12187846 0.023243148 1.1155308e-38
-0.061965588 -0.12187846 0.023243148 1.124822e-38
-0.060022775 -0.12187846 0.023243148 1.1156023e-38
-0.058079977 -0.12187846 0.023243148 5.4398911e-39
-0.056137163 -0.12187846 0.023243148 1.0137862e-39
-0.054508511 -0.12285618 0.019216854 9.1835496e-41
-0.052558649 -0.12285618 0.019216854 2.7550649e-40
-0.050308753 -0.12187846 0.023243148 2.7550649e-40
-0.048365954 -0.12187846 0.023243148 3.6734198e-40
-0.046423141 -0.12187846 0.023243148 3.6734198e-40
-0.044270445 -0.12114246 0.026273925 3.4097852e-39
-0.042064596 -0.12017711 0.030249316 2.350987e-38
-0.039874572 -0.11921866 0.034196097 2.3509149e-38
-0.037753243 -0.11846836 0.037285883 2.3509513e-38
-0.035835061 -0.11846836 0.037285883 2.3509518e-38
-0.033916865 -0.11846836 0.037285883 2.3509883e-38
-0.031998683 -0.11846836 0.037285883 2.3141106e-38
-0.030256573 -0.11921866 0.034196097 2.3509886e-38
-0.028332967 -0.11921866 0.034196097 2.3509886e-38
-0.026409369 -0.11921866 0.034196097 2.3509886e-38
-0.024485771 -0.11921866 0.034196097 2.3509886e-38
-0.022562165 -0.11921866 0.034196097 2.3509886e-38
-0.02102055 -0.12114246 0.026273925 2.3509886e-38
-0.019083057 -0.12114246 0.026273925 2.3509886e-38
-0.017281074 -0.12187846 0.023243148 2.3509886e-38
-0.015338268 -0.12187846 0.023243148 2.3509886e-38
-0.013561357 -0.12285618 0.019216854 2.3509886e-38
-0.011611495 -0.12285618 0.019216854 2.3509886e-38
-0.0096616335 -0.12285618 0.019216854 2.3509886e-38
-0.0078176782 -0.12357174 0.016270239 2.3509886e-38
-0.0058626495 -0.12357174 0.016270239 2.3509886e-38
-0.0039076172 -0.12357174 0.016270239 2.3509886e-38
-0.0020776838 -0.1245618 0.012193162 2.3509886e-38
-0.00011550635 -0.1245618 0.012193162 2.3509886e-38
0.0018466748 -0.1245618 0.012193162 2.3509886e-38
0.0037076138 -0.12552883 0.0082109757 2.3509886e-38
0.0055131912 -0.12720706 0.0013000555 2.3509886e-38
0.0074944682 -0.12720706 0.0013000555 2.3509886e-38
0.0093938783 -0.12819304 -0.0027602129 2.3509886e-38
0.011382278 -0.12819304 -0.0027602129 2.3509886e-38
0.013370674 -0.12819304 -0.0027602129 2.3509886e-38
0.015300035 -0.12915494 -0.0067214184 2.3509886e-38
0.017295379 -0.12915494 -0.0067214184 2.3509886e-38
0.019290719 -0.12915494 -0.0067214184 2.3509886e-38
0.021286063 -0.12915494 -0.0067214184 2.3509886e-38
0.023281407 -0.12915494 -0.0067214184 2.3509886e-38
0.025276748 -0.12915494 -0.0067214184 2.3509886e-38
0.027258564 -0.12990431 -0.00980727 2.3509886e-38
0.02923849 -0.13182731 -0.017726224 2.3509886e-38
0.031253129 -0.13182731 -0.017726224 2.3509886e-38
0.033267766 -0.13182731 -0.017726224 2.3509886e-38
0.035293102 -0.13281487 -0.02179293 2.3509886e-38
0.037332237 -0.13377722 -0.025755923 2.3509886e-38
0.039360955 -0.13377722 -0.025755923 2.3509886e-38
0.041389674 -0.13377722 -0.025755923 2.3509886e-38
0.043418389 -0.13377722 -0.025755923 2.3509886e-38
0.045492582 -0.13474621 -0.029746216 2.3509886e-38
0.047528293 -0.13474621 -0.029746216 2.3509886e-38
0.049623884 -0.13572191 -0.033764165 2.341769e-38
0.051666647 -0.13572191 -0.033764165 2.341769e-38
0.053783886 -0.13670443 -0.037810128 2.3509886e-38
0.055913135 -0.13766064 -0.041747849 2.3233299e-38
0.057969891 -0.13766064 -0.041747849 2.3509886e-38
0.060026649 -0.13766064 -0.041747849 2.341805e-38
0.061983295 -0.13670443 -0.037810128 2.3326213e-38
0.063923195 -0.13572191 -0.033764165 1.0696132e-38
0.06596595 -0.13572191 -0.033764165 7.469288e-39
0.067641392 -0.13281487 -0.02179293 8.944418e-39
0.069404475 -0.13087825 -0.013817947 9.6819831e-39
0.071412258 -0.13087825 -0.013817947 9.5897846e-39
0.073420048 -0.13087825 -0.013817947 9.220279e-39
-0.064252347 -0.11940466 0.041300256 1.0233348e-38
-0.062341217 -0.11940466 0.041300256 9.8645653e-39
-0.061965588 -0.12382124 0.023243148 1.0694326e-38
-0.060022775 -0.12382124 0.023243148 1.0971632e-38
