# .PCD v0.7 - Point Cloud Data file format
VERSION 0.7
FIELDS x y z rgb
SIZE 4 4 4 4
TYPE F F F F
COUNT 1 1 1 1
WIDTH 942
HEIGHT 1
VIEWPOINT 0 0 0 1 0 0 0
POINTS 942
DATA ascii
0.037491921 -0.10869466 0.042729627 8.3894394e-39
0.039380442 -0.10869466 0.042729627 1.013789e-39
0.041334603 -0.10940616 0.039734732 2.7550649e-40
0.043462899 -0.11176009 0.029826652 2.7550649e-40
0.045374043 -0.11176009 0.029826652 2.7550649e-40
0.047205482 -0.11106332 0.032759558 3.6734198e-40
0.049111485 -0.11106332 0.032759558 5.3451661e-39
-0.05740913 -0.13354714 -0.053221453 2.3142544e-38
-0.055107288 -0.13260473 -0.049283732 2.2773765e-38
-0.053057425 -0.13260473 -0.049283732 2.3234379e-38
-0.050769933 -0.1316364 -0.045237768 2.3142185e-38
-0.048727177 -0.1316364 -0.045237768 2.3234379e-38
-0.046684422 -0.1316364 -0.045237768 2.3509886e-38
-0.044426791 -0.13067479 -0.041219819 2.3509886e-38
-0.042391084 -0.13067479 -0.041219819 2.3509886e-38
-0.04015597 -0.12971978 -0.037229527 2.3509886e-38
-0.037936173 -0.12877132 -0.033266533 2.3509886e-38
-0.035914406 -0.12877132 -0.033266533 2.3509886e-38
-0.033710815 -0.12779804 -0.029199827 2.3509886e-38
-0.031696178 -0.12779804 -0.029199827 2.3509886e-38
-0.029520504 -0.12686269 -0.025291551 2.3509886e-38
-0.027512722 -0.12686269 -0.025291551 2.3509886e-38
-0.025504939 -0.12686269 -0.025291551 2.3509886e-38
-0.023352992 -0.12590279 -0.021280874 2.3509886e-38
-0.021111302 -0.12421621 -0.014233816 2.3509886e-38
-0.018991202 -0.12324448 -0.010173548 2.3509886e-38
-0.016890086 -0.12230973 -0.0062678941 2.3509886e-38
-0.014915653 -0.12230973 -0.0062678941 2.3509886e-38
-0.012941226 -0.12230973 -0.0062678941 2.3509886e-38
-0.010966793 -0.12230973 -0.0062678941 2.3509886e-38
-0.0089212283 -0.12159048 -0.0032626279 2.3509886e-38
-0.0069520697 -0.12159048 -0.0032626279 2.3509886e-38
-0.0049829036 -0.12159048 -0.0032626279 2.3509886e-38
-0.0029404312 -0.12063743 0.00071955845 2.3509886e-38
-0.00097825378 -0.12063743 0.00071955845 2.3509886e-38
0.0010886006 -0.11895646 0.0077432506 2.3509886e-38
0.0030914098 -0.11799283 0.011769544 2.3509886e-38
0.0050342157 -0.11799283 0.011769544 2.3509886e-38
0.0070062466 -0.11726747 0.014800321 2.3509886e-38
0.0089437384 -0.11726747 0.014800321 2.3509886e-38
0.010905625 -0.11631607 0.018775713 2.3509886e-38
0.012836145 -0.11631607 0.018775713 2.3509886e-38
0.014777046 -0.11537148 0.022722494 2.3509886e-38
0.016700646 -0.11537148 0.022722494 2.3509886e-38
0.018621538 -0.114632 0.025812279 2.3509883e-38
0.020539721 -0.114632 0.025812279 2.3509883e-38
0.022457905 -0.114632 0.025812279 2.3509524e-38
0.024351453 -0.11367123 0.029826652 2.3509524e-38
0.026239458 -0.11296929 0.032759558 2.3509524e-38
0.028116204 -0.11224325 0.035793196 2.3509524e-38
0.029971968 -0.11129995 0.039734732 2.3509524e-38
0.031865738 -0.11129995 0.039734732 2.3509524e-38
0.033714879 -0.11058317 0.042729627 2.3509524e-38
0.0356034 -0.11058317 0.042729627 1.8622075e-38
0.037547059 -0.11129995 0.039734732 6.1756653e-39
0.039440829 -0.11129995 0.039734732 1.4736881e-39
0.041334603 -0.11129995 0.039734732 2.7550649e-40
0.043462899 -0.11367123 0.029826652 7.361231e-40
0.045374043 -0.11367123 0.029826652 4.6061521e-40
0.047285188 -0.11367123 0.029826652 2.7550649e-40
0.049196333 -0.11367123 0.029826652 5.5101298e-40
-0.05740913 -0.13560389 -0.053221453 2.3050347e-38
-0.055107288 -0.13465457 -0.049283732 2.3050349e-38
-0.053057425 -0.13465457 -0.049283732 2.3234379e-38
-0.050769933 -0.13367917 -0.045237768 2.3049991e-38
-0.048727177 -0.13367917 -0.045237768 2.3234379e-38
-0.046462499 -0.1327105 -0.041219819 2.3509886e-38
-0.044426791 -0.1327105 -0.041219819 2.3509886e-38
-0.042184688 -0.13174851 -0.037229527 2.3509886e-38
-0.04015597 -0.13174851 -0.037229527 2.3509886e-38
-0.037936173 -0.13079311 -0.033266533 2.3509886e-38
-0.035725452 -0.12981267 -0.029199827 2.3509886e-38
-0.033710815 -0.12981267 -0.029199827 2.3509886e-38
-0.031528287 -0.12887047 -0.025291551 2.3509886e-38
-0.029520504 -0.12887047 -0.025291551 2.3509886e-38
-0.027354501 -0.12790357 -0.021280874 2.3509886e-38
-0.025237419 -0.12715961 -0.018195022 2.3509886e-38
-0.023099698 -0.12620462 -0.014233816 2.3509886e-38
-0.021111302 -0.12620462 -0.014233816 2.3509886e-38
-0.018991202 -0.12522577 -0.010173548 2.3509886e-38
-0.016890086 -0.12428416 -0.0062678941 2.3509886e-38
-0.014915653 -0.12428416 -0.0062678941 2.3509886e-38
-0.012941226 -0.12428416 -0.0062678941 2.3509886e-38
-0.010966793 -0.12428416 -0.0062678941 2.3509886e-38
-0.0089212283 -0.12355967 -0.0032626279 2.3509886e-38
-0.0069520697 -0.12355967 -0.0032626279 2.3509886e-38
-0.0049026124 -0.12259962 0.00071955845 2.3509886e-38
-0.0029404312 -0.12259962 0.00071955845 2.3509886e-38
-0.00091034174 -0.12161671 0.0047966354 2.3509886e-38
0.0011486039 -0.11993565 0.011769544 2.3509886e-38
0.0030914098 -0.11993565 0.011769544 2.3509886e-38
0.0050342157 -0.11993565 0.011769544 2.3509886e-38
0.0070062466 -0.11920498 0.014800321 2.3509886e-38
0.0089437384 -0.11920498 0.014800321 2.3509886e-38
0.010905625 -0.11824657 0.018775713 2.3509886e-38
0.012836145 -0.11824657 0.018775713 2.3509886e-38
0.014777046 -0.11729507 0.022722494 2.3509886e-38
0.016700646 -0.11729507 0.022722494 2.3509886e-38
0.018621538 -0.11655019 0.025812279 2.3509883e-38
0.020539721 -0.11655019 0.025812279 2.3509883e-38
0.022440309 -0.11558239 0.029826652 2.3509524e-38
0.024351453 -0.11558239 0.029826652 2.3509524e-38
0.026239458 -0.1148753 0.032759558 2.3509524e-38
0.028116204 -0.11414395 0.035793196 2.3509524e-38
0.029971968 -0.11319371 0.039734732 2.3509524e-38
0.031826358 -0.11247168 0.042729627 2.3509524e-38
0.033714879 -0.11247168 0.042729627 2.3416248e-38
0.0356034 -0.11247168 0.042729627 1.5303033e-38
0.037547059 -0.11319371 0.039734732 3.7785789e-39
0.039440829 -0.11319371 0.039734732 6.4392747e-40
0.041334603 -0.11319371 0.039734732 2.7550649e-40
0.043393478 -0.1148753 0.032759558 2.7622395e-40
0.045374043 -0.11558239 0.029826652 9.1835496e-41
0.047285188 -0.11558239 0.029826652 2.7550649e-40
0.049023721 -0.11414395 0.035793196 8.2723693e-40
0.050924405 -0.11414395 0.035793196 2.2585397e-38
-0.067692913 -0.13766064 -0.053221453 3.4133851e-39
-0.065636151 -0.13766064 -0.053221453 2.6758201e-39
-0.063579403 -0.13766064 -0.053221453 2.3992332e-39
-0.06152264 -0.13766064 -0.053221453 1.9378991e-39
-0.059465893 -0.13766064 -0.053221453 6.8242689e-39
-0.05740913 -0.13766064 -0.053221453 2.3234376e-38
-0.055107288 -0.13670443 -0.049283732 2.3234379e-38
-0.053057425 -0.13670443 -0.049283732 2.3234379e-38
-0.050769933 -0.13572191 -0.045237768 2.2681212e-38
-0.048727177 -0.13572191 -0.045237768 2.3234379e-38
-0.046462499 -0.13474621 -0.041219819 2.3509886e-38
-0.044426791 -0.13474621 -0.041219819 2.3509886e-38
-0.042184688 -0.13377722 -0.037229527 2.3509886e-38
-0.039957941 -0.13281487 -0.033266533 2.3509886e-38
-0.037936173 -0.13281487 -0.033266533 2.3509886e-38
-0.035725452 -0.13182731 -0.029199827 2.3509886e-38
-0.033710815 -0.13182731 -0.029199827 2.3509886e-38
-0.031528287 -0.13087825 -0.025291551 2.3509886e-38
-0.02935525 -0.12990431 -0.021280874 2.3509886e-38
-0.027232759 -0.12915494 -0.018195022 2.3509886e-38
-0.025237419 -0.12915494 -0.018195022 2.3509886e-38
-0.02295376 -0.12720706 -0.010173548 2.3509886e-38
-0.020972479 -0.12720706 -0.010173548 2.3509886e-38
-0.018864516 -0.1262586 -0.0062678941 2.3509886e-38
-0.016890086 -0.1262586 -0.0062678941 2.3509886e-38
-0.014828712 -0.12552883 -0.0032626279 2.3509886e-38
-0.012859553 -0.12552883 -0.0032626279 2.3509886e-38
-0.010890387 -0.12552883 -0.0032626279 2.3509886e-38
-0.0089212283 -0.12552883 -0.0032626279 2.3509886e-38
-0.0069520697 -0.12552883 -0.0032626279 2.3509886e-38
-0.0049026124 -0.1245618 0.00071955845 2.3509886e-38
-0.0029404312 -0.1245618 0.00071955845 2.3509886e-38
-0.00091034174 -0.12357174 0.0047966354 2.3509886e-38
0.0011486039 -0.12187846 0.011769544 2.3509886e-38
0.0030914098 -0.12187846 0.011769544 2.3509886e-38
0.0050342157 -0.12187846 0.011769544 2.3509886e-38
0.0070062466 -0.12114246 0.014800321 2.3509886e-38
0.0089437384 -0.12114246 0.014800321 2.3509886e-38
0.010905625 -0.12017711 0.018775713 2.3509886e-38
0.012836145 -0.12017711 0.018775713 2.3509886e-38
0.014777046 -0.11921866 0.022722494 2.3509886e-38
0.016703356 -0.11846836 0.025812279 2.3509886e-38
0.018621538 -0.11846836 0.025812279 2.3509883e-38
0.020539721 -0.11846836 0.025812279 2.3509883e-38
0.022440309 -0.11749353 0.029826652 2.3509883e-38
0.024351453 -0.11749353 0.029826652 2.3509883e-38
0.026215522 -0.11604463 0.035793196 2.3509524e-38
0.028116204 -0.11604463 0.035793196 2.3509524e-38
0.029971968 -0.11508749 0.039734732 2.3509165e-38
0.031826358 -0.1143602 0.042729627 2.3509165e-38
0.033714879 -0.1143602 0.042729627 2.3508085e-38
0.0356034 -0.1143602 0.042729627 1.1430097e-38
0.037547059 -0.11508749 0.039734732 1.3814925e-39
0.039440829 -0.11508749 0.039734732 2.7550649e-40
0.041420989 -0.11604463 0.035793196 2.7622395e-40
0.043393478 -0.11678131 0.032759558 9.1835496e-41
0.045374043 -0.11749353 0.029826652 9.1835496e-41
0.047285188 -0.11749353 0.029826652 9.1835496e-41
0.049023721 -0.11604463 0.035793196 9.1907243e-40
0.050924405 -0.11604463 0.035793196 2.1294661e-38
-0.07150609 -0.13875429 -0.049283732 1.161772e-38
-0.069456242 -0.13875429 -0.049283732 1.1065622e-38
-0.067692913 -0.13971741 -0.053221453 1.0603562e-38
-0.065636151 -0.13971741 -0.053221453 9.3139026e-39
-0.063579403 -0.13971741 -0.053221453 7.3767154e-39
-0.06152264 -0.13971741 -0.053221453 6.0870584e-39
-0.059465893 -0.13971741 -0.053221453 1.1525524e-38
-0.057157136 -0.13875429 -0.049283732 2.3142537e-38
-0.055107288 -0.13875429 -0.049283732 2.341805e-38
-0.053057425 -0.13875429 -0.049283732 2.3234379e-38
-0.050769933 -0.13776468 -0.045237768 2.2864882e-38
-0.048727177 -0.13776468 -0.045237768 2.341805e-38
-0.046462499 -0.13678192 -0.041219819 2.3509886e-38
-0.044426791 -0.13678192 -0.041219819 2.3509886e-38
-0.042184688 -0.13580595 -0.037229527 2.3509886e-38
-0.039957941 -0.13483663 -0.033266533 2.3509886e-38
-0.037740089 -0.13384195 -0.029199827 2.3509886e-38
-0.035725452 -0.13384195 -0.029199827 2.3509886e-38
-0.033710815 -0.13384195 -0.029199827 2.3509886e-38
-0.031528287 -0.13288604 -0.025291551 2.3509886e-38
-0.02935525 -0.13190506 -0.021280874 2.3509886e-38
-0.027232759 -0.13115029 -0.018195022 2.3509886e-38
-0.025088094 -0.13018142 -0.014233816 2.3509886e-38
-0.02295376 -0.12918831 -0.010173548 2.3509886e-38
-0.020972479 -0.12918831 -0.010173548 2.3509886e-38
-0.018864516 -0.12823303 -0.0062678941 2.3509886e-38
-0.016797874 -0.12749799 -0.0032626279 2.3509886e-38
-0.014828712 -0.12749799 -0.0032626279 2.3509886e-38
-0.012859553 -0.12749799 -0.0032626279 2.3509886e-38
-0.010890387 -0.12749799 -0.0032626279 2.3509886e-38
-0.0089212283 -0.12749799 -0.0032626279 2.3509886e-38
-0.0068647936 -0.12652399 0.00071955845 2.3509886e-38
-0.0049026124 -0.12652399 0.00071955845 2.3509886e-38
-0.0028653741 -0.12552677 0.0047966354 2.3509886e-38
-0.00091034174 -0.12552677 0.0047966354 2.3509886e-38
0.0011486039 -0.12382124 0.011769544 2.3509886e-38
0.0030914098 -0.12382124 0.011769544 2.3509886e-38
0.0050342157 -0.12382124 0.011769544 2.3509886e-38
0.0070062466 -0.12307997 0.014800321 2.3509886e-38
0.0089437384 -0.12307997 0.014800321 2.3509886e-38
0.010905625 -0.12210761 0.018775713 2.3509886e-38
0.012836145 -0.12210761 0.018775713 2.3509886e-38
0.014777046 -0.12114228 0.022722494 2.3509886e-38
0.016703356 -0.12038656 0.025812279 2.3509886e-38
0.018621538 -0.12038656 0.025812279 2.3509883e-38
0.020539721 -0.12038656 0.025812279 2.3509883e-38
0.022440309 -0.11940466 0.029826652 2.3509883e-38
0.024333455 -0.11868732 0.032759558 2.3509883e-38
0.026215522 -0.11794533 0.035793196 2.3509524e-38
0.028116204 -0.11794533 0.035793196 2.3509524e-38
0.029971968 -0.11698125 0.039734732 2.3509165e-38
0.031826358 -0.11624874 0.042729627 2.3509165e-38
0.033714879 -0.11624874 0.042729627 2.3509165e-38
0.0356034 -0.11624874 0.042729627 8.2039691e-39
0.037547059 -0.11698125 0.039734732 7.361231e-40
0.039440829 -0.11698125 0.039734732 9.1835496e-41
0.041420989 -0.11794533 0.035793196 5.5281084e-40
0.043462899 -0.11940466 0.029826652 2.7658409e-40
0.045476101 -0.12038656 0.025812279 0
0.047285188 -0.11940466 0.029826652 9.1835496e-41
0.049023721 -0.11794533 0.035793196 5.5101298e-40
0.050924405 -0.11794533 0.035793196 1.6961464e-38
-0.07150609 -0.14080413 -0.049283732 1.1893941e-38
-0.069456242 -0.14080413 -0.049283732 1.1710266e-38
-0.067692913 -0.14177416 -0.053221453 1.1248569e-38
-0.065636151 -0.14177416 -0.053221453 1.014294e-38
-0.063579403 -0.14177416 -0.053221453 9.4046563e-39
-0.06152264 -0.14177416 -0.053221453 8.5756145e-39
-0.059465893 -0.14177416 -0.053221453 1.3921889e-38
-0.057157136 -0.14080413 -0.049283732 2.2681196e-38
-0.055107288 -0.14080413 -0.049283732 2.3509883e-38
-0.053057425 -0.14080413 -0.049283732 2.341805e-38
-0.050769933 -0.13980745 -0.045237768 2.3417691e-38
-0.048727177 -0.13980745 -0.045237768 2.3509886e-38
-0.046462499 -0.13881765 -0.041219819 2.3509886e-38
-0.044426791 -0.13881765 -0.041219819 2.3509886e-38
-0.042184688 -0.13783465 -0.037229527 2.3509886e-38
-0.039957941 -0.13685839 -0.033266533 2.3509886e-38
-0.037740089 -0.13585658 -0.029199827 2.3509886e-38
-0.035725452 -0.13585658 -0.029199827 2.3509886e-38
-0.033536077 -0.13489382 -0.025291551 2.3509886e-38
-0.031528287 -0.13489382 -0.025291551 2.3509886e-38
-0.02935525 -0.13390581 -0.021280874 2.3509886e-38
-0.027354501 -0.13390581 -0.021280874 2.3509886e-38
-0.025088094 -0.13216983 -0.014233816 2.3509886e-38
-0.02295376 -0.1311696 -0.010173548 2.3509886e-38
-0.020972479 -0.1311696 -0.010173548 2.3509886e-38
-0.018864516 -0.13020746 -0.0062678941 2.3509886e-38
-0.016797874 -0.12946714 -0.0032626279 2.3509886e-38
-0.014828712 -0.12946714 -0.0032626279 2.3509886e-38
-0.012859553 -0.12946714 -0.0032626279 2.3509886e-38
-0.010890387 -0.12946714 -0.0032626279 2.3509886e-38
-0.0089212283 -0.12946714 -0.0032626279 2.3509886e-38
-0.0068647936 -0.12848614 0.00071955845 2.3509886e-38
-0.0049026124 -0.12848614 0.00071955845 2.3509886e-38
-0.0028653741 -0.1274818 0.0047966354 2.3509886e-38
-0.00091034174 -0.1274818 0.0047966354 2.3509886e-38
0.0011486039 -0.12576406 0.011769544 2.3509886e-38
0.0030914098 -0.12576406 0.011769544 2.3509886e-38
0.0050687566 -0.12501745 0.014800321 2.3509886e-38
0.0070062466 -0.12501745 0.014800321 2.3509886e-38
0.0089751035 -0.12403814 0.018775713 2.3509886e-38
0.010929845 -0.12306587 0.022722494 2.3509886e-38
0.012853445 -0.12306587 0.022722494 2.3509886e-38
0.014785172 -0.12230472 0.025812279 2.3509886e-38
0.016703356 -0.12230472 0.025812279 2.3509886e-38
0.018618019 -0.12131582 0.029826652 2.3418047e-38
0.020529164 -0.12131582 0.029826652 2.3418047e-38
0.022440309 -0.12131582 0.029826652 2.3509883e-38
0.024333455 -0.12059332 0.032759558 2.3509883e-38
0.026215522 -0.119846 0.035793196 2.3509883e-38
0.028116204 -0.119846 0.035793196 2.3509883e-38
0.029971968 -0.11887501 0.039734732 2.3509524e-38
0.031865738 -0.11887501 0.039734732 2.3509524e-38
0.033759512 -0.11887501 0.039734732 2.3509524e-38
0.035653286 -0.11887501 0.039734732 5.3459046e-39
0.037547059 -0.11887501 0.039734732 8.2831873e-40
0.039440829 -0.11887501 0.039734732 9.1835496e-41
0.041420989 -0.119846 0.035793196 2.7622395e-40
0.043631054 -0.12306587 0.022722494 3.6877972e-40
0.045554653 -0.12306587 0.022722494 3.5873241e-43
0.047394283 -0.12230472 0.025812279 3.5873241e-43
0.049023721 -0.119846 0.035793196 3.6734198e-40
0.050924405 -0.119846 0.035793196 1.1245332e-38
0.053018622 -0.12131582 0.029826652 2.101842e-38
0.055067018 -0.12230472 0.025812279 1.9820603e-38
-0.071806423 -0.14383091 -0.053221453 1.0511007e-38
-0.069749661 -0.14383091 -0.053221453 1.0879785e-38
-0.067692913 -0.14383091 -0.053221453 1.1340763e-38
-0.065636151 -0.14383091 -0.053221453 1.1156728e-38
-0.063853957 -0.14481448 -0.057185877 9.6812418e-39
-0.06179025 -0.14481448 -0.057185877 1.0603198e-38
-0.059465893 -0.14383091 -0.053221453 1.5581766e-38
-0.057157136 -0.14285399 -0.049283732 2.3049256e-38
-0.055107288 -0.14285399 -0.049283732 2.350988e-38
-0.053057425 -0.14285399 -0.049283732 2.3509883e-38
-0.050769933 -0.14185019 -0.045237768 2.3509886e-38
-0.048498221 -0.14085336 -0.041219819 2.3509886e-38
-0.046462499 -0.14085336 -0.041219819 2.3509886e-38
-0.044213407 -0.13986339 -0.037229527 2.3509886e-38
-0.041979708 -0.13888018 -0.033266533 2.3509886e-38
-0.039754726 -0.13787122 -0.029199827 2.3509886e-38
-0.037740089 -0.13787122 -0.029199827 2.3509886e-38
-0.035725452 -0.13787122 -0.029199827 2.3509886e-38
-0.033536077 -0.1369016 -0.025291551 2.3509886e-38
-0.031528287 -0.1369016 -0.025291551 2.3509886e-38
-0.02935525 -0.13590656 -0.021280874 2.3509886e-38
-0.027354501 -0.13590656 -0.021280874 2.3509886e-38
-0.025088094 -0.13415821 -0.014233816 2.3509886e-38
-0.023099698 -0.13415821 -0.014233816 2.3509886e-38
-0.020972479 -0.13315089 -0.010173548 2.3509886e-38
-0.018864516 -0.1321819 -0.0062678941 2.3509886e-38
-0.016890086 -0.1321819 -0.0062678941 2.3509886e-38
-0.014828712 -0.1314363 -0.0032626279 2.3509886e-38
-0.012859553 -0.1314363 -0.0032626279 2.3509886e-38
-0.010890387 -0.1314363 -0.0032626279 2.3509886e-38
-0.0089212283 -0.1314363 -0.0032626279 2.3509886e-38
-0.0068647936 -0.13044833 0.00071955845 2.3509886e-38
-0.0049026124 -0.13044833 0.00071955845 2.3509886e-38
-0.0028653741 -0.12943684 0.0047966354 2.3509886e-38
-0.00086126477 -0.12870578 0.0077432506 2.3509886e-38
0.0011486039 -0.12770687 0.011769544 2.3509886e-38
0.0030914098 -0.12770687 0.011769544 2.3509886e-38
0.0050687566 -0.12695493 0.014800321 2.3509886e-38
0.0070062466 -0.12695493 0.014800321 2.3509886e-38
0.0089751035 -0.12596865 0.018775713 2.3509886e-38
0.010929845 -0.12498946 0.022722494 2.3509886e-38
0.012853445 -0.12498946 0.022722494 2.3509886e-38
0.014785172 -0.12422292 0.025812279 2.3509886e-38
0.016703356 -0.12422292 0.025812279 2.341805e-38
0.018618019 -0.12322696 0.029826652 2.3234376e-38
0.020529164 -0.12322696 0.029826652 2.3234376e-38
0.022440309 -0.12322696 0.029826652 2.3418047e-38
0.024333455 -0.1224993 0.032759558 2.3509883e-38
0.026215522 -0.12174667 0.035793196 2.3509883e-38
0.028078195 -0.1207688 0.039734732 2.3509883e-38
0.029971968 -0.1207688 0.039734732 2.3509524e-38
0.031865738 -0.1207688 0.039734732 2.3509524e-38
0.033759512 -0.1207688 0.039734732 2.3416248e-38
0.035653286 -0.1207688 0.039734732 2.3034488e-39
0.037547059 -0.1207688 0.039734732 4.6061521e-40
0.039440829 -0.1207688 0.039734732 9.1835496e-41
0.041487478 -0.1224993 0.032759558 0
0.043631054 -0.12498946 0.022722494 9.2911693e-41
0.045554653 -0.12498946 0.022722494 1.0761972e-42
0.047478259 -0.12498946 0.022722494 3.5873241e-43
0.049312469 -0.12422292 0.025812279 6.4356594e-40
0.051107477 -0.12322696 0.029826652 6.1749296e-39
0.053018622 -0.12322696 0.029826652 1.9082667e-38
0.055067018 -0.12422292 0.025812279 2.1664866e-38
0.056985203 -0.12422292 0.025812279 1.465766e-38
0.058903385 -0.12422292 0.025812279 7.5589711e-39
0.060427822 -0.12174667 0.035793196 7.4664251e-39
-0.074172489 -0.1468782 -0.057185877 1.0233701e-38
-0.072108783 -0.1468782 -0.057185877 1.0049307e-38
-0.070045076 -0.1468782 -0.057185877 1.0418447e-38
-0.06798137 -0.1468782 -0.057185877 1.1248205e-38
-0.065917663 -0.1468782 -0.057185877 1.1432593e-38
-0.063853957 -0.1468782 -0.057185877 1.0234053e-38
-0.06179025 -0.1468782 -0.057185877 1.3092117e-38
-0.059465893 -0.14588766 -0.053221453 1.7332762e-38
-0.057157136 -0.14490382 -0.049283732 2.3509873e-38
-0.055107288 -0.14490382 -0.049283732 2.3509879e-38
-0.053057425 -0.14490382 -0.049283732 2.3509883e-38
-0.050769933 -0.14389296 -0.045237768 2.3509527e-38
-0.048498221 -0.14288907 -0.041219819 2.3324775e-38
-0.046242125 -0.14189209 -0.037229527 2.3509886e-38
-0.044213407 -0.14189209 -0.037229527 2.3509886e-38
-0.041979708 -0.14090194 -0.033266533 2.3509886e-38
-0.039754726 -0.13988586 -0.029199827 2.3509886e-38
-0.037740089 -0.13988586 -0.029199827 2.3509886e-38
-0.035543859 -0.13890938 -0.025291551 2.3509886e-38
-0.033536077 -0.13890938 -0.025291551 2.3509886e-38
-0.031528287 -0.13890938 -0.025291551 2.3509886e-38
-0.02935525 -0.13790731 -0.021280874 2.3509886e-38
-0.027354501 -0.13790731 -0.021280874 2.3509886e-38
-0.025088094 -0.13614662 -0.014233816 2.3509886e-38
-0.023099698 -0.13614662 -0.014233816 2.3509886e-38
-0.020972479 -0.13513215 -0.010173548 2.3509886e-38
-0.018864516 -0.13415633 -0.0062678941 2.3509886e-38
-0.016890086 -0.13415633 -0.0062678941 2.3509886e-38
-0.014828712 -0.13340546 -0.0032626279 2.3509886e-38
-0.012859553 -0.13340546 -0.0032626279 2.3509886e-38
-0.010890387 -0.13340546 -0.0032626279 2.3509886e-38
-0.0089212283 -0.13340546 -0.0032626279 2.3509886e-38
-0.0068647936 -0.13241051 0.00071955845 2.3509886e-38
-0.0049026124 -0.13241051 0.00071955845 2.3509886e-38
-0.0028653741 -0.13139187 0.0047966354 2.3509886e-38
-0.00086126477 -0.13065563 0.0077432506 2.3509886e-38
0.0011486039 -0.12964968 0.011769544 2.3509886e-38
0.0030914098 -0.12964968 0.011769544 2.3509886e-38
0.0050687566 -0.12889244 0.014800321 2.3509886e-38
0.0070062466 -0.12889244 0.014800321 2.3509886e-38
0.0089751035 -0.12789918 0.018775713 2.3509886e-38
0.010929845 -0.12691309 0.022722494 2.3509886e-38
0.012866989 -0.12614109 0.025812279 2.3509886e-38
0.014785172 -0.12614109 0.025812279 2.3509886e-38
0.016706875 -0.12513812 0.029826652 2.341805e-38
0.018618019 -0.12513812 0.029826652 2.3234376e-38
0.020529164 -0.12513812 0.029826652 2.3234376e-38
0.022427453 -0.12440531 0.032759558 2.3418047e-38
0.024333455 -0.12440531 0.032759558 2.3509883e-38
0.026215522 -0.12364738 0.035793196 2.3509883e-38
0.028078195 -0.12266256 0.039734732 2.3509883e-38
0.029971968 -0.12266256 0.039734732 2.3509524e-38
0.031865738 -0.12266256 0.039734732 2.3509524e-38
0.033759512 -0.12266256 0.039734732 2.3509524e-38
0.03571894 -0.12364738 0.035793196 2.7550649e-40
0.037619621 -0.12364738 0.035793196 1.8402972e-40
0.039520305 -0.12364738 0.035793196 9.1835496e-41
0.041793954 -0.12789918 0.018775713 0
0.043724477 -0.12789918 0.018775713 3.5873241e-43
0.045654997 -0.12789918 0.018775713 7.1746481e-43
0.047585517 -0.12789918 0.018775713 3.5873241e-43
0.049401857 -0.12691309 0.022722494 6.4392467e-40
0.051325455 -0.12691309 0.022722494 2.5792944e-39
0.053249057 -0.12691309 0.022722494 1.4842021e-38
0.055067018 -0.12614109 0.025812279 2.2034003e-38
0.056626454 -0.12364738 0.035793196 1.899121e-38
0.058527138 -0.12364738 0.035793196 6.9139562e-39
0.060427822 -0.12364738 0.035793196 5.8072569e-39
-0.074172489 -0.14894189 -0.057185877 1.1707752e-38
-0.072108783 -0.14894189 -0.057185877 1.106202e-38
-0.069749661 -0.14794444 -0.053221453 1.060104e-38
-0.067692913 -0.14794444 -0.053221453 1.0601396e-38
-0.065636151 -0.14794444 -0.053221453 1.0325525e-38
-0.063853957 -0.14894189 -0.057185877 1.0326248e-38
-0.06179025 -0.14894189 -0.057185877 1.4291379e-38
-0.059726544 -0.14894189 -0.057185877 1.7886653e-38
-0.05740913 -0.14794444 -0.053221453 2.3509873e-38
-0.055107288 -0.14695369 -0.049283732 2.3049259e-38
-0.053057425 -0.14695369 -0.049283732 2.3048542e-38
-0.050769933 -0.1459357 -0.045237768 2.3509883e-38
-0.048498221 -0.14492477 -0.041219819 2.3509883e-38
-0.046242125 -0.14392079 -0.037229527 2.3509527e-38
-0.044213407 -0.14392079 -0.037229527 2.3509886e-38
-0.041979708 -0.1429237 -0.033266533 2.3509886e-38
-0.039754726 -0.14190049 -0.029199827 2.3509886e-38
-0.037740089 -0.14190049 -0.029199827 2.3509886e-38
-0.035543859 -0.14091717 -0.025291551 2.3509886e-38
-0.033536077 -0.14091717 -0.025291551 2.3509886e-38
-0.031528287 -0.14091717 -0.025291551 2.3509886e-38
-0.02935525 -0.13990806 -0.021280874 2.3509886e-38
-0.027354501 -0.13990806 -0.021280874 2.3509886e-38
-0.025088094 -0.138135 -0.014233816 2.3509886e-38
-0.02295376 -0.13711344 -0.010173548 2.3509886e-38
-0.020972479 -0.13711344 -0.010173548 2.3509886e-38
-0.018864516 -0.13613077 -0.0062678941 2.3509886e-38
-0.016890086 -0.13613077 -0.0062678941 2.3509886e-38
-0.014828712 -0.13537462 -0.0032626279 2.3509886e-38
-0.012751326 -0.1343727 0.00071955845 2.3509886e-38
-0.010789149 -0.1343727 0.00071955845 2.3509886e-38
-0.0088269711 -0.1343727 0.00071955845 2.3509886e-38
-0.0068647936 -0.1343727 0.00071955845 2.3509886e-38
-0.0048204064 -0.13334687 0.0047966354 2.3509886e-38
-0.0028653741 -0.13334687 0.0047966354 2.3509886e-38
-0.00079419836 -0.13159247 0.011769544 2.3509886e-38
0.0011486039 -0.13159247 0.011769544 2.3509886e-38
0.0030914098 -0.13159247 0.011769544 2.3509886e-38
0.0050687566 -0.13082992 0.014800321 2.3509886e-38
0.0070062466 -0.13082992 0.014800321 2.3509886e-38
0.0089751035 -0.12982969 0.018775713 2.3509886e-38
0.010929845 -0.12883668 0.022722494 2.3509886e-38
0.012866989 -0.12805928 0.025812279 2.3509886e-38
0.014785172 -0.12805928 0.025812279 2.3509886e-38
0.016706875 -0.12704925 0.029826652 2.341805e-38
0.018615449 -0.12631132 0.032759558 2.3234379e-38
0.020521451 -0.12631132 0.032759558 2.3234376e-38
0.022427453 -0.12631132 0.032759558 2.3418047e-38
0.024333455 -0.12631132 0.032759558 2.3509883e-38
0.026215522 -0.12554805 0.035793196 2.3509883e-38
0.028078195 -0.12455635 0.039734732 2.3509883e-38
0.029971968 -0.12455635 0.039734732 2.3509883e-38
0.031865738 -0.12455635 0.039734732 2.350988e-38
0.033759512 -0.12455635 0.039734732 2.3509524e-38
0.03571894 -0.12554805 0.035793196 9.1835496e-41
0.037619621 -0.12554805 0.035793196 1.8402972e-40
0.039783854 -0.12883668 0.022722494 2.7658409e-40
0.041881084 -0.13082992 0.014800321 3.6877972e-40
0.043818571 -0.13082992 0.014800321 3.5873241e-43
0.045756064 -0.13082992 0.014800321 7.1746481e-43
0.047585517 -0.12982969 0.018775713 7.1746481e-43
0.049401857 -0.12883668 0.022722494 2.7550649e-40
0.051325455 -0.12883668 0.022722494 6.4320721e-40
0.053148836 -0.12805928 0.025812279 1.0786136e-38
0.055067018 -0.12805928 0.025812279 2.1481548e-38
0.056626454 -0.12554805 0.035793196 2.2310605e-38
0.058378555 -0.12455635 0.039734732 6.2689371e-39
0.060272329 -0.12455635 0.039734732 4.6097843e-39
0.062166099 -0.12455635 0.039734732 7.0068651e-39
-0.055107288 -0.14900355 -0.049283732 2.3234369e-38
-0.053057425 -0.14900355 -0.049283732 2.3509879e-38
-0.050769933 -0.14797847 -0.045237768 2.3509518e-38
-0.048498221 -0.14696048 -0.041219819 2.3509521e-38
-0.046242125 -0.14594953 -0.037229527 2.3509883e-38
-0.044213407 -0.14594953 -0.037229527 2.3509883e-38
-0.041979708 -0.14494546 -0.033266533 2.3509883e-38
-0.039754726 -0.14391513 -0.029199827 2.3509883e-38
-0.037740089 -0.14391513 -0.029199827 2.3509883e-38
-0.035543859 -0.14292495 -0.025291551 2.3509883e-38
-0.033536077 -0.14292495 -0.025291551 2.3509527e-38
-0.031528287 -0.14292495 -0.025291551 2.3509527e-38
-0.02935525 -0.14190884 -0.021280874 2.3509527e-38
-0.027354501 -0.14190884 -0.021280874 2.3509527e-38
-0.025088094 -0.14012341 -0.014233816 2.3509527e-38
-0.02295376 -0.13909473 -0.010173548 2.3509527e-38
-0.020972479 -0.13909473 -0.010173548 2.3509527e-38
-0.018864516 -0.1381052 -0.0062678941 2.3509527e-38
-0.016890086 -0.1381052 -0.0062678941 2.3509527e-38
-0.014828712 -0.13734378 -0.0032626279 2.3509527e-38
-0.012751326 -0.13633488 0.00071955845 2.3509886e-38
-0.010789149 -0.13633488 0.00071955845 2.3509886e-38
-0.0088269711 -0.13633488 0.00071955845 2.3509886e-38
-0.0067754351 -0.1353019 0.0047966354 2.3509886e-38
-0.0048204064 -0.1353019 0.0047966354 2.3509886e-38
-0.0028111264 -0.13455538 0.0077432506 2.3509886e-38
-0.00079419836 -0.13353528 0.011769544 2.3509886e-38
0.0011486039 -0.13353528 0.011769544 2.3509886e-38
0.0031312667 -0.13276742 0.014800321 2.3509886e-38
0.0050687566 -0.13276742 0.014800321 2.3509886e-38
0.0070445836 -0.13176022 0.018775713 2.3509886e-38
0.0090062432 -0.13076027 0.022722494 2.3509886e-38
0.010948807 -0.12997745 0.025812279 2.3509886e-38
0.012866989 -0.12997745 0.025812279 2.3509886e-38
0.01479573 -0.12896039 0.029826652 2.3509886e-38
0.016706875 -0.12896039 0.029826652 2.3509886e-38
0.018615449 -0.12821732 0.032759558 2.3049626e-38
0.020521451 -0.12821732 0.032759558 2.341805e-38
0.022414155 -0.12744872 0.035793196 2.3233299e-38
0.024314839 -0.12744872 0.035793196 2.31411e-38
0.026184423 -0.12645011 0.039734732 2.3509883e-38
0.028078195 -0.12645011 0.039734732 2.3325847e-38
0.029971968 -0.12645011 0.039734732 2.350988e-38
0.031865738 -0.12645011 0.039734732 2.3141455e-38
0.033818252 -0.12744872 0.035793196 2.3417324e-38
0.03571894 -0.12744872 0.035793196 3.5873241e-43
0.037619621 -0.12744872 0.035793196 1.8474719e-40
0.039783854 -0.13076027 0.022722494 0
0.041881084 -0.13276742 0.014800321 0
0.043818571 -0.13276742 0.014800321 0
0.045756064 -0.13276742 0.014800321 4.6169702e-40
0.047585517 -0.13176022 0.018775713 9.2194229e-41
0.049401857 -0.13076027 0.022722494 3.6841818e-40
0.051325455 -0.13076027 0.022722494 2.7586522e-40
0.053148836 -0.12997745 0.025812279 5.4398799e-39
0.055067018 -0.12997745 0.025812279 2.139044e-38
0.056626454 -0.12744872 0.035793196 2.166703e-38
0.058378555 -0.12645011 0.039734732 7.4685481e-39
0.060272329 -0.12645011 0.039734732 4.242064e-39
0.062166099 -0.12645011 0.039734732 7.0079357e-39
-0.048270844 -0.14797823 -0.037229527 2.3509521e-38
-0.046023242 -0.14696725 -0.033266533 2.3509524e-38
-0.044001482 -0.14696725 -0.033266533 2.3509883e-38
-0.041769363 -0.14592977 -0.029199827 2.3509883e-38
-0.039754726 -0.14592977 -0.029199827 2.3509883e-38
-0.037551649 -0.14493273 -0.025291551 2.3509883e-38
-0.035543859 -0.14493273 -0.025291551 2.3509883e-38
-0.033536077 -0.14493273 -0.025291551 2.3509527e-38
-0.031356007 -0.14390959 -0.021280874 2.3509527e-38
-0.02935525 -0.14390959 -0.021280874 2.3509527e-38
-0.027232759 -0.14312236 -0.018195022 2.3509527e-38
-0.025088094 -0.14211179 -0.014233816 2.3509527e-38
-0.023099698 -0.14211179 -0.014233816 2.3509527e-38
-0.020972479 -0.14107598 -0.010173548 2.3509527e-38
-0.018864516 -0.14007963 -0.0062678941 2.3509527e-38
-0.016890086 -0.14007963 -0.0062678941 2.3509527e-38
-0.014828712 -0.13931294 -0.0032626279 2.3509527e-38
-0.012751326 -0.13829704 0.00071955845 2.3509886e-38
-0.010789149 -0.13829704 0.00071955845 2.3509886e-38
-0.0088269711 -0.13829704 0.00071955845 2.3509886e-38
-0.0067754351 -0.13725694 0.0047966354 2.3509886e-38
-0.0048204064 -0.13725694 0.0047966354 2.3509886e-38
-0.0028111264 -0.13650523 0.0077432506 2.3509886e-38
-0.00079419836 -0.13547809 0.011769544 2.3509886e-38
0.0011486039 -0.13547809 0.011769544 2.3509886e-38
0.0031312667 -0.1347049 0.014800321 2.3509886e-38
0.0050687566 -0.1347049 0.014800321 2.3509886e-38
0.0070445836 -0.13369073 0.018775713 2.3509886e-38
0.0090062432 -0.13268389 0.022722494 2.3509886e-38
0.010948807 -0.13189565 0.025812279 2.3509886e-38
0.012866989 -0.13189565 0.025812279 2.3509886e-38
0.01479573 -0.13087155 0.029826652 2.3509886e-38
0.016706875 -0.13087155 0.029826652 2.3509886e-38
0.018615449 -0.13012333 0.032759558 2.3325497e-38
0.020513471 -0.12934943 0.035793196 2.3509886e-38
0.022414155 -0.12934943 0.035793196 2.3141103e-38
0.024290651 -0.1283439 0.039734732 2.3325492e-38
0.026184423 -0.1283439 0.039734732 2.3509883e-38
0.028049314 -0.12757985 0.042729627 2.3233652e-38
0.029937837 -0.12757985 0.042729627 2.3509879e-38
0.031865738 -0.1283439 0.039734732 2.3418042e-38
0.033759512 -0.1283439 0.039734732 2.1297542e-38
0.035885185 -0.13189565 0.025812279 3.5873241e-43
0.038006101 -0.1347049 0.014800321 2.7694142e-40
0.039943591 -0.1347049 0.014800321 5.5352691e-40
0.041881084 -0.1347049 0.014800321 4.6097815e-40
0.043818571 -0.1347049 0.014800321 0
0.045756064 -0.1347049 0.014800321 9.2198432e-41
0.047585517 -0.13369073 0.018775713 0
0.049516037 -0.13369073 0.018775713 3.6841818e-40
0.051446557 -0.13369073 0.018775713 9.2194229e-41
0.053148836 -0.13189565 0.025812279 3.042439e-39
0.055067018 -0.13189565 0.025812279 2.0652878e-38
0.056626454 -0.12934943 0.035793196 2.1206051e-38
0.058378555 -0.1283439 0.039734732 8.1149881e-39
0.060272329 -0.1283439 0.039734732 6.4551136e-39
0.062166099 -0.1283439 0.039734732 7.9302451e-39
-0.046023242 -0.14898901 -0.033266533 2.3509524e-38
-0.044001482 -0.14898901 -0.033266533 2.3509527e-38
-0.041769363 -0.14794444 -0.029199827 2.3509527e-38
-0.039754726 -0.14794444 -0.029199827 2.3509527e-38
-0.037551649 -0.14694051 -0.025291551 2.3509527e-38
-0.035543859 -0.14694051 -0.025291551 2.3509527e-38
-0.033536077 -0.14694051 -0.025291551 2.3509527e-38
-0.031356007 -0.14591034 -0.021280874 2.3509527e-38
-0.029228106 -0.14511769 -0.018195022 2.3509527e-38
-0.027232759 -0.14511769 -0.018195022 2.3509527e-38
-0.025088094 -0.1441002 -0.014233816 2.3509527e-38
-0.02295376 -0.14305727 -0.010173548 2.3509527e-38
-0.020972479 -0.14305727 -0.010173548 2.3509527e-38
-0.018864516 -0.14205404 -0.0062678941 2.3509527e-38
-0.016797874 -0.1412821 -0.0032626279 2.3509527e-38
-0.014713507 -0.14025922 0.00071955845 2.3509527e-38
-0.012751326 -0.14025922 0.00071955845 2.3509886e-38
-0.010789149 -0.14025922 0.00071955845 2.3509886e-38
-0.0088269711 -0.14025922 0.00071955845 2.3509886e-38
-0.0067754351 -0.13921197 0.0047966354 2.3509886e-38
-0.0048204064 -0.13921197 0.0047966354 2.3509886e-38
-0.0028111264 -0.13845511 0.0077432506 2.3509886e-38
-0.00079419836 -0.13742088 0.011769544 2.3509886e-38
0.0011937767 -0.13664238 0.014800321 2.3509886e-38
0.0031312667 -0.13664238 0.014800321 2.3509886e-38
0.0051140636 -0.13562126 0.018775713 2.3509886e-38
0.0070445836 -0.13562126 0.018775713 2.3509886e-38
0.0090062432 -0.13460748 0.022722494 2.3509886e-38
0.010948807 -0.13381381 0.025812279 2.3509886e-38
0.012866989 -0.13381381 0.025812279 2.3509886e-38
0.01479573 -0.13278268 0.029826652 2.3509886e-38
0.016709445 -0.13202934 0.032759558 2.3509886e-38
0.018615449 -0.13202934 0.032759558 2.3509886e-38
0.020513471 -0.1312501 0.035793196 2.3509886e-38
0.022396877 -0.13023765 0.039734732 2.3141103e-38
0.024290651 -0.13023765 0.039734732 2.3509883e-38
0.026184423 -0.13023765 0.039734732 2.3509883e-38
0.028049314 -0.1294684 0.042729627 2.3141456e-38
0.029937837 -0.1294684 0.042729627 2.3509879e-38
0.031865738 -0.13023765 0.039734732 2.3509879e-38
0.033759512 -0.13023765 0.039734732 2.1020955e-38
0.03600239 -0.13562126 0.018775713 9.2552961e-41
0.038006101 -0.13664238 0.014800321 2.7694142e-40
0.0400047 -0.13742088 0.011769544 3.6913565e-40
0.041881084 -0.13664238 0.014800321 9.219563e-41
0.043818571 -0.13664238 0.014800321 0
0.045756064 -0.13664238 0.014800321 2.8025969e-45
0.047693554 -0.13664238 0.014800321 1.8367239e-40
0.049516037 -0.13562126 0.018775713 2.7550649e-40
0.051446557 -0.13562126 0.018775713 7.3647763e-40
0.053249057 -0.13460748 0.022722494 3.6805945e-40
0.055067018 -0.13381381 0.025812279 1.9822398e-38
0.056626454 -0.1312501 0.035793196 2.0745073e-38
0.058265656 -0.1294684 0.042729627 9.3128124e-39
0.060154177 -0.1294684 0.042729627 7.6536568e-39
0.062042698 -0.1294684 0.042729627 7.5614626e-39
-0.041769363 -0.14995907 -0.029199827 2.3509527e-38
-0.039559431 -0.14894833 -0.025291551 2.3509527e-38
-0.037551649 -0.14894833 -0.025291551 2.3509527e-38
-0.035543859 -0.14894833 -0.025291551 2.3509527e-38
-0.033356763 -0.14791109 -0.021280874 2.3509527e-38
-0.031223446 -0.14711304 -0.018195022 2.3509527e-38
-0.029228106 -0.14711304 -0.018195022 2.3509527e-38
-0.027232759 -0.14711304 -0.018195022 2.3509527e-38
-0.025088094 -0.14608859 -0.014233816 2.3509527e-38
-0.02295376 -0.14503856 -0.010173548 2.3509527e-38
-0.020972479 -0.14503856 -0.010173548 2.3509527e-38
-0.018864516 -0.14402847 -0.0062678941 2.3509527e-38
-0.016797874 -0.14325126 -0.0032626279 2.3509527e-38
-0.014713507 -0.14222141 0.00071955845 2.3509527e-38
-0.012751326 -0.14222141 0.00071955845 2.3509886e-38
-0.010789149 -0.14222141 0.00071955845 2.3509886e-38
-0.0088269711 -0.14222141 0.00071955845 2.3509886e-38
-0.0067754351 -0.141167 0.0047966354 2.3509886e-38
-0.0047609918 -0.14040495 0.0077432506 2.3509886e-38
-0.0028111264 -0.14040495 0.0077432506 2.3509886e-38
-0.00074371696 -0.13857989 0.014800321 2.3509886e-38
0.0011937767 -0.13857989 0.014800321 2.3509886e-38
0.0031835437 -0.1375518 0.018775713 2.3509886e-38
0.0051140636 -0.1375518 0.018775713 2.3509886e-38
0.0070826449 -0.13653107 0.022722494 2.3509886e-38
0.0090306215 -0.13573201 0.025812279 2.3509886e-38
0.010948807 -0.13573201 0.025812279 2.3509886e-38
0.012884585 -0.13469382 0.029826652 2.3509886e-38
0.01479573 -0.13469382 0.029826652 2.3509886e-38
0.016709445 -0.13393532 0.032759558 2.3509886e-38
0.018612789 -0.13315077 0.035793196 2.3509886e-38
0.020513471 -0.13315077 0.035793196 2.3509886e-38
0.022396877 -0.13213144 0.039734732 2.3141103e-38
0.024272272 -0.13135691 0.042729627 2.3509883e-38
0.026160793 -0.13135691 0.042729627 2.3509883e-38
0.028049314 -0.13135691 0.042729627 2.3141456e-38
0.029937837 -0.13135691 0.042729627 2.3509879e-38
0.031826358 -0.13135691 0.042729627 2.3325846e-38
0.033714879 -0.13135691 0.042729627 1.9545825e-38
0.036119092 -0.13936369 0.011769544 3.6913565e-40
0.038061894 -0.13936369 0.011769544 3.5873241e-43
0.0400047 -0.13936369 0.011769544 3.5873241e-43
0.041947506 -0.13936369 0.011769544 0
0.043890312 -0.13936369 0.011769544 0
0.045756064 -0.13857989 0.014800321 2.8025969e-45
0.047693554 -0.13857989 0.014800321 4.6025928e-40
0.049631044 -0.13857989 0.014800321 2.7550649e-40
0.051446557 -0.1375518 0.018775713 7.3576017e-40
0.053377077 -0.1375518 0.018775713 3.6734198e-40
0.055067018 -0.13573201 0.025812279 1.9175953e-38
0.056484781 -0.13213144 0.039734732 2.0744354e-38
0.05811467 -0.13032107 0.04673494 1.1433315e-38
0.059875075 -0.12952723 0.04980446 7.4685467e-39
0.061751194 -0.12952723 0.04980446 6.4543961e-39
-0.033356763 -0.14991184 -0.021280874 2.3509886e-38
-0.031223446 -0.14910837 -0.018195022 2.3509886e-38
-0.029064886 -0.148077 -0.014233816 2.3509886e-38
-0.02707649 -0.148077 -0.014233816 2.3509886e-38
-0.025088094 -0.148077 -0.014233816 2.3509883e-38
-0.02295376 -0.14701982 -0.010173548 2.3509883e-38
-0.020972479 -0.14701982 -0.010173548 2.3509883e-38
-0.018864516 -0.1460029 -0.0062678941 2.3509883e-38
-0.016797874 -0.14522041 -0.0032626279 2.3509886e-38
-0.014713507 -0.14418359 0.00071955845 2.3509886e-38
-0.012751326 -0.14418359 0.00071955845 2.3509886e-38
-0.010789149 -0.14418359 0.00071955845 2.3509886e-38
-0.0088269711 -0.14418359 0.00071955845 2.3509886e-38
-0.0067754351 -0.14312203 0.0047966354 2.3509886e-38
-0.0047609918 -0.14235483 0.0077432506 2.3509886e-38
-0.0027370006 -0.1413065 0.011769544 2.3509886e-38
-0.00074371696 -0.14051737 0.014800321 2.3509886e-38
0.0011937767 -0.14051737 0.014800321 2.3509886e-38
0.0031835437 -0.1394823 0.018775713 2.3509886e-38
0.0051590428 -0.13845469 0.022722494 2.3509886e-38
0.0070826449 -0.13845469 0.022722494 2.3509886e-38
0.0090306215 -0.13765021 0.025812279 2.3509886e-38
0.010948807 -0.13765021 0.025812279 2.3509886e-38
0.012884585 -0.13660498 0.029826652 2.3509886e-38
0.01479573 -0.13660498 0.029826652 2.3509886e-38
0.016709445 -0.13584132 0.032759558 2.3509886e-38
0.018612789 -0.13505147 0.035793196 2.3509886e-38
0.020503106 -0.1340252 0.039734732 2.3417691e-38
0.022396877 -0.1340252 0.039734732 2.3233299e-38
0.024272272 -0.13324542 0.042729627 2.3509883e-38
0.026160793 -0.13324542 0.042729627 2.3509883e-38
0.028010689 -0.13220255 0.04673494 2.3325847e-38
0.029892188 -0.13220255 0.04673494 2.3509879e-38
0.031773686 -0.13220255 0.04673494 2.2311694e-38
0.033655189 -0.13220255 0.04673494 1.5673609e-38
0.036119092 -0.1413065 0.011769544 3.5873241e-43
0.038061894 -0.1413065 0.011769544 3.5873241e-43
0.0400047 -0.1413065 0.011769544 9.2552961e-41
0.041947506 -0.1413065 0.011769544 3.6878252e-40
0.043890312 -0.1413065 0.011769544 2.7658689e-40
0.045756064 -0.14051737 0.014800321 2.8025969e-45
0.047693554 -0.14051737 0.014800321 9.1835496e-41
0.049631044 -0.14051737 0.014800321 4.5917748e-40
0.051446557 -0.1394823 0.018775713 3.6734198e-40
0.053249057 -0.13845469 0.022722494 6.4392467e-40
0.055067018 -0.13765021 0.025812279 1.6594475e-38
0.056377135 -0.13324542 0.042729627 2.0374493e-38
0.057998959 -0.13140334 0.04980446 1.4659443e-38
0.059759118 -0.13063805 0.052743804 8.0213603e-39
0.061630081 -0.13063805 0.052743804 6.1778121e-39
0.063501045 -0.13063805 0.052743804 6.3618502e-39
-0.02295376 -0.14900111 -0.010173548 2.3509883e-38
-0.020972479 -0.14900111 -0.010173548 2.3509883e-38
-0.018864516 -0.14797734 -0.0062678941 2.3509883e-38
-0.016797874 -0.1471896 -0.0032626279 2.3509883e-38
-0.014713507 -0.14614578 0.00071955845 2.3509883e-38
-0.012751326 -0.14614578 0.00071955845 2.3509886e-38
-0.010789149 -0.14614578 0.00071955845 2.3509886e-38
-0.0088269711 -0.14614578 0.00071955845 2.3509886e-38
-0.0067108572 -0.14430468 0.0077432506 2.3509886e-38
-0.0046798065 -0.14324932 0.011769544 2.3509886e-38
-0.0026812069 -0.14245488 0.014800321 2.3509886e-38
-0.00074371696 -0.14245488 0.014800321 2.3509886e-38
0.0012530237 -0.14141284 0.018775713 2.3509886e-38
0.0032354444 -0.14037828 0.022722494 2.3509886e-38
0.0051590428 -0.14037828 0.022722494 2.3509886e-38
0.0071124397 -0.13956837 0.025812279 2.3509886e-38
0.0090306215 -0.13956837 0.025812279 2.3509886e-38
0.010948807 -0.13956837 0.025812279 2.3509886e-38
0.012884585 -0.13851611 0.029826652 2.3509886e-38
0.01479573 -0.13851611 0.029826652 2.3509886e-38
0.016709445 -0.13774733 0.032759558 2.3509886e-38
0.018612789 -0.13695215 0.035793196 2.3509886e-38
0.020503106 -0.13591899 0.039734732 2.3417691e-38
0.022383749 -0.13513394 0.042729627 2.3325494e-38
0.024272272 -0.13513394 0.042729627 2.3509883e-38
0.026160793 -0.13513394 0.042729627 2.3325492e-38
0.028010689 -0.13408406 0.04673494 2.350988e-38
0.029892188 -0.13408406 0.04673494 2.3509879e-38
0.031773686 -0.13408406 0.04673494 2.0652173e-38
0.033655189 -0.13408406 0.04673494 1.3276522e-38
0.036303148 -0.14614578 0.00071955845 1.8474719e-40
0.038190268 -0.14507706 0.0047966354 3.5873241e-43
0.040085886 -0.14430468 0.0077432506 9.2552961e-41
0.041947506 -0.14324932 0.011769544 9.219563e-41
0.043890312 -0.14324932 0.011769544 3.6878252e-40
0.045833118 -0.14324932 0.011769544 2.8025969e-45
0.047693554 -0.14245488 0.014800321 9.1835496e-41
0.049631044 -0.14245488 0.014800321 7.3540424e-40
0.051446557 -0.14141284 0.018775713 5.5101298e-40
0.053249057 -0.14037828 0.022722494 1.0116254e-39
0.054829489 -0.13774733 0.032759558 1.0877628e-38
0.056377135 -0.13513394 0.042729627 1.8253277e-38
0.057998959 -0.13327946 0.04980446 1.7608627e-38
0.059759118 -0.13250901 0.052743804 1.0509565e-38
0.061630081 -0.13250901 0.052743804 6.4536801e-39
-0.018864516 -0.14995177 -0.0062678941 2.3418045e-38
-0.016797874 -0.14915876 -0.0032626279 2.3418045e-38
-0.014713507 -0.14810793 0.00071955845 2.3418047e-38
-0.012751326 -0.14810793 0.00071955845 2.3509886e-38
-0.010789149 -0.14810793 0.00071955845 2.3509886e-38
-0.0088269711 -0.14810793 0.00071955845 2.3509886e-38
-0.0067108572 -0.14625455 0.0077432506 2.3509886e-38
-0.0046798065 -0.1451921 0.011769544 2.3509886e-38
-0.0026812069 -0.14439236 0.014800321 2.3509886e-38
-0.00067749619 -0.14334334 0.018775713 2.3509886e-38
0.0012530237 -0.14334334 0.018775713 2.3509886e-38
0.0032354444 -0.14230187 0.022722494 2.3509886e-38
0.0051590428 -0.14230187 0.022722494 2.3509886e-38
0.0071124397 -0.14148657 0.025812279 2.3509886e-38
0.0090306215 -0.14148657 0.025812279 2.3509886e-38
0.010948807 -0.14148657 0.025812279 2.3509886e-38
0.012884585 -0.14042725 0.029826652 2.3509886e-38
0.01479573 -0.14042725 0.029826652 2.3509886e-38
0.016712105 -0.13885282 0.035793196 2.3509886e-38
0.018612789 -0.13885282 0.035793196 2.3509886e-38
0.020503106 -0.13781275 0.039734732 2.3509886e-38
0.022383749 -0.13702248 0.042729627 2.3509886e-38
0.024272272 -0.13702248 0.042729627 2.3509883e-38
0.026129192 -0.13596557 0.04673494 2.31411e-38
0.027981089 -0.13515557 0.04980446 2.350988e-38
0.029857207 -0.13515557 0.04980446 2.3325846e-38
0.031733323 -0.13515557 0.04980446 1.8900456e-38
0.033609442 -0.13515557 0.04980446 1.0418458e-38
0.036303148 -0.14810793 0.00071955845 3.6913565e-40
0.038265325 -0.14810793 0.00071955845 6.4572254e-40
0.0401453 -0.1470321 0.0047966354 9.2552961e-41
0.042035751 -0.14625455 0.0077432506 0
0.043985613 -0.14625455 0.0077432506 9.219563e-41
0.045833118 -0.1451921 0.011769544 2.8025969e-45
0.047693554 -0.14439236 0.014800321 5.5245491e-40
0.049631044 -0.14439236 0.014800321 5.5101298e-40
0.051446557 -0.14334334 0.018775713 5.5101298e-40
0.053377077 -0.14334334 0.018775713 5.5101298e-40
0.054829489 -0.13965334 0.032759558 4.3317387e-39
0.056735493 -0.13965334 0.032759558 1.56718e-38
0.058641497 -0.13965334 0.032759558 1.9636931e-38
-0.0067754351 -0.14898713 0.0047966354 2.3509886e-38
-0.0046186969 -0.14632986 0.014800321 2.3509886e-38
-0.0026812069 -0.14632986 0.014800321 2.3509886e-38
-0.00067749619 -0.14527388 0.018775713 2.3509886e-38
0.0012530237 -0.14527388 0.018775713 2.3509886e-38
0.0032354444 -0.14422549 0.022722494 2.3509886e-38
0.0051590428 -0.14422549 0.022722494 2.3509886e-38
0.0071124397 -0.14340474 0.025812279 2.3509886e-38
0.0090306215 -0.14340474 0.025812279 2.3509886e-38
0.010948807 -0.14340474 0.025812279 2.3509886e-38
0.012866989 -0.14340474 0.025812279 2.3509886e-38
0.01479573 -0.14233841 0.029826652 2.3509886e-38
0.016712105 -0.14075352 0.035793196 2.3509886e-38
0.018609334 -0.13970654 0.039734732 2.3417691e-38
0.020495228 -0.13891099 0.042729627 2.3509886e-38
0.022366194 -0.13784705 0.04673494 2.3509886e-38
0.024247693 -0.13784705 0.04673494 2.3509883e-38
0.026104972 -0.13703169 0.04980446 2.3048905e-38
0.027981089 -0.13703169 0.04980446 2.350988e-38
0.029857207 -0.13703169 0.04980446 2.3141455e-38
0.031694673 -0.13625093 0.052743804 1.7794108e-38
0.033565633 -0.13625093 0.052743804 5.8086764e-39
0.042035751 -0.14820443 0.0077432506 0
0.043985613 -0.14820443 0.0077432506 2.7658689e-40
0.045833118 -0.14713491 0.011769544 2.8025969e-45
0.047693554 -0.14632986 0.014800321 2.7587083e-40
0.049631044 -0.14632986 0.014800321 5.5101298e-40
0.051446557 -0.14527388 0.018775713 1.2871361e-39
0.053377077 -0.14527388 0.018775713 5.5101298e-40
0.054929767 -0.14233841 0.029826652 7.350427e-40
0.056840912 -0.14233841 0.029826652 1.4840961e-38
0.058752056 -0.14233841 0.029826652 2.1111342e-38
-0.0046186969 -0.14826734 0.014800321 2.3509886e-38
-0.0026812069 -0.14826734 0.014800321 2.3509886e-38
-0.00067749619 -0.14720438 0.018775713 2.3509886e-38
0.0013118424 -0.14614908 0.022722494 2.3509886e-38
0.0032354444 -0.14614908 0.022722494 2.3509886e-38
0.0051942542 -0.14532293 0.025812279 2.3509886e-38
0.0071124397 -0.14532293 0.025812279 2.3509886e-38
0.0090306215 -0.14532293 0.025812279 2.3509886e-38
0.010948807 -0.14532293 0.025812279 2.3509886e-38
0.012866989 -0.14532293 0.025812279 2.3509886e-38
0.01479573 -0.14424954 0.029826652 2.3509886e-38
0.016712105 -0.1426542 0.035793196 2.3509886e-38
0.018609334 -0.1416003 0.039734732 2.3417691e-38
0.020495228 -0.14079951 0.042729627 2.3509886e-38
0.022366194 -0.13972856 0.04673494 2.2864516e-38
0.024247693 -0.13972856 0.04673494 2.3417687e-38
0.026104972 -0.13890781 0.04980446 2.3509883e-38
0.027981089 -0.13890781 0.04980446 2.350988e-38
0.029857207 -0.13890781 0.04980446 2.2680477e-38
0.031694673 -0.13812189 0.052743804 1.3276522e-38
0.033565633 -0.13812189 0.052743804 3.41159e-39
0.045833118 -0.14907773 0.011769544 2.8025969e-45
0.047693554 -0.14826734 0.014800321 2.7587083e-40
0.049631044 -0.14826734 0.014800321 5.5101298e-40
0.051446557 -0.14720438 0.018775713 6.4284847e-40
0.053377077 -0.14720438 0.018775713 6.4284847e-40
0.055067018 -0.14532293 0.025812279 1.1038196e-39
0.056840912 -0.14424954 0.029826652 7.5575067e-39
0.058752056 -0.14424954 0.029826652 1.9819525e-38
0.060663201 -0.14424954 0.029826652 1.8067811e-38
-0.00067749619 -0.14913492 0.018775713 2.3509886e-38
0.0013118424 -0.14807267 0.022722494 2.3509886e-38
0.0032354444 -0.14807267 0.022722494 2.3509886e-38
0.0051942542 -0.1472411 0.025812279 2.3509886e-38
0.0071124397 -0.1472411 0.025812279 2.3509886e-38
0.0090306215 -0.1472411 0.025812279 2.3509886e-38
0.010948807 -0.1472411 0.025812279 2.3509886e-38
0.012884585 -0.14616071 0.029826652 2.3509886e-38
0.014811423 -0.14455487 0.035793196 2.3509886e-38
0.01671556 -0.14349405 0.039734732 2.3509886e-38
