# .PCD v0.7 - Point Cloud Data file format
VERSION 0.7
FIELDS x y z rgb
SIZE 4 4 4 4
TYPE F F F F
COUNT 1 1 1 1
WIDTH 935
HEIGHT 1
VIEWPOINT 0 0 0 1 0 0 0
POINTS 935
DATA ascii
-0.02737583 -0.09440127 -0.03470502 2.3508437e-38
-0.025354063 -0.09440127 -0.03470502 2.3508801e-38
-0.023332292 -0.09440127 -0.03470502 2.3509167e-38
-0.021341793 -0.095231608 -0.038668014 2.3509168e-38
-0.019337563 -0.096067667 -0.042658307 2.3509527e-38
-0.017319463 -0.096909523 -0.046676256 2.3509524e-38
-0.015276706 -0.096909523 -0.046676256 2.3509521e-38
-0.013233948 -0.096909523 -0.046676256 2.3509879e-38
-0.011191189 -0.096909523 -0.046676256 2.3509879e-38
-0.0091377925 -0.09775725 -0.050722219 2.3509879e-38
-0.0070879404 -0.09775725 -0.050722219 2.3509518e-38
-0.0050380882 -0.09775725 -0.050722219 2.3509518e-38
-0.002957169 -0.098582298 -0.05465994 2.3509518e-38
-0.00090041291 -0.098582298 -0.05465994 2.3509518e-38
0.0011563422 -0.098582298 -0.05465994 2.3509879e-38
0.0031613177 -0.09775725 -0.050722219 2.3509879e-38
0.0052111689 -0.09775725 -0.050722219 2.3509879e-38
0.0072610211 -0.09775725 -0.050722219 2.3509158e-38
0.0093108714 -0.09775725 -0.050722219 2.3416603e-38
0.011279143 -0.096909523 -0.046676256 2.3508801e-38
0.013321901 -0.096909523 -0.046676256 2.3509521e-38
0.015269553 -0.096067667 -0.042658307 2.3509521e-38
0.017305266 -0.096067667 -0.042658307 2.3509521e-38
0.019232536 -0.095231608 -0.038668014 2.3509524e-38
0.021261251 -0.095231608 -0.038668014 2.3416251e-38
0.023289969 -0.095231608 -0.038668014 2.3509527e-38
0.025190139 -0.09440127 -0.03470502 2.2403185e-38
0.026939241 -0.092730328 -0.026730038 2.341805e-38
0.028947027 -0.092730328 -0.026730038 1.9916062e-38
-0.033441134 -0.096423045 -0.03470502 1.4472887e-38
-0.031419367 -0.096423045 -0.03470502 2.0004271e-38
-0.029397598 -0.096423045 -0.03470502 2.3507351e-38
-0.02737583 -0.096423045 -0.03470502 2.3509517e-38
-0.025354063 -0.096423045 -0.03470502 2.3508085e-38
-0.023332292 -0.096423045 -0.03470502 2.3508448e-38
-0.021341793 -0.097260326 -0.038668014 2.3509168e-38
-0.019337563 -0.098103389 -0.042658307 2.3509168e-38
-0.017319463 -0.098952278 -0.046676256 2.3508805e-38
-0.015276706 -0.098952278 -0.046676256 2.35088e-38
-0.013233948 -0.098952278 -0.046676256 2.3509517e-38
-0.011191189 -0.098952278 -0.046676256 2.3509153e-38
-0.0091377925 -0.099807099 -0.050722219 2.3509153e-38
-0.0070879404 -0.099807099 -0.050722219 2.3509153e-38
-0.0050380882 -0.099807099 -0.050722219 2.3509156e-38
-0.002957169 -0.10063905 -0.05465994 2.3507715e-38
-0.00090041291 -0.10063905 -0.05465994 2.3507716e-38
0.0011563422 -0.10063905 -0.05465994 2.3508441e-38
0.0031613177 -0.099807099 -0.050722219 2.350952e-38
0.0052111689 -0.099807099 -0.050722219 2.3508804e-38
0.0072610211 -0.099807099 -0.050722219 2.3509524e-38
0.0093108714 -0.099807099 -0.050722219 2.3509527e-38
0.011279143 -0.098952278 -0.046676256 2.3509527e-38
0.013321901 -0.098952278 -0.046676256 2.3509886e-38
0.015269553 -0.098103389 -0.042658307 2.3509886e-38
0.017305266 -0.098103389 -0.042658307 2.3509527e-38
0.019232536 -0.097260326 -0.038668014 2.3233302e-38
0.021261251 -0.097260326 -0.038668014 2.3416251e-38
0.023168372 -0.096423045 -0.03470502 2.3509165e-38
0.024931459 -0.094738111 -0.026730038 2.3509527e-38
0.026939241 -0.094738111 -0.026730038 2.1850011e-38
0.028947027 -0.094738111 -0.026730038 1.0234802e-38
-0.029456658 -0.099289045 -0.038668014 2.4878289e-39
-0.02737583 -0.098444805 -0.03470502 1.934302e-39
-0.025354063 -0.098444805 -0.03470502 2.5793168e-39
-0.02337051 -0.099289045 -0.038668014 4.0544497e-39
-0.02095519 -0.088850766 0.010331057 6.2671448e-39
-0.018993786 -0.088205129 0.013361834 8.4798371e-39
-0.017056296 -0.088205129 0.013361834 1.0416301e-38
-0.015118806 -0.088205129 0.013361834 1.226021e-38
-0.013181314 -0.088205129 0.013361834 1.382681e-38
-0.011247309 -0.087358251 0.017337225 1.5392332e-38
-0.009316789 -0.087358251 0.017337225 1.6313566e-38
-0.0074035674 -0.086517468 0.021284007 1.7419917e-38
-0.0054799672 -0.086517468 0.021284007 1.8342236e-38
-0.0029258896 -0.10354035 -0.058624364 1.8803216e-38
-0.0015563695 -0.088205129 0.013361834 1.8250765e-38
0.00038112141 -0.088205129 0.013361834 1.7329174e-38
0.0032130983 -0.10269581 -0.05465994 1.6501213e-38
0.0052111689 -0.10185695 -0.050722219 1.521084e-38
0.0072610211 -0.10185695 -0.050722219 1.4381802e-38
0.0093108714 -0.10185695 -0.050722219 1.2722644e-38
0.011279143 -0.10099503 -0.046676256 1.0049691e-38
0.013321901 -0.10099503 -0.046676256 7.3760175e-39
0.015269553 -0.1001391 -0.042658307 4.6108717e-39
0.017305266 -0.1001391 -0.042658307 2.1215897e-39
0.019232536 -0.099289045 -0.038668014 5.5354092e-40
0.021261251 -0.099289045 -0.038668014 7.3612591e-40
0.022923673 -0.096745893 -0.026730038 4.5917748e-40
0.024701269 -0.095234126 -0.019633509 2.7550649e-40
0.026696613 -0.095234126 -0.019633509 1.474777e-39
0.028691953 -0.095234126 -0.019633509 7.0064923e-45
-0.02683655 -0.091658354 0.0063047633 4.5953621e-40
-0.0248408 -0.09079358 0.010331057 3.6734339e-40
-0.022897994 -0.09079358 0.010331057 2.7550929e-40
-0.02095519 -0.09079358 0.010331057 2.7550649e-40
-0.018993786 -0.090142623 0.013361834 2.7550649e-40
-0.017056296 -0.090142623 0.013361834 2.7550649e-40
-0.015118806 -0.090142623 0.013361834 9.2086609e-40
-0.013181314 -0.090142623 0.013361834 2.0261262e-39
-0.011247309 -0.089288771 0.017337225 3.8675123e-39
-0.009316789 -0.089288771 0.017337225 4.2352144e-39
-0.0074035674 -0.088441074 0.021284007 4.696194e-39
-0.0054799672 -0.088441074 0.021284007 5.2500936e-39
-0.0035563661 -0.088441074 0.021284007 5.6192391e-39
-0.0015947055 -0.089288771 0.017337225 5.3433767e-39
0.00033581536 -0.089288771 0.017337225 4.5139817e-39
0.0022663353 -0.089288771 0.017337225 3.5938247e-39
0.0042561032 -0.090142623 0.013361834 3.2254079e-39
0.0061935931 -0.090142623 0.013361834 2.6729572e-39
0.008131085 -0.090142623 0.013361834 1.7513652e-39
0.010068575 -0.090142623 0.013361834 7.3757625e-40
0.012006067 -0.090142623 0.013361834 1.0902102e-42
0.013943557 -0.090142623 0.013361834 7.328791e-43
0.015958101 -0.09079358 0.010331057 3.7134409e-43
0.017900905 -0.09079358 0.010331057 9.8090893e-45
0.019843711 -0.09079358 0.010331057 4.6025928e-40
0.022923673 -0.098753676 -0.026730038 7.3540424e-40
0.024314394 -0.094667718 -0.0077063814 2.7550649e-40
0.026288824 -0.094667718 -0.0077063814 5.6051939e-45
0.028263254 -0.094667718 -0.0077063814 9.256277e-41
0.031936459 -0.093166932 -0.00071892887 2.7687528e-39
-0.02683655 -0.093608215 0.0063047633 1.3814953e-39
-0.024886688 -0.093608215 0.0063047633 1.473335e-39
-0.022897994 -0.092736378 0.010331057 1.3811394e-39
-0.02095519 -0.092736378 0.010331057 9.2051717e-40
-0.018993786 -0.092080101 0.013361834 4.5953621e-40
-0.017056296 -0.092080101 0.013361834 4.5989495e-40
-0.015108349 -0.091219291 0.017337225 1.1052545e-39
-0.013177829 -0.091219291 0.017337225 1.9350068e-39
-0.011247309 -0.091219291 0.017337225 2.3005509e-39
-0.009316789 -0.091219291 0.017337225 2.1158037e-39
-0.0074035674 -0.090364665 0.021284007 1.6548326e-39
-0.0054799672 -0.090364665 0.021284007 1.4708029e-39
-0.0035563661 -0.090364665 0.021284007 1.4704441e-39
-0.0015947055 -0.091219291 0.017337225 1.3789674e-39
0.00033581536 -0.091219291 0.017337225 1.1956579e-39
0.0022144355 -0.090364665 0.021284007 9.2015143e-40
0.0041380357 -0.090364665 0.021284007 1.8424735e-39
0.0061273761 -0.091219291 0.017337225 1.1978271e-39
0.0080578979 -0.091219291 0.017337225 4.6062502e-40
0.0099884178 -0.091219291 0.017337225 7.0064923e-45
0.011918938 -0.091219291 0.017337225 3.671402e-43
0.013943557 -0.092080101 0.013361834 2.7839316e-40
0.015958101 -0.092736378 0.010331057 7.3937412e-40
0.017900905 -0.092736378 0.010331057 1.1077923e-39
0.019843711 -0.092736378 0.010331057 4.6061521e-40
0.021910055 -0.093608215 0.0063047633 2.1190576e-39
0.024087744 -0.095129102 -0.00071892887 2.3963675e-39
0.026049921 -0.095129102 -0.00071892887 2.1201464e-39
0.028012102 -0.095129102 -0.00071892887 2.8584317e-39
0.02997428 -0.095129102 -0.00071892887 2.5825678e-39
0.031936459 -0.095129102 -0.00071892887 3.5052402e-39
-0.028891092 -0.097091287 -0.00071892887 9.1835496e-41
-0.0268753 -0.096201301 0.003358148 1.0134359e-39
-0.024886688 -0.095558092 0.0063047633 1.1978271e-39
-0.022897994 -0.094679192 0.010331057 1.1978271e-39
-0.02095519 -0.094679192 0.010331057 5.5245491e-40
-0.018993786 -0.094017595 0.013361834 9.1835496e-41
-0.017056296 -0.094017595 0.013361834 9.2194229e-41
-0.015108349 -0.093149811 0.017337225 9.2194229e-41
-0.013177829 -0.093149811 0.017337225 6.4464214e-40
-0.011250768 -0.092288271 0.021284007 1.3804023e-39
-0.0093271676 -0.092288271 0.021284007 1.840656e-39
-0.0074035674 -0.092288271 0.021284007 2.3016271e-39
-0.0054799672 -0.092288271 0.021284007 2.3941871e-39
-0.0035563661 -0.092288271 0.021284007 2.3019943e-39
-0.0015947055 -0.093149811 0.017337225 2.1179673e-39
0.00033581536 -0.093149811 0.017337225 2.1179701e-39
0.0022144355 -0.092288271 0.021284007 2.0264976e-39
0.0041380357 -0.092288271 0.021284007 8.2831593e-40
0.0061273761 -0.093149811 0.017337225 7.372021e-40
0.0080578979 -0.093149811 0.017337225 1.013789e-39
0.0099884178 -0.093149811 0.017337225 1.3829344e-39
0.011918938 -0.093149811 0.017337225 1.6595213e-39
0.013943557 -0.094017595 0.013361834 1.5680446e-39
0.015881047 -0.094017595 0.013361834 1.4758461e-39
0.017818538 -0.094017595 0.013361834 1.2914549e-39
0.019843711 -0.094679192 0.010331057 1.8442657e-39
0.021786513 -0.094679192 0.010331057 1.7517142e-39
0.02385992 -0.095558092 0.0063047633 1.198546e-39
0.025910528 -0.096201301 0.003358148 1.3833002e-39
0.027865557 -0.096201301 0.003358148 2.766236e-39
0.029820589 -0.096201301 0.003358148 2.304902e-39
0.031936459 -0.097091287 -0.00071892887 2.8584317e-39
0.033898637 -0.097091287 -0.00071892887 4.8867341e-39
-0.032888763 -0.09992972 -0.0047011152 6.9143065e-39
-0.03085327 -0.099053472 -0.00071892887 5.6235705e-39
-0.028891092 -0.099053472 -0.00071892887 1.29002e-39
-0.0268753 -0.098156333 0.003358148 4.6026489e-40
-0.024886688 -0.097507954 0.0063047633 8.2904741e-40
-0.022936823 -0.097507954 0.0063047633 1.0134359e-39
-0.02095519 -0.09662199 0.010331057 7.3684617e-40
-0.018993786 -0.095955089 0.013361834 4.6061241e-40
-0.017056296 -0.095955089 0.013361834 5.5316537e-40
-0.015108349 -0.095080331 0.017337225 9.2230102e-40
-0.013177829 -0.095080331 0.017337225 1.2903605e-39
-0.011250768 -0.094211861 0.021284007 1.1974488e-39
-0.0093271676 -0.094211861 0.021284007 1.7506141e-39
-0.0074035674 -0.094211861 0.021284007 2.3959822e-39
-0.0054799672 -0.094211861 0.021284007 2.6725718e-39
-0.0035563661 -0.094211861 0.021284007 2.6722159e-39
-0.0015947055 -0.095080331 0.017337225 2.7644129e-39
0.00033581536 -0.095080331 0.017337225 3.0410026e-39
0.0022663353 -0.095080331 0.017337225 3.2257568e-39
0.0041968562 -0.095080331 0.017337225 2.4881946e-39
0.0061273761 -0.095080331 0.017337225 2.2116077e-39
0.0080578979 -0.095080331 0.017337225 2.2116049e-39
0.0099884178 -0.095080331 0.017337225 2.4881918e-39
0.011918938 -0.095080331 0.017337225 2.3048795e-39
0.01384946 -0.095080331 0.017337225 2.0282898e-39
0.015881047 -0.095955089 0.013361834 1.6595073e-39
0.017818538 -0.095955089 0.013361834 1.6595073e-39
0.019756028 -0.095955089 0.013361834 1.2918094e-39
0.021693518 -0.095955089 0.013361834 6.4716447e-40
0.023729319 -0.09662199 0.010331057 2.7694983e-40
0.025809782 -0.097507954 0.0063047633 1.291106e-39
0.027759647 -0.097507954 0.0063047633 1.9361194e-39
0.029709512 -0.097507954 0.0063047633 2.5811287e-39
0.031936459 -0.099053472 -0.00071892887 3.2264953e-39
0.033898637 -0.099053472 -0.00071892887 5.3466333e-39
-0.032888763 -0.10189888 -0.0047011152 6.9146694e-39
-0.03085327 -0.10101564 -0.00071892887 6.5458869e-39
-0.028891092 -0.10101564 -0.00071892887 9.219563e-40
-0.0268753 -0.10011137 0.003358148 5.6051939e-45
-0.024886688 -0.099457815 0.0063047633 3.6842939e-40
-0.022936823 -0.099457815 0.0063047633 4.6026209e-40
-0.02095519 -0.098564804 0.010331057 1.8367239e-40
-0.018993786 -0.097892582 0.013361834 1.8402972e-40
-0.017056296 -0.097892582 0.013361834 6.453596e-40
-0.015108349 -0.097010851 0.017337225 9.2230102e-40
-0.013177829 -0.097010851 0.017337225 8.3010679e-40
-0.011247309 -0.097010851 0.017337225 1.2917954e-39
-0.0093271676 -0.096135467 0.021284007 1.2917954e-39
-0.0074035674 -0.096135467 0.021284007 1.2917954e-39
-0.0054799672 -0.096135467 0.021284007 1.3836351e-39
-0.0035252264 -0.097010851 0.017337225 1.5680278e-39
-0.0015947055 -0.097010851 0.017337225 1.9360914e-39
0.00033581536 -0.097010851 0.017337225 2.3970724e-39
0.0022663353 -0.097010851 0.017337225 2.8569715e-39
0.0041968562 -0.097010851 0.017337225 2.488189e-39
0.0061273761 -0.097010851 0.017337225 1.8431755e-39
0.0080578979 -0.097010851 0.017337225 1.5658684e-39
0.0099088382 -0.096135467 0.021284007 1.6584199e-39
0.011832438 -0.096135467 0.021284007 1.9339278e-39
0.01384946 -0.097010851 0.017337225 1.8417322e-39
0.01577998 -0.097010851 0.017337225 2.0264794e-39
0.017818538 -0.097892582 0.013361834 2.2115937e-39
0.019756028 -0.097892582 0.013361834 9.2302409e-40
0.021693518 -0.097892582 0.013361834 1.3850924e-39
0.023729319 -0.098564804 0.010331057 1.3843764e-39
0.025809782 -0.099457815 0.0063047633 2.8584317e-39
0.027759647 -0.099457815 0.0063047633 1.1985544e-39
0.029709512 -0.099457815 0.0063047633 2.8577156e-39
0.031659372 -0.099457815 0.0063047633 3.594559e-39
-0.03085327 -0.10297783 -0.00071892887 7.0990635e-39
-0.028891092 -0.10297783 -0.00071892887 2.8025969e-45
-0.026928911 -0.10297783 -0.00071892887 2.7623376e-40
-0.024920268 -0.1020664 0.003358148 5.5246052e-40
-0.022936823 -0.10140768 0.0063047633 3.6806646e-40
-0.02095519 -0.1005076 0.010331057 2.7550649e-40
-0.019012386 -0.1005076 0.010331057 3.6734198e-40
-0.017056296 -0.099830076 0.013361834 1.0130617e-39
-0.015118806 -0.099830076 0.013361834 1.2900017e-39
-0.013177829 -0.098941371 0.017337225 1.0144952e-39
-0.011247309 -0.098941371 0.017337225 9.2337722e-40
-0.009316789 -0.098941371 0.017337225 6.4787073e-40
-0.0073862672 -0.098941371 0.017337225 1.0155728e-39
-0.0054557472 -0.098941371 0.017337225 1.3843554e-39
-0.0035252264 -0.098941371 0.017337225 1.9371732e-39
-0.0015947055 -0.098941371 0.017337225 2.213044e-39
0.00033581536 -0.098941371 0.017337225 2.1201323e-39
0.0022663353 -0.098941371 0.017337225 1.9357411e-39
0.0041968562 -0.098941371 0.017337225 2.6725831e-39
0.0060616359 -0.098059073 0.021284007 2.3959962e-39
0.007985238 -0.098059073 0.021284007 2.5800217e-39
0.0099088382 -0.098059073 0.021284007 3.2246694e-39
0.011832438 -0.098059073 0.021284007 3.2246666e-39
0.01384946 -0.098941371 0.017337225 2.67149e-39
0.01577998 -0.098941371 0.017337225 2.3023446e-39
0.017818538 -0.099830076 0.013361834 2.0272024e-39
0.019756028 -0.099830076 0.013361834 9.2230522e-40
0.021693518 -0.099830076 0.013361834 1.4758461e-39
0.023729319 -0.1005076 0.010331057 9.2267516e-40
0.025672125 -0.1005076 0.010331057 2.3045376e-39
0.027614927 -0.1005076 0.010331057 2.7623516e-40
0.029709512 -0.10140768 0.0063047633 3.6874735e-39
0.031659372 -0.10140768 0.0063047633 4.1477328e-39
-0.028950436 -0.10583721 -0.0047011152 1.7509981e-39
-0.026928911 -0.10494001 -0.00071892887 9.2124024e-40
-0.024920268 -0.10402142 0.003358148 5.5245772e-40
-0.022965236 -0.10402142 0.003358148 1.1971041e-39
-0.020986957 -0.10335754 0.0063047633 8.2760267e-40
-0.019012386 -0.1024504 0.010331057 8.2759987e-40
-0.01706958 -0.1024504 0.010331057 1.0119911e-39
-0.015118806 -0.10176755 0.013361834 1.5644418e-39
-0.013177829 -0.10087189 0.017337225 2.2108888e-39
-0.011247309 -0.10087189 0.017337225 1.2907248e-39
-0.009316789 -0.10087189 0.017337225 6.4679453e-40
-0.0073862672 -0.10087189 0.017337225 1.199248e-39
-0.0054557472 -0.10087189 0.017337225 1.6598731e-39
-0.0035252264 -0.10087189 0.017337225 1.6598745e-39
-0.0015947055 -0.10087189 0.017337225 1.9361054e-39
0.00033581536 -0.10087189 0.017337225 2.3963675e-39
0.0022663353 -0.10087189 0.017337225 2.0275878e-39
0.0041968562 -0.10087189 0.017337225 2.3041747e-39
0.0060616359 -0.099982664 0.021284007 2.6722341e-39
0.007985238 -0.099982664 0.021284007 1.6580794e-39
0.0099088382 -0.099982664 0.021284007 1.5655208e-39
0.011832438 -0.099982664 0.021284007 2.9484511e-39
0.01384946 -0.10087189 0.017337225 2.948807e-39
0.01577998 -0.10087189 0.017337225 1.8424566e-39
0.017818538 -0.10176755 0.013361834 1.9346551e-39
0.019756028 -0.10176755 0.013361834 2.2108888e-39
0.021693518 -0.10176755 0.013361834 1.0123471e-39
0.023631012 -0.10176755 0.013361834 1.8417518e-39
0.025568502 -0.10176755 0.013361834 1.9346663e-39
0.027505992 -0.10176755 0.013361834 5.5245491e-40
0.029557733 -0.1024504 0.010331057 3.5956324e-39
0.031500541 -0.1024504 0.010331057 3.2268498e-39
-0.028995229 -0.10848872 -0.0077063814 1.5666068e-39
-0.026928911 -0.1069022 -0.00071892887 7.3684617e-40
-0.024966734 -0.1069022 -0.00071892887 7.3684617e-40
-0.022965236 -0.10597645 0.003358148 6.4393028e-40
-0.020986957 -0.10530742 0.0063047633 7.3540704e-40
-0.019037094 -0.10530742 0.0063047633 6.4284987e-40
-0.01706958 -0.1043932 0.010331057 1.4718931e-39
-0.015118806 -0.10370506 0.013361834 1.1023917e-39
-0.013177829 -0.10280241 0.017337225 1.1956593e-39
-0.011247309 -0.10280241 0.017337225 1.8438986e-39
-0.009316789 -0.10280241 0.017337225 1.1992452e-39
-0.0073862672 -0.10280241 0.017337225 1.475479e-39
-0.0054557472 -0.10280241 0.017337225 1.93646e-39
-0.0035252264 -0.10280241 0.017337225 1.6595185e-39
-0.0015947055 -0.10280241 0.017337225 1.4751301e-39
0.00033581536 -0.10280241 0.017337225 1.8431993e-39
0.0022663353 -0.10280241 0.017337225 1.842842e-39
0.0041968562 -0.10280241 0.017337225 1.5662551e-39
0.0061273761 -0.10280241 0.017337225 2.3963731e-39
0.0080578979 -0.10280241 0.017337225 2.7640738e-39
0.0099884178 -0.10280241 0.017337225 2.4878429e-39
0.011918938 -0.10280241 0.017337225 2.1190576e-39
0.01384946 -0.10280241 0.017337225 1.381847e-39
0.01577998 -0.10280241 0.017337225 1.2896514e-39
0.017818538 -0.10370506 0.013361834 2.1186904e-39
0.019756028 -0.10370506 0.013361834 1.2878535e-39
0.021693518 -0.10370506 0.013361834 9.1835496e-40
0.023631012 -0.10370506 0.013361834 1.1956593e-39
0.025568502 -0.10370506 0.013361834 1.6577165e-39
0.027505992 -0.10370506 0.013361834 2.2112532e-39
0.029557733 -0.1043932 0.010331057 4.7016142e-39
0.031500541 -0.1043932 0.010331057 5.4395422e-39
-0.028950436 -0.10977553 -0.0047011152 1.5673257e-39
-0.026981277 -0.10977553 -0.0047011152 0
-0.024966734 -0.10886435 -0.00071892887 4.6025928e-40
-0.023004552 -0.10886435 -0.00071892887 2.7550649e-40
-0.021010207 -0.10793148 0.003358148 1.0127128e-39
-0.019037094 -0.10725726 0.0063047633 3.6734198e-40
-0.01706958 -0.10633601 0.010331057 1.2885808e-39
-0.015118806 -0.10564254 0.013361834 6.4284987e-40
-0.013181314 -0.10564254 0.013361834 8.279558e-40
-0.011243824 -0.10564254 0.013361834 1.2907248e-39
-0.009316789 -0.10473295 0.017337225 6.4607706e-40
-0.0073862672 -0.10473295 0.017337225 7.3827129e-40
-0.0054557472 -0.10473295 0.017337225 1.3832834e-39
-0.0035252264 -0.10473295 0.017337225 1.4754832e-39
-0.0015563695 -0.10564254 0.013361834 1.0141491e-39
0.00038112141 -0.10564254 0.013361834 1.474414e-39
0.0023186123 -0.10564254 0.013361834 2.3041775e-39
0.0042561032 -0.10564254 0.013361834 2.9495469e-39
0.0061273761 -0.10473295 0.017337225 2.0275906e-39
0.0080578979 -0.10473295 0.017337225 2.1187044e-39
0.0099884178 -0.10473295 0.017337225 2.6722341e-39
0.011918938 -0.10473295 0.017337225 2.4878401e-39
0.01384946 -0.10473295 0.017337225 2.0272164e-39
0.01577998 -0.10473295 0.017337225 1.5662383e-39
0.017818538 -0.10564254 0.013361834 1.1045385e-39
0.019756028 -0.10564254 0.013361834 1.5637216e-39
0.021693518 -0.10564254 0.013361834 1.194939e-39
0.023631012 -0.10564254 0.013361834 1.1956579e-39
0.025568502 -0.10564254 0.013361834 2.8562583e-39
0.027505992 -0.10564254 0.013361834 4.6083368e-39
0.029557733 -0.10633601 0.010331057 3.5952638e-39
0.031500541 -0.10633601 0.010331057 4.7019743e-39
-0.028950436 -0.11174469 -0.0047011152 1.9361082e-39
-0.026981277 -0.11174469 -0.0047011152 4.6097815e-40
-0.024966734 -0.11082654 -0.00071892887 1.2907388e-39
-0.022965236 -0.10988651 0.003358148 5.5245491e-40
-0.020986957 -0.10920714 0.0063047633 3.7785817e-39
-0.019012386 -0.10827883 0.010331057 2.0268647e-39
-0.017056296 -0.10758002 0.013361834 2.487124e-39
-0.015118806 -0.10758002 0.013361834 1.6562843e-39
-0.013177829 -0.10666345 0.017337225 2.3952815e-39
-0.011247309 -0.10666345 0.017337225 1.6595045e-39
-0.009316789 -0.10666345 0.017337225 5.5388284e-40
-0.0073862672 -0.10666345 0.017337225 7.1746481e-43
-0.0054313513 -0.10758002 0.013361834 3.6949438e-40
-0.0034938604 -0.10758002 0.013361834 8.3011239e-40
-0.0015563695 -0.10758002 0.013361834 2.7694142e-40
0.00038112141 -0.10758002 0.013361834 3.6806365e-40
0.0023186123 -0.10758002 0.013361834 1.474414e-39
0.0042561032 -0.10758002 0.013361834 1.5666096e-39
0.0061273761 -0.10666345 0.017337225 7.3684898e-40
0.0080578979 -0.10666345 0.017337225 1.3811394e-39
0.0099884178 -0.10666345 0.017337225 1.3814953e-39
0.011918938 -0.10666345 0.017337225 5.5173184e-40
0.01384946 -0.10666345 0.017337225 2.7644242e-39
0.01577998 -0.10666345 0.017337225 7.2823674e-39
0.017710499 -0.10666345 0.017337225 1.0231906e-38
0.019756028 -0.10758002 0.013361834 9.1237632e-39
0.021693518 -0.10758002 0.013361834 9.39999e-39
0.023631012 -0.10758002 0.013361834 9.9535239e-39
0.025568502 -0.10758002 0.013361834 1.2166938e-38
0.027505992 -0.10758002 0.013361834 1.2444605e-38
0.029443482 -0.10758002 0.013361834 5.9912712e-39
-0.026981277 -0.11371385 -0.0047011152 8.3047953e-40
-0.024966734 -0.11278872 -0.00071892887 1.1063476e-39
-0.022965236 -0.11184154 0.003358148 7.3756504e-40
-0.020986957 -0.11115701 0.0063047633 6.7295621e-39
-0.019012386 -0.11022164 0.010331057 6.9132331e-39
-0.017056296 -0.10951753 0.013361834 6.452255e-39
-0.015118806 -0.10951753 0.013361834 4.8842104e-39
-0.013177829 -0.10859399 0.017337225 5.2537062e-39
-0.011247309 -0.10859399 0.017337225 4.9785472e-39
-0.009316789 -0.10859399 0.017337225 3.873273e-39
-0.0073862672 -0.10859399 0.017337225 2.4899827e-39
-0.0054313513 -0.10951753 0.013361834 2.5821797e-39
-0.0034938604 -0.10951753 0.013361834 3.4115872e-39
-0.0015563695 -0.10951753 0.013361834 2.7662206e-39
0.00038112141 -0.10951753 0.013361834 2.3045278e-39
0.0023186123 -0.10951753 0.013361834 3.2261282e-39
0.0042561032 -0.10951753 0.013361834 3.8714976e-39
0.0061273761 -0.10859399 0.017337225 3.5027151e-39
0.007985238 -0.10767709 0.021284007 4.9771249e-39
0.0099088382 -0.10767709 0.021284007 5.8990812e-39
0.011918938 -0.10859399 0.017337225 5.8068827e-39
0.01384946 -0.10859399 0.017337225 7.0976188e-39
0.01577998 -0.10859399 0.017337225 9.0340843e-39
0.017710499 -0.10859399 0.017337225 9.5865392e-39
0.019756028 -0.10951753 0.013361834 1.0229748e-38
0.021693518 -0.10951753 0.013361834 1.2258052e-38
0.023631012 -0.10951753 0.013361834 1.3088531e-38
0.025568502 -0.10951753 0.013361834 1.3458033e-38
0.027505992 -0.10951753 0.013361834 1.2260212e-38
0.029443482 -0.10951753 0.013361834 5.9912712e-39
0.031659372 -0.11115701 0.0063047633 5.254788e-39
0.033609241 -0.11115701 0.0063047633 5.531735e-39
-0.032888763 -0.115683 -0.0047011152 8.9444152e-39
-0.028950436 -0.115683 -0.0047011152 2.3063299e-39
-0.026981277 -0.115683 -0.0047011152 7.3828391e-40
-0.024966734 -0.11475091 -0.00071892887 5.5389265e-40
-0.023004552 -0.11475091 -0.00071892887 8.2976067e-40
-0.020986957 -0.11310686 0.0063047633 8.9429761e-39
-0.019012386 -0.11216442 0.010331057 1.2169104e-38
-0.017056296 -0.11145501 0.013361834 1.2444971e-38
-0.015118806 -0.11145501 0.013361834 1.1614491e-38
-0.013177829 -0.11052449 0.017337225 1.0969835e-38
-0.011247309 -0.11052449 0.017337225 1.2262359e-38
-0.009316789 -0.11052449 0.017337225 1.2263073e-38
-0.0073862672 -0.11052449 0.017337225 1.1433315e-38
-0.0054313513 -0.11145501 0.013361834 1.1801741e-38
-0.0034938604 -0.11145501 0.013361834 1.3645658e-38
-0.0015563695 -0.11145501 0.013361834 1.3829693e-38
0.00038112141 -0.11145501 0.013361834 1.3368001e-38
0.0023186123 -0.11145501 0.013361834 1.4382155e-38
0.0042561032 -0.11145501 0.013361834 1.3368003e-38
0.0061273761 -0.11052449 0.017337225 1.0509583e-38
0.007985238 -0.10960068 0.021284007 8.2961676e-39
0.0099088382 -0.10960068 0.021284007 8.5727516e-39
0.011918938 -0.11052449 0.017337225 1.1246422e-38
0.01384946 -0.11052449 0.017337225 1.4565465e-38
0.01577998 -0.11052449 0.017337225 1.5303387e-38
0.017710499 -0.11052449 0.017337225 1.3919734e-38
0.019756028 -0.11145501 0.013361834 1.1704878e-38
0.021693518 -0.11145501 0.013361834 1.3825377e-38
0.023631012 -0.11145501 0.013361834 1.2443162e-38
0.025672125 -0.11216442 0.010331057 8.2943585e-39
0.027614927 -0.11216442 0.010331057 6.2664176e-39
0.029709512 -0.11310686 0.0063047633 5.7150416e-39
0.031659372 -0.11310686 0.0063047633 7.0065049e-39
-0.032888763 -0.11765216 -0.0047011152 8.8522196e-39
-0.030919602 -0.11765216 -0.0047011152 7.3770895e-39
-0.028950436 -0.11765216 -0.0047011152 2.8602225e-39
-0.026928911 -0.11671309 -0.00071892887 1.1077867e-39
-0.024966734 -0.11671309 -0.00071892887 1.292178e-39
-0.022965236 -0.11575161 0.003358148 1.2914577e-39
-0.020986957 -0.11505674 0.0063047633 7.0990635e-39
-0.019012386 -0.11410724 0.010331057 1.0509583e-38
-0.017056296 -0.11339252 0.013361834 1.0693974e-38
-0.015118806 -0.11339252 0.013361834 1.1891797e-38
-0.013177829 -0.11245503 0.017337225 1.1246422e-38
-0.011247309 -0.11245503 0.017337225 9.6808817e-39
-0.009316789 -0.11245503 0.017337225 1.1433312e-38
-0.0073862672 -0.11245503 0.017337225 1.152551e-38
-0.0054313513 -0.11339252 0.013361834 1.1893937e-38
-0.0034938604 -0.11339252 0.013361834 1.4106633e-38
-0.0015563695 -0.11339252 0.013361834 1.4567614e-38
0.00038112141 -0.11339252 0.013361834 1.4105564e-38
0.0023186123 -0.11339252 0.013361834 1.5027522e-38
0.0042561032 -0.11339252 0.013361834 1.4935329e-38
0.0061273761 -0.11245503 0.017337225 1.4474351e-38
0.0080578979 -0.11245503 0.017337225 1.2352772e-38
0.0099884178 -0.11245503 0.017337225 1.0047882e-38
0.011918938 -0.11245503 0.017337225 1.0324466e-38
0.01384946 -0.11245503 0.017337225 1.1523009e-38
0.01577998 -0.11245503 0.017337225 1.1338618e-38
0.017710499 -0.11245503 0.017337225 1.0508496e-38
0.019756028 -0.11339252 0.013361834 1.0875836e-38
0.021693518 -0.11339252 0.013361834 1.1336093e-38
0.023631012 -0.11339252 0.013361834 8.7553366e-39
0.025672125 -0.11410724 0.010331057 3.5923814e-39
0.027614927 -0.11410724 0.010331057 1.5644404e-39
0.029709512 -0.11505674 0.0063047633 5.7143228e-39
0.031659372 -0.11505674 0.0063047633 7.2820128e-39
0.033898637 -0.11671309 -0.00071892887 6.2693e-39
-0.032815449 -0.11867525 -0.00071892887 8.2068502e-39
-0.03085327 -0.11867525 -0.00071892887 7.1012215e-39
-0.028891092 -0.11867525 -0.00071892887 3.5977876e-39
-0.026928911 -0.11867525 -0.00071892887 5.5461291e-40
-0.024966734 -0.11867525 -0.00071892887 1.1999823e-39
-0.022965236 -0.11770664 0.003358148 3.5873241e-43
-0.020986957 -0.11700659 0.0063047633 8.3047953e-40
-0.019012386 -0.11605005 0.010331057 1.4744112e-39
-0.017056296 -0.11533 0.013361834 5.5245491e-40
-0.015118806 -0.11533 0.013361834 3.3176035e-39
-0.013181314 -0.11533 0.013361834 2.8576988e-39
-0.011243824 -0.11533 0.013361834 3.7803613e-39
-0.009316789 -0.11438553 0.017337225 6.4547479e-39
-0.0073862672 -0.11438553 0.017337225 6.7313376e-39
-0.0054313513 -0.11533 0.013361834 6.3621991e-39
-0.0034938604 -0.11533 0.013361834 7.5607437e-39
-0.0015563695 -0.11533 0.013361834 7.191964e-39
0.00038112141 -0.11533 0.013361834 6.177096e-39
0.0023186123 -0.11533 0.013361834 6.7299138e-39
0.0042561032 -0.11533 0.013361834 7.0986978e-39
0.0061273761 -0.11438553 0.017337225 7.0987006e-39
0.0080578979 -0.11438553 0.017337225 4.1473614e-39
0.0099884178 -0.11438553 0.017337225 1.01271e-39
0.011918938 -0.11438553 0.017337225 1.6580766e-39
0.01384946 -0.11438553 0.017337225 3.041011e-39
0.01577998 -0.11438553 0.017337225 2.4878373e-39
0.017710499 -0.11438553 0.017337225 1.6577151e-39
0.019756028 -0.11533 0.013361834 1.5640775e-39
0.021693518 -0.11533 0.013361834 1.2874906e-39
0.023631012 -0.11533 0.013361834 1.7484688e-39
0.025672125 -0.11605005 0.010331057 1.1038196e-39
0.027759647 -0.11700659 0.0063047633 1.4722448e-39
0.029820589 -0.11770664 0.003358148 7.3738455e-39
0.031936459 -0.11867525 -0.00071892887 7.742991e-39
0.033898637 -0.11867525 -0.00071892887 6.8221137e-39
-0.032815449 -0.12063743 -0.00071892887 9.0366109e-39
-0.03085327 -0.12063743 -0.00071892887 7.7465909e-39
-0.028891092 -0.12063743 -0.00071892887 4.6119395e-39
-0.026928911 -0.12063743 -0.00071892887 1.8453517e-39
-0.024966734 -0.12063743 -0.00071892887 3.5873241e-43
-0.022965236 -0.11966167 0.003358148 9.2914496e-41
-0.020986957 -0.11895646 0.0063047633 2.7730576e-40
-0.019012386 -0.11799283 0.010331057 9.1835496e-41
-0.01706958 -0.11799283 0.010331057 9.1835496e-41
-0.015126776 -0.11799283 0.010331057 3.6734339e-40
-0.013181314 -0.11726747 0.013361834 3.6841818e-40
-0.011243824 -0.11726747 0.013361834 8.3010679e-40
-0.0093063321 -0.11726747 0.013361834 1.1074069e-39
-0.0073688421 -0.11726747 0.013361834 1.5683823e-39
-0.0054313513 -0.11726747 0.013361834 1.9368089e-39
-0.0034938604 -0.11726747 0.013361834 2.3055928e-39
-0.0015563695 -0.11726747 0.013361834 2.4899869e-39
0.00038112141 -0.11726747 0.013361834 2.8580533e-39
0.0023186123 -0.11726747 0.013361834 3.0420886e-39
0.0042561032 -0.11726747 0.013361834 2.5811119e-39
0.0061273761 -0.11631607 0.017337225 2.304525e-39
0.0080578979 -0.11631607 0.017337225 2.0268591e-39
0.0099884178 -0.11631607 0.017337225 1.6580766e-39
0.011918938 -0.11631607 0.017337225 1.3814897e-39
0.01384946 -0.11631607 0.017337225 1.1970984e-39
0.01577998 -0.11631607 0.017337225 9.2051156e-40
0.017818538 -0.11726747 0.013361834 8.279544e-40
0.019756028 -0.11726747 0.013361834 1.1960138e-39
0.021693518 -0.11726747 0.013361834 1.0109079e-39
0.023729319 -0.11799283 0.010331057 1.0109079e-39
0.025672125 -0.11799283 0.010331057 5.5101298e-40
0.027759647 -0.11895646 0.0063047633 3.2239618e-39
0.029820589 -0.11966167 0.003358148 7.3738455e-39
0.031936459 -0.12063743 -0.00071892887 8.1117735e-39
-0.03085327 -0.12259962 -0.00071892887 7.745872e-39
-0.028891092 -0.12259962 -0.00071892887 4.3353526e-39
-0.026928911 -0.12259962 -0.00071892887 2.4907211e-39
-0.024920268 -0.12161671 0.003358148 7.1886611e-43
-0.022936823 -0.12090631 0.0063047633 3.6950139e-40
-0.020986957 -0.12090631 0.0063047633 6.4536941e-40
-0.019012386 -0.11993565 0.010331057 9.1835496e-41
-0.01706958 -0.11993565 0.010331057 4.6025928e-40
-0.015118806 -0.11920498 0.013361834 7.3612591e-40
-0.013181314 -0.11920498 0.013361834 9.2051156e-40
-0.011247309 -0.11824657 0.017337225 1.3829176e-39
-0.009316789 -0.11824657 0.017337225 1.383991e-39
-0.0073862672 -0.11824657 0.017337225 1.4758307e-39
-0.0054313513 -0.11920498 0.013361834 1.3836365e-39
-0.0034938604 -0.11920498 0.013361834 1.2914409e-39
-0.0015947055 -0.11824657 0.017337225 1.1070524e-39
0.00033581536 -0.11824657 0.017337225 1.198532e-39
0.0023186123 -0.11920498 0.013361834 1.2903717e-39
0.0042561032 -0.11920498 0.013361834 1.2903717e-39
0.0061273761 -0.11824657 0.017337225 1.1981774e-39
0.0080578979 -0.11824657 0.017337225 1.2892941e-39
0.0099884178 -0.11824657 0.017337225 1.2892941e-39
0.011918938 -0.11824657 0.017337225 1.4736853e-39
0.01384946 -0.11824657 0.017337225 1.565881e-39
0.01577998 -0.11824657 0.017337225 1.4736853e-39
0.017818538 -0.11920498 0.013361834 1.5655194e-39
0.019756028 -0.11920498 0.013361834 1.1956579e-39
0.021693518 -0.11920498 0.013361834 1.0116254e-39
0.023729319 -0.11993565 0.010331057 1.1034623e-39
0.025672125 -0.11993565 0.010331057 6.4356594e-40
0.027759647 -0.12090631 0.0063047633 3.5016291e-39
0.029820589 -0.12161671 0.003358148 7.9270193e-39
0.031775616 -0.12161671 0.003358148 8.6649473e-39
-0.03085327 -0.1245618 -0.00071892887 8.4834371e-39
-0.028891092 -0.1245618 -0.00071892887 5.6253726e-39
-0.026928911 -0.1245618 -0.00071892887 3.5041528e-39
-0.024920268 -0.12357174 0.003358148 4.6169702e-40
-0.022936823 -0.12285618 0.0063047633 5.5317378e-40
-0.020986957 -0.12285618 0.0063047633 6.4536941e-40
-0.019012386 -0.12187846 0.010331057 1.8367239e-40
-0.01706958 -0.12187846 0.010331057 8.2832154e-40
-0.015118806 -0.12114246 0.013361834 1.0119939e-39
-0.013181314 -0.12114246 0.013361834 1.1970984e-39
-0.011247309 -0.12017711 0.017337225 1.1063363e-39
-0.009316789 -0.12017711 0.017337225 1.1070496e-39
-0.0073862672 -0.12017711 0.017337225 1.199248e-39
-0.0054557472 -0.12017711 0.017337225 1.1070524e-39
-0.0035252264 -0.12017711 0.017337225 1.0148568e-39
-0.0015947055 -0.12017711 0.017337225 9.2230522e-40
0.00033581536 -0.12017711 0.017337225 1.198532e-39
0.0023186123 -0.12114246 0.013361834 1.2903717e-39
0.0042561032 -0.12114246 0.013361834 1.3825673e-39
0.0061273761 -0.12017711 0.017337225 1.2903717e-39
0.0080578979 -0.12017711 0.017337225 1.381847e-39
0.0099884178 -0.12017711 0.017337225 1.381847e-39
0.011918938 -0.12017711 0.017337225 1.4740427e-39
0.01384946 -0.12017711 0.017337225 1.4740427e-39
0.015881047 -0.12114246 0.013361834 1.2896514e-39
0.017818538 -0.12114246 0.013361834 1.1052602e-39
0.019756028 -0.12114246 0.013361834 1.1045413e-39
0.021693518 -0.12114246 0.013361834 8.279544e-40
0.023729319 -0.12187846 0.010331057 1.1045427e-39
0.025672125 -0.12187846 0.010331057 1.0123471e-39
0.027759647 -0.12285618 0.0063047633 4.0548028e-39
0.029820589 -0.12357174 0.003358148 8.4798371e-39
0.031775616 -0.12357174 0.003358148 9.4017962e-39
-0.03085327 -0.12652399 -0.00071892887 9.7734556e-39
-0.028891092 -0.12652399 -0.00071892887 7.4685649e-39
-0.026928911 -0.12652399 -0.00071892887 4.2417178e-39
-0.024966734 -0.12652399 -0.00071892887 8.2976067e-40
-0.022965236 -0.12552677 0.003358148 3.6878252e-40
-0.020986957 -0.12480606 0.0063047633 5.5245491e-40
-0.019037094 -0.12480606 0.0063047633 2.7550649e-40
-0.01706958 -0.12382124 0.010331057 6.4393028e-40
-0.015126776 -0.12382124 0.010331057 8.2760267e-40
-0.013181314 -0.12307997 0.013361834 9.2051436e-40
-0.011243824 -0.12307997 0.013361834 6.4500227e-40
-0.009316789 -0.12210761 0.017337225 6.4571833e-40
-0.0073862672 -0.12210761 0.017337225 8.3011239e-40
-0.0054557472 -0.12210761 0.017337225 9.2230802e-40
-0.0035252264 -0.12210761 0.017337225 1.0145037e-39
-0.0015947055 -0.12210761 0.017337225 1.2910905e-39
0.00033581536 -0.12210761 0.017337225 1.7513498e-39
0.0023186123 -0.12307997 0.013361834 1.9357411e-39
0.0042561032 -0.12307997 0.013361834 2.0279367e-39
0.0061273761 -0.12210761 0.017337225 1.9357411e-39
0.0080578979 -0.12210761 0.017337225 1.9350208e-39
0.0099884178 -0.12210761 0.017337225 1.8428252e-39
0.011918938 -0.12210761 0.017337225 1.6584339e-39
0.01384946 -0.12210761 0.017337225 1.381847e-39
0.015881047 -0.12307997 0.013361834 1.1052602e-39
0.017818538 -0.12307997 0.013361834 8.2867326e-40
0.019756028 -0.12307997 0.013361834 1.0137862e-39
0.021693518 -0.12307997 0.013361834 7.371993e-40
0.023729319 -0.12382124 0.010331057 1.013789e-39
0.025672125 -0.12382124 0.010331057 1.3814925e-39
0.027614927 -0.12382124 0.010331057 4.4239483e-39
0.029557733 -0.12382124 0.010331057 8.756424e-39
-0.03085327 -0.12848614 -0.00071892887 1.0418106e-38
-0.028891092 -0.12848614 -0.00071892887 7.7444329e-39
-0.02683655 -0.12675591 0.0063047633 5.1629553e-39
-0.024886688 -0.12675591 0.0063047633 1.1063476e-39
-0.022936823 -0.12675591 0.0063047633 3.6806365e-40
-0.020986957 -0.12675591 0.0063047633 6.4393028e-40
-0.019037094 -0.12675591 0.0063047633 2.7550649e-40
-0.01706958 -0.12576406 0.010331057 6.4321141e-40
-0.015126776 -0.12576406 0.010331057 7.3468677e-40
-0.013181314 -0.12501745 0.013361834 7.3540704e-40
-0.011243824 -0.12501745 0.013361834 5.5281084e-40
-0.009316789 -0.12403814 0.017337225 5.5317098e-40
-0.0073862672 -0.12403814 0.017337225 6.4572254e-40
-0.0054557472 -0.12403814 0.017337225 6.4572254e-40
-0.0035252264 -0.12403814 0.017337225 7.3791817e-40
-0.0015947055 -0.12403814 0.017337225 8.301138e-40
0.00033581536 -0.12403814 0.017337225 1.1981774e-39
0.0022663353 -0.12403814 0.017337225 1.4747643e-39
0.0041968562 -0.12403814 0.017337225 1.6591556e-39
0.0061273761 -0.12403814 0.017337225 1.56696e-39
0.0080578979 -0.12403814 0.017337225 1.7506296e-39
0.010068575 -0.12501745 0.013361834 1.8428252e-39
0.012006067 -0.12501745 0.013361834 1.8428252e-39
0.013943557 -0.12501745 0.013361834 1.7506296e-39
0.015881047 -0.12501745 0.013361834 1.5662383e-39
0.017818538 -0.12501745 0.013361834 1.1059818e-39
0.019756028 -0.12501745 0.013361834 1.1063448e-39
0.021693518 -0.12501745 0.013361834 7.3756224e-40
0.023729319 -0.12576406 0.010331057 1.1985432e-39
0.025672125 -0.12576406 0.010331057 1.5666068e-39
0.027614927 -0.12576406 0.010331057 4.700538e-39
0.029557733 -0.12576406 0.010331057 8.5727544e-39
-0.028786415 -0.12870578 0.0063047633 7.2834548e-39
-0.02683655 -0.12870578 0.0063047633 5.7161291e-39
-0.024886688 -0.12870578 0.0063047633 1.4744112e-39
-0.022936823 -0.12870578 0.0063047633 5.5173465e-40
-0.020986957 -0.12870578 0.0063047633 8.2832154e-40
-0.019012386 -0.12770687 0.010331057 6.4321141e-40
-0.01706958 -0.12770687 0.010331057 9.197983e-40
-0.015126776 -0.12770687 0.010331057 9.187193e-40
-0.013181314 -0.12695493 0.013361834 8.2760267e-40
-0.011243824 -0.12695493 0.013361834 5.5245772e-40
-0.009316789 -0.12596865 0.017337225 5.5317378e-40
-0.0073862672 -0.12596865 0.017337225 7.3756504e-40
-0.0054557472 -0.12596865 0.017337225 7.3756504e-40
-0.0035252264 -0.12596865 0.017337225 8.2975787e-40
-0.0015947055 -0.12596865 0.017337225 9.219535e-40
0.00033581536 -0.12596865 0.017337225 1.1981803e-39
0.0022663353 -0.12596865 0.017337225 1.3825687e-39
0.0041968562 -0.12596865 0.017337225 1.4747643e-39
0.0061273761 -0.12596865 0.017337225 1.3825687e-39
0.0080578979 -0.12596865 0.017337225 1.4740427e-39
0.010068575 -0.12695493 0.013361834 1.4740427e-39
0.012006067 -0.12695493 0.013361834 1.5662383e-39
0.013943557 -0.12695493 0.013361834 1.5662383e-39
0.015881047 -0.12695493 0.013361834 1.4740427e-39
0.017818538 -0.12695493 0.013361834 1.1059818e-39
0.019756028 -0.12695493 0.013361834 1.1070664e-39
0.021693518 -0.12695493 0.013361834 7.3828391e-40
0.023729319 -0.12770687 0.010331057 1.2911018e-39
0.025672125 -0.12770687 0.010331057 1.8439126e-39
0.027614927 -0.12770687 0.010331057 4.7012583e-39
0.029557733 -0.12770687 0.010331057 8.3883632e-39
-0.028786415 -0.13065563 0.0063047633 7.743714e-39
-0.02683655 -0.13065563 0.0063047633 5.9919971e-39
-0.024886688 -0.13065563 0.0063047633 1.3822156e-39
-0.022936823 -0.13065563 0.0063047633 3.6734339e-40
-0.020986957 -0.13065563 0.0063047633 9.197983e-40
-0.019012386 -0.12964968 0.010331057 1.1031106e-39
-0.01706958 -0.12964968 0.010331057 1.4718931e-39
-0.015126776 -0.12964968 0.010331057 1.1945873e-39
-0.013181314 -0.12889244 0.013361834 1.195309e-39
-0.011243824 -0.12889244 0.013361834 5.5246052e-40
-0.0093063321 -0.12889244 0.013361834 7.3721191e-40
-0.0073688421 -0.12889244 0.013361834 9.2160317e-40
-0.0054313513 -0.12889244 0.013361834 1.1063504e-39
-0.0035252264 -0.12789918 0.017337225 1.1985432e-39
-0.0015947055 -0.12789918 0.017337225 1.290736e-39
0.00033581536 -0.12789918 0.017337225 1.5669628e-39
0.0023186123 -0.12889244 0.013361834 1.6591584e-39
0.0042561032 -0.12889244 0.013361834 1.56696e-39
0.0061273761 -0.12789918 0.017337225 1.3825687e-39
0.0080578979 -0.12789918 0.017337225 1.381847e-39
0.010068575 -0.12889244 0.013361834 1.2896514e-39
0.012006067 -0.12889244 0.013361834 1.2896514e-39
0.013943557 -0.12889244 0.013361834 1.2896514e-39
0.015881047 -0.12889244 0.013361834 1.1052602e-39
0.017818538 -0.12889244 0.013361834 8.2939493e-40
0.019756028 -0.12889244 0.013361834 1.1070664e-39
0.021693518 -0.12889244 0.013361834 5.5461572e-40
0.023729319 -0.12964968 0.010331057 1.1999879e-39
0.025672125 -0.12964968 0.010331057 2.0286668e-39
0.027614927 -0.12964968 0.010331057 4.8856523e-39
0.029557733 -0.12964968 0.010331057 8.2958116e-39
-0.028786415 -0.13260551 0.0063047633 8.2972438e-39
-0.02683655 -0.13260551 0.0063047633 5.8079617e-39
-0.024886688 -0.13260551 0.0063047633 1.1059846e-39
-0.022936823 -0.13260551 0.0063047633 2.7550649e-40
-0.020986957 -0.13260551 0.0063047633 7.361231e-40
-0.019012386 -0.13159247 0.010331057 1.0119911e-39
-0.01706958 -0.13159247 0.010331057 1.3807764e-39
-0.015126776 -0.13159247 0.010331057 1.2875018e-39
-0.013181314 -0.13082992 0.013361834 1.1041896e-39
-0.011243824 -0.13082992 0.013361834 9.2160317e-40
-0.0093063321 -0.13082992 0.013361834 9.2232204e-40
-0.0073688421 -0.13082992 0.013361834 1.198546e-39
-0.0054313513 -0.13082992 0.013361834 1.1985432e-39
-0.0035252264 -0.12982969 0.017337225 1.0141491e-39
-0.0015947055 -0.12982969 0.017337225 1.013789e-39
0.00033581536 -0.12982969 0.017337225 9.2159056e-40
0.0023186123 -0.13082992 0.013361834 1.0137862e-39
0.0042561032 -0.13082992 0.013361834 1.3814925e-39
0.0061273761 -0.12982969 0.017337225 1.2892969e-39
0.0080578979 -0.12982969 0.017337225 1.1049056e-39
0.010068575 -0.13082992 0.013361834 1.1049028e-39
0.012006067 -0.13082992 0.013361834 1.2892941e-39
0.013943557 -0.13082992 0.013361834 1.4736853e-39
0.015958101 -0.13159247 0.010331057 1.4740427e-39
0.017900905 -0.13159247 0.010331057 1.2903731e-39
0.019756028 -0.13082992 0.013361834 1.0148708e-39
0.021693518 -0.13082992 0.013361834 4.6242009e-40
0.023631012 -0.13082992 0.013361834 1.2921808e-39
0.025568502 -0.13082992 0.013361834 2.2130581e-39
0.027505992 -0.13082992 0.013361834 4.9785668e-39
0.029443482 -0.13082992 0.013361834 8.1124966e-39
-0.02683655 -0.13455538 0.0063047633 5.8086764e-39
-0.024886688 -0.13455538 0.0063047633 4.6132988e-40
-0.022936823 -0.13455538 0.0063047633 9.1835496e-41
-0.020986957 -0.13455538 0.0063047633 9.2159056e-40
-0.019012386 -0.13353528 0.010331057 4.6061241e-40
-0.01706958 -0.13353528 0.010331057 5.5281084e-40
-0.015126776 -0.13353528 0.010331057 5.5281084e-40
-0.013181314 -0.13276742 0.013361834 6.4536941e-40
-0.011243824 -0.13276742 0.013361834 8.3012361e-40
-0.0093063321 -0.13276742 0.013361834 6.4681135e-40
-0.0073688421 -0.13276742 0.013361834 9.2267516e-40
-0.0054313513 -0.13276742 0.013361834 1.1067007e-39
-0.0034938604 -0.13276742 0.013361834 1.1988949e-39
-0.0015563695 -0.13276742 0.013361834 1.4751189e-39
0.00038112141 -0.13276742 0.013361834 1.7506296e-39
0.0023186123 -0.13276742 0.013361834 1.8424679e-39
0.0042561032 -0.13276742 0.013361834 1.4729693e-39
0.0061273761 -0.13176022 0.017337225 1.473335e-39
0.0080578979 -0.13176022 0.017337225 1.473335e-39
0.010068575 -0.13276742 0.013361834 1.3811394e-39
0.012006067 -0.13276742 0.013361834 9.2123743e-40
0.013943557 -0.13276742 0.013361834 8.2939773e-40
0.015958101 -0.13353528 0.010331057 8.2939493e-40
0.017900905 -0.13353528 0.010331057 8.301138e-40
0.019756028 -0.13276742 0.013361834 1.6595213e-39
0.021693518 -0.13276742 0.013361834 7.1886611e-43
0.023631012 -0.13276742 0.013361834 1.0148708e-39
0.025432581 -0.13176022 0.017337225 3.042453e-39
0.027363105 -0.13176022 0.017337225 4.9785612e-39
0.029293625 -0.13176022 0.017337225 8.3901554e-39
-0.02683655 -0.13650523 0.0063047633 6.8228255e-39
-0.024886688 -0.13650523 0.0063047633 1.2910877e-39
-0.022936823 -0.13650523 0.0063047633 1.8474719e-40
-0.021010207 -0.13725694 0.003358148 9.2230802e-40
-0.019037094 -0.13650523 0.0063047633 1.8474719e-40
-0.01708723 -0.13650523 0.0063047633 9.2552961e-41
-0.015126776 -0.13547809 0.010331057 0
-0.013183972 -0.13547809 0.010331057 7.1746481e-43
-0.011241166 -0.13547809 0.010331057 1.4419361e-42
-0.0092983618 -0.13547809 0.010331057 9.3634763e-41
-0.0073555578 -0.13547809 0.010331057 3.6949858e-40
-0.0054313513 -0.1347049 0.013361834 5.5424437e-40
-0.0034938604 -0.1347049 0.013361834 9.2194509e-40
-0.0015563695 -0.1347049 0.013361834 1.1985292e-39
0.00038112141 -0.1347049 0.013361834 1.6577123e-39
0.0023186123 -0.1347049 0.013361834 1.7499107e-39
0.0042561032 -0.1347049 0.013361834 1.3807764e-39
0.0061935931 -0.1347049 0.013361834 1.2885836e-39
0.008131085 -0.1347049 0.013361834 1.1967523e-39
0.010068575 -0.1347049 0.013361834 1.1045553e-39
0.012006067 -0.1347049 0.013361834 8.2904741e-40
0.013943557 -0.1347049 0.013361834 7.3684617e-40
0.015958101 -0.13547809 0.010331057 6.4536661e-40
0.017900905 -0.13547809 0.010331057 5.5317098e-40
0.019843711 -0.13547809 0.010331057 1.1063476e-39
0.021786513 -0.13547809 0.010331057 2.7658689e-40
0.023631012 -0.1347049 0.013361834 1.4751301e-39
0.025432581 -0.13369073 0.017337225 3.5956268e-39
0.027363105 -0.13369073 0.017337225 5.2551481e-39
-0.0268753 -0.13921197 0.003358148 7.1916109e-39
-0.024920268 -0.13921197 0.003358148 1.4754818e-39
-0.022965236 -0.13921197 0.003358148 1.8474719e-40
-0.021010207 -0.13921197 0.003358148 8.3011239e-40
-0.019037094 -0.13845511 0.0063047633 2.7694142e-40
-0.01708723 -0.13845511 0.0063047633 2.7658409e-40
-0.015126776 -0.13742088 0.010331057 3.6877972e-40
-0.013183972 -0.13742088 0.010331057 3.6949858e-40
-0.011241166 -0.13742088 0.010331057 8.312026e-40
-0.0092983618 -0.13742088 0.010331057 8.311998e-40
-0.0073555578 -0.13742088 0.010331057 9.2267236e-40
-0.0054313513 -0.13664238 0.013361834 8.3083126e-40
-0.0034938604 -0.13664238 0.013361834 1.0141407e-39
-0.0015563695 -0.13664238 0.013361834 1.0141379e-39
0.00038112141 -0.13664238 0.013361834 1.2889297e-39
0.0023186123 -0.13664238 0.013361834 1.3811296e-39
0.0041968562 -0.13562126 0.017337225 1.3807764e-39
0.0061273761 -0.13562126 0.017337225 1.196388e-39
0.0080578979 -0.13562126 0.017337225 9.2016544e-40
0.010068575 -0.13664238 0.013361834 9.2016404e-40
0.012006067 -0.13664238 0.013361834 9.2124304e-40
0.013943557 -0.13664238 0.013361834 9.2123743e-40
0.015881047 -0.13664238 0.013361834 6.4536661e-40
0.017818538 -0.13664238 0.013361834 4.6097535e-40
0.019843711 -0.13742088 0.010331057 2.7658689e-40
0.021786513 -0.13742088 0.010331057 1.8439126e-40
0.023631012 -0.13664238 0.013361834 1.1985432e-39
0.025432581 -0.13562126 0.017337225 3.6878224e-39
0.027363105 -0.13562126 0.017337225 5.0707568e-39
-0.026928911 -0.14222141 -0.00071892887 7.4681977e-39
-0.024966734 -0.14222141 -0.00071892887 1.6598731e-39
-0.022965236 -0.141167 0.003358148 1.8474719e-40
-0.021010207 -0.141167 0.003358148 7.3791817e-40
-0.019037094 -0.14040495 0.0063047633 1.8438846e-40
-0.01708723 -0.14040495 0.0063047633 4.6097535e-40
-0.015126776 -0.13936369 0.010331057 6.4536661e-40
-0.013183972 -0.13936369 0.010331057 7.3828391e-40
-0.011241166 -0.13936369 0.010331057 1.4758489e-39
-0.0092983618 -0.13936369 0.010331057 1.1999823e-39
-0.0073555578 -0.13936369 0.010331057 1.2914549e-39
-0.0054313513 -0.13857989 0.013361834 1.1074182e-39
-0.0034938604 -0.13857989 0.013361834 1.198532e-39
-0.0015563695 -0.13857989 0.013361834 1.1063335e-39
0.00038112141 -0.13857989 0.013361834 1.2896514e-39
0.0023186123 -0.13857989 0.013361834 1.3811296e-39
0.0041968562 -0.1375518 0.017337225 1.5651677e-39
0.0061273761 -0.1375518 0.017337225 1.1960321e-39
0.0080578979 -0.1375518 0.017337225 8.2796981e-40
0.010068575 -0.13857989 0.013361834 9.2016404e-40
0.012006067 -0.13857989 0.013361834 1.0134387e-39
0.013943557 -0.13857989 0.013361834 1.1056287e-39
0.015881047 -0.13857989 0.013361834 7.3756224e-40
0.017818538 -0.13857989 0.013361834 3.6877972e-40
0.019843711 -0.13936369 0.010331057 1.8439126e-40
0.021786513 -0.13936369 0.010331057 3.6878532e-40
0.023729319 -0.13936369 0.010331057 7.3756784e-40
0.025568502 -0.13857989 0.013361834 4.0566077e-39
0.026609765 -0.13213144 0.038296245 5.0707596e-39
0.028503539 -0.13213144 0.038296245 8.8507777e-39
-0.026928911 -0.14418359 -0.00071892887 8.2057628e-39
-0.024966734 -0.14418359 -0.00071892887 2.1208512e-39
-0.023004552 -0.14418359 -0.00071892887 3.6913565e-40
-0.021010207 -0.14312203 0.003358148 6.4572254e-40
-0.019055177 -0.14312203 0.003358148 0
-0.01708723 -0.14235483 0.0063047633 1.8438846e-40
-0.015126776 -0.1413065 0.010331057 3.6878252e-40
-0.013183972 -0.1413065 0.010331057 3.6950139e-40
-0.011241166 -0.1413065 0.010331057 4.6169702e-40
-0.0092983618 -0.1413065 0.010331057 2.7838195e-40
-0.0073688421 -0.14051737 0.013361834 5.5388704e-40
