# .PCD v0.7 - Point Cloud Data file format
VERSION 0.7
FIELDS x y z rgb
SIZE 4 4 4 4
TYPE F F F F
COUNT 1 1 1 1
WIDTH 934
HEIGHT 1
VIEWPOINT 0 0 0 1 0 0 0
POINTS 934
DATA ascii
0.013304262 -0.09440127 -0.044707701 2.3509527e-38
0.01532603 -0.09440127 -0.044707701 2.3509527e-38
0.01725154 -0.093549207 -0.040640995 2.3509524e-38
0.019266177 -0.093549207 -0.040640995 2.3509165e-38
0.021280814 -0.093549207 -0.040640995 2.3508446e-38
0.023182385 -0.092730328 -0.036732718 2.3417333e-38
0.02506711 -0.091889992 -0.032722041 2.3417691e-38
0.026967768 -0.091243446 -0.029636187 2.3141109e-38
0.028963111 -0.091243446 -0.029636187 2.3234379e-38
0.030958451 -0.091243446 -0.029636187 2.2865961e-38
-0.027131099 -0.096423045 -0.044707701 2.350916e-38
-0.025109332 -0.096423045 -0.044707701 2.3322609e-38
-0.023087565 -0.096423045 -0.044707701 2.3509161e-38
-0.021065794 -0.096423045 -0.044707701 2.3509161e-38
-0.019044027 -0.096423045 -0.044707701 2.3508441e-38
-0.01702226 -0.096423045 -0.044707701 2.3509517e-38
-0.01500049 -0.096423045 -0.044707701 2.3509517e-38
-0.012978722 -0.096423045 -0.044707701 2.3509517e-38
-0.010956953 -0.096423045 -0.044707701 2.3509161e-38
-0.0089351861 -0.096423045 -0.044707701 2.3509521e-38
-0.006913417 -0.096423045 -0.044707701 2.3509521e-38
-0.0048916498 -0.096423045 -0.044707701 2.3509165e-38
-0.0028455621 -0.097260326 -0.048670694 2.3509527e-38
-0.00075366069 -0.098952278 -0.056678936 2.3509527e-38
0.0012890967 -0.098952278 -0.056678936 2.3509168e-38
0.0033318549 -0.098952278 -0.056678936 2.3509168e-38
0.0053746123 -0.098952278 -0.056678936 2.3509527e-38
0.0073574884 -0.098103389 -0.052660987 2.3509527e-38
0.0093932012 -0.098103389 -0.052660987 2.3509168e-38
0.011428914 -0.098103389 -0.052660987 2.314039e-38
0.01338417 -0.097260326 -0.048670694 2.3323699e-38
0.015412887 -0.097260326 -0.048670694 2.3509168e-38
0.017347798 -0.096423045 -0.044707701 2.3509168e-38
0.019266177 -0.095563844 -0.040640995 2.3509168e-38
0.021280814 -0.095563844 -0.040640995 2.2954557e-38
0.023182385 -0.094738111 -0.036732718 2.3140033e-38
0.02506711 -0.093890756 -0.032722041 2.3509168e-38
0.026967768 -0.093238786 -0.029636187 2.2864167e-38
0.028963111 -0.093238786 -0.029636187 2.2772688e-38
0.030958451 -0.093238786 -0.029636187 2.3234379e-38
-0.025109332 -0.098444805 -0.044707701 1.6499414e-38
-0.023087565 -0.098444805 -0.044707701 1.9818456e-38
-0.021065794 -0.098444805 -0.044707701 2.2860912e-38
-0.019044027 -0.098444805 -0.044707701 2.3508802e-38
-0.01702226 -0.098444805 -0.044707701 2.35088e-38
-0.01500049 -0.098444805 -0.044707701 2.3509158e-38
-0.012978722 -0.098444805 -0.044707701 2.3508079e-38
-0.010956953 -0.098444805 -0.044707701 2.3508802e-38
-0.0089351861 -0.098444805 -0.044707701 2.3507725e-38
-0.006913417 -0.098444805 -0.044707701 2.3508448e-38
-0.0051682079 -0.085004061 0.018385487 2.3509168e-38
-0.0032570632 -0.085004061 0.018385487 2.3509168e-38
-0.00072173774 -0.10185695 -0.060724899 2.3509168e-38
0.0013281135 -0.10185695 -0.060724899 2.3509168e-38
0.0033318549 -0.10099503 -0.056678936 2.3509527e-38
0.0053746123 -0.10099503 -0.056678936 2.3509527e-38
0.0074173687 -0.10099503 -0.056678936 2.3416615e-38
0.0093932012 -0.1001391 -0.052660987 2.3509168e-38
0.011428914 -0.1001391 -0.052660987 2.3509168e-38
0.01338417 -0.099289045 -0.048670694 2.3509168e-38
0.015412887 -0.099289045 -0.048670694 2.3509168e-38
0.01725154 -0.097578481 -0.040640995 2.3138948e-38
0.019266177 -0.097578481 -0.040640995 2.1386152e-38
0.021280814 -0.097578481 -0.040640995 1.9450767e-38
0.023182385 -0.096745893 -0.036732718 8.8486337e-39
0.02506711 -0.095891505 -0.032722041 8.4809302e-39
0.026967768 -0.095234126 -0.029636187 5.7150585e-39
0.028963111 -0.095234126 -0.029636187 2.3967332e-39
-0.025109332 -0.10046658 -0.044707701 3.407274e-39
-0.023087565 -0.10046658 -0.044707701 7.1872949e-39
-0.021065794 -0.10046658 -0.044707701 1.1151707e-38
-0.019044027 -0.10046658 -0.044707701 1.4009771e-38
-0.01702226 -0.10046658 -0.044707701 1.6497972e-38
-0.01500049 -0.10046658 -0.044707701 1.7974181e-38
-0.012978722 -0.10046658 -0.044707701 2.0001406e-38
-0.010956953 -0.10046658 -0.044707701 2.1662369e-38
-0.0089351861 -0.10046658 -0.044707701 2.3508085e-38
-0.006913417 -0.10046658 -0.044707701 2.3508451e-38
-0.0051682079 -0.08691521 0.018385487 2.3509168e-38
-0.0032570632 -0.08691521 0.018385487 2.3509168e-38
-0.0013459185 -0.08691521 0.018385487 2.3509168e-38
0.00056522526 -0.08691521 0.018385487 2.3508809e-38
0.00247637 -0.08691521 0.018385487 2.3509168e-38
0.0043875147 -0.08691521 0.018385487 2.3509168e-38
0.0074173687 -0.10303779 -0.056678936 2.3509168e-38
0.0094601279 -0.10303779 -0.056678936 2.2954201e-38
0.011502885 -0.10303779 -0.056678936 2.0925897e-38
0.012032093 -0.08691521 0.018385487 1.7883797e-38
0.013943237 -0.08691521 0.018385487 1.4655871e-38
0.01725154 -0.099593118 -0.040640995 1.1244633e-38
0.019266177 -0.099593118 -0.040640995 7.92559e-39
0.021280814 -0.099593118 -0.040640995 5.7125389e-39
0.023295451 -0.099593118 -0.040640995 3.0399461e-39
0.023622133 -0.087777436 0.014371114 6.4357855e-40
0.025540318 -0.087777436 0.014371114 2.7551349e-40
-0.020602271 -0.092080101 0.0033591557 1.1945789e-39
-0.018664777 -0.092080101 0.0033591557 9.1835496e-40
-0.016727287 -0.092080101 0.0033591557 1.3789674e-39
-0.014755071 -0.090364665 0.011281328 1.7477499e-39
-0.012831471 -0.090364665 0.011281328 2.4842359e-39
-0.010905161 -0.089695618 0.014371114 3.2232429e-39
-0.0089869788 -0.089695618 0.014371114 1.3807736e-39
-0.0070687952 -0.089695618 0.014371114 1.3814953e-39
-0.0051506115 -0.089695618 0.014371114 1.4736909e-39
-0.0032570632 -0.088826358 0.018385487 1.3814953e-39
-0.0013459185 -0.088826358 0.018385487 1.1971041e-39
0.00056522526 -0.088826358 0.018385487 1.0127128e-39
0.00247637 -0.088826358 0.018385487 1.0123569e-39
0.0043875147 -0.088826358 0.018385487 1.0123569e-39
0.0062986603 -0.088826358 0.018385487 5.5101858e-40
0.008209805 -0.088826358 0.018385487 4.5918168e-40
0.01012095 -0.088826358 0.018385487 3.6734198e-40
0.012032093 -0.088826358 0.018385487 3.6734198e-40
0.013943237 -0.088826358 0.018385487 5.5101298e-40
0.015854381 -0.088826358 0.018385487 8.2652367e-40
0.017765526 -0.088826358 0.018385487 1.1953062e-39
0.019785769 -0.089695618 0.014371114 1.2875046e-39
0.021703951 -0.089695618 0.014371114 5.5101858e-40
0.023622133 -0.089695618 0.014371114 3.6734759e-40
-0.032227214 -0.094017595 0.0033591557 7.4660411e-39
-0.030289724 -0.094017595 0.0033591557 2.3030859e-39
-0.028352235 -0.094017595 0.0033591557 1.0112681e-39
-0.026414741 -0.094017595 0.0033591557 2.3020069e-39
-0.024477251 -0.094017595 0.0033591557 1.933223e-39
-0.022539761 -0.094017595 0.0033591557 1.8403085e-39
-0.020602271 -0.094017595 0.0033591557 8.2651947e-40
-0.018664777 -0.094017595 0.0033591557 6.4284847e-40
-0.016727287 -0.094017595 0.0033591557 6.4284847e-40
-0.014755071 -0.092288271 0.011281328 6.4284847e-40
-0.012831471 -0.092288271 0.011281328 7.3468397e-40
-0.010905161 -0.091613799 0.014371114 5.5101298e-40
-0.0089869788 -0.091613799 0.014371114 3.6734198e-40
-0.0070687952 -0.091613799 0.014371114 2.7622395e-40
-0.0051506115 -0.091613799 0.014371114 3.6841958e-40
-0.0032570632 -0.090737507 0.018385487 2.7622395e-40
-0.0013459185 -0.090737507 0.018385487 2.7550649e-40
0.00056522526 -0.090737507 0.018385487 2.7550649e-40
0.00247637 -0.090737507 0.018385487 2.7550649e-40
0.0043875147 -0.090737507 0.018385487 2.7550649e-40
0.0062986603 -0.090737507 0.018385487 5.5137171e-40
0.008209805 -0.090737507 0.018385487 5.5137171e-40
0.01012095 -0.090737507 0.018385487 7.3576017e-40
0.012032093 -0.090737507 0.018385487 8.279558e-40
0.013943237 -0.090737507 0.018385487 1.0112681e-39
0.015854381 -0.090737507 0.018385487 9.1907243e-40
0.017765526 -0.090737507 0.018385487 8.268782e-40
0.019785769 -0.091613799 0.014371114 9.187165e-40
0.021703951 -0.091613799 0.014371114 1.4718959e-39
0.023622133 -0.091613799 0.014371114 1.932874e-39
0.025540318 -0.091613799 0.014371114 2.4860478e-39
0.027699079 -0.093149811 0.0073345471 2.3949284e-39
0.029629603 -0.093149811 0.0073345471 2.5800357e-39
-0.032227214 -0.095955089 0.0033591557 8.2972409e-39
-0.030289724 -0.095955089 0.0033591557 2.9498944e-39
-0.028352235 -0.095955089 0.0033591557 2.7550649e-40
-0.026414741 -0.095955089 0.0033591557 1.8424679e-39
-0.024477251 -0.095955089 0.0033591557 1.4733238e-39
-0.022539761 -0.095955089 0.0033591557 1.934302e-39
-0.020602271 -0.095955089 0.0033591557 1.8421063e-39
-0.018633414 -0.095080331 0.0073345471 1.6577151e-39
-0.01670289 -0.095080331 0.0073345471 1.9335789e-39
-0.014755071 -0.094211861 0.011281328 1.3804051e-39
-0.012823344 -0.093531981 0.014371114 1.1960138e-39
-0.010905161 -0.093531981 0.014371114 1.8421035e-39
-0.0089869788 -0.093531981 0.014371114 1.5669586e-39
-0.0070793526 -0.09264864 0.018385487 1.6598731e-39
-0.0051682079 -0.09264864 0.018385487 1.9357411e-39
-0.0032570632 -0.09264864 0.018385487 2.0279367e-39
-0.0013459185 -0.09264864 0.018385487 2.2116077e-39
0.00053694285 -0.092003286 0.021318393 2.2116077e-39
0.0024429448 -0.092003286 0.021318393 2.3038005e-39
0.0043875147 -0.09264864 0.018385487 2.3959962e-39
0.0062986603 -0.09264864 0.018385487 2.6718642e-39
0.008209805 -0.09264864 0.018385487 2.4874729e-39
0.01012095 -0.09264864 0.018385487 2.4874729e-39
0.012032093 -0.09264864 0.018385487 2.6718642e-39
0.013943237 -0.09264864 0.018385487 2.6711439e-39
0.015854381 -0.09264864 0.018385487 2.3023614e-39
0.017765526 -0.09264864 0.018385487 2.1179701e-39
0.019785769 -0.093531981 0.014371114 2.2098098e-39
0.021703951 -0.093531981 0.014371114 2.1168996e-39
0.023622133 -0.093531981 0.014371114 2.3009349e-39
0.025540318 -0.093531981 0.014371114 1.4711742e-39
0.027564142 -0.094211861 0.011281328 1.3796946e-39
0.02948774 -0.094211861 0.011281328 3.1328465e-39
0.031560123 -0.095080331 0.0073345471 4.4239455e-39
-0.034164708 -0.097892582 0.0033591557 8.9436922e-39
-0.032227214 -0.097892582 0.0033591557 7.4678432e-39
-0.030289724 -0.097892582 0.0033591557 2.5814748e-39
-0.028352235 -0.097892582 0.0033591557 3.5873241e-43
-0.026414741 -0.097892582 0.0033591557 1.1988963e-39
-0.024477251 -0.097892582 0.0033591557 1.1059804e-39
-0.022539761 -0.097892582 0.0033591557 1.4747629e-39
-0.020563934 -0.097010851 0.0073345471 1.381847e-39
-0.018633414 -0.097010851 0.0073345471 1.1052602e-39
-0.016678672 -0.096135467 0.011281328 1.0130617e-39
-0.014755071 -0.096135467 0.011281328 4.5989495e-40
-0.012823344 -0.095450163 0.014371114 6.4356594e-40
-0.010905161 -0.095450163 0.014371114 1.7506268e-39
-0.0089869788 -0.095450163 0.014371114 1.6598703e-39
-0.0070793526 -0.094559789 0.018385487 1.7527848e-39
-0.0051682079 -0.094559789 0.018385487 2.0290087e-39
-0.0032570632 -0.094559789 0.018385487 2.2134e-39
-0.0013459185 -0.094559789 0.018385487 2.3048767e-39
0.00053694285 -0.093909279 0.021318393 2.3048767e-39
0.0024429448 -0.093909279 0.021318393 2.6729362e-39
0.0043875147 -0.094559789 0.018385487 2.7651318e-39
0.0062986603 -0.094559789 0.018385487 3.0409998e-39
0.008209805 -0.094559789 0.018385487 2.3956304e-39
0.01012095 -0.094559789 0.018385487 2.0268479e-39
0.012032093 -0.094559789 0.018385487 2.0268479e-39
0.013943237 -0.094559789 0.018385487 2.0268479e-39
0.015854381 -0.094559789 0.018385487 1.9346523e-39
0.017765526 -0.094559789 0.018385487 2.0268479e-39
0.019785769 -0.095450163 0.014371114 2.4867499e-39
0.021703951 -0.095450163 0.014371114 1.6559186e-39
0.023622133 -0.095450163 0.014371114 2.2090952e-39
0.025540318 -0.095450163 0.014371114 2.5778777e-39
0.027564142 -0.096135467 0.011281328 2.2094553e-39
0.02948774 -0.096135467 0.011281328 2.1186946e-39
0.031560123 -0.097010851 0.0073345471 3.2254023e-39
0.033490643 -0.097010851 0.0073345471 4.2399116e-39
-0.03423113 -0.1005076 0.00032837875 8.9436922e-39
-0.032227214 -0.099830076 0.0033591557 7.3763665e-39
-0.030289724 -0.099830076 0.0033591557 2.1212156e-39
-0.028352235 -0.099830076 0.0033591557 5.5388984e-40
-0.026414741 -0.099830076 0.0033591557 1.752433e-39
-0.024477251 -0.099830076 0.0033591557 1.1070608e-39
-0.022539761 -0.099830076 0.0033591557 1.1988963e-39
-0.020563934 -0.098941371 0.0073345471 8.301138e-40
-0.018633414 -0.098941371 0.0073345471 1.1059818e-39
-0.016678672 -0.098059073 0.011281328 1.6591542e-39
-0.014755071 -0.098059073 0.011281328 1.198176e-39
-0.012831471 -0.098059073 0.011281328 1.0130645e-39
-0.010905161 -0.097368345 0.014371114 1.3829232e-39
-0.0089869788 -0.097368345 0.014371114 1.5680306e-39
-0.0070687952 -0.097368345 0.014371114 1.752419e-39
-0.0051682079 -0.096470937 0.018385487 1.9368103e-39
-0.0032570632 -0.096470937 0.018385487 1.9368103e-39
-0.0013459185 -0.096470937 0.018385487 2.028287e-39
0.00056522526 -0.096470937 0.018385487 1.9360914e-39
0.00247637 -0.096470937 0.018385487 2.211958e-39
0.0043875147 -0.096470937 0.018385487 2.3041537e-39
0.0062986603 -0.096470937 0.018385487 2.3041537e-39
0.008209805 -0.096470937 0.018385487 1.8431755e-39
0.01012095 -0.096470937 0.018385487 1.8424566e-39
0.012113036 -0.097368345 0.014371114 2.119761e-39
0.014031219 -0.097368345 0.014371114 2.395629e-39
0.015949402 -0.097368345 0.014371114 1.9353697e-39
0.017867588 -0.097368345 0.014371114 1.658064e-39
0.019785769 -0.097368345 0.014371114 1.5658698e-39
0.021703951 -0.097368345 0.014371114 1.7488331e-39
0.023622133 -0.097368345 0.014371114 1.2875018e-39
0.025540318 -0.097368345 0.014371114 2.486045e-39
0.027564142 -0.098059073 0.011281328 2.9480994e-39
0.02948774 -0.098059073 0.011281328 2.5800357e-39
0.031411342 -0.098059073 0.011281328 4.0562448e-39
0.033334941 -0.098059073 0.011281328 5.1625923e-39
-0.036173936 -0.1024504 0.00032837875 9.034806e-39
-0.03423113 -0.1024504 0.00032837875 9.4035913e-39
-0.032288324 -0.1024504 0.00032837875 7.1912563e-39
-0.030345518 -0.1024504 0.00032837875 2.6736733e-39
-0.028352235 -0.10176755 0.0033591557 1.1992621e-39
-0.026414741 -0.10176755 0.0033591557 1.7524358e-39
-0.024477251 -0.10176755 0.0033591557 1.0145149e-39
-0.022539761 -0.10176755 0.0033591557 8.3012361e-40
-0.020602271 -0.10176755 0.0033591557 1.2914577e-39
-0.018633414 -0.10087189 0.0073345471 1.0141519e-39
-0.01670289 -0.10087189 0.0073345471 8.2975787e-40
-0.014772371 -0.10087189 0.0073345471 1.1063448e-39
-0.012831471 -0.099982664 0.011281328 9.2159056e-40
-0.010905161 -0.099286526 0.014371114 1.3825673e-39
-0.0089869788 -0.099286526 0.014371114 1.290722e-39
-0.0070687952 -0.099286526 0.014371114 1.4754678e-39
-0.0051506115 -0.099286526 0.014371114 1.1988837e-39
-0.0032324288 -0.099286526 0.014371114 1.3829176e-39
-0.0013142452 -0.099286526 0.014371114 2.028287e-39
0.00060393754 -0.099286526 0.014371114 1.751703e-39
0.0025221212 -0.099286526 0.014371114 1.751703e-39
0.0044403039 -0.099286526 0.014371114 2.6736593e-39
0.0063584866 -0.099286526 0.014371114 2.2126811e-39
0.0082766702 -0.099286526 0.014371114 1.4751161e-39
0.010194854 -0.099286526 0.014371114 2.3037977e-39
0.012113036 -0.099286526 0.014371114 1.290722e-39
0.014031219 -0.099286526 0.014371114 1.013419e-39
0.015949402 -0.099286526 0.014371114 1.7520575e-39
0.017867588 -0.099286526 0.014371114 1.6587801e-39
0.019785769 -0.099286526 0.014371114 1.3821974e-39
0.021703951 -0.099286526 0.014371114 1.8424707e-39
0.023622133 -0.099286526 0.014371114 1.6577291e-39
0.025540318 -0.099286526 0.014371114 2.0265088e-39
0.027564142 -0.099982664 0.011281328 1.1056287e-39
0.02948774 -0.099982664 0.011281328 2.0283039e-39
0.031411342 -0.099982664 0.011281328 4.0569707e-39
0.033334941 -0.099982664 0.011281328 4.1491691e-39
-0.036173936 -0.1043932 0.00032837875 8.0195751e-39
-0.03423113 -0.1043932 0.00032837875 8.7582191e-39
-0.032288324 -0.1043932 0.00032837875 8.0203009e-39
-0.030345518 -0.1043932 0.00032837875 4.240999e-39
-0.028402716 -0.1043932 0.00032837875 1.9364712e-39
-0.026414741 -0.10370506 0.0033591557 1.1067105e-39
-0.024477251 -0.10370506 0.0033591557 2.7803163e-40
-0.022539761 -0.10370506 0.0033591557 2.7694983e-40
-0.020602271 -0.10370506 0.0033591557 6.4573235e-40
-0.018633414 -0.10280241 0.0073345471 5.5317378e-40
-0.01670289 -0.10280241 0.0073345471 2.7658689e-40
-0.014772371 -0.10280241 0.0073345471 4.6061521e-40
-0.012831471 -0.10190627 0.011281328 7.372021e-40
-0.010907871 -0.10190627 0.011281328 1.5669586e-39
-0.0089869788 -0.10120471 0.014371114 1.1988837e-39
-0.0070687952 -0.10120471 0.014371114 1.3832722e-39
-0.0051506115 -0.10120471 0.014371114 1.2910793e-39
-0.0032324288 -0.10120471 0.014371114 1.4751133e-39
-0.0013142452 -0.10120471 0.014371114 2.1204855e-39
0.00060393754 -0.10120471 0.014371114 2.1204855e-39
0.0025221212 -0.10120471 0.014371114 2.0282926e-39
0.0044403039 -0.10120471 0.014371114 2.4892708e-39
0.0063584866 -0.10120471 0.014371114 1.936097e-39
0.0082766702 -0.10120471 0.014371114 1.198532e-39
0.010194854 -0.10120471 0.014371114 2.2126839e-39
0.012113036 -0.10120471 0.014371114 2.1204855e-39
0.014031219 -0.10120471 0.014371114 1.3829176e-39
0.015949402 -0.10120471 0.014371114 1.1988837e-39
0.017867588 -0.10120471 0.014371114 7.3791256e-40
0.019785769 -0.10120471 0.014371114 1.3829176e-39
0.021703951 -0.10120471 0.014371114 1.1056287e-39
0.023622133 -0.10120471 0.014371114 1.1978299e-39
0.02564054 -0.10190627 0.011281328 1.1059944e-39
0.027699079 -0.10280241 0.0073345471 9.2558566e-41
0.029376686 -0.10120471 0.014371114 2.3052537e-39
0.031294867 -0.10120471 0.014371114 5.9019622e-39
0.033213049 -0.10120471 0.014371114 5.5335441e-39
-0.036173936 -0.10633601 0.00032837875 8.3883576e-39
-0.03423113 -0.10633601 0.00032837875 8.2972409e-39
-0.032288324 -0.10633601 0.00032837875 7.4671272e-39
-0.030345518 -0.10633601 0.00032837875 4.3331946e-39
-0.028402716 -0.10633601 0.00032837875 2.3974493e-39
-0.026414741 -0.10564254 0.0033591557 1.3832974e-39
-0.024477251 -0.10564254 0.0033591557 2.8025969e-45
-0.022539761 -0.10564254 0.0033591557 2.8025969e-45
-0.020602271 -0.10564254 0.0033591557 8.2976067e-40
-0.018664777 -0.10564254 0.0033591557 1.751354e-39
-0.01670289 -0.10473295 0.0073345471 1.5669628e-39
-0.014772371 -0.10473295 0.0073345471 1.0127072e-39
-0.012831471 -0.10382988 0.011281328 9.2051156e-40
-0.010907871 -0.10382988 0.011281328 1.197453e-39
-0.0089869788 -0.1031229 0.014371114 1.6587843e-39
-0.0070687952 -0.1031229 0.014371114 1.8431741e-39
-0.0051506115 -0.1031229 0.014371114 1.9353697e-39
-0.0032324288 -0.1031229 0.014371114 1.9353711e-39
-0.0013142452 -0.1031229 0.014371114 2.1194065e-39
0.00060393754 -0.1031229 0.014371114 2.2116049e-39
0.0025221212 -0.1031229 0.014371114 2.0272164e-39
0.0044403039 -0.1031229 0.014371114 1.8428252e-39
0.0063584866 -0.1031229 0.014371114 2.2116077e-39
0.0082766702 -0.1031229 0.014371114 1.5662355e-39
0.010194854 -0.1031229 0.014371114 2.1194093e-39
0.012113036 -0.1031229 0.014371114 1.750624e-39
0.014031219 -0.1031229 0.014371114 1.5665886e-39
0.015949402 -0.1031229 0.014371114 1.8431741e-39
0.017867588 -0.1031229 0.014371114 1.1978075e-39
0.019869741 -0.10382988 0.011281328 1.750624e-39
0.021793339 -0.10382988 0.011281328 2.7586802e-40
0.023716938 -0.10382988 0.011281328 8.2904741e-40
0.02564054 -0.10382988 0.011281328 1.3825813e-39
0.027699079 -0.10473295 0.0073345471 3.6914546e-40
0.029376686 -0.1031229 0.014371114 1.6602402e-39
0.031294867 -0.1031229 0.014371114 4.6112234e-39
-0.036338981 -0.10988651 -0.0066445302 7.6507925e-39
-0.03423113 -0.10827883 0.00032837875 7.8362656e-39
-0.032288324 -0.10827883 0.00032837875 8.0206569e-39
-0.030345518 -0.10827883 0.00032837875 6.2693028e-39
-0.028402716 -0.10827883 0.00032837875 4.9785668e-39
-0.026459914 -0.10827883 0.00032837875 3.5959925e-39
-0.024477251 -0.10758002 0.0033591557 1.2911018e-39
-0.022539761 -0.10758002 0.0033591557 9.219563e-40
-0.020602271 -0.10758002 0.0033591557 9.1835496e-41
-0.018664777 -0.10758002 0.0033591557 2.7550649e-40
-0.01670289 -0.10666345 0.0073345471 2.7550649e-40
-0.014772371 -0.10666345 0.0073345471 3.6734198e-40
-0.012831471 -0.10575347 0.011281328 1.4722448e-39
-0.010907871 -0.10575347 0.011281328 1.8421035e-39
-0.0089842686 -0.10575347 0.011281328 1.6580654e-39
-0.0070687952 -0.10504107 0.014371114 1.6587843e-39
-0.0051506115 -0.10504107 0.014371114 2.0275668e-39
-0.0032324288 -0.10504107 0.014371114 2.1194065e-39
-0.0013142452 -0.10504107 0.014371114 1.8428224e-39
0.00060393754 -0.10504107 0.014371114 2.0272136e-39
0.0025221212 -0.10504107 0.014371114 2.2116077e-39
0.0044403039 -0.10504107 0.014371114 1.8428252e-39
0.0063584866 -0.10504107 0.014371114 1.9350208e-39
0.0082766702 -0.10504107 0.014371114 2.0272164e-39
0.010194854 -0.10504107 0.014371114 2.2116077e-39
0.012113036 -0.10504107 0.014371114 1.197453e-39
0.014031219 -0.10504107 0.014371114 1.5662327e-39
0.015949402 -0.10504107 0.014371114 2.211958e-39
0.017867588 -0.10504107 0.014371114 1.1056133e-39
0.019869741 -0.10575347 0.011281328 9.2086609e-40
0.021793339 -0.10575347 0.011281328 2.1197834e-39
0.023622133 -0.10504107 0.014371114 3.4101677e-39
0.025540318 -0.10504107 0.014371114 6.7299279e-39
0.0274585 -0.10504107 0.014371114 8.0210226e-39
-0.036338981 -0.11184154 -0.0066445302 7.6518743e-39
-0.034383953 -0.11184154 -0.0066445302 8.1128525e-39
-0.032288324 -0.11022164 0.00032837875 9.1270044e-39
-0.030345518 -0.11022164 0.00032837875 8.2976039e-39
-0.028402716 -0.11022164 0.00032837875 7.2834548e-39
-0.026459914 -0.11022164 0.00032837875 5.8083247e-39
-0.024477251 -0.10951753 0.0033591557 4.3331946e-39
-0.022539761 -0.10951753 0.0033591557 3.9640491e-39
-0.020602271 -0.10951753 0.0033591557 1.8424679e-39
-0.018664777 -0.10951753 0.0033591557 1.3811282e-39
-0.01670289 -0.10859399 0.0073345471 1.2882095e-39
-0.014772371 -0.10859399 0.0073345471 8.2723693e-40
-0.012831471 -0.10767709 0.011281328 1.3796848e-39
-0.010907871 -0.10767709 0.011281328 6.4284847e-40
-0.0089842686 -0.10767709 0.011281328 1.5658726e-39
-0.0070687952 -0.10695927 0.014371114 1.19709e-39
-0.0051506115 -0.10695927 0.014371114 1.8424595e-39
-0.0032324288 -0.10695927 0.014371114 2.3030817e-39
-0.0013142452 -0.10695927 0.014371114 1.7499079e-39
0.00060393754 -0.10695927 0.014371114 2.0264976e-39
0.0025221212 -0.10695927 0.014371114 2.8562597e-39
0.0044403039 -0.10695927 0.014371114 2.6718684e-39
0.0063584866 -0.10695927 0.014371114 1.7499121e-39
0.0082766702 -0.10695927 0.014371114 1.934302e-39
0.010194854 -0.10695927 0.014371114 2.5796714e-39
0.012113036 -0.10695927 0.014371114 2.210886e-39
0.014031219 -0.10695927 0.014371114 2.1186904e-39
0.015949402 -0.10695927 0.014371114 1.3814813e-39
0.017867588 -0.10695927 0.014371114 9.2050736e-40
0.019869741 -0.10767709 0.011281328 3.2257596e-39
0.021703951 -0.10695927 0.014371114 4.2402829e-39
0.023622133 -0.10695927 0.014371114 4.7931022e-39
0.025540318 -0.10695927 0.014371114 7.3752973e-39
0.0274585 -0.10695927 0.014371114 8.7585876e-39
-0.036338981 -0.11379658 -0.0066445302 9.7723738e-39
-0.034383953 -0.11379658 -0.0066445302 9.0348088e-39
-0.032369509 -0.11310686 -0.003697915 8.5738306e-39
-0.030419644 -0.11310686 -0.003697915 7.9284612e-39
-0.028469782 -0.11310686 -0.003697915 9.219563e-39
-0.026459914 -0.11216442 0.00032837875 1.0233712e-38
-0.024477251 -0.11145501 0.0033591557 1.0970917e-38
-0.022539761 -0.11145501 0.0033591557 1.2629357e-38
-0.020602271 -0.11145501 0.0033591557 1.1522647e-38
-0.018664777 -0.11145501 0.0033591557 1.1982903e-38
-0.01670289 -0.11052449 0.0073345471 1.179779e-38
-0.014772371 -0.11052449 0.0073345471 1.004571e-38
-0.012831471 -0.10960068 0.011281328 8.3861884e-39
-0.010907871 -0.10960068 0.011281328 4.5139719e-39
-0.0089842686 -0.10960068 0.011281328 3.8696843e-39
-0.0070606684 -0.10960068 0.011281328 1.7499079e-39
-0.0051506115 -0.10887744 0.014371114 1.8421035e-39
-0.0032324288 -0.10887744 0.014371114 2.4874757e-39
-0.0013142452 -0.10887744 0.014371114 1.6577151e-39
0.00060393754 -0.10887744 0.014371114 1.5655194e-39
0.0025221212 -0.10887744 0.014371114 2.3952815e-39
0.0044403039 -0.10887744 0.014371114 2.2108902e-39
0.0063584866 -0.10887744 0.014371114 2.4874771e-39
0.0082766702 -0.10887744 0.014371114 1.5655208e-39
0.010194854 -0.10887744 0.014371114 2.0264976e-39
0.012113036 -0.10887744 0.014371114 2.4874757e-39
0.014031219 -0.10887744 0.014371114 2.0264976e-39
0.015949402 -0.10887744 0.014371114 5.5137171e-40
0.017867588 -0.10887744 0.014371114 2.8562554e-39
0.019869741 -0.10960068 0.011281328 9.9553232e-39
0.021703951 -0.10887744 0.014371114 1.0970567e-38
0.023622133 -0.10887744 0.014371114 1.1154601e-38
0.025540318 -0.10887744 0.014371114 1.0970927e-38
0.0274585 -0.10887744 0.014371114 8.4820008e-39
-0.034383953 -0.11575161 -0.0066445302 1.0048961e-38
-0.032428924 -0.11575161 -0.0066445302 9.3113957e-39
-0.030419644 -0.11505674 -0.003697915 8.0206569e-39
-0.028469782 -0.11505674 -0.003697915 9.3113957e-39
-0.026459914 -0.11410724 0.00032837875 1.0786526e-38
-0.024517108 -0.11410724 0.00032837875 1.0232273e-38
-0.022539761 -0.11339252 0.0033591557 1.2629357e-38
-0.020602271 -0.11339252 0.0033591557 1.1798511e-38
-0.018664777 -0.11339252 0.0033591557 1.2258768e-38
-0.01670289 -0.11245503 0.0073345471 1.2903774e-38
-0.014772371 -0.11245503 0.0073345471 1.2810498e-38
-0.012831471 -0.11152427 0.011281328 1.2533911e-38
-0.010905161 -0.11079563 0.014371114 8.4773036e-39
-0.0089869788 -0.11079563 0.014371114 6.6348371e-39
-0.0070606684 -0.11152427 0.011281328 2.670788e-39
-0.0051506115 -0.11079563 0.014371114 1.7488317e-39
-0.0032324288 -0.11079563 0.014371114 2.762985e-39
-0.0013142452 -0.11079563 0.014371114 2.1176156e-39
0.00060393754 -0.11079563 0.014371114 1.7488331e-39
0.0025221212 -0.11079563 0.014371114 2.3020069e-39
0.0044403039 -0.11079563 0.014371114 1.8410287e-39
0.0063584866 -0.11079563 0.014371114 2.762985e-39
0.0082766702 -0.11079563 0.014371114 1.9332244e-39
0.01012095 -0.10984896 0.018385487 1.8410287e-39
0.012032093 -0.10984896 0.018385487 2.02542e-39
0.013943237 -0.10984896 0.018385487 2.2098112e-39
0.015949402 -0.11079563 0.014371114 1.3800492e-39
0.017867588 -0.11079563 0.014371114 3.7771356e-39
0.019785769 -0.11079563 0.014371114 1.0784728e-38
0.021703951 -0.11079563 0.014371114 1.0785818e-38
0.023622133 -0.11079563 0.014371114 1.1155322e-38
0.025540318 -0.11079563 0.014371114 1.0878731e-38
0.029232394 -0.10984896 0.018385487 6.1771072e-39
0.031143539 -0.10984896 0.018385487 6.5466086e-39
-0.030419644 -0.11700659 -0.003697915 8.2972438e-39
-0.028469782 -0.11700659 -0.003697915 4.6094186e-39
-0.026459914 -0.11605005 0.00032837875 2.0279409e-39
-0.024517108 -0.11605005 0.00032837875 2.4878373e-39
-0.022574302 -0.11605005 0.00032837875 6.5440834e-39
-0.020602271 -0.11533 0.0033591557 6.8199473e-39
-0.018664777 -0.11533 0.0033591557 8.3865485e-39
-0.01670289 -0.11438553 0.0073345471 1.0229022e-38
-0.014772371 -0.11438553 0.0073345471 1.1243172e-38
-0.012831471 -0.11344786 0.011281328 1.1888179e-38
-0.010905161 -0.1127138 0.014371114 7.6475429e-39
-0.0089869788 -0.1127138 0.014371114 7.6489891e-39
-0.0070606684 -0.11344786 0.011281328 2.3942025e-39
-0.0051506115 -0.1127138 0.014371114 9.1907243e-40
-0.0032324288 -0.1127138 0.014371114 2.6707894e-39
-0.0013142452 -0.1127138 0.014371114 2.5785938e-39
0.00060393754 -0.1127138 0.014371114 2.4863981e-39
0.0025221212 -0.1127138 0.014371114 2.8551807e-39
0.0044403039 -0.1127138 0.014371114 2.3020069e-39
0.0063584866 -0.1127138 0.014371114 1.4722462e-39
0.0082766702 -0.1127138 0.014371114 2.2098112e-39
0.01012095 -0.11176009 0.018385487 2.3020069e-39
0.012032093 -0.11176009 0.018385487 1.8410287e-39
0.013943237 -0.11176009 0.018385487 2.8551807e-39
0.015854381 -0.11176009 0.018385487 2.5785938e-39
0.017765526 -0.11176009 0.018385487 1.8410287e-39
0.01967667 -0.11176009 0.018385487 4.5154251e-39
0.021587815 -0.11176009 0.018385487 3.8711459e-39
0.02349896 -0.11176009 0.018385487 2.1201506e-39
0.027321249 -0.11176009 0.018385487 2.3048907e-39
-0.030548949 -0.12063743 -0.010721607 8.8504175e-39
-0.028402716 -0.11799283 0.00032837875 6.1767443e-39
-0.026459914 -0.11799283 0.00032837875 8.2939773e-40
-0.024517108 -0.11799283 0.00032837875 1.4736853e-39
-0.022574302 -0.11799283 0.00032837875 1.6577151e-39
-0.020602271 -0.11726747 0.0033591557 1.8413833e-39
-0.018664777 -0.11726747 0.0033591557 2.5782238e-39
-0.01670289 -0.11631607 0.0073345471 4.9738711e-39
-0.014772371 -0.11631607 0.0073345471 7.4631517e-39
-0.012831471 -0.11537148 0.011281328 8.5691363e-39
-0.010907871 -0.11537148 0.011281328 8.2007181e-39
-0.0089842686 -0.11537148 0.011281328 6.6352001e-39
-0.0070606684 -0.11537148 0.011281328 2.6715125e-39
-0.0051506115 -0.114632 0.014371114 1.288578e-39
-0.0032324288 -0.114632 0.014371114 2.3949256e-39
-0.0013142452 -0.114632 0.014371114 2.6718684e-39
0.00060393754 -0.114632 0.014371114 2.4874771e-39
0.0025221212 -0.114632 0.014371114 2.2108902e-39
0.0044403039 -0.114632 0.014371114 1.2889339e-39
0.0063584866 -0.114632 0.014371114 1.8421077e-39
0.0082766702 -0.114632 0.014371114 1.5655208e-39
0.01012095 -0.11367123 0.018385487 1.4733252e-39
0.012032093 -0.11367123 0.018385487 1.6577165e-39
0.013943237 -0.11367123 0.018385487 1.9339474e-39
0.015854381 -0.11367123 0.018385487 2.1183387e-39
0.017765526 -0.11367123 0.018385487 1.8417518e-39
0.01967667 -0.11367123 0.018385487 1.4736909e-39
0.021587815 -0.11367123 0.018385487 1.5662551e-39
0.02349896 -0.11367123 0.018385487 6.4502049e-40
0.025410105 -0.11367123 0.018385487 5.6051939e-45
0.02948774 -0.11537148 0.011281328 5.2551481e-39
-0.030548949 -0.12259962 -0.010721607 9.0348088e-39
-0.028586771 -0.12259962 -0.010721607 6.5455268e-39
-0.026519917 -0.12090631 -0.003697915 9.2159336e-40
-0.024517108 -0.11993565 0.00032837875 2.7550649e-40
-0.022574302 -0.11993565 0.00032837875 4.5953621e-40
-0.020602271 -0.11920498 0.0033591557 5.5101298e-40
-0.018664777 -0.11920498 0.0033591557 6.4284847e-40
-0.01670289 -0.11824657 0.0073345471 9.1835496e-40
-0.014772371 -0.11824657 0.0073345471 2.2080008e-39
-0.01284185 -0.11824657 0.0073345471 2.5767833e-39
-0.010907871 -0.11729507 0.011281328 2.0246899e-39
-0.0089842686 -0.11729507 0.011281328 2.3942011e-39
-0.0070606684 -0.11729507 0.011281328 1.1041868e-39
-0.0051506115 -0.11655019 0.014371114 1.3807736e-39
-0.0032324288 -0.11655019 0.014371114 2.3952815e-39
-0.0013142452 -0.11655019 0.014371114 2.3030859e-39
0.00060393754 -0.11655019 0.014371114 1.7499121e-39
0.0025221212 -0.11655019 0.014371114 1.7499121e-39
0.0044403039 -0.11655019 0.014371114 1.8421077e-39
0.0063584866 -0.11655019 0.014371114 1.7499121e-39
0.008209805 -0.11558239 0.018385487 1.4733252e-39
0.01012095 -0.11558239 0.018385487 1.2889339e-39
0.012032093 -0.11558239 0.018385487 1.4733252e-39
0.013943237 -0.11558239 0.018385487 1.7495562e-39
0.015854381 -0.11558239 0.018385487 1.7495562e-39
0.017765526 -0.11558239 0.018385487 1.4729693e-39
0.01967667 -0.11558239 0.018385487 1.1045525e-39
0.021587815 -0.11558239 0.018385487 7.3649725e-40
0.02349896 -0.11558239 0.018385487 2.7623797e-40
0.025410105 -0.11558239 0.018385487 1.8403813e-40
0.027564142 -0.11729507 0.011281328 4.3331946e-39
0.02948774 -0.11729507 0.011281328 6.1771044e-39
0.031411342 -0.11729507 0.011281328 8.1135686e-39
-0.030548949 -0.1245618 -0.010721607 9.9567651e-39
-0.028586771 -0.1245618 -0.010721607 7.3756504e-39
-0.026563831 -0.12357174 -0.0066445302 1.0141491e-39
-0.024570052 -0.12285618 -0.003697915 4.6061521e-40
-0.022574302 -0.12187846 0.00032837875 1.2892941e-39
-0.020631496 -0.12187846 0.00032837875 1.3811282e-39
-0.018664777 -0.12114246 0.0033591557 9.1943116e-40
-0.01670289 -0.12017711 0.0073345471 6.4284847e-40
-0.014772371 -0.12017711 0.0073345471 9.1835496e-40
-0.012831471 -0.11921866 0.011281328 1.1027434e-39
-0.010907871 -0.11921866 0.011281328 8.2651947e-40
-0.0089842686 -0.11921866 0.011281328 6.4356594e-40
-0.0070606684 -0.11921866 0.011281328 1.3814925e-39
-0.0051506115 -0.11846836 0.014371114 1.9346635e-39
-0.0032324288 -0.11846836 0.014371114 2.303446e-39
-0.0013142452 -0.11846836 0.014371114 2.3956416e-39
0.00060393754 -0.11846836 0.014371114 1.6584339e-39
0.0025221212 -0.11846836 0.014371114 1.1974558e-39
0.0044403039 -0.11846836 0.014371114 1.7506296e-39
0.0062986603 -0.11749353 0.018385487 1.6584339e-39
0.008209805 -0.11749353 0.018385487 1.4740427e-39
0.01012095 -0.11749353 0.018385487 1.2896514e-39
0.012032093 -0.11749353 0.018385487 1.381847e-39
0.013943237 -0.11749353 0.018385487 1.4736853e-39
0.015854381 -0.11749353 0.018385487 1.4736853e-39
0.017765526 -0.11749353 0.018385487 1.1971013e-39
0.01967667 -0.11749353 0.018385487 7.3684898e-40
0.021587815 -0.11749353 0.018385487 2.7623797e-40
0.02349896 -0.11749353 0.018385487 1.8440527e-40
0.025540318 -0.11846836 0.014371114 5.5282065e-40
0.027564142 -0.11921866 0.011281328 5.0707596e-39
0.02948774 -0.11921866 0.011281328 6.9143065e-39
-0.030548949 -0.12652399 -0.010721607 1.0602495e-38
-0.028586771 -0.12652399 -0.010721607 7.9288242e-39
-0.026624594 -0.12652399 -0.010721607 9.219563e-40
-0.024608802 -0.12552677 -0.0066445302 1.8439126e-40
-0.02262019 -0.12480606 -0.003697915 9.2159336e-40
-0.020631496 -0.12382124 0.00032837875 1.4736853e-39
-0.018664777 -0.12307997 0.0033591557 1.1967369e-39
-0.01670289 -0.12210761 0.0073345471 1.1038196e-39
-0.014772371 -0.12210761 0.0073345471 1.3804023e-39
-0.012831471 -0.12114228 0.011281328 1.8406616e-39
-0.010905161 -0.12038656 0.014371114 1.9335789e-39
-0.0089869788 -0.12038656 0.014371114 1.6580766e-39
-0.0070606684 -0.12114228 0.011281328 2.3045278e-39
-0.0051506115 -0.12038656 0.014371114 1.9346635e-39
-0.0032324288 -0.12038656 0.014371114 1.4747643e-39
-0.0013142452 -0.12038656 0.014371114 2.6725859e-39
0.00060393754 -0.12038656 0.014371114 2.3045236e-39
0.0025221212 -0.12038656 0.014371114 1.381847e-39
0.0044403039 -0.12038656 0.014371114 1.2907276e-39
0.0062986603 -0.11940466 0.018385487 1.9350208e-39
0.008209805 -0.11940466 0.018385487 1.6591542e-39
0.01012095 -0.11940466 0.018385487 1.6584339e-39
0.012032093 -0.11940466 0.018385487 1.4747629e-39
0.013943237 -0.11940466 0.018385487 1.6580766e-39
0.015854381 -0.11940466 0.018385487 1.3825687e-39
0.017765526 -0.11940466 0.018385487 1.2892969e-39
0.01967667 -0.11940466 0.018385487 9.2124024e-40
0.021587815 -0.11940466 0.018385487 6.4502049e-40
0.023622133 -0.12038656 0.014371114 2.766009e-40
0.025540318 -0.12038656 0.014371114 6.4501628e-40
0.027564142 -0.12114228 0.011281328 5.1629553e-39
0.02948774 -0.12114228 0.011281328 6.8221109e-39
0.031411342 -0.12114228 0.011281328 8.3894352e-39
-0.030548949 -0.12848614 -0.010721607 1.0879084e-38
-0.028586771 -0.12848614 -0.010721607 8.1132182e-39
-0.026624594 -0.12848614 -0.010721607 6.4573235e-40
-0.024608802 -0.1274818 -0.0066445302 1.847542e-40
-0.02262019 -0.12675591 -0.003697915 4.6097815e-40
-0.020631496 -0.12576406 0.00032837875 5.5281084e-40
-0.018664777 -0.12501745 0.0033591557 4.5953621e-40
-0.01670289 -0.12403814 0.0073345471 4.5953621e-40
-0.014772371 -0.12403814 0.0073345471 9.2015002e-40
-0.012831471 -0.12306587 0.011281328 1.3800492e-39
-0.010905161 -0.12230472 0.014371114 1.2889325e-39
-0.0089869788 -0.12230472 0.014371114 1.2903731e-39
-0.0070606684 -0.12306587 0.011281328 1.8439098e-39
-0.0051506115 -0.12230472 0.014371114 1.1981774e-39
-0.0032324288 -0.12230472 0.014371114 7.3791817e-40
-0.0013142452 -0.12230472 0.014371114 2.1201323e-39
0.00060393754 -0.12230472 0.014371114 2.3052397e-39
0.0025221212 -0.12230472 0.014371114 1.3829232e-39
0.0044403039 -0.12230472 0.014371114 1.2914437e-39
0.0063584866 -0.12230472 0.014371114 1.7517058e-39
0.0082766702 -0.12230472 0.014371114 1.5676746e-39
0.01012095 -0.12131582 0.018385487 1.5673145e-39
0.012032093 -0.12131582 0.018385487 1.4754818e-39
0.013943237 -0.12131582 0.018385487 1.4747643e-39
0.015854381 -0.12131582 0.018385487 1.1988963e-39
0.017867588 -0.12230472 0.014371114 1.1059846e-39
0.019785769 -0.12230472 0.014371114 9.219591e-40
0.021703951 -0.12230472 0.014371114 7.3757625e-40
0.023622133 -0.12230472 0.014371114 2.766009e-40
0.025540318 -0.12230472 0.014371114 6.4501628e-40
0.027564142 -0.12306587 0.011281328 5.3473465e-39
0.02948774 -0.12306587 0.011281328 7.0065007e-39
0.031411342 -0.12306587 0.011281328 8.3887121e-39
0.033334941 -0.12306587 0.011281328 9.3099495e-39
-0.030622263 -0.1314363 -0.014703793 1.097128e-38
-0.028586771 -0.13044833 -0.010721607 8.3901653e-39
-0.026563831 -0.12943684 -0.0066445302 1.2911018e-39
-0.024570052 -0.12870578 -0.003697915 8.3012361e-40
-0.022574302 -0.12770687 0.00032837875 6.4573235e-40
-0.020631496 -0.12770687 0.00032837875 3.6878252e-40
-0.018664777 -0.12695493 0.0033591557 2.7622395e-40
-0.01670289 -0.12596865 0.0073345471 3.6841958e-40
-0.014772371 -0.12596865 0.0073345471 8.2831593e-40
-0.012831471 -0.12498946 0.011281328 1.0127072e-39
-0.010907871 -0.12498946 0.011281328 1.1049028e-39
-0.0089842686 -0.12498946 0.011281328 4.6133128e-40
-0.0070606684 -0.12498946 0.011281328 1.2910919e-39
-0.0051506115 -0.12422292 0.014371114 1.3832876e-39
-0.0032324288 -0.12422292 0.014371114 1.1988949e-39
-0.0013142452 -0.12422292 0.014371114 1.3832834e-39
0.00060393754 -0.12422292 0.014371114 1.2914437e-39
0.0025221212 -0.12422292 0.014371114 1.0148568e-39
0.0044403039 -0.12422292 0.014371114 1.199248e-39
0.0063584866 -0.12422292 0.014371114 1.2914437e-39
0.0082766702 -0.12422292 0.014371114 1.2914437e-39
0.01012095 -0.12322696 0.018385487 1.2910877e-39
0.012032093 -0.12322696 0.018385487 1.1988921e-39
0.013943237 -0.12322696 0.018385487 1.1066993e-39
0.015949402 -0.12422292 0.014371114 1.0145051e-39
0.017867588 -0.12422292 0.014371114 9.219535e-40
0.019785769 -0.12422292 0.014371114 8.2976347e-40
0.021703951 -0.12422292 0.014371114 4.6098936e-40
0.023716938 -0.12498946 0.011281328 1.4012985e-44
0.02564054 -0.12498946 0.011281328 7.3721191e-40
0.027564142 -0.12498946 0.011281328 5.9927159e-39
0.02948774 -0.12498946 0.011281328 7.8355411e-39
0.031411342 -0.12498946 0.011281328 8.3887121e-39
0.033054683 -0.12322696 0.018385487 8.7567758e-39
-0.030548949 -0.13241051 -0.010721607 1.0510302e-38
-0.028518859 -0.13139187 -0.0066445302 8.5745565e-39
-0.026563831 -0.13139187 -0.0066445302 2.2130581e-39
-0.024570052 -0.13065563 -0.003697915 1.85836e-40
-0.022574302 -0.12964968 0.00032837875 1.847542e-40
-0.020631496 -0.12964968 0.00032837875 9.2558566e-41
-0.018664777 -0.12889244 0.0033591557 9.219563e-41
-0.016727287 -0.12889244 0.0033591557 9.219563e-41
-0.014772371 -0.12789918 0.0073345471 2.7622395e-40
-0.01284185 -0.12789918 0.0073345471 4.6061521e-40
-0.010907871 -0.12691309 0.011281328 7.371993e-40
-0.0089842686 -0.12691309 0.011281328 1.0145051e-39
-0.0070687952 -0.12614109 0.014371114 8.3047393e-40
-0.0051506115 -0.12614109 0.014371114 1.3836477e-39
-0.0032324288 -0.12614109 0.014371114 1.4762007e-39
-0.0013142452 -0.12614109 0.014371114 7.3863283e-40
0.00060393754 -0.12614109 0.014371114 5.5424157e-40
0.0025221212 -0.12614109 0.014371114 9.2302129e-40
0.0044403039 -0.12614109 0.014371114 1.0155728e-39
0.0063584866 -0.12614109 0.014371114 7.3898876e-40
0.0082766702 -0.12614109 0.014371114 8.3118299e-40
0.010194854 -0.12614109 0.014371114 9.2302129e-40
0.012113036 -0.12614109 0.014371114 9.2302409e-40
0.014031219 -0.12614109 0.014371114 8.3083126e-40
0.015949402 -0.12614109 0.014371114 7.3863563e-40
0.017946139 -0.12691309 0.011281328 7.382783e-40
0.019869741 -0.12691309 0.011281328 7.3828391e-40
0.021793339 -0.12691309 0.011281328 4.6099216e-40
0.023716938 -0.12691309 0.011281328 1.2611686e-44
0.02564054 -0.12691309 0.011281328 6.4501628e-40
0.027564142 -0.12691309 0.011281328 6.1771072e-39
0.029232394 -0.12513812 0.018385487 8.0199324e-39
0.031143539 -0.12513812 0.018385487 8.2965165e-39
0.033054683 -0.12513812 0.018385487 8.2039579e-39
-0.030548949 -0.1343727 -0.010721607 9.403957e-39
-0.028518859 -0.13334687 -0.0066445302 8.1132182e-39
-0.026563831 -0.13334687 -0.0066445302 2.3052537e-39
-0.024570052 -0.13260551 -0.003697915 2.7803163e-40
-0.022574302 -0.13159247 0.00032837875 2.7803163e-40
-0.020631496 -0.13159247 0.00032837875 3.7022446e-40
-0.018664777 -0.13082992 0.0033591557 4.6169702e-40
-0.016727287 -0.13082992 0.0033591557 1.8511013e-40
-0.014789796 -0.13082992 0.0033591557 1.8438846e-40
-0.01284185 -0.12982969 0.0073345471 4.6061521e-40
-0.010907871 -0.12883668 0.011281328 7.371993e-40
-0.0089869788 -0.12805928 0.014371114 1.384005e-39
-0.0070687952 -0.12805928 0.014371114 7.1746481e-43
-0.0051506115 -0.12805928 0.014371114 1.8546465e-40
-0.0032324288 -0.12805928 0.014371114 8.3082566e-40
-0.0013142452 -0.12805928 0.014371114 4.6168861e-40
0.00060393754 -0.12805928 0.014371114 8.3046552e-40
0.0025221212 -0.12805928 0.014371114 1.6602234e-39
0.0044403039 -0.12805928 0.014371114 1.3836365e-39
0.0063584866 -0.12805928 0.014371114 7.3827129e-40
0.0082766702 -0.12805928 0.014371114 8.3046552e-40
0.010194854 -0.12805928 0.014371114 9.2266115e-40
0.012113036 -0.12805928 0.014371114 1.0145009e-39
0.014031219 -0.12805928 0.014371114 9.2230802e-40
0.015949402 -0.12805928 0.014371114 8.3083126e-40
0.017946139 -0.12883668 0.011281328 8.3047393e-40
0.019869741 -0.12883668 0.011281328 9.2267236e-40
0.021793339 -0.12883668 0.011281328 8.3012781e-40
0.023716938 -0.12883668 0.011281328 7.0064923e-45
0.02564054 -0.12883668 0.011281328 4.6098095e-40
0.027564142 -0.12883668 0.011281328 5.992353e-39
0.029232394 -0.12704925 0.018385487 7.6518715e-39
0.031143539 -0.12704925 0.018385487 8.0199324e-39
-0.030548949 -0.13633488 -0.010721607 1.050851e-38
-0.028469782 -0.13455538 -0.003697915 8.9411838e-39
-0.026519917 -0.13455538 -0.003697915 3.3186895e-39
-0.024517108 -0.13353528 0.00032837875 5.6051939e-45
-0.022574302 -0.13353528 0.00032837875 7.2447131e-43
-0.020631496 -0.13353528 0.00032837875 3.7094332e-40
-0.01868869 -0.13353528 0.00032837875 1.7978659e-42
-0.016727287 -0.13276742 0.0033591557 9.2911693e-41
-0.014789796 -0.13276742 0.0033591557 3.5873241e-43
-0.01284185 -0.13176022 0.0073345471 9.1835496e-41
-0.010907871 -0.13076027 0.011281328 1.4751189e-39
-0.0089869788 -0.12997745 0.014371114 1.1077685e-39
-0.0070687952 -0.12997745 0.014371114 5.556765e-40
-0.0051506115 -0.12997745 0.014371114 5.546003e-40
-0.0032324288 -0.12997745 0.014371114 1.014854e-39
-0.0013142452 -0.12997745 0.014371114 1.383275e-39
0.00060393754 -0.12997745 0.014371114 1.383275e-39
0.0025221212 -0.12997745 0.014371114 1.6587843e-39
0.0044403039 -0.12997745 0.014371114 1.8431755e-39
0.0063584866 -0.12997745 0.014371114 1.4736769e-39
0.0082766702 -0.12997745 0.014371114 1.3814813e-39
0.010194854 -0.12997745 0.014371114 1.197453e-39
0.012113036 -0.12997745 0.014371114 1.0130617e-39
0.014031219 -0.12997745 0.014371114 8.2939353e-40
0.016022537 -0.13076027 0.011281328 7.3791676e-40
0.017946139 -0.13076027 0.011281328 8.3011239e-40
0.019977 -0.13176022 0.0073345471 8.301138e-40
0.021793339 -0.13076027 0.011281328 9.219535e-40
0.023716938 -0.13076027 0.011281328 4.6061521e-40
0.02564054 -0.13076027 0.011281328 1.4747671e-39
0.0274585 -0.12997745 0.014371114 6.3611355e-39
0.029376686 -0.12997745 0.014371114 7.0065049e-39
0.031294867 -0.12997745 0.014371114 7.74407e-39
-0.030548949 -0.13829704 -0.010721607 1.0139008e-38
-0.028469782 -0.13650523 -0.003697915 8.8489882e-39
-0.026519917 -0.13650523 -0.003697915 3.6871119e-39
-0.024517108 -0.13547809 0.00032837875 3.6914826e-40
-0.022574302 -0.13547809 0.00032837875 1.0818024e-42
-0.020631496 -0.13547809 0.00032837875 3.7094332e-40
-0.01868869 -0.13547809 0.00032837875 2.1579996e-42
-0.016727287 -0.1347049 0.0033591557 9.3990693e-41
-0.014789796 -0.1347049 0.0033591557 1.8474719e-40
-0.01284185 -0.13369073 0.0073345471 9.1835496e-41
-0.010907871 -0.13268389 0.011281328 1.5673117e-39
-0.0089842686 -0.13268389 0.011281328 1.1077671e-39
-0.0070687952 -0.13189565 0.014371114 8.3225918e-40
-0.0051506115 -0.13189565 0.014371114 1.1999599e-39
-0.0032324288 -0.13189565 0.014371114 1.4761867e-39
-0.0013142452 -0.13189565 0.014371114 1.5676634e-39
0.00060393754 -0.13189565 0.014371114 1.5665872e-39
0.0025221212 -0.13189565 0.014371114 1.8424566e-39
0.0044403039 -0.13189565 0.014371114 2.3034348e-39
0.0063584866 -0.13189565 0.014371114 1.8413805e-39
0.0082766702 -0.13189565 0.014371114 1.4736769e-39
0.010194854 -0.13189565 0.014371114 1.3811254e-39
0.012113036 -0.13189565 0.014371114 1.1052573e-39
0.014098938 -0.13268389 0.011281328 8.2939353e-40
0.016022537 -0.13268389 0.011281328 8.2939353e-40
0.01804648 -0.13369073 0.0073345471 7.3791676e-40
0.019977 -0.13369073 0.0073345471 7.3791676e-40
0.02190752 -0.13369073 0.0073345471 9.2158916e-40
0.023716938 -0.13268389 0.011281328 7.371979e-40
0.02564054 -0.13268389 0.011281328 2.1201337e-39
0.0274585 -0.13189565 0.014371114 7.283089e-39
0.029232394 -0.13087155 0.018385487 7.9281053e-39
0.031143539 -0.13087155 0.018385487 8.5734747e-39
-0.030548949 -0.14025922 -0.010721607 1.0047168e-38
-0.028469782 -0.13845511 -0.003697915 9.0333795e-39
-0.026519917 -0.13845511 -0.003697915 4.3324813e-39
-0.024570052 -0.13845511 -0.003697915 1.1067133e-39
-0.02262019 -0.13845511 -0.003697915 1.0818024e-42
-0.020631496 -0.13742088 0.00032837875 2.7874769e-40
-0.01868869 -0.13742088 0.00032837875 1.8654926e-40
-0.016727287 -0.13664238 0.0033591557 3.7057758e-40
-0.014789796 -0.13664238 0.0033591557 6.4572254e-40
-0.01284185 -0.13562126 0.0073345471 4.5953621e-40
-0.010907871 -0.13460748 0.011281328 1.4751189e-39
-0.0089842686 -0.13460748 0.011281328 9.2337722e-40
-0.0070687952 -0.13381381 0.014371114 9.2445481e-40
-0.0051506115 -0.13381381 0.014371114 1.5687452e-39
-0.0032324288 -0.13381381 0.014371114 1.8446132e-39
-0.0013142452 -0.13381381 0.014371114 1.5676662e-39
0.00060393754 -0.13381381 0.014371114 1.1985264e-39
0.0025221212 -0.13381381 0.014371114 1.6587843e-39
0.0044403039 -0.13381381 0.014371114 2.2116021e-39
0.0063584866 -0.13381381 0.014371114 1.6577123e-39
0.0083281351 -0.13460748 0.011281328 1.6577123e-39
0.010194854 -0.13381381 0.014371114 1.4733238e-39
0.012113036 -0.13381381 0.014371114 1.1974558e-39
0.014098938 -0.13460748 0.011281328 9.2159056e-40
0.016022537 -0.13460748 0.011281328 8.2939493e-40
0.01804648 -0.13562126 0.0073345471 7.3791817e-40
0.019977 -0.13562126 0.0073345471 7.3791817e-40
0.02190752 -0.13562126 0.0073345471 7.371979e-40
0.023716938 -0.13460748 0.011281328 6.4500227e-40
0.02564054 -0.13460748 0.011281328 2.304525e-39
0.0274585 -0.13381381 0.014371114 7.6518715e-39
0.029232394 -0.13278268 0.018385487 8.2968878e-39
0.031143539 -0.13278268 0.018385487 8.8500616e-39
-0.030473892 -0.141167 -0.0066445302 9.8627772e-39
-0.028469782 -0.14040495 -0.003697915 9.2177707e-39
-0.026519917 -0.14040495 -0.003697915 4.8856551e-39
-0.024570052 -0.14040495 -0.003697915 1.8442783e-39
-0.02262019 -0.14040495 -0.003697915 1.084605e-42
-0.020631496 -0.13936369 0.00032837875 9.4356432e-41
-0.01868869 -0.13936369 0.00032837875 3.7022165e-40
-0.016727287 -0.13857989 0.0033591557 5.5389265e-40
-0.014789796 -0.13857989 0.0033591557 8.2975787e-40
-0.01284185 -0.1375518 0.0073345471 6.4392747e-40
-0.01091133 -0.1375518 0.0073345471 1.198176e-39
-0.0089842686 -0.13653107 0.011281328 7.3863003e-40
-0.0070606684 -0.13653107 0.011281328 6.4822946e-40
-0.0051506115 -0.13573201 0.014371114 1.1084887e-39
-0.0032324288 -0.13573201 0.014371114 1.5687466e-39
-0.0013142452 -0.13573201 0.014371114 1.3836365e-39
0.00060393754 -0.13573201 0.014371114 1.1063335e-39
0.0025221212 -0.13573201 0.014371114 1.1063335e-39
0.0044403039 -0.13573201 0.014371114 1.6584311e-39
0.0063584866 -0.13573201 0.014371114 1.4740399e-39
0.0082766702 -0.13573201 0.014371114 1.4740427e-39
0.010194854 -0.13573201 0.014371114 1.381847e-39
0.012113036 -0.13573201 0.014371114 1.1059818e-39
0.014185437 -0.1375518 0.0073345471 1.0137862e-39
0.016022537 -0.13653107 0.011281328 8.301138e-40
0.017946139 -0.13653107 0.011281328 8.2975787e-40
0.019977 -0.1375518 0.0073345471 8.301138e-40
0.02190752 -0.1375518 0.0073345471 7.371993e-40
0.023838039 -0.1375518 0.0073345471 3.6841818e-40
0.025768559 -0.1375518 0.0073345471 1.8435469e-39
0.027564142 -0.13653107 0.011281328 7.2830918e-39
0.029017936 -0.13315077 0.024352031 8.0203009e-39
0.030506153 -0.13032107 0.035293773 8.3890835e-39
0.032387652 -0.13032107 0.035293773 8.941181e-39
-0.030473892 -0.14312203 -0.0066445302 9.7705788e-39
-0.028469782 -0.14235483 -0.003697915 9.4943548e-39
-0.026519917 -0.14235483 -0.003697915 5.5310217e-39
